# XYZ point cloud file
-0.39874267578125 -0.24786376953125 -0.026300430297851562
-0.3992767333984375 -0.24078369140625 -0.026897430419921875
-0.4063262939453125 -0.23876953125 -0.038860321044921875
-0.40457916259765625 -0.246826171875 -0.03610992431640625
-0.40152740478515625 -0.25054931640625 -0.030551910400390625
-0.3960418701171875 -0.24395751953125 -0.020648956298828125
-0.404144287109375 -0.2354736328125 -0.033916473388671875
-0.40961456298828125 -0.2432861328125 -0.042585372924804688
0.1902008056640625 0.0856781005859375 0.075313568115234375
0.1895751953125 0.086334228515625 0.07962799072265625
0.19335174560546875 0.0847625732421875 0.076145172119140625
0.19147491455078125 0.0860595703125 0.071802139282226562
0.187957763671875 0.0890350341796875 0.074863433837890625
0.18700408935546875 0.087982177734375 0.079465866088867188
0.1922607421875 0.0838775634765625 0.079725265502929688
0.19474029541015625 0.084381103515625 0.072414398193359375
0.18953704833984375 0.0896759033203125 0.071691513061523438
-0.4027252197265625 -0.2606201171875 -0.017377853393554688
-0.40741729736328125 -0.2655029296875 -0.016040802001953125
-0.40071868896484375 -0.258056640625 -0.011884689331054688
-0.3990020751953125 -0.2558135986328125 -0.01883697509765625
-0.40525054931640625 -0.262237548828125 -0.022554397583007812
-0.41024017333984375 -0.268157958984375 -0.020954132080078125
-0.40549468994140625 -0.263214111328125 -0.011554718017578125
-0.39703369140625 -0.2525634765625 -0.013200759887695312
-0.40187835693359375 -0.258087158203125 -0.02362823486328125
0.1991729736328125 0.0721893310546875 0.078886032104492188
0.19757080078125 0.073577880859375 0.082567214965820312
0.19863128662109375 0.0656890869140625 0.079793930053710938
0.2005767822265625 0.0725860595703125 0.075426101684570312
0.1985626220703125 0.07855224609375 0.077821731567382812
0.1970367431640625 0.078857421875 0.081050872802734375
0.19689178466796875 0.0667266845703125 0.083784103393554688
0.2002410888671875 0.0646820068359375 0.075838088989257812
0.19998931884765625 0.07843017578125 0.074480056762695312
-0.4200897216796875 -0.285003662109375 -0.007091522216796875
-0.42234039306640625 -0.2912750244140625 -0.0026874542236328125
-0.41623687744140625 -0.2799835205078125 -0.002735137939453125
-0.41669464111328125 -0.2784576416015625 -0.0111541748046875
-0.423492431640625 -0.2877655029296875 -0.011837005615234375
-0.42594146728515625 -0.293304443359375 -0.0074481964111328125
-0.41860198974609375 -0.286346435546875 0.0021762847900390625
-0.4137725830078125 -0.2747802734375 -0.0067348480224609375
-0.41944122314453125 -0.2801666259765625 -0.015659332275390625
0.1917266845703125 0.0453948974609375 0.081098556518554688
0.19005584716796875 0.04608154296875 0.086032867431640625
0.18984222412109375 0.040924072265625 0.082401275634765625
0.19318389892578125 0.0456695556640625 0.077785491943359375
0.19426727294921875 0.051116943359375 0.08045196533203125
0.1928253173828125 0.052276611328125 0.085033416748046875
0.1884307861328125 0.0428466796875 0.087247848510742188
0.19118499755859375 0.041595458984375 0.079143524169921875
0.19609832763671875 0.0518035888671875 0.0769195556640625
-0.4220428466796875 -0.302520751953125 0.009342193603515625
-0.42102813720703125 -0.303955078125 0.013017654418945312
-0.41796875 -0.2976226806640625 0.01479339599609375
-0.423065185546875 -0.29925537109375 0.0059070587158203125
-0.42519378662109375 -0.304595947265625 0.0050811767578125
-0.4242095947265625 -0.3060150146484375 0.0088787078857421875
-0.41748809814453125 -0.2999420166015625 0.018558502197265625
-0.41901397705078125 -0.295196533203125 0.011064529418945312
-0.4263153076171875 -0.30218505859375 0.0009708404541015625
0.19876861572265625 0.044769287109375 0.092372894287109375
0.19806671142578125 0.04595947265625 0.097944259643554688
0.20667266845703125 0.049530029296875 0.094701766967773438
0.1996002197265625 0.0455169677734375 0.087779998779296875
0.19324493408203125 0.041473388671875 0.08847808837890625
0.19226837158203125 0.0414886474609375 0.093975067138671875
0.20627593994140625 0.0506744384765625 0.10023880004882812
0.20720672607421875 0.04998779296875 0.089628219604492188
0.193878173828125 0.041778564453125 0.084905624389648438
-0.4280242919921875 -0.307586669921875 0.024669647216796875
-0.43524932861328125 -0.3109893798828125 0.025094985961914062
-0.4247894287109375 -0.305877685546875 0.031209945678710938
-0.42351531982421875 -0.30596923828125 0.0213470458984375
-0.43025970458984375 -0.3094940185546875 0.018270492553710938
-0.43743133544921875 -0.313140869140625 0.017904281616210938
-0.43233489990234375 -0.3085479736328125 0.032125473022460938
-0.42047119140625 -0.3021087646484375 0.027774810791015625
-0.42586517333984375 -0.3080291748046875 0.01618194580078125
0.291595458984375 0.2479400634765625 0.06522369384765625
0.2916107177734375 0.254150390625 0.070199966430664062
0.28308868408203125 0.240631103515625 0.06915283203125
0.29236602783203125 0.2440185546875 0.061353683471679688
0.300750732421875 0.2561187744140625 0.061187744140625
0.30110931396484375 0.2620086669921875 0.065923690795898438
0.28296661376953125 0.2469329833984375 0.074289321899414062
0.28334808349609375 0.235748291015625 0.065061569213867188
0.3011474609375 0.2509765625 0.05718994140625
-0.4609222412109375 -0.2242431640625 -0.13054466247558594
-0.453521728515625 -0.22064208984375 -0.11861038208007812
-0.458404541015625 -0.2179718017578125 -0.12660789489746094
-0.46991729736328125 -0.228912353515625 -0.14217758178710938
-0.46408843994140625 -0.2305145263671875 -0.13288688659667969
-0.45687103271484375 -0.2264251708984375 -0.12157249450683594
-0.4507904052734375 -0.2142333984375 -0.11483383178710938
-0.46697998046875 -0.2234954833984375 -0.13879966735839844
-0.47278594970703125 -0.2366943359375 -0.14489555358886719
0.33510589599609375 0.276763916015625 0.049692153930664062
0.3353729248046875 0.2830657958984375 0.054140090942382812
0.323272705078125 0.27093505859375 0.05310821533203125
0.33455657958984375 0.272979736328125 0.046518325805664062
0.3462677001953125 0.2811737060546875 0.046731948852539062
0.34705352783203125 0.2863006591796875 0.051290512084960938
0.323516845703125 0.2760162353515625 0.057699203491210938
0.32286834716796875 0.2660369873046875 0.049718856811523438
0.3451690673828125 0.2763824462890625 0.04389190673828125
-0.504791259765625 -0.2549896240234375 -0.17877578735351562
-0.49217987060546875 -0.245025634765625 -0.1671600341796875
-0.502960205078125 -0.2494049072265625 -0.17623138427734375
-0.5181427001953125 -0.2671966552734375 -0.18735122680664062
-0.50656890869140625 -0.25958251953125 -0.17992591857910156
-0.494415283203125 -0.250823974609375 -0.16913604736328125
-0.48947906494140625 -0.238616943359375 -0.16451644897460938
-0.51599884033203125 -0.2610931396484375 -0.185516357421875
-0.51910400390625 -0.2704315185546875 -0.1878814697265625
0.3656158447265625 0.2667083740234375 0.042451858520507812
0.3667144775390625 0.2714691162109375 0.046146392822265625
0.3622589111328125 0.2758026123046875 0.043375015258789062
0.363555908203125 0.2615966796875 0.040327072143554688
0.3657379150390625 0.2530670166015625 0.0416259765625
0.36699676513671875 0.2572174072265625 0.045564651489257812
0.3631591796875 0.2821197509765625 0.04747772216796875
0.36058807373046875 0.27069091796875 0.041040420532226562
0.36414337158203125 0.248046875 0.039716720581054688
-0.55142974853515625 -0.30706787109375 -0.18778038024902344
-0.54154205322265625 -0.292572021484375 -0.19217872619628906
-0.54961395263671875 -0.3036346435546875 -0.18633270263671875
-0.5591888427734375 -0.3208160400390625 -0.1800079345703125
-0.55121612548828125 -0.3102569580078125 -0.18755722045898438
-0.54205322265625 -0.295166015625 -0.19202423095703125
-0.54022979736328125 -0.288055419921875 -0.19075584411621094
-0.55764007568359375 -0.31671142578125 -0.17804718017578125
-0.55859375 -0.322906494140625 -0.17985725402832031
0.34838104248046875 0.1904449462890625 0.037967681884765625
0.34874725341796875 0.193267822265625 0.041263580322265625
0.3565673828125 0.2137451171875 0.039522171020507812
0.34673309326171875 0.1894073486328125 0.036014556884765625
0.33718109130859375 0.1671142578125 0.0373687744140625
0.33722686767578125 0.168853759765625 0.04048919677734375
0.3572845458984375 0.2169952392578125 0.042570114135742188
0.35538482666015625 0.210906982421875 0.037084579467773438
0.33541107177734375 0.1669921875 0.035480499267578125
-0.56835174560546875 -0.359375 -0.14142990112304688
-0.5679473876953125 -0.348663330078125 -0.15624809265136719
-0.56723785400390625 -0.35723876953125 -0.13858413696289062
-0.56546783447265625 -0.36871337890625 -0.12552833557128906
-0.56708526611328125 -0.35955810546875 -0.14274978637695312
-0.5672454833984375 -0.3493499755859375 -0.15703010559082031
-0.56683349609375 -0.3454742431640625 -0.15359306335449219
-0.56432342529296875 -0.3669586181640625 -0.12225723266601562
-0.564605712890625 -0.3686981201171875 -0.12754249572753906
0.2940826416015625 0.104400634765625 0.043226242065429688
0.29430389404296875 0.104949951171875 0.047149658203125
0.309600830078125 0.1226806640625 0.039531707763671875
0.29352569580078125 0.105438232421875 0.040700912475585938
0.27841949462890625 0.0893096923828125 0.049165725708007812
0.27889251708984375 0.0896148681640625 0.053556442260742188
0.3097381591796875 0.1232757568359375 0.043169021606445312
0.30825042724609375 0.12396240234375 0.0375213623046875
0.27793121337890625 0.0904998779296875 0.046230316162109375
-0.53809356689453125 -0.3759002685546875 -0.074323654174804688
-0.55048370361328125 -0.3774871826171875 -0.091892242431640625
-0.536895751953125 -0.3747100830078125 -0.069488525390625
-0.52362060546875 -0.371124267578125 -0.056833267211914062
-0.53762054443359375 -0.37506103515625 -0.078456878662109375
-0.54938507080078125 -0.3768157958984375 -0.095094680786132812
-0.54907989501953125 -0.37640380859375 -0.087575912475585938
-0.52243804931640625 -0.3685455322265625 -0.0512237548828125
-0.52399444580078125 -0.3704071044921875 -0.061803817749023438
0.23754119873046875 0.0631103515625 0.077999114990234375
0.2376708984375 0.0617828369140625 0.083257675170898438
0.2499542236328125 0.0679779052734375 0.06725311279296875
0.23790740966796875 0.0631103515625 0.073305130004882812
0.2260894775390625 0.05865478515625 0.087217330932617188
0.226165771484375 0.0584259033203125 0.0927734375
0.25006866455078125 0.0689697265625 0.072353363037109375
0.25034332275390625 0.0694732666015625 0.063257217407226562
0.22687530517578125 0.0589752197265625 0.08249664306640625
-0.4744873046875 -0.3387603759765625 -0.0028591156005859375
-0.49124908447265625 -0.35101318359375 -0.020153045654296875
-0.4720916748046875 -0.337066650390625 0.004268646240234375
-0.45838165283203125 -0.32757568359375 0.011388778686523438
-0.47551727294921875 -0.340484619140625 -0.0099010467529296875
-0.49190521240234375 -0.3514556884765625 -0.026376724243164062
-0.48931121826171875 -0.3491058349609375 -0.013347625732421875
-0.45598602294921875 -0.324554443359375 0.01876068115234375
-0.4597015380859375 -0.3282318115234375 0.0044231414794921875
0.215087890625 0.0853729248046875 0.0693206787109375
0.208282470703125 0.078521728515625 0.070556640625
0.21506500244140625 0.0777587890625 0.070333480834960938
0.2226104736328125 0.0936431884765625 0.068340301513671875
0.2135162353515625 0.0905609130859375 0.068849563598632812
0.20749664306640625 0.084808349609375 0.069746017456054688
0.2086029052734375 0.07183837890625 0.071319580078125
0.22270965576171875 0.086944580078125 0.069356918334960938
0.22089385986328125 0.09906005859375 0.06793212890625
-0.43733978271484375 -0.2924957275390625 -0.027212142944335938
-0.440185546875 -0.2989959716796875 -0.022531509399414062
-0.431488037109375 -0.292816162109375 -0.02165985107421875
-0.4331207275390625 -0.2859649658203125 -0.030725479125976562
-0.44329833984375 -0.292999267578125 -0.033063888549804688
-0.44638824462890625 -0.300384521484375 -0.028497695922851562
-0.43438720703125 -0.298004150390625 -0.017324447631835938
-0.42792510986328125 -0.284942626953125 -0.0254364013671875
-0.43885040283203125 -0.2860107421875 -0.036342620849609375
0.246734619140625 0.12451171875 0.064664840698242188
0.23892974853515625 0.1137542724609375 0.06581878662109375
0.24744415283203125 0.117919921875 0.064538955688476562
0.25449371337890625 0.1360015869140625 0.06317138671875
0.2447052001953125 0.13031005859375 0.064968109130859375
0.23708343505859375 0.1195831298828125 0.066280364990234375
0.23946380615234375 0.1070556640625 0.066631317138671875
0.25586700439453125 0.1275482177734375 0.0624237060546875
0.25275421142578125 0.1417694091796875 0.063678741455078125
-0.46097564697265625 -0.2927703857421875 -0.05597686767578125
-0.46556854248046875 -0.30078125 -0.052490234375
-0.45507049560546875 -0.2935333251953125 -0.047559738159179688
-0.45558929443359375 -0.2843475341796875 -0.058635711669921875
-0.46649932861328125 -0.2921295166015625 -0.064947128295898438
-0.471649169921875 -0.300872802734375 -0.061967849731445312
-0.45964813232421875 -0.3002166748046875 -0.043710708618164062
-0.450439453125 -0.2854156494140625 -0.05072021484375
-0.4606475830078125 -0.2834625244140625 -0.067127227783203125
0.27721405029296875 0.168792724609375 0.059247970581054688
0.2697906494140625 0.1582489013671875 0.06009674072265625
0.27950286865234375 0.1615753173828125 0.057830810546875
0.28430938720703125 0.179107666015625 0.058521270751953125
0.2751312255859375 0.1747894287109375 0.060159683227539062
0.26751708984375 0.1641082763671875 0.061117172241210938
0.2719573974609375 0.150360107421875 0.059017181396484375
0.28713226318359375 0.1722564697265625 0.05702972412109375
0.28199005126953125 0.185577392578125 0.059230804443359375
-0.4814605712890625 -0.287933349609375 -0.091243743896484375
-0.4878692626953125 -0.2978668212890625 -0.089412689208984375
-0.47644805908203125 -0.289215087890625 -0.08294677734375
-0.47522735595703125 -0.2781829833984375 -0.093099594116210938
-0.48548126220703125 -0.285552978515625 -0.099590301513671875
-0.49292755126953125 -0.296783447265625 -0.097843170166015625
-0.48291015625 -0.2996063232421875 -0.0805206298828125
-0.47064971923828125 -0.280364990234375 -0.0849609375
-0.47962188720703125 -0.2769775390625 -0.10102081298828125
0.306243896484375 0.2071990966796875 0.057590484619140625
0.2989044189453125 0.19842529296875 0.057729721069335938
0.30915069580078125 0.2020111083984375 0.0562286376953125
0.31432342529296875 0.2152099609375 0.056520462036132812
0.3043365478515625 0.2133941650390625 0.057708740234375
0.29634857177734375 0.2045745849609375 0.058338165283203125
0.3016815185546875 0.193084716796875 0.05651092529296875
0.31615447998046875 0.209747314453125 0.0551910400390625
0.312408447265625 0.2217254638671875 0.056367874145507812
-0.5008087158203125 -0.28668212890625 -0.12036705017089844
-0.5075225830078125 -0.2954864501953125 -0.11883544921875
-0.49524688720703125 -0.2848968505859375 -0.11344528198242188
-0.49520111083984375 -0.277740478515625 -0.12321853637695312
-0.50695037841796875 -0.2882537841796875 -0.12824821472167969
-0.513153076171875 -0.29620361328125 -0.12630653381347656
-0.50231170654296875 -0.295989990234375 -0.112060546875
-0.48979949951171875 -0.27630615234375 -0.11604881286621094
-0.5020904541015625 -0.2796630859375 -0.13139724731445312
0.29749298095703125 0.229583740234375 0.0567169189453125
0.29492950439453125 0.234832763671875 0.056856155395507812
0.28926849365234375 0.221282958984375 0.058786392211914062
0.300079345703125 0.2248077392578125 0.056957244873046875
0.30562591552734375 0.237091064453125 0.054056167602539062
0.3037109375 0.24200439453125 0.053968429565429688
0.28679656982421875 0.2269287109375 0.059770584106445312
0.29180908203125 0.2160491943359375 0.05852508544921875
0.30788421630859375 0.233123779296875 0.055215835571289062
-0.47852325439453125 -0.25244140625 -0.13246345520019531
-0.47144317626953125 -0.2500457763671875 -0.12324714660644531
-0.47295379638671875 -0.244659423828125 -0.13420486450195312
-0.4854583740234375 -0.2568817138671875 -0.14230728149414062
-0.48412322998046875 -0.2613677978515625 -0.12988662719726562
-0.47791290283203125 -0.2592010498046875 -0.12143707275390625
-0.46552276611328125 -0.2413482666015625 -0.1239013671875
-0.4805450439453125 -0.248809814453125 -0.14488601684570312
-0.491119384765625 -0.2635040283203125 -0.13922500610351562
0.266448974609375 0.1926422119140625 0.063714981079101562
0.25910186767578125 0.18182373046875 0.064510345458984375
0.2695770263671875 0.1865081787109375 0.061990737915039062
0.2740325927734375 0.2029266357421875 0.062107086181640625
0.2633209228515625 0.1984100341796875 0.0655670166015625
0.25626373291015625 0.1876220703125 0.066865921020507812
0.2619476318359375 0.1754150390625 0.063076019287109375
0.27675628662109375 0.19659423828125 0.061021804809570312
0.27130126953125 0.2082061767578125 0.06388092041015625
-0.454833984375 -0.2496337890625 -0.096212387084960938
-0.462310791015625 -0.25885009765625 -0.095729827880859375
-0.4505767822265625 -0.2516021728515625 -0.088136672973632812
-0.44842529296875 -0.239471435546875 -0.096044540405273438
-0.46014404296875 -0.248626708984375 -0.10527420043945312
-0.46727752685546875 -0.25909423828125 -0.10427284240722656
-0.45774078369140625 -0.2605438232421875 -0.0872955322265625
-0.44394683837890625 -0.2407989501953125 -0.087743759155273438
-0.45379638671875 -0.239898681640625 -0.1049346923828125
0.23673248291015625 0.1476287841796875 0.06678009033203125
0.23444366455078125 0.1540069580078125 0.0680694580078125
0.22914886474609375 0.136871337890625 0.067049026489257812
0.2396087646484375 0.1418914794921875 0.065855026245117188
0.2442779541015625 0.159820556640625 0.066165924072265625
0.2418670654296875 0.16571044921875 0.067905426025390625
0.22662353515625 0.1420135498046875 0.068159103393554688
0.23166656494140625 0.130859375 0.066610336303710938
0.24716949462890625 0.1536865234375 0.065237045288085938
-0.4366302490234375 -0.256683349609375 -0.06435394287109375
-0.43231201171875 -0.25823974609375 -0.057260513305664062
-0.4306488037109375 -0.2472991943359375 -0.065494537353515625
-0.44116973876953125 -0.2545928955078125 -0.072221755981445312
-0.4434967041015625 -0.2651824951171875 -0.062915802001953125
-0.4384002685546875 -0.2672119140625 -0.055215835571289062
-0.426544189453125 -0.2501678466796875 -0.058324813842773438
-0.4350128173828125 -0.2445831298828125 -0.07251739501953125
-0.44809722900390625 -0.26409912109375 -0.070772171020507812
0.2056884765625 0.102752685546875 0.067342758178710938
0.2087554931640625 0.0997161865234375 0.06771087646484375
0.2129974365234375 0.1136474609375 0.067226409912109375
0.20314788818359375 0.1062469482421875 0.067369461059570312
0.199493408203125 0.095123291015625 0.068048477172851562
0.2024078369140625 0.0910491943359375 0.068532943725585938
0.21611785888671875 0.1094818115234375 0.067081451416015625
0.21050262451171875 0.1169891357421875 0.067533493041992188
0.19707489013671875 0.0980377197265625 0.067958831787109375
-0.4170379638671875 -0.26385498046875 -0.038021087646484375
-0.42221832275390625 -0.2623443603515625 -0.043817520141601562
-0.4224090576171875 -0.2711334228515625 -0.036197662353515625
-0.41237640380859375 -0.2637176513671875 -0.032217025756835938
-0.4122314453125 -0.256683349609375 -0.038690567016601562
-0.41681671142578125 -0.2555694580078125 -0.045091629028320312
-0.42792510986328125 -0.2703857421875 -0.042055130004882812
-0.4175872802734375 -0.270751953125 -0.030839920043945312
-0.4085540771484375 -0.2586822509765625 -0.03308868408203125
0.2075653076171875 0.0575408935546875 0.076442718505859375
0.2037811279296875 0.050537109375 0.079954147338867188
0.215240478515625 0.06390380859375 0.076570510864257812
0.21065521240234375 0.0639190673828125 0.073650360107421875
0.2010040283203125 0.0511016845703125 0.075878143310546875
0.19788360595703125 0.046051025390625 0.078521728515625
0.21186065673828125 0.0568695068359375 0.080661773681640625
0.21905517578125 0.072052001953125 0.073436737060546875
0.20403289794921875 0.0578765869140625 0.074031829833984375
-0.4377899169921875 -0.3095550537109375 -0.0033588409423828125
-0.44557952880859375 -0.3119659423828125 -0.006504058837890625
-0.4352874755859375 -0.3107147216796875 0.004596710205078125
-0.432830810546875 -0.3087158203125 -0.0006961822509765625
-0.4402923583984375 -0.3076934814453125 -0.010501861572265625
-0.44736480712890625 -0.309814453125 -0.014776229858398438
-0.44213104248046875 -0.313507080078125 0.002490997314453125
-0.4307708740234375 -0.309844970703125 0.00518035888671875
-0.43442535400390625 -0.306915283203125 -0.0067234039306640625
0.24362945556640625 0.08660888671875 0.065526962280273438
0.2536773681640625 0.0947723388671875 0.05963897705078125
0.245819091796875 0.0986480712890625 0.0648193359375
0.23384857177734375 0.0794830322265625 0.071239471435546875
0.240875244140625 0.076202392578125 0.0674591064453125
0.25196075439453125 0.0831298828125 0.059045791625976562
0.25522613525390625 0.1074066162109375 0.060354232788085938
0.23705291748046875 0.0904388427734375 0.069217681884765625
0.23062896728515625 0.0700531005859375 0.074443817138671875
-0.4747314453125 -0.3262786865234375 -0.033243179321289062
-0.47258758544921875 -0.3189239501953125 -0.041067123413085938
-0.48565673828125 -0.3322601318359375 -0.046258926391601562
-0.47551727294921875 -0.333740234375 -0.024881362915039062
-0.46344757080078125 -0.32080078125 -0.021459579467773438
-0.463531494140625 -0.31427001953125 -0.030164718627929688
-0.4814453125 -0.322052001953125 -0.05240631103515625
-0.48920440673828125 -0.34246826171875 -0.039358139038085938
-0.46283721923828125 -0.3253936767578125 -0.0122833251953125
0.28734588623046875 0.129608154296875 0.046461105346679688
0.298828125 0.1437835693359375 0.044460296630859375
0.28459930419921875 0.1421661376953125 0.050867080688476562
0.27562713623046875 0.115631103515625 0.049358367919921875
0.2902679443359375 0.1181488037109375 0.042644500732421875
0.30326080322265625 0.134368896484375 0.040193557739257812
0.29437255859375 0.1545562744140625 0.0495758056640625
0.27440643310546875 0.128814697265625 0.053049087524414062
0.27687835693359375 0.10357666015625 0.046529769897460938
-0.51712799072265625 -0.343475341796875 -0.085260391235351562
-0.50658416748046875 -0.3270721435546875 -0.086740493774414062
-0.52557373046875 -0.343658447265625 -0.097492218017578125
-0.527191162109375 -0.3583221435546875 -0.083715438842773438
-0.507354736328125 -0.341400146484375 -0.07260894775390625
-0.498626708984375 -0.3267364501953125 -0.075702667236328125
-0.51320648193359375 -0.3254547119140625 -0.097074508666992188
-0.53725433349609375 -0.35888671875 -0.097669601440429688
-0.51528167724609375 -0.354888916015625 -0.0695648193359375
0.32848358154296875 0.190032958984375 0.044048309326171875
0.335845947265625 0.205841064453125 0.044666290283203125
0.32044219970703125 0.1932830810546875 0.0493316650390625
0.31988525390625 0.174560546875 0.043828964233398438
0.3366851806640625 0.1889495849609375 0.039388656616210938
0.34404754638671875 0.2066497802734375 0.04029083251953125
0.32689666748046875 0.2050018310546875 0.049055099487304688
0.312591552734375 0.180938720703125 0.049037933349609375
0.3271026611328125 0.170501708984375 0.038953781127929688
-0.54128265380859375 -0.33416748046875 -0.13067817687988281
-0.52843475341796875 -0.31982421875 -0.12460517883300781
-0.54302215576171875 -0.3280792236328125 -0.14052391052246094
-0.55364227294921875 -0.346832275390625 -0.13710403442382812
-0.537841796875 -0.339111328125 -0.12028694152832031
-0.52449798583984375 -0.3224029541015625 -0.11603546142578125
-0.53122711181640625 -0.316864013671875 -0.13321685791015625
-0.5542449951171875 -0.33935546875 -0.14868736267089844
-0.550506591796875 -0.353118896484375 -0.12449264526367188
0.3427581787109375 0.2415008544921875 0.04619598388671875
0.341064453125 0.2493896484375 0.046323776245117188
0.33282470703125 0.23284912109375 0.050542831420898438
0.34261322021484375 0.231170654296875 0.045793533325195312
0.3526458740234375 0.2491302490234375 0.042194366455078125
0.34972381591796875 0.2577972412109375 0.042730331420898438
0.33100128173828125 0.2396087646484375 0.050596237182617188
0.332977294921875 0.2247467041015625 0.049802780151367188
0.35260772705078125 0.237823486328125 0.041925430297851562
-0.53354644775390625 -0.3013763427734375 -0.162994384765625
-0.52393341064453125 -0.296234130859375 -0.14983940124511719
-0.52725982666015625 -0.2923431396484375 -0.16749954223632812
-0.5425872802734375 -0.306243896484375 -0.1749725341796875
-0.5388336181640625 -0.3115081787109375 -0.15684318542480469
-0.52907562255859375 -0.304931640625 -0.14577102661132812
-0.51856231689453125 -0.2873687744140625 -0.15431976318359375
-0.53470611572265625 -0.29473876953125 -0.17919731140136719
-0.5482635498046875 -0.31787109375 -0.16804885864257812
0.32996368408203125 0.257965087890625 0.046789169311523438
0.32321929931640625 0.2524566650390625 0.048631668090820312
0.33377838134765625 0.2581634521484375 0.046365737915039062
0.33203887939453125 0.263519287109375 0.045278549194335938
0.3227081298828125 0.257232666015625 0.047803878784179688
0.32550811767578125 0.249908447265625 0.049560546875
0.3391876220703125 0.2650604248046875 0.04380035400390625
-0.50753021240234375 -0.2679443359375 -0.17032051086425781
-0.5134429931640625 -0.2738494873046875 -0.17107582092285156
-0.50154876708984375 -0.2642364501953125 -0.16285514831542969
-0.507781982421875 -0.265960693359375 -0.17530250549316406
-0.5170745849609375 -0.2742919921875 -0.18011856079101562
-0.5064544677734375 -0.270751953125 -0.16037559509277344
-0.498443603515625 -0.2592315673828125 -0.16655731201171875
0.20478057861328125 -0.002410888671875 0.076623916625976562
0.2072906494140625 0.00177001953125 0.090671539306640625
0.18553924560546875 -0.0103759765625 0.0880584716796875
0.2055816650390625 0.0057220458984375 0.062238693237304688
0.2259368896484375 0.0108184814453125 0.06412506103515625
0.227874755859375 0.013092041015625 0.077447891235351562
0.188140869140625 -0.0072784423828125 0.10272216796875
0.1864776611328125 -0.00274658203125 0.072137832641601562
0.22669219970703125 0.018157958984375 0.05092620849609375
-0.46112823486328125 -0.366424560546875 0.029582977294921875
-0.436309814453125 -0.347625732421875 0.046329498291015625
-0.45705413818359375 -0.3591461181640625 0.046327590942382812
-0.48752593994140625 -0.3820648193359375 0.0080718994140625
-0.4642333984375 -0.3638458251953125 0.00604248046875
-0.4395294189453125 -0.3471527099609375 0.021841049194335938
-0.4320526123046875 -0.3426971435546875 0.064390182495117188
-0.4842071533203125 -0.376373291015625 0.02429962158203125
-0.48952484130859375 -0.3797607421875 -0.014392852783203125
0.30001068115234375 0.076751708984375 0.038967132568359375
0.300018310546875 0.0771331787109375 0.048858642578125
0.27392578125 0.0499114990234375 0.0440521240234375
0.301971435546875 0.0845947265625 0.02947998046875
0.32579803466796875 0.1080474853515625 0.036703109741210938
0.32495880126953125 0.110076904296875 0.04528045654296875
0.27480316162109375 0.05078125 0.055078506469726562
0.27557373046875 0.0577545166015625 0.03324127197265625
0.32817840576171875 0.1167755126953125 0.028415679931640625
-0.561309814453125 -0.411102294921875 -0.063035964965820312
-0.53863525390625 -0.406646728515625 -0.03925323486328125
-0.55794525146484375 -0.4069976806640625 -0.049503326416015625
-0.58005523681640625 -0.412200927734375 -0.08697509765625
-0.56229400634765625 -0.408966064453125 -0.081342697143554688
-0.53964996337890625 -0.403900146484375 -0.059123992919921875
-0.535369873046875 -0.4014129638671875 -0.024831771850585938
-0.5762939453125 -0.406982421875 -0.074750900268554688
-0.5810546875 -0.409515380859375 -0.10396194458007812
0.38852691650390625 0.22161865234375 0.044359207153320312
0.38712310791015625 0.2239837646484375 0.050876617431640625
0.3711395263671875 0.182830810546875 0.039869308471679688
0.38933563232421875 0.222808837890625 0.03783416748046875
0.40212249755859375 0.2592620849609375 0.048656463623046875
0.400970458984375 0.2619476318359375 0.055189132690429688
0.3697357177734375 0.18359375 0.047298431396484375
0.372955322265625 0.1864471435546875 0.033056259155273438
0.40161895751953125 0.255889892578125 0.041913986206054688
-0.60540008544921875 -0.378936767578125 -0.15843391418457031
-0.60260009765625 -0.3955535888671875 -0.13475608825683594
-0.6014862060546875 -0.3741912841796875 -0.15023040771484375
-0.6035919189453125 -0.3591461181640625 -0.18076705932617188
-0.60687255859375 -0.380584716796875 -0.16828155517578125
-0.60382843017578125 -0.3958740234375 -0.14768218994140625
-0.598388671875 -0.39056396484375 -0.12534523010253906
-0.6000213623046875 -0.3533172607421875 -0.17334175109863281
-0.604461669921875 -0.3615875244140625 -0.18758583068847656
0.41274261474609375 0.34124755859375 0.051187515258789062
0.4120330810546875 0.3480072021484375 0.059026718139648438
0.413970947265625 0.3202972412109375 0.052549362182617188
0.41092681884765625 0.3302154541015625 0.043802261352539062
0.4063720703125 0.355224609375 0.049991607666015625
0.4060516357421875 0.3631439208984375 0.0581512451171875
0.41371917724609375 0.32611083984375 0.059091567993164062
0.4122772216796875 0.3108673095703125 0.04515838623046875
0.40441131591796875 0.3404388427734375 0.041215896606445312
-0.57415008544921875 -0.2919769287109375 -0.23591423034667969
-0.5870208740234375 -0.314727783203125 -0.22035980224609375
-0.57027435302734375 -0.2836151123046875 -0.22969436645507812
-0.558380126953125 -0.2708892822265625 -0.24552345275878906
-0.577667236328125 -0.302398681640625 -0.23796844482421875
-0.58963775634765625 -0.3223876953125 -0.22363471984863281
-0.5833587646484375 -0.307281494140625 -0.21438980102539062
-0.5544586181640625 -0.2608489990234375 -0.23950576782226562
-0.56290435791015625 -0.2840728759765625 -0.24725341796875
0.361572265625 0.35028076171875 0.049043655395507812
0.363006591796875 0.361358642578125 0.059871673583984375
0.37984466552734375 0.359893798828125 0.0483245849609375
0.35807037353515625 0.32940673828125 0.0377197265625
0.34209442138671875 0.3390045166015625 0.050872802734375
0.34389495849609375 0.350189208984375 0.06208038330078125
0.38021087646484375 0.36895751953125 0.058324813842773438
0.3767547607421875 0.3403167724609375 0.0381317138671875
0.337615966796875 0.3170013427734375 0.038862228393554688
-0.50249481201171875 -0.21661376953125 -0.23132514953613281
-0.52132415771484375 -0.2326507568359375 -0.24297904968261719
-0.4987945556640625 -0.205047607421875 -0.22361183166503906
-0.4835662841796875 -0.2026214599609375 -0.21513938903808594
-0.50756072998046875 -0.2340850830078125 -0.2322845458984375
-0.52715301513671875 -0.248687744140625 -0.2440185546875
-0.51775360107421875 -0.2213592529296875 -0.23608779907226562
-0.48049163818359375 -0.1915435791015625 -0.20735931396484375
-0.4883575439453125 -0.220855712890625 -0.21627616882324219
0.28839111328125 0.2960968017578125 0.0598907470703125
0.29221343994140625 0.3083648681640625 0.071710586547851562
0.30486297607421875 0.3108673095703125 0.056306838989257812
0.281890869140625 0.273162841796875 0.048433303833007812
0.2733917236328125 0.281097412109375 0.06299591064453125
0.278076171875 0.2944183349609375 0.074888229370117188
0.308074951171875 0.3225250244140625 0.068355560302734375
0.29892730712890625 0.2872467041015625 0.044628143310546875
0.26580047607421875 0.257781982421875 0.05196380615234375
-0.43534088134765625 -0.1735992431640625 -0.16100502014160156
-0.44952392578125 -0.180816650390625 -0.17852592468261719
-0.43463134765625 -0.1645050048828125 -0.15304946899414062
-0.42310333251953125 -0.167999267578125 -0.14451789855957031
-0.43758392333984375 -0.190765380859375 -0.16219329833984375
-0.45281982421875 -0.1985321044921875 -0.18004226684570312
-0.4481353759765625 -0.170928955078125 -0.17055892944335938
-0.423095703125 -0.15972900390625 -0.13669586181640625
-0.4239501953125 -0.184417724609375 -0.14589309692382812
0.2396392822265625 0.1283721923828125 0.036180496215820312
0.2594757080078125 0.140777587890625 0.0293731689453125
0.2235565185546875 0.07244873046875 0.04107666015625
0.221893310546875 0.1166534423828125 0.042022705078125
0.256011962890625 0.1848907470703125 0.036001205444335938
0.27501678466796875 0.1992340087890625 0.030460357666015625
0.243743896484375 0.08526611328125 0.03249359130859375
0.205291748046875 0.060943603515625 0.048189163208007812
0.238983154296875 0.172637939453125 0.040464401245117188
-0.4547271728515625 -0.288909912109375 -0.096620559692382812
-0.46053314208984375 -0.3248291015625 -0.059244155883789062
-0.4749298095703125 -0.300140380859375 -0.11475563049316406
-0.44766998291015625 -0.2502288818359375 -0.12948226928710938
-0.43585205078125 -0.27734375 -0.0810699462890625
-0.4396820068359375 -0.3111419677734375 -0.044248580932617188
-0.48316192626953125 -0.338653564453125 -0.078031539916992188
-0.46588897705078125 -0.26141357421875 -0.14754104614257812
-0.4312744140625 -0.2412261962890625 -0.11354255676269531
0.3279266357421875 0.197174072265625 0.018556594848632812
0.3405914306640625 0.2512054443359375 0.021825790405273438
0.3505096435546875 0.2179107666015625 0.018987655639648438
0.31606292724609375 0.147796630859375 0.0186767578125
0.30426788330078125 0.1772613525390625 0.019819259643554688
0.31781768798828125 0.2328643798828125 0.022731781005859375
0.36144256591796875 0.2669830322265625 0.022693634033203125
0.3408050537109375 0.17291259765625 0.018682479858398438
0.2910614013671875 0.1230926513671875 0.020524978637695312
-0.53942108154296875 -0.3322296142578125 -0.17106437683105469
-0.55800628662109375 -0.3409576416015625 -0.18636131286621094
-0.52698516845703125 -0.2942657470703125 -0.20147514343261719
-0.5184478759765625 -0.3233184814453125 -0.15369987487792969
-0.55089569091796875 -0.3688507080078125 -0.13791084289550781
-0.56964111328125 -0.37237548828125 -0.15537643432617188
-0.546356201171875 -0.3046722412109375 -0.21498298645019531
-0.5064239501953125 -0.2830657958984375 -0.18503189086914062
-0.5291748046875 -0.361083984375 -0.11893081665039062
0.39324951171875 0.2612762451171875 0.027463912963867188
0.40027618408203125 0.285308837890625 0.030538558959960938
0.39249420166015625 0.246795654296875 0.028718948364257812
0.3853607177734375 0.251983642578125 0.024152755737304688
0.39284515380859375 0.285888671875 0.027469635009765625
0.4018707275390625 0.2728118896484375 0.032928466796875
0.37950897216796875 0.2220306396484375 0.024316787719726562
-0.59156036376953125 -0.3500213623046875 -0.20979690551757812
-0.59903717041015625 -0.363922119140625 -0.19734573364257812
-0.588104248046875 -0.3348388671875 -0.22301483154296875
-0.585601806640625 -0.3486175537109375 -0.20707511901855469
-0.59521484375 -0.3715362548828125 -0.1847381591796875
-0.59682464599609375 -0.3491363525390625 -0.21099853515625
-0.57694244384765625 -0.324920654296875 -0.22694778442382812
0.2371063232421875 0.234588623046875 0.064083099365234375
0.22882080078125 0.2279815673828125 0.06298065185546875
0.2436676025390625 0.2505340576171875 0.078826904296875
0.2474822998046875 0.2487335205078125 0.06501007080078125
0.22711181640625 0.2110595703125 0.049686431884765625
0.2183837890625 0.2018585205078125 0.045454025268554688
0.23694610595703125 0.244781494140625 0.081035614013671875
0.25379180908203125 0.263763427734375 0.077718734741210938
0.23873138427734375 0.22509765625 0.05239105224609375
-0.397735595703125 -0.1677398681640625 -0.10918807983398438
-0.39887237548828125 -0.15826416015625 -0.0991058349609375
-0.39157867431640625 -0.165283203125 -0.10448074340820312
-0.3967742919921875 -0.1827545166015625 -0.11433982849121094
-0.4045257568359375 -0.167144775390625 -0.11760711669921875
-0.405548095703125 -0.157958984375 -0.10956764221191406
-0.392730712890625 -0.1553192138671875 -0.091670989990234375
-0.3902740478515625 -0.1813812255859375 -0.11298179626464844
-0.40459442138671875 -0.18157958984375 -0.12095069885253906
0.1771392822265625 0.0842132568359375 0.0363922119140625
0.19638824462890625 0.132537841796875 0.034820556640625
0.19072723388671875 0.0946807861328125 0.04267120361328125
0.15985870361328125 0.038818359375 0.043581008911132812
0.16439056396484375 0.0751495361328125 0.026971817016601562
0.1844940185546875 0.12152099609375 0.026144027709960938
0.20960235595703125 0.1450653076171875 0.04036712646484375
0.17376708984375 0.04644775390625 0.0500946044921875
0.14644622802734375 0.0323333740234375 0.033815383911132812
-0.39476776123046875 -0.2568206787109375 -0.068143844604492188
-0.40593719482421875 -0.2616729736328125 -0.066579818725585938
-0.396087646484375 -0.22882080078125 -0.093852996826171875
-0.38434600830078125 -0.253692626953125 -0.074293136596679688
-0.392547607421875 -0.2813568115234375 -0.037151336669921875
-0.4058990478515625 -0.2895660400390625 -0.033145904541015625
-0.40564727783203125 -0.2311859130859375 -0.095109939575195312
-0.386962890625 -0.22711181640625 -0.097734451293945312
-0.38074493408203125 -0.27471923828125 -0.045675277709960938
0.13602447509765625 -0.0256195068359375 0.091859817504882812
0.12090301513671875 -0.0316314697265625 0.085071563720703125
0.13848876953125 -0.0169219970703125 0.072587966918945312
0.15164947509765625 -0.0205841064453125 0.095493316650390625
0.1377716064453125 -0.0240020751953125 0.11083984375
0.1226348876953125 -0.0300140380859375 0.10719871520996094
0.1236419677734375 -0.0223388671875 0.063978195190429688
0.15317535400390625 -0.0133514404296875 0.077829360961914062
0.1535491943359375 -0.018829345703125 0.11256027221679688
-0.37725067138671875 -0.3056793212890625 0.054744720458984375
-0.38335418701171875 -0.3065185546875 0.026813507080078125
-0.36285400390625 -0.29656982421875 0.047353744506835938
-0.37229156494140625 -0.299713134765625 0.077856063842773438
-0.3936309814453125 -0.317840576171875 0.058774948120117188
-0.39904022216796875 -0.318084716796875 0.032306671142578125
-0.3695526123046875 -0.2974853515625 0.01700592041015625
-0.3569488525390625 -0.2905120849609375 0.0746307373046875
-0.3892822265625 -0.311798095703125 0.079210281372070312
0.16316986083984375 0.3041229248046875 0.43495559692382812
0.15764617919921875 0.3046112060546875 0.44133949279785156
0.15259552001953125 0.30352783203125 0.4474639892578125
0.14957427978515625 0.29461669921875 0.45511245727539062
0.14838409423828125 0.2840576171875 0.458343505859375
0.14560699462890625 0.2729949951171875 0.46071052551269531
0.1439208984375 0.2576141357421875 0.45985031127929688
0.14754486083984375 0.252288818359375 0.45518112182617188
0.15108489990234375 0.2449798583984375 0.44995880126953125
0.16190338134765625 0.253082275390625 0.43963623046875
0.16689300537109375 0.2701416015625 0.43548202514648438
0.1690216064453125 0.287689208984375 0.43124961853027344
-0.2305145263671875 0.049957275390625 0.35250091552734375
-0.22377777099609375 0.0420989990234375 0.36434364318847656
-0.21477508544921875 0.03515625 0.37595558166503906
-0.19857025146484375 0.0434417724609375 0.393646240234375
-0.19317626953125 0.05572509765625 0.39878273010253906
-0.18885040283203125 0.065887451171875 0.40247154235839844
-0.192535400390625 0.0756988525390625 0.39876365661621094
-0.198211669921875 0.0792236328125 0.39121818542480469
-0.202362060546875 0.0852508544921875 0.38413238525390625
-0.2108917236328125 0.0867919921875 0.37023162841796875
-0.21781158447265625 0.07952880859375 0.36156272888183594
-0.22595977783203125 0.070892333984375 0.3520050048828125
0.18210601806640625 0.29827880859375 0.40024948120117188
0.178192138671875 0.299774169921875 0.40959548950195312
0.17388916015625 0.3020172119140625 0.41856765747070312
0.15792083740234375 0.2304229736328125 0.4363555908203125
0.16046905517578125 0.2230224609375 0.42783737182617188
0.1627044677734375 0.2150421142578125 0.41900062561035156
0.17470550537109375 0.2290496826171875 0.4053497314453125
0.1813812255859375 0.250885009765625 0.40070915222167969
0.18518829345703125 0.2747955322265625 0.39583587646484375
-0.2594146728515625 0.0105743408203125 0.30865859985351562
-0.25138092041015625 -0.000518798828125 0.32465171813964844
-0.24031829833984375 -0.0089569091796875 0.33991241455078125
-0.22086334228515625 -0.00372314453125 0.36377525329589844
-0.21511077880859375 0.0075836181640625 0.3722686767578125
-0.20972442626953125 0.0196533203125 0.38051605224609375
-0.2421875 0.0525970458984375 0.32963371276855469
-0.249237060546875 0.04486083984375 0.31822967529296875
-0.25655364990234375 0.03607177734375 0.30619239807128906
0.14583587646484375 0.222900390625 0.44735908508300781
0.1351776123046875 0.2099456787109375 0.45013046264648438
0.123321533203125 0.1994171142578125 0.45256614685058594
0.1092529296875 0.1807708740234375 0.44708824157714844
0.1078033447265625 0.1695404052734375 0.43961715698242188
0.105743408203125 0.1586151123046875 0.431640625
0.12090301513671875 0.157684326171875 0.42104339599609375
0.136962890625 0.171295166015625 0.41806602478027344
0.15178680419921875 0.189483642578125 0.41439628601074219
-0.20977020263671875 -0.01513671875 0.36810493469238281
-0.19184112548828125 -0.0117034912109375 0.37978172302246094
-0.17266082763671875 -0.004974365234375 0.38930320739746094
-0.15177154541015625 0.015045166015625 0.40339851379394531
-0.1508026123046875 0.02520751953125 0.41019058227539062
-0.14981842041015625 0.03521728515625 0.41598892211914062
-0.1631927490234375 0.03851318359375 0.4145965576171875
-0.17765045166015625 0.03424072265625 0.40711021423339844
-0.19170379638671875 0.0309906005859375 0.39810562133789062
0.13578033447265625 0.2543487548828125 0.46579170227050781
0.1286468505859375 0.246124267578125 0.46722030639648438
0.120880126953125 0.2402801513671875 0.46871376037597656
0.11215972900390625 0.226287841796875 0.46633720397949219
0.1116790771484375 0.2157135009765625 0.46275711059570312
0.11142730712890625 0.20391845703125 0.458831787109375
-0.14855194091796875 0.057525634765625 0.42318534851074219
-0.14868927001953125 0.0681304931640625 0.42495536804199219
-0.1491546630859375 0.07720947265625 0.42605400085449219
-0.15813446044921875 0.0794677734375 0.42378616333007812
-0.16780853271484375 0.0758514404296875 0.41881370544433594
-0.17682647705078125 0.0742645263671875 0.41251373291015625
0.1040802001953125 0.231170654296875 0.46923637390136719
0.09542083740234375 0.2303619384765625 0.46854019165039062
0.08783721923828125 0.2306365966796875 0.46699333190917969
0.0765533447265625 0.225982666015625 0.46112251281738281
0.07173919677734375 0.2150726318359375 0.45717811584472656
0.06645965576171875 0.202667236328125 0.45223617553710938
0.07213592529296875 0.1876373291015625 0.45034980773925781
0.08455657958984375 0.1856536865234375 0.45240402221679688
0.0973968505859375 0.187652587890625 0.45360946655273438
-0.13538360595703125 0.056549072265625 0.4237213134765625
-0.12215423583984375 0.069671630859375 0.42526817321777344
-0.11150360107421875 0.0829315185546875 0.42490386962890625
-0.10715484619140625 0.1046905517578125 0.42524147033691406
-0.1121978759765625 0.109710693359375 0.42706489562988281
-0.11631011962890625 0.11358642578125 0.42821884155273438
-0.12518310546875 0.1080322265625 0.43130874633789062
-0.13225555419921875 0.098663330078125 0.43167495727539062
-0.14013671875 0.09075927734375 0.43019294738769531
0.05523681640625 0.179901123046875 0.43986129760742188
0.0494537353515625 0.16827392578125 0.43206977844238281
0.04393768310546875 0.1568450927734375 0.42348098754882812
0.05294036865234375 0.1403961181640625 0.41962623596191406
0.069580078125 0.139190673828125 0.42239189147949219
0.08678436279296875 0.1410064697265625 0.4235687255859375
-0.1352996826171875 0.0196533203125 0.40092086791992188
-0.1176910400390625 0.0357208251953125 0.40270042419433594
-0.10268402099609375 0.0541839599609375 0.4022064208984375
-0.09249114990234375 0.0802154541015625 0.40602684020996094
-0.09520721435546875 0.0870819091796875 0.41239738464355469
-0.0983428955078125 0.0923614501953125 0.41790390014648438
0.05077362060546875 0.19879150390625 0.44167518615722656
0.04244232177734375 0.2078094482421875 0.43552207946777344
0.03662109375 0.219635009765625 0.42898750305175781
0.02544403076171875 0.2255859375 0.41362571716308594
0.01828765869140625 0.218658447265625 0.40400123596191406
0.0110931396484375 0.21002197265625 0.3946380615234375
0.00858306884765625 0.1844024658203125 0.39306831359863281
0.0156707763671875 0.16876220703125 0.40158271789550781
0.02613067626953125 0.1558837890625 0.40880584716796875
-0.080535888671875 0.0961151123046875 0.39436149597167969
-0.0739288330078125 0.1172027587890625 0.38743782043457031
-0.07126617431640625 0.1371002197265625 0.37872314453125
-0.07556915283203125 0.1584625244140625 0.3757781982421875
-0.08017730712890625 0.158477783203125 0.3831024169921875
-0.0854034423828125 0.159576416015625 0.39020729064941406
-0.089447021484375 0.1451873779296875 0.40458106994628906
-0.0911407470703125 0.1301116943359375 0.41208267211914062
-0.09558868408203125 0.1146240234375 0.41794204711914062
0.07404327392578125 0.2378082275390625 0.4615020751953125
0.068634033203125 0.2437744140625 0.45775604248046875
0.064788818359375 0.2507781982421875 0.45365524291992188
0.05694580078125 0.25421142578125 0.44446563720703125
0.04955291748046875 0.2487030029296875 0.43799591064453125
0.0415802001953125 0.24151611328125 0.43092536926269531
-0.0973358154296875 0.1581878662109375 0.40137481689453125
-0.10369110107421875 0.157562255859375 0.4056549072265625
-0.10916900634765625 0.1556854248046875 0.40939140319824219
-0.11281585693359375 0.146331787109375 0.41826820373535156
-0.11334228515625 0.1358489990234375 0.42299079895019531
-0.1158599853515625 0.12774658203125 0.42701911926269531
0.06189727783203125 0.2694091796875 0.44593238830566406
0.062713623046875 0.280975341796875 0.44269371032714844
0.06497955322265625 0.2910614013671875 0.43959236145019531
0.06458282470703125 0.3005218505859375 0.43075370788574219
0.05861663818359375 0.3007965087890625 0.42262649536132812
0.052215576171875 0.2991180419921875 0.41315650939941406
0.03847503662109375 0.2805938720703125 0.40651512145996094
0.03376007080078125 0.264801025390625 0.41112518310546875
0.032012939453125 0.248626708984375 0.41656875610351562
-0.094512939453125 0.1713409423828125 0.38705062866210938
-0.101226806640625 0.18145751953125 0.37728118896484375
-0.109893798828125 0.189208984375 0.36730575561523438
-0.1239776611328125 0.1895904541015625 0.36578369140625
-0.1277008056640625 0.1848297119140625 0.37386322021484375
-0.131011962890625 0.179443359375 0.38051223754882812
-0.12653350830078125 0.1740570068359375 0.39281654357910156
-0.12068939208984375 0.168487548828125 0.39975547790527344
-0.1158447265625 0.162017822265625 0.406280517578125
0.039215087890625 0.2956390380859375 0.39174652099609375
0.0334014892578125 0.292755126953125 0.38025856018066406
0.0281524658203125 0.2909393310546875 0.36823081970214844
0.01314544677734375 0.2665252685546875 0.36157798767089844
0.0067901611328125 0.2451934814453125 0.36818504333496094
0.004119873046875 0.223052978515625 0.376129150390625
-0.0762481689453125 0.174163818359375 0.35646629333496094
-0.08415985107421875 0.1883392333984375 0.34346771240234375
-0.09494781494140625 0.198822021484375 0.329742431640625
-0.11135101318359375 0.20233154296875 0.32648468017578125
-0.11415863037109375 0.2003936767578125 0.33725929260253906
-0.11692047119140625 0.1979217529296875 0.347259521484375
0.0546417236328125 0.3128662109375 0.4000091552734375
0.0654449462890625 0.32598876953125 0.3988037109375
0.07791900634765625 0.3381195068359375 0.39864349365234375
0.089569091796875 0.349609375 0.38816452026367188
0.0883331298828125 0.35321044921875 0.37658500671386719
0.08689117431640625 0.354217529296875 0.36446762084960938
0.06739044189453125 0.3426361083984375 0.35128021240234375
0.05078125 0.3270111083984375 0.35122299194335938
0.0354766845703125 0.30841064453125 0.35276985168457031
-0.124847412109375 0.2054443359375 0.30206680297851562
