# XYZ point cloud file
-0.4406280517578125 -0.2108154296875 0.34796142578125
-0.4023590087890625 -0.12652587890625 0.36749267578125
-0.40350341796875 -0.10888671875 0.30517578125
-0.1386260986328125 0.4560546875 0.312255859375
-0.1171417236328125 0.4249267578125 0.36090087890625
-0.09197998046875 0.5220947265625 0.3138427734375
-0.1563720703125 0.488525390625 0.25390625
-0.1871795654296875 0.38323974609375 0.30645751953125
-0.1659088134765625 0.349853515625 0.37255859375
-0.0699920654296875 0.490234375 0.35638427734375
-0.110015869140625 0.55242919921875 0.253662109375
-0.2061614990234375 0.41790771484375 0.2462158203125
-0.3363037109375 0.1544189453125 0.23883056640625
-0.3782196044921875 0.08441162109375 0.21661376953125
-0.3169097900390625 0.1212158203125 0.309814453125
-0.2865447998046875 0.22998046875 0.27325439453125
-0.35272216796875 0.19134521484375 0.1903076171875
-0.39349365234375 0.12017822265625 0.15142822265625
-0.359954833984375 0.05108642578125 0.27880859375
-0.267242431640625 0.193603515625 0.34051513671875
-0.3086395263671875 0.26727294921875 0.20965576171875
-0.07574462890625 0.41668701171875 0.51220703125
-0.0945892333984375 0.37860107421875 0.5235595703125
-0.08856201171875 0.424560546875 0.519775390625
-0.0594482421875 0.45562744140625 0.5157470703125
-0.0654754638671875 0.4127197265625 0.507568359375
-0.0871124267578125 0.36199951171875 0.51690673828125
-0.102142333984375 0.3929443359375 0.5201416015625
-0.0754852294921875 0.4542236328125 0.5228271484375
-0.041473388671875 0.46026611328125 0.51251220703125
-0.319793701171875 0.05035400390625 0.453125
-0.327056884765625 0.06536865234375 0.45819091796875
-0.29180908203125 0.08026123046875 0.47235107421875
-0.311279296875 0.0367431640625 0.44921875
-0.34552001953125 0.0185546875 0.432373046875
-0.348541259765625 0.040771484375 0.4423828125
-0.3056182861328125 0.087158203125 0.46832275390625
-0.2773895263671875 0.07525634765625 0.4788818359375
-0.3438720703125 -0.00299072265625 0.42510986328125
-0.06719970703125 0.3931884765625 0.46337890625
-0.058135986328125 0.3992919921875 0.4859619140625
-0.030517578125 0.45599365234375 0.4564208984375
-0.07965087890625 0.392822265625 0.43609619140625
-0.0989837646484375 0.33441162109375 0.4798583984375
-0.0876312255859375 0.33880615234375 0.4951171875
-0.0238494873046875 0.45916748046875 0.4820556640625
-0.039947509765625 0.45928955078125 0.4296875
-0.1191558837890625 0.32470703125 0.45269775390625
-0.2954254150390625 0.04296875 0.41522216796875
-0.335174560546875 -0.01654052734375 0.39306640625
-0.2983856201171875 0.03253173828125 0.43572998046875
-0.2537384033203125 0.09490966796875 0.44793701171875
-0.297271728515625 0.06256103515625 0.38653564453125
-0.3392181396484375 -0.00042724609375 0.361328125
-0.3414306640625 -0.02239990234375 0.408203125
-0.25701904296875 0.07989501953125 0.46478271484375
-0.25006103515625 0.12445068359375 0.42376708984375
-0.1420440673828125 0.22723388671875 0.50054931640625
-0.1364593505859375 0.21978759765625 0.51409912109375
-0.14031982421875 0.24658203125 0.49322509765625
-0.152740478515625 0.21380615234375 0.4974365234375
-0.14642333984375 0.20379638671875 0.51605224609375
-0.1256256103515625 0.2471923828125 0.5069580078125
-0.1565704345703125 0.23175048828125 0.4805908203125
-0.1805572509765625 0.16900634765625 0.49090576171875
-0.1937103271484375 0.16015625 0.48590087890625
-0.1749267578125 0.1622314453125 0.50469970703125
-0.171875 0.18218994140625 0.49090576171875
-0.1871795654296875 0.1865234375 0.4798583984375
-0.19427490234375 0.14495849609375 0.49578857421875
-0.16241455078125 0.17596435546875 0.50836181640625
0.20428466796875 0.6640625 0.29107666015625
0.2098236083984375 0.65887451171875 0.32574462890625
0.2154541015625 0.6478271484375 0.25152587890625
0.1976776123046875 0.67431640625 0.252197265625
0.191436767578125 0.67626953125 0.320556640625
0.1981658935546875 0.672119140625 0.35321044921875
0.2204742431640625 0.63970947265625 0.30157470703125
0.2081298828125 0.65887451171875 0.2125244140625
0.181396484375 0.6788330078125 0.2808837890625
-0.4731903076171875 -0.39605712890625 0.276611328125
-0.46160888671875 -0.42022705078125 0.2657470703125
-0.4647369384765625 -0.397705078125 0.3189697265625
-0.476715087890625 -0.36871337890625 0.28424072265625
-0.4830169677734375 -0.3929443359375 0.2264404296875
-0.4757537841796875 -0.421142578125 0.2183837890625
-0.451507568359375 -0.4200439453125 0.31732177734375
-0.4738922119140625 -0.37322998046875 0.32757568359375
-0.482666015625 -0.36181640625 0.2413330078125
0.177642822265625 0.721923828125 0.14080810546875
0.190765380859375 0.7034912109375 0.10382080078125
0.17138671875 0.74114990234375 0.11151123046875
0.16162109375 0.72589111328125 0.1849365234375
0.1833648681640625 0.70159912109375 0.1796875
0.1974029541015625 0.69091796875 0.13433837890625
0.185546875 0.72216796875 0.07659912109375
0.1554107666015625 0.7486572265625 0.1441650390625
0.1678466796875 0.7078857421875 0.2117919921875
-0.52069091796875 -0.3787841796875 0.08172607421875
-0.53485107421875 -0.37298583984375 0.0328369140625
-0.5165252685546875 -0.4178466796875 0.06671142578125
-0.50787353515625 -0.38653564453125 0.13330078125
-0.5203094482421875 -0.34210205078125 0.09356689453125
-0.5358123779296875 -0.33343505859375 0.04071044921875
-0.530059814453125 -0.40911865234375 0.0299072265625
-0.5017852783203125 -0.41986083984375 0.1148681640625
-0.505035400390625 -0.3489990234375 0.14569091796875
0.1542205810546875 0.77801513671875 0.00067138671875
0.1677093505859375 0.75872802734375 -0.02874755859375
0.149566650390625 0.7828369140625 -0.04254150390625
0.1394500732421875 0.79681396484375 0.0260009765625
0.1606903076171875 0.769775390625 0.04144287109375
0.172119140625 0.75054931640625 0.0093994140625
0.1598052978515625 0.7623291015625 -0.0606689453125
0.1336517333984375 0.8040771484375 -0.013671875
0.1449432373046875 0.785400390625 0.06964111328125
-0.56060791015625 -0.3494873046875 -0.10797119140625
-0.5639495849609375 -0.34259033203125 -0.15264892578125
-0.5565338134765625 -0.38629150390625 -0.107666015625
-0.55548095703125 -0.35723876953125 -0.05780029296875
-0.5628662109375 -0.30828857421875 -0.11334228515625
-0.56976318359375 -0.30120849609375 -0.15423583984375
-0.5593109130859375 -0.38116455078125 -0.14569091796875
-0.548614501953125 -0.39617919921875 -0.0643310546875
-0.558074951171875 -0.3150634765625 -0.05682373046875
0.13214111328125 0.7725830078125 -0.171630859375
0.125885009765625 0.76177978515625 -0.2186279296875
0.1222381591796875 0.79833984375 -0.15887451171875
0.1387176513671875 0.779541015625 -0.1322021484375
0.1425628662109375 0.74676513671875 -0.1956787109375
0.1330108642578125 0.7308349609375 -0.24151611328125
0.117889404296875 0.7906494140625 -0.19970703125
0.125946044921875 0.8048095703125 -0.114501953125
0.150543212890625 0.7562255859375 -0.14703369140625
-0.5666656494140625 -0.34228515625 -0.28485107421875
-0.5713043212890625 -0.300048828125 -0.288330078125
-0.563018798828125 -0.33843994140625 -0.31719970703125
-0.56121826171875 -0.37579345703125 -0.2662353515625
-0.5663604736328125 -0.3416748046875 -0.23480224609375
-0.573028564453125 -0.29888916015625 -0.2547607421875
-0.568206787109375 -0.29974365234375 -0.32318115234375
-0.5574493408203125 -0.374267578125 -0.30517578125
-0.5617218017578125 -0.378173828125 -0.2291259765625
0.085845947265625 0.06317138671875 0.03173828125
0.0738372802734375 0.013427734375 0.02685546875
0.0687408447265625 0.06793212890625 -0.05059814453125
0.096954345703125 0.117431640625 0.01531982421875
0.098968505859375 0.065673828125 0.10125732421875
0.090667724609375 0.01025390625 0.11395263671875
0.0572967529296875 0.0155029296875 -0.03826904296875
0.082550048828125 0.11614990234375 -0.056396484375
0.111663818359375 0.1173095703125 0.09759521484375
-0.1825408935546875 -0.38531494140625 0.13739013671875
-0.2126617431640625 -0.400390625 0.06640625
-0.1566314697265625 -0.37249755859375 0.134765625
-0.1568756103515625 -0.3646240234375 0.2103271484375
-0.2095184326171875 -0.39501953125 0.13922119140625
-0.2355804443359375 -0.41363525390625 0.0667724609375
-0.1873016357421875 -0.38970947265625 0.06280517578125
-0.126617431640625 -0.352294921875 0.21337890625
-0.1847381591796875 -0.3746337890625 0.21343994140625
0.1453857421875 0.27679443359375 -0.00775146484375
0.1586151123046875 0.2957763671875 0.05145263671875
0.126678466796875 0.22265625 0.0032958984375
0.1289520263671875 0.26019287109375 -0.07525634765625
0.1614837646484375 0.32379150390625 -0.02099609375
0.1764678955078125 0.35028076171875 0.03826904296875
0.1425933837890625 0.2357177734375 0.07421875
0.1107025146484375 0.21319580078125 -0.05865478515625
0.145477294921875 0.30352783203125 -0.07177734375
-0.2987213134765625 -0.45611572265625 0.1309814453125
-0.268280029296875 -0.42999267578125 0.13531494140625
-0.2906341552734375 -0.4454345703125 0.19512939453125
-0.3267669677734375 -0.4813232421875 0.13104248046875
-0.308746337890625 -0.46417236328125 0.06890869140625
-0.283721923828125 -0.442626953125 0.07476806640625
-0.2530059814453125 -0.4144287109375 0.2022705078125
-0.3274993896484375 -0.47393798828125 0.1728515625
-0.332366943359375 -0.48358154296875 0.0755615234375
0.1898193359375 0.334716796875 0.25177001953125
0.1976776123046875 0.33892822265625 0.30706787109375
0.176788330078125 0.28399658203125 0.27423095703125
0.1817169189453125 0.32501220703125 0.17828369140625
0.2023468017578125 0.3895263671875 0.23046875
0.2081298828125 0.38763427734375 0.28338623046875
0.18304443359375 0.29315185546875 0.33203125
0.1665191650390625 0.2672119140625 0.214599609375
0.1975555419921875 0.38629150390625 0.15234375
-0.2576904296875 -0.390380859375 0.37713623046875
-0.218597412109375 -0.3603515625 0.392333984375
-0.2429046630859375 -0.3701171875 0.4232177734375
-0.29364013671875 -0.41632080078125 0.35577392578125
-0.2701416015625 -0.4080810546875 0.3133544921875
-0.2288970947265625 -0.376708984375 0.32977294921875
-0.2077178955078125 -0.3397216796875 0.44085693359375
-0.27703857421875 -0.39495849609375 0.4114990234375
-0.3097076416015625 -0.4403076171875 0.29248046875
0.14886474609375 0.14825439453125 0.357666015625
0.1530609130859375 0.155517578125 0.386962890625
0.146514892578125 0.11444091796875 0.3887939453125
0.1436614990234375 0.13226318359375 0.32867431640625
0.1536102294921875 0.185791015625 0.32904052734375
0.1619873046875 0.19708251953125 0.36322021484375
0.14501953125 0.11962890625 0.4119873046875
0.1434783935546875 0.0994873046875 0.3651123046875
0.1466064453125 0.16949462890625 0.28302001953125
-0.1091766357421875 -0.2723388671875 0.4613037109375
-0.0777435302734375 -0.25201416015625 0.489990234375
-0.10296630859375 -0.26171875 0.482666015625
-0.1433868408203125 -0.2991943359375 0.4334716796875
-0.1094207763671875 -0.28289794921875 0.4405517578125
-0.0767364501953125 -0.25994873046875 0.463623046875
-0.0774688720703125 -0.24176025390625 0.50372314453125
-0.1374664306640625 -0.28558349609375 0.4776611328125
-0.1483306884765625 -0.3126220703125 0.39373779296875
0.12689208984375 0.0609130859375 0.26190185546875
0.127410888671875 0.03961181640625 0.28668212890625
0.1219482421875 0.0638427734375 0.22674560546875
0.132781982421875 0.0849609375 0.28070068359375
0.1356658935546875 0.05987548828125 0.31597900390625
0.119110107421875 0.0257568359375 0.23358154296875
0.1280059814453125 0.10491943359375 0.2171630859375
-0.09490966796875 -0.30322265625 0.3670654296875
-0.111785888671875 -0.317138671875 0.32513427734375
-0.0757904052734375 -0.29638671875 0.3831787109375
-0.100921630859375 -0.30078125 0.3819580078125
-0.1296539306640625 -0.322509765625 0.34625244140625
-0.082244873046875 -0.31170654296875 0.335693359375
-0.07171630859375 -0.2821044921875 0.413330078125
0.1472930908203125 0.146484375 0.4449462890625
0.1510772705078125 0.160888671875 0.4427490234375
0.1418304443359375 0.1270751953125 0.45123291015625
0.1486968994140625 0.15496826171875 0.4359130859375
0.156097412109375 0.18475341796875 0.43023681640625
0.1428680419921875 0.1365966796875 0.45635986328125
0.1427154541015625 0.1270751953125 0.443359375
-0.0830078125 -0.224853515625 0.52484130859375
-0.0698699951171875 -0.21368408203125 0.53424072265625
-0.092315673828125 -0.22943115234375 0.53729248046875
-0.090972900390625 -0.2362060546875 0.52264404296875
-0.0719757080078125 -0.2197265625 0.52490234375
-0.07373046875 -0.2154541015625 0.537109375
-0.112213134765625 -0.24932861328125 0.51806640625
0.0746612548828125 0.487060546875 -0.37646484375
0.09454345703125 0.5054931640625 -0.3486328125
0.07183837890625 0.42364501953125 -0.36419677734375
0.0527496337890625 0.46234130859375 -0.40087890625
0.0791168212890625 0.55267333984375 -0.38226318359375
0.1002197265625 0.572998046875 -0.34588623046875
0.091827392578125 0.446044921875 -0.3414306640625
0.0493621826171875 0.39483642578125 -0.38494873046875
0.0585174560546875 0.53564453125 -0.39703369140625
-0.4679412841796875 -0.40460205078125 -0.34234619140625
-0.442657470703125 -0.42510986328125 -0.300537109375
-0.48175048828125 -0.4337158203125 -0.30731201171875
-0.492218017578125 -0.3763427734375 -0.37384033203125
-0.4587249755859375 -0.37200927734375 -0.37554931640625
-0.433441162109375 -0.39544677734375 -0.3299560546875
-0.455657958984375 -0.45794677734375 -0.2708740234375
-0.5049285888671875 -0.4085693359375 -0.33758544921875
-0.480865478515625 -0.3419189453125 -0.40155029296875
-0.01385498046875 0.41412353515625 -0.47662353515625
-0.00994873046875 0.489501953125 -0.47137451171875
0.0091705322265625 0.42889404296875 -0.44091796875
-0.0189666748046875 0.3380126953125 -0.468505859375
-0.0415191650390625 0.391357421875 -0.49554443359375
-0.0368194580078125 0.4686279296875 -0.49285888671875
0.0125732421875 0.5050048828125 -0.44476318359375
0.0038299560546875 0.3563232421875 -0.4393310546875
-0.0444793701171875 0.3162841796875 -0.4891357421875
-0.426055908203125 -0.26202392578125 -0.4669189453125
-0.4378204345703125 -0.29974365234375 -0.43798828125
-0.4466400146484375 -0.2177734375 -0.48785400390625
-0.4102325439453125 -0.21160888671875 -0.49749755859375
-0.4036712646484375 -0.295166015625 -0.4365234375
-0.4145355224609375 -0.3311767578125 -0.4017333984375
-0.458465576171875 -0.2646484375 -0.46466064453125
-0.42987060546875 -0.16790771484375 -0.51947021484375
-0.3905181884765625 -0.2525634765625 -0.46942138671875
0.0863494873046875 0.2847900390625 -0.24688720703125
0.098358154296875 0.2628173828125 -0.18914794921875
0.0671539306640625 0.24896240234375 -0.2562255859375
0.076080322265625 0.318603515625 -0.30157470703125
0.10595703125 0.31787109375 -0.23944091796875
0.118927001953125 0.29779052734375 -0.182861328125
0.0801544189453125 0.22607421875 -0.19403076171875
0.05596923828125 0.28485107421875 -0.3070068359375
0.09747314453125 0.34442138671875 -0.28717041015625
-0.365081787109375 -0.46405029296875 -0.12451171875
-0.349761962890625 -0.44134521484375 -0.1419677734375
-0.3409423828125 -0.46661376953125 -0.06103515625
-0.37945556640625 -0.48577880859375 -0.10772705078125
-0.39013671875 -0.45404052734375 -0.199462890625
-0.37750244140625 -0.43060302734375 -0.2200927734375
-0.324554443359375 -0.44964599609375 -0.06622314453125
-0.3587646484375 -0.48931884765625 -0.04107666015625
-0.4024505615234375 -0.478271484375 -0.16790771484375
0.0220184326171875 0.11712646484375 -0.26324462890625
0.0049285888671875 0.06329345703125 -0.267333984375
0.008209228515625 0.14288330078125 -0.32177734375
0.03631591796875 0.1661376953125 -0.25787353515625
0.035797119140625 0.0946044921875 -0.2020263671875
0.018951416015625 0.04229736328125 -0.1973876953125
-0.0082244873046875 0.0887451171875 -0.32379150390625
0.02154541015625 0.19488525390625 -0.322509765625
0.0517120361328125 0.1409912109375 -0.197509765625
-0.2968902587890625 -0.41357421875 -0.162353515625
-0.3209075927734375 -0.403564453125 -0.22900390625
-0.2762451171875 -0.40509033203125 -0.16326904296875
-0.268951416015625 -0.418212890625 -0.0936279296875
-0.31463623046875 -0.418701171875 -0.15545654296875
-0.341705322265625 -0.40789794921875 -0.24676513671875
-0.2987060546875 -0.39459228515625 -0.23211669921875
-0.2460479736328125 -0.40765380859375 -0.09649658203125
-0.287017822265625 -0.4237060546875 -0.08050537109375
-0.0299835205078125 0.1842041015625 -0.4285888671875
-0.0254058837890625 0.22064208984375 -0.4378662109375
-0.0198822021484375 0.17919921875 -0.412353515625
-0.0428619384765625 0.15655517578125 -0.434814453125
-0.0470428466796875 0.1954345703125 -0.46270751953125
-0.008575439453125 0.2283935546875 -0.4134521484375
-0.0334320068359375 0.1309814453125 -0.41217041015625
-0.3541259765625 -0.3514404296875 -0.36309814453125
-0.350067138671875 -0.37127685546875 -0.33453369140625
-0.3673858642578125 -0.34375 -0.384521484375
-0.34063720703125 -0.3397216796875 -0.3779296875
-0.3298492431640625 -0.36322021484375 -0.3355712890625
-0.3685455322265625 -0.36798095703125 -0.352783203125
-0.356414794921875 -0.31866455078125 -0.40228271484375
0.215545654296875 0.87890625 -0.1534423828125
0.211181640625 0.884521484375 -0.1634521484375
0.208404541015625 0.851318359375 -0.15087890625
0.2190093994140625 0.87274169921875 -0.16357421875
0.2247467041015625 0.9080810546875 -0.17694091796875
0.223388671875 0.9166259765625 -0.185791015625
0.2021331787109375 0.85125732421875 -0.160888671875
0.2125396728515625 0.845703125 -0.1522216796875
0.2301483154296875 0.90283203125 -0.1785888671875
-0.634765625 -0.4771728515625 -0.27142333984375
-0.618927001953125 -0.46490478515625 -0.2479248046875
-0.6382293701171875 -0.46832275390625 -0.283447265625
-0.654266357421875 -0.49090576171875 -0.29656982421875
-0.63482666015625 -0.48541259765625 -0.2607421875
-0.620635986328125 -0.47650146484375 -0.24542236328125
-0.621063232421875 -0.45709228515625 -0.262451171875
-0.6556396484375 -0.48199462890625 -0.31317138671875
-0.6519927978515625 -0.50079345703125 -0.2803955078125
0.2710418701171875 1.01629638671875 -0.2149658203125
0.2534027099609375 0.97955322265625 -0.20477294921875
0.2715911865234375 1.00250244140625 -0.2210693359375
0.2862701416015625 1.0474853515625 -0.24365234375
0.2715301513671875 1.027099609375 -0.227783203125
0.2534637451171875 0.99066162109375 -0.20941162109375
0.2559356689453125 0.96966552734375 -0.20001220703125
0.2886505126953125 1.03277587890625 -0.2384033203125
0.290130615234375 1.06103515625 -0.234375
-0.718780517578125 -0.557861328125 -0.38226318359375
-0.7115478515625 -0.56475830078125 -0.36505126953125
-0.695953369140625 -0.53216552734375 -0.35015869140625
-0.7237396240234375 -0.55523681640625 -0.4005126953125
-0.7363128662109375 -0.58709716796875 -0.3966064453125
-0.732757568359375 -0.59405517578125 -0.3841552734375
-0.69329833984375 -0.53753662109375 -0.337646484375
-0.7004547119140625 -0.52703857421875 -0.365234375
-0.7452239990234375 -0.58685302734375 -0.41839599609375
0.3363800048828125 1.07427978515625 -0.2828369140625
0.3229827880859375 1.07769775390625 -0.2742919921875
0.333099365234375 1.0609130859375 -0.2796630859375
0.346435546875 1.06396484375 -0.29180908203125
0.3395538330078125 1.091552734375 -0.28887939453125
0.32611083984375 1.094482421875 -0.27508544921875
0.3173828125 1.061767578125 -0.26513671875
0.3429107666015625 1.0474853515625 -0.294189453125
0.353515625 1.0799560546875 -0.29180908203125
-0.7752227783203125 -0.7034912109375 -0.39105224609375
-0.765106201171875 -0.69866943359375 -0.37664794921875
-0.767608642578125 -0.66241455078125 -0.40472412109375
-0.7830352783203125 -0.70654296875 -0.4066162109375
-0.776458740234375 -0.739990234375 -0.3770751953125
-0.76824951171875 -0.7352294921875 -0.36383056640625
-0.7599029541015625 -0.66302490234375 -0.38946533203125
-0.7756805419921875 -0.6661376953125 -0.42120361328125
-0.7845458984375 -0.745849609375 -0.3858642578125
0.361572265625 0.9639892578125 -0.33123779296875
0.3597412109375 1.0062255859375 -0.32275390625
0.35369873046875 0.9522705078125 -0.333251953125
0.3553314208984375 0.9161376953125 -0.3511962890625
0.366424560546875 0.97625732421875 -0.3441162109375
0.3673858642578125 1.01800537109375 -0.326416015625
0.3520965576171875 0.99371337890625 -0.32354736328125
0.35040283203125 0.90765380859375 -0.3424072265625
0.362548828125 0.9263916015625 -0.35498046875
-0.7457275390625 -0.83154296875 -0.28619384765625
-0.7367401123046875 -0.81903076171875 -0.2802734375
-0.7606658935546875 -0.8056640625 -0.32171630859375
-0.7541351318359375 -0.84246826171875 -0.29205322265625
-0.725738525390625 -0.8477783203125 -0.25048828125
-0.718658447265625 -0.837890625 -0.25299072265625
-0.7534942626953125 -0.79644775390625 -0.30755615234375
-0.7695770263671875 -0.81915283203125 -0.3289794921875
-0.7324371337890625 -0.86114501953125 -0.253662109375
0.32293701171875 0.75048828125 -0.33154296875
0.338104248046875 0.8062744140625 -0.3455810546875
0.319183349609375 0.750732421875 -0.32708740234375
0.3082275390625 0.697021484375 -0.31451416015625
0.329254150390625 0.751953125 -0.3427734375
0.3414459228515625 0.8092041015625 -0.35711669921875
0.3317108154296875 0.8038330078125 -0.34039306640625
0.307220458984375 0.70037841796875 -0.3016357421875
0.31207275390625 0.69537353515625 -0.320556640625
-0.642730712890625 -0.8359375 -0.129638671875
-0.6396942138671875 -0.8250732421875 -0.13861083984375
-0.670745849609375 -0.8511962890625 -0.1785888671875
-0.644744873046875 -0.84698486328125 -0.1431884765625
-0.6085205078125 -0.81390380859375 -0.10858154296875
-0.6071319580078125 -0.80401611328125 -0.110107421875
-0.669219970703125 -0.8380126953125 -0.17596435546875
-0.6770477294921875 -0.8604736328125 -0.17742919921875
-0.60772705078125 -0.82257080078125 -0.10467529296875
0.2601470947265625 0.55224609375 -0.21417236328125
0.2766571044921875 0.59326171875 -0.2469482421875
0.2622833251953125 0.56451416015625 -0.2109375
0.2459259033203125 0.5096435546875 -0.18060302734375
0.260162353515625 0.53790283203125 -0.21563720703125
0.27655029296875 0.58697509765625 -0.26116943359375
0.2779388427734375 0.60528564453125 -0.249267578125
0.2505035400390625 0.5257568359375 -0.17498779296875
0.2425537109375 0.49725341796875 -0.18182373046875
-0.5023651123046875 -0.71429443359375 0.00341796875
-0.5090484619140625 -0.71087646484375 0.00341796875
-0.538421630859375 -0.7503662109375 -0.026123046875
-0.501251220703125 -0.717529296875 0.004638671875
-0.4716644287109375 -0.67364501953125 0.03192138671875
-0.48046875 -0.67291259765625 0.0223388671875
-0.54156494140625 -0.744873046875 -0.03680419921875
-0.535186767578125 -0.75750732421875 -0.0262451171875
-0.4681243896484375 -0.67645263671875 0.0306396484375
0.262969970703125 0.5980224609375 -0.22613525390625
0.274627685546875 0.63189697265625 -0.260986328125
0.262786865234375 0.6099853515625 -0.24029541015625
0.248992919921875 0.56884765625 -0.20068359375
0.262298583984375 0.58917236328125 -0.2142333984375
0.276336669921875 0.625 -0.25634765625
0.2734375 0.6419677734375 -0.27362060546875
0.2517242431640625 0.578857421875 -0.215576171875
0.251190185546875 0.55596923828125 -0.19183349609375
-0.532318115234375 -0.70831298828125 -0.044921875
-0.539825439453125 -0.70941162109375 -0.06060791015625
-0.55975341796875 -0.73663330078125 -0.06671142578125
-0.523284912109375 -0.7081298828125 -0.0211181640625
-0.50860595703125 -0.68096923828125 -0.0184326171875
-0.5171356201171875 -0.6824951171875 -0.033935546875
-0.56597900390625 -0.7369384765625 -0.09259033203125
-0.552703857421875 -0.7381591796875 -0.056396484375
-0.499969482421875 -0.67669677734375 -0.00048828125
0.3097686767578125 0.75689697265625 -0.33599853515625
0.3214874267578125 0.80133056640625 -0.34393310546875
0.3075714111328125 0.76080322265625 -0.3404541015625
0.29840087890625 0.71234130859375 -0.31134033203125
0.3155975341796875 0.75372314453125 -0.3258056640625
0.3253631591796875 0.8017578125 -0.3399658203125
0.318450927734375 0.801025390625 -0.35174560546875
0.2972259521484375 0.7164306640625 -0.32122802734375
0.3021087646484375 0.70965576171875 -0.30194091796875
-0.64263916015625 -0.80419921875 -0.16497802734375
-0.64202880859375 -0.8009033203125 -0.1785888671875
-0.66595458984375 -0.81512451171875 -0.19488525390625
-0.64031982421875 -0.80987548828125 -0.1580810546875
-0.6153106689453125 -0.78656005859375 -0.130859375
-0.6205291748046875 -0.78509521484375 -0.1473388671875
-0.6677703857421875 -0.81427001953125 -0.21295166015625
-0.6656646728515625 -0.8212890625 -0.19171142578125
-0.6118621826171875 -0.79119873046875 -0.1217041015625
0.3380584716796875 0.9256591796875 -0.34112548828125
0.3391571044921875 0.958251953125 -0.3427734375
0.335845947265625 0.9205322265625 -0.3558349609375
0.334686279296875 0.886962890625 -0.35296630859375
0.3415985107421875 0.93438720703125 -0.33428955078125
0.3438568115234375 0.96844482421875 -0.33062744140625
0.3364410400390625 0.953369140625 -0.35186767578125
0.3321075439453125 0.88287353515625 -0.36309814453125
0.338348388671875 0.89117431640625 -0.34814453125
-0.72357177734375 -0.801513671875 -0.29107666015625
-0.7212371826171875 -0.80340576171875 -0.29498291015625
-0.7367706298828125 -0.7825927734375 -0.3170166015625
-0.725830078125 -0.80462646484375 -0.27984619140625
-0.7086639404296875 -0.8131103515625 -0.26080322265625
-0.7062225341796875 -0.8135986328125 -0.26416015625
-0.734619140625 -0.7847900390625 -0.32171630859375
-0.7406768798828125 -0.786376953125 -0.312255859375
-0.7095489501953125 -0.818115234375 -0.2442626953125
0.32232666015625 1.0157470703125 -0.308349609375
0.3115997314453125 1.01611328125 -0.287109375
0.3210906982421875 1.00677490234375 -0.31396484375
0.330322265625 1.00482177734375 -0.31353759765625
0.3246307373046875 1.02874755859375 -0.294677734375
0.313201904296875 1.03057861328125 -0.27471923828125
0.310638427734375 1.007080078125 -0.2943115234375
0.3270721435546875 0.99859619140625 -0.3270263671875
0.335113525390625 1.0181884765625 -0.3001708984375
-0.7468719482421875 -0.70465087890625 -0.3673095703125
-0.7445068359375 -0.70733642578125 -0.36859130859375
-0.74237060546875 -0.674560546875 -0.37786865234375
-0.75262451171875 -0.70086669921875 -0.37322998046875
-0.74798583984375 -0.73291015625 -0.3551025390625
-0.7460174560546875 -0.73736572265625 -0.35565185546875
-0.7399749755859375 -0.67974853515625 -0.3851318359375
-0.7448883056640625 -0.6678466796875 -0.37890625
-0.7511749267578125 -0.73321533203125 -0.3507080078125
0.2716064453125 0.9661865234375 -0.24493408203125
0.256011962890625 0.9383544921875 -0.23126220703125
0.2710723876953125 0.95892333984375 -0.26153564453125
0.28570556640625 0.99468994140625 -0.26190185546875
0.2718048095703125 0.97808837890625 -0.2333984375
0.2562713623046875 0.9468994140625 -0.2099609375
0.2582550048828125 0.931884765625 -0.2462158203125
0.2850189208984375 0.98284912109375 -0.28192138671875
0.28607177734375 1.00189208984375 -0.2457275390625
-0.699737548828125 -0.58953857421875 -0.34881591796875
-0.6989898681640625 -0.59918212890625 -0.3570556640625
-0.6830902099609375 -0.56622314453125 -0.3262939453125
-0.703826904296875 -0.58087158203125 -0.35400390625
-0.7181549072265625 -0.61651611328125 -0.3704833984375
-0.715240478515625 -0.62371826171875 -0.37506103515625
-0.6836395263671875 -0.57647705078125 -0.3321533203125
-0.6842498779296875 -0.55731201171875 -0.32391357421875
-0.7227935791015625 -0.60748291015625 -0.37347412109375
0.227508544921875 0.8568115234375 -0.19781494140625
0.227264404296875 0.8623046875 -0.17559814453125
0.2210235595703125 0.83270263671875 -0.1817626953125
0.227264404296875 0.85162353515625 -0.210693359375
0.232757568359375 0.87994384765625 -0.20343017578125
0.2323760986328125 0.8890380859375 -0.1865234375
0.219451904296875 0.83795166015625 -0.17059326171875
0.2204437255859375 0.82989501953125 -0.1961669921875
0.2388458251953125 0.87646484375 -0.2197265625
-0.634613037109375 -0.5185546875 -0.2547607421875
-0.621307373046875 -0.51104736328125 -0.24334716796875
-0.6333160400390625 -0.5098876953125 -0.2513427734375
-0.6483612060546875 -0.531005859375 -0.2818603515625
-0.6362457275390625 -0.53204345703125 -0.26947021484375
-0.6208953857421875 -0.520263671875 -0.24224853515625
-0.6190338134765625 -0.49896240234375 -0.23406982421875
-0.64813232421875 -0.52117919921875 -0.27740478515625
-0.6486663818359375 -0.5419921875 -0.28326416015625
0.1865386962890625 0.42730712890625 -0.0604248046875
0.1803131103515625 0.39984130859375 -0.039794921875
0.1785430908203125 0.4072265625 -0.08489990234375
0.187255859375 0.4434814453125 -0.07318115234375
0.194091796875 0.4534912109375 -0.03204345703125
0.194671630859375 0.43463134765625 -0.01593017578125
0.17156982421875 0.38079833984375 -0.08111572265625
0.183380126953125 0.4332275390625 -0.1004638671875
0.19256591796875 0.46636962890625 -0.049560546875
-0.3934326171875 -0.52227783203125 0.08648681640625
-0.3905029296875 -0.5281982421875 0.05877685546875
-0.3756103515625 -0.5150146484375 0.098876953125
-0.4010009765625 -0.515869140625 0.1025390625
-0.40673828125 -0.5257568359375 0.07275390625
-0.4058990478515625 -0.53338623046875 0.04913330078125
-0.3749542236328125 -0.51983642578125 0.0765380859375
-0.3814239501953125 -0.5107421875 0.12896728515625
-0.412506103515625 -0.5205078125 0.07476806640625
0.1976165771484375 0.42401123046875 -0.1246337890625
0.1903076171875 0.4031982421875 -0.1253662109375
0.2156524658203125 0.44757080078125 -0.1412353515625
0.2026519775390625 0.44866943359375 -0.12823486328125
0.18426513671875 0.40740966796875 -0.1141357421875
0.176025390625 0.38360595703125 -0.12255859375
0.206268310546875 0.4300537109375 -0.139404296875
0.21685791015625 0.46624755859375 -0.13812255859375
0.192535400390625 0.4351806640625 -0.12945556640625
-0.4120330810546875 -0.580322265625 0.04815673828125
-0.427978515625 -0.60760498046875 0.05548095703125
-0.402862548828125 -0.5760498046875 0.0384521484375
-0.39984130859375 -0.5552978515625 0.03680419921875
-0.4246826171875 -0.584228515625 0.0384521484375
-0.437042236328125 -0.61126708984375 0.04083251953125
-0.4199371337890625 -0.60693359375 0.04815673828125
-0.3880462646484375 -0.54888916015625 0.03302001953125
-0.4164886474609375 -0.56298828125 0.03839111328125
0.2101898193359375 0.5897216796875 0.021484375
0.2147064208984375 0.58074951171875 0.0511474609375
0.2073822021484375 0.537353515625 0
0.2031097412109375 0.59442138671875 -0.005615234375
0.2070770263671875 0.6387939453125 0.0306396484375
0.21392822265625 0.6287841796875 0.07403564453125
0.212158203125 0.52557373046875 0.04315185546875
0.2026519775390625 0.5457763671875 -0.018310546875
0.203094482421875 0.647705078125 0.0135498046875
-0.4624786376953125 -0.489013671875 0.09344482421875
-0.43548583984375 -0.50421142578125 0.1043701171875
-0.4512176513671875 -0.49041748046875 0.13031005859375
-0.486724853515625 -0.47314453125 0.07305908203125
-0.4707794189453125 -0.491943359375 0.05511474609375
-0.4455108642578125 -0.50238037109375 0.07415771484375
-0.4209442138671875 -0.4998779296875 0.146728515625
-0.4747161865234375 -0.47119140625 0.11798095703125
-0.496368408203125 -0.46868896484375 0.0335693359375
0.186798095703125 0.77130126953125 -0.1361083984375
0.1827545166015625 0.74951171875 -0.12725830078125
0.192535400390625 0.76995849609375 -0.13739013671875
0.1942596435546875 0.79486083984375 -0.1397705078125
0.1837921142578125 0.7703857421875 -0.139404296875
0.1778411865234375 0.75262451171875 -0.1356201171875
0.1871490478515625 0.7484130859375 -0.1378173828125
0.1971435546875 0.7952880859375 -0.139404296875
0.1887969970703125 0.794921875 -0.15032958984375
-0.57769775390625 -0.44781494140625 -0.1925048828125
-0.578887939453125 -0.45794677734375 -0.18408203125
-0.56634521484375 -0.446044921875 -0.17584228515625
-0.5755157470703125 -0.43646240234375 -0.1968994140625
-0.58868408203125 -0.45172119140625 -0.20635986328125
-0.5927734375 -0.4632568359375 -0.20263671875
-0.5667724609375 -0.45489501953125 -0.17108154296875
-0.564483642578125 -0.43170166015625 -0.1890869140625
-0.5901336669921875 -0.4422607421875 -0.22271728515625
0.2148284912109375 0.5091552734375 -0.17071533203125
0.22613525390625 0.52459716796875 -0.17095947265625
0.2181396484375 0.52374267578125 -0.1923828125
0.2041778564453125 0.4984130859375 -0.1700439453125
0.2128143310546875 0.4918212890625 -0.15185546875
0.2226409912109375 0.50787353515625 -0.15667724609375
0.2276763916015625 0.53521728515625 -0.18701171875
0.2083587646484375 0.51373291015625 -0.19757080078125
0.2015380859375 0.479736328125 -0.1578369140625
-0.4666290283203125 -0.60955810546875 -0.0067138671875
-0.4770660400390625 -0.61932373046875 -0.02197265625
-0.472564697265625 -0.62994384765625 0.00177001953125
-0.4525146484375 -0.59954833984375 0.0130615234375
-0.4591064453125 -0.59649658203125 -0.005126953125
-0.473907470703125 -0.60662841796875 -0.0286865234375
-0.4851837158203125 -0.6357421875 -0.0150146484375
-0.463104248046875 -0.62237548828125 0.02252197265625
-0.4454345703125 -0.58111572265625 0.00335693359375
0.1897125244140625 0.5037841796875 -0.18121337890625
0.1889190673828125 0.5128173828125 -0.18341064453125
0.18511962890625 0.49188232421875 -0.16351318359375
0.192779541015625 0.49578857421875 -0.1810302734375
0.1960296630859375 0.5162353515625 -0.2037353515625
0.195404052734375 0.52337646484375 -0.2017822265625
0.1817169189453125 0.50152587890625 -0.168212890625
0.1860198974609375 0.48016357421875 -0.16314697265625
0.196258544921875 0.50946044921875 -0.19732666015625
-0.463653564453125 -0.5684814453125 -0.0418701171875
-0.450897216796875 -0.55352783203125 -0.03155517578125
-0.4681243896484375 -0.56219482421875 -0.05694580078125
-0.4751434326171875 -0.58526611328125 -0.0601806640625
-0.458984375 -0.575439453125 -0.0372314453125
-0.4466552734375 -0.555419921875 -0.015625
-0.457275390625 -0.546142578125 -0.0389404296875
-0.4799652099609375 -0.58453369140625 -0.06817626953125
-0.473785400390625 -0.59307861328125 -0.05120849609375
0.1847076416015625 0.54327392578125 -0.2052001953125
0.1779937744140625 0.53802490234375 -0.19122314453125
0.18438720703125 0.53240966796875 -0.1939697265625
0.1905059814453125 0.54931640625 -0.21478271484375
0.18170166015625 0.55169677734375 -0.205810546875
0.1777496337890625 0.54827880859375 -0.202392578125
0.1786651611328125 0.5264892578125 -0.17755126953125
0.1930389404296875 0.54425048828125 -0.20831298828125
0.1886138916015625 0.55877685546875 -0.21539306640625
-0.484222412109375 -0.55023193359375 -0.090087890625
-0.479522705078125 -0.55523681640625 -0.07623291015625
-0.4788360595703125 -0.53466796875 -0.09222412109375
-0.4902496337890625 -0.54754638671875 -0.1043701171875
-0.4918670654296875 -0.56512451171875 -0.093505859375
-0.489593505859375 -0.57080078125 -0.08697509765625
-0.4721832275390625 -0.53802490234375 -0.0672607421875
-0.48626708984375 -0.53155517578125 -0.10980224609375
-0.495697021484375 -0.55975341796875 -0.1058349609375
0.1756744384765625 0.58123779296875 -0.17340087890625
0.178192138671875 0.60906982421875 -0.173828125
0.175262451171875 0.57708740234375 -0.16119384765625
0.172515869140625 0.55767822265625 -0.17767333984375
0.1771697998046875 0.58795166015625 -0.19854736328125
0.179656982421875 0.613037109375 -0.18994140625
0.1780548095703125 0.607666015625 -0.158447265625
0.1740570068359375 0.5489501953125 -0.157470703125
0.17364501953125 0.5660400390625 -0.18927001953125
-0.4960784912109375 -0.5064697265625 -0.1107177734375
-0.4875030517578125 -0.5013427734375 -0.08978271484375
-0.5076904296875 -0.50360107421875 -0.12939453125
-0.5005340576171875 -0.51318359375 -0.12689208984375
-0.48370361328125 -0.5135498046875 -0.0982666015625
-0.4753570556640625 -0.5084228515625 -0.0789794921875
-0.50177001953125 -0.49749755859375 -0.10400390625
-0.5126800537109375 -0.5093994140625 -0.1319580078125
-0.4927520751953125 -0.51605224609375 -0.113037109375
0.1903076171875 0.68475341796875 -0.17041015625
0.1847076416015625 0.68304443359375 -0.1556396484375
0.1857452392578125 0.66229248046875 -0.17303466796875
0.1904754638671875 0.6839599609375 -0.1845703125
0.1923828125 0.70379638671875 -0.16998291015625
0.1891021728515625 0.70220947265625 -0.1512451171875
0.182769775390625 0.66204833984375 -0.156005859375
0.187347412109375 0.66314697265625 -0.192138671875
0.1961212158203125 0.70623779296875 -0.1768798828125
-0.5449371337890625 -0.49615478515625 -0.1544189453125
-0.5321044921875 -0.49713134765625 -0.14434814453125
-0.53900146484375 -0.48492431640625 -0.14398193359375
-0.552886962890625 -0.49383544921875 -0.1605224609375
-0.545196533203125 -0.50885009765625 -0.16204833984375
-0.536895751953125 -0.50860595703125 -0.15618896484375
-0.5286102294921875 -0.48626708984375 -0.13470458984375
-0.550140380859375 -0.484375 -0.15753173828125
-0.5575103759765625 -0.5047607421875 -0.1715087890625
0.2040252685546875 0.7679443359375 -0.1688232421875
0.199859619140625 0.76885986328125 -0.16229248046875
0.200958251953125 0.7457275390625 -0.16058349609375
0.2073211669921875 0.7684326171875 -0.18475341796875
0.209930419921875 0.78759765625 -0.1724853515625
0.2057647705078125 0.790283203125 -0.154541015625
0.19610595703125 0.74664306640625 -0.15155029296875
0.20196533203125 0.7449951171875 -0.18206787109375
0.2112579345703125 0.78509521484375 -0.1871337890625
-0.5840606689453125 -0.4959716796875 -0.1903076171875
-0.572296142578125 -0.494140625 -0.18585205078125
-0.5809783935546875 -0.4844970703125 -0.18939208984375
-0.5958709716796875 -0.5009765625 -0.2091064453125
-0.585113525390625 -0.50726318359375 -0.197998046875
-0.5752716064453125 -0.5054931640625 -0.19439697265625
-0.570098876953125 -0.480712890625 -0.17242431640625
-0.59088134765625 -0.48663330078125 -0.2010498046875
-0.59759521484375 -0.5120849609375 -0.21844482421875
0.181793212890625 0.709716796875 -0.10107421875
0.183746337890625 0.6912841796875 -0.08251953125
0.183807373046875 0.69757080078125 -0.11962890625
0.1799774169921875 0.719970703125 -0.1156005859375
0.1802215576171875 0.72052001953125 -0.0816650390625
0.1841278076171875 0.706298828125 -0.0570068359375
0.1843719482421875 0.67578125 -0.11859130859375
0.182464599609375 0.711181640625 -0.1312255859375
0.1771087646484375 0.72882080078125 -0.10101318359375
-0.540374755859375 -0.45062255859375 -0.1153564453125
-0.5390777587890625 -0.4615478515625 -0.12384033203125
-0.5311737060546875 -0.457763671875 -0.09503173828125
-0.5450286865234375 -0.43914794921875 -0.1158447265625
-0.5489349365234375 -0.4464111328125 -0.14019775390625
-0.5455169677734375 -0.4591064453125 -0.1424560546875
-0.5289459228515625 -0.4656982421875 -0.102783203125
-0.5370941162109375 -0.4437255859375 -0.0838623046875
-0.5512847900390625 -0.43621826171875 -0.14117431640625
0.1865081787109375 0.58709716796875 -0.08587646484375
0.19049072265625 0.5946044921875 -0.054443359375
0.181915283203125 0.544189453125 -0.0897216796875
0.179962158203125 0.57855224609375 -0.114501953125
0.1857147216796875 0.62677001953125 -0.08294677734375
0.190216064453125 0.642578125 -0.04931640625
0.187530517578125 0.5455322265625 -0.06976318359375
0.1776885986328125 0.5413818359375 -0.12152099609375
0.1802978515625 0.61865234375 -0.1151123046875
-0.480682373046875 -0.4881591796875 -0.02606201171875
-0.460845947265625 -0.5003662109375 -0.01214599609375
-0.478912353515625 -0.48590087890625 -0.00054931640625
-0.5001068115234375 -0.47637939453125 -0.04888916015625
-0.4799957275390625 -0.4930419921875 -0.056640625
-0.4641265869140625 -0.50164794921875 -0.0308837890625
-0.4570159912109375 -0.5006103515625 0.02203369140625
-0.5028533935546875 -0.47222900390625 -0.02294921875
-0.499053955078125 -0.483642578125 -0.07080078125
0.18133544921875 0.47589111328125 -0.10882568359375
0.18359375 0.47003173828125 -0.10418701171875
0.1804962158203125 0.47515869140625 -0.11669921875
0.1814422607421875 0.48736572265625 -0.1019287109375
0.186553955078125 0.48394775390625 -0.08978271484375
0.1818084716796875 0.46575927734375 -0.1168212890625
0.1795501708984375 0.4903564453125 -0.12237548828125
-0.4297943115234375 -0.52227783203125 0.01910400390625
-0.433441162109375 -0.5267333984375 0.00164794921875
-0.4241485595703125 -0.5235595703125 0.0291748046875
-0.4353790283203125 -0.51678466796875 0.017578125
-0.4393768310546875 -0.52069091796875 -0.00225830078125
-0.4277496337890625 -0.53125 0.0179443359375
-0.4278717041015625 -0.5169677734375 0.0294189453125
0.2109527587890625 0.76409912109375 -0.2130126953125
0.2097930908203125 0.7659912109375 -0.20391845703125
0.2073516845703125 0.74578857421875 -0.2110595703125
0.2113800048828125 0.765380859375 -0.23602294921875
0.216644287109375 0.785400390625 -0.216552734375
0.2159881591796875 0.78509521484375 -0.2132568359375
0.2061309814453125 0.7454833984375 -0.20648193359375
0.2095489501953125 0.743896484375 -0.2308349609375
0.2178192138671875 0.785400390625 -0.2335205078125
-0.5921173095703125 -0.533447265625 -0.23468017578125
-0.5849151611328125 -0.52996826171875 -0.2156982421875
-0.59039306640625 -0.52459716796875 -0.21697998046875
-0.603759765625 -0.53515625 -0.2435302734375
-0.596466064453125 -0.53826904296875 -0.240966796875
-0.5866546630859375 -0.53564453125 -0.22320556640625
-0.582489013671875 -0.52276611328125 -0.2071533203125
-0.6004638671875 -0.5277099609375 -0.241455078125
-0.60760498046875 -0.54022216796875 -0.24951171875
0.19537353515625 0.687255859375 -0.22052001953125
0.1947479248046875 0.68670654296875 -0.20623779296875
0.1902008056640625 0.6666259765625 -0.2215576171875
0.196319580078125 0.688720703125 -0.2337646484375
0.200408935546875 0.70721435546875 -0.2164306640625
0.19793701171875 0.7054443359375 -0.20306396484375
0.19091796875 0.66436767578125 -0.2120361328125
0.1934967041015625 0.6695556640625 -0.23345947265625
0.200439453125 0.7081298828125 -0.22711181640625
-0.5549468994140625 -0.52655029296875 -0.19085693359375
-0.54632568359375 -0.5286865234375 -0.1856689453125
-0.5540771484375 -0.5220947265625 -0.18194580078125
-0.56549072265625 -0.5272216796875 -0.20111083984375
-0.5580291748046875 -0.5335693359375 -0.19293212890625
-0.54681396484375 -0.532958984375 -0.1907958984375
-0.5420379638671875 -0.5225830078125 -0.1702880859375
-0.56201171875 -0.52264404296875 -0.1873779296875
-0.566802978515625 -0.534423828125 -0.209716796875
0.1762542724609375 0.60052490234375 -0.2294921875
0.1777191162109375 0.59454345703125 -0.212890625
0.173126220703125 0.57977294921875 -0.22308349609375
0.1798248291015625 0.60028076171875 -0.23443603515625
0.1811981201171875 0.62103271484375 -0.2308349609375
0.180145263671875 0.62078857421875 -0.2197265625
0.174285888671875 0.57958984375 -0.2222900390625
0.174530029296875 0.58514404296875 -0.2423095703125
0.1823883056640625 0.62371826171875 -0.2349853515625
-0.5141448974609375 -0.52532958984375 -0.1588134765625
-0.50384521484375 -0.52435302734375 -0.15692138671875
-0.5122833251953125 -0.52166748046875 -0.15277099609375
-0.5252838134765625 -0.52545166015625 -0.16314697265625
-0.516387939453125 -0.52972412109375 -0.16375732421875
-0.5091400146484375 -0.53131103515625 -0.16033935546875
-0.5032501220703125 -0.5224609375 -0.14373779296875
-0.5230560302734375 -0.51959228515625 -0.152587890625
-0.5293426513671875 -0.5316162109375 -0.17449951171875
0.1784515380859375 0.5682373046875 -0.2298583984375
0.1779327392578125 0.56219482421875 -0.223388671875
0.185516357421875 0.570556640625 -0.2313232421875
0.179107666015625 0.57305908203125 -0.242431640625
0.17572021484375 0.56622314453125 -0.2244873046875
0.174346923828125 0.5615234375 -0.22137451171875
0.1843719482421875 0.56744384765625 -0.2271728515625
0.186248779296875 0.573974609375 -0.242431640625
0.17596435546875 0.56976318359375 -0.2335205078125
-0.502716064453125 -0.54473876953125 -0.1414794921875
-0.5050811767578125 -0.55718994140625 -0.1295166015625
-0.497283935546875 -0.54364013671875 -0.13201904296875
-0.5005950927734375 -0.53582763671875 -0.14154052734375
-0.50555419921875 -0.54644775390625 -0.14874267578125
-0.5095367431640625 -0.558837890625 -0.1435546875
-0.503204345703125 -0.55633544921875 -0.12689208984375
-0.496795654296875 -0.5321044921875 -0.1337890625
-0.503173828125 -0.53814697265625 -0.143798828125
0.199493408203125 0.5693359375 -0.24114990234375
0.198028564453125 0.5660400390625 -0.22857666015625
0.20068359375 0.564208984375 -0.24432373046875
0.2008514404296875 0.57525634765625 -0.2532958984375
0.194183349609375 0.57452392578125 -0.23931884765625
0.1937255859375 0.56884765625 -0.2322998046875
0.2014617919921875 0.55877685546875 -0.23455810546875
0.203216552734375 0.568115234375 -0.251220703125
0.1964569091796875 0.5777587890625 -0.24786376953125
-0.510528564453125 -0.593505859375 -0.12127685546875
-0.5081787109375 -0.60479736328125 -0.114501953125
-0.5047607421875 -0.5865478515625 -0.10833740234375
-0.5084228515625 -0.58209228515625 -0.1314697265625
-0.5152435302734375 -0.59912109375 -0.1322021484375
-0.5149993896484375 -0.60687255859375 -0.11920166015625
-0.5027618408203125 -0.59765625 -0.1063232421875
-0.5058441162109375 -0.57720947265625 -0.111083984375
-0.5151214599609375 -0.5888671875 -0.13494873046875
0.20361328125 0.537109375 -0.2449951171875
0.2026519775390625 0.53094482421875 -0.24017333984375
0.2033538818359375 0.53192138671875 -0.2451171875
0.2054595947265625 0.54071044921875 -0.25189208984375
0.2057037353515625 0.54669189453125 -0.239013671875
0.2039794921875 0.54150390625 -0.23193359375
0.2022705078125 0.52716064453125 -0.22906494140625
0.20404052734375 0.534912109375 -0.249755859375
0.2066192626953125 0.549560546875 -0.25665283203125
-0.4985504150390625 -0.61669921875 -0.092529296875
-0.4942474365234375 -0.6195068359375 -0.08917236328125
-0.492950439453125 -0.6109619140625 -0.0885009765625
-0.502899169921875 -0.6165771484375 -0.10205078125
-0.5023193359375 -0.6229248046875 -0.10247802734375
-0.500762939453125 -0.62286376953125 -0.096923828125
-0.491363525390625 -0.61090087890625 -0.0826416015625
-0.49420166015625 -0.60986328125 -0.09466552734375
-0.5058746337890625 -0.6207275390625 -0.11273193359375
0.218963623046875 0.543701171875 -0.23114013671875
0.2184295654296875 0.5362548828125 -0.2132568359375
0.226287841796875 0.5556640625 -0.2352294921875
0.217010498046875 0.54327392578125 -0.23663330078125
0.210968017578125 0.5323486328125 -0.23370361328125
0.2100982666015625 0.528076171875 -0.22125244140625
0.22833251953125 0.5533447265625 -0.216064453125
0.224700927734375 0.5592041015625 -0.244873046875
0.211273193359375 0.53515625 -0.24530029296875
-0.4988250732421875 -0.63555908203125 -0.06695556640625
-0.5073699951171875 -0.65008544921875 -0.0611572265625
-0.4942474365234375 -0.63287353515625 -0.05914306640625
-0.4924163818359375 -0.6278076171875 -0.07403564453125
-0.5016326904296875 -0.6387939453125 -0.0804443359375
-0.510894775390625 -0.65277099609375 -0.07281494140625
-0.49981689453125 -0.64801025390625 -0.0548095703125
-0.489837646484375 -0.62139892578125 -0.05963134765625
-0.4974517822265625 -0.63055419921875 -0.0848388671875
0.232666015625 0.8485107421875 -0.24737548828125
0.2322540283203125 0.84796142578125 -0.233154296875
0.2255401611328125 0.82440185546875 -0.2359619140625
0.2361907958984375 0.84576416015625 -0.25885009765625
0.2406158447265625 0.869140625 -0.2647705078125
0.2387237548828125 0.8719482421875 -0.249755859375
0.225921630859375 0.82550048828125 -0.220947265625
0.2299041748046875 0.82586669921875 -0.24896240234375
0.24365234375 0.8695068359375 -0.2735595703125
-0.639404296875 -0.553955078125 -0.29461669921875
-0.6257476806640625 -0.54638671875 -0.27972412109375
-0.63604736328125 -0.54791259765625 -0.28411865234375
-0.6527557373046875 -0.56744384765625 -0.3017578125
-0.640625 -0.56341552734375 -0.3017578125
-0.628662109375 -0.55279541015625 -0.277587890625
-0.6249237060546875 -0.53826904296875 -0.268798828125
-0.6519012451171875 -0.56036376953125 -0.30938720703125
-0.6561737060546875 -0.5750732421875 -0.319580078125
0.274322509765625 0.9461669921875 -0.30242919921875
0.2725372314453125 0.95074462890625 -0.2894287109375
0.261993408203125 0.9219970703125 -0.28125
0.27496337890625 0.94476318359375 -0.312255859375
0.2881317138671875 0.970947265625 -0.30780029296875
0.2863922119140625 0.9718017578125 -0.29827880859375
0.2615509033203125 0.9217529296875 -0.27581787109375
