# XYZ point cloud file
65.457351684570312 -124.87174224853516 -159.48207092285156
67.432601928710938 -124.55772399902344 -159.48207092285156
68.009956359863281 -124.15254974365234 -159.48208618164062
69.417922973632812 -123.22064208984375 -159.48210144042969
70.663810729980469 -122.17731475830078 -159.48210144042969
71.393119812011719 -121.44800567626953 -159.48210144042969
72.436439514160156 -120.19196319580078 -159.48213195800781
73.368331909179688 -118.79409027099609 -159.48213195800781
73.783653259277344 -118.21672058105469 -159.48214721679688
74.675025939941406 -116.24149322509766 -159.48216247558594
75.0599365234375 -114.25614929199219 -159.48216247558594
75.059928894042969 -112.28092956542969 -159.482177734375
75.039680480957031 -110.30570220947266 -159.48219299316406
74.249557495117188 -108.32036590576172 -159.48220825195312
73.368270874023438 -107.26691436767578 -159.48220825195312
72.659202575683594 -106.34516143798828 -159.48219299316406
71.393028259277344 -104.72447204589844 -159.48220825195312
71.099273681640625 -104.36993408203125 -159.48220825195312
69.600181579589844 -102.38459777832031 -159.48222351074219
69.417861938476562 -102.2022705078125 -159.48222351074219
67.432479858398438 -101.46284484863281 -159.48220825195312
65.457260131835938 -100.84496307373047 -159.48220825195312
63.482036590576172 -100.59174346923828 -159.48219299316406
61.496639251708984 -101.12860870361328 -159.482177734375
59.987289428710938 -102.38465881347656 -159.48214721679688
59.521297454833984 -103.08359527587891 -159.48213195800781
58.812179565429688 -104.37001800537109 -159.48210144042969
58.254978179931641 -106.34525299072266 -159.4820556640625
59.521026611328125 -108.23943328857422 -159.48202514648438
59.581798553466797 -108.32048034667969 -159.48202514648438
59.703300476074219 -110.30581665039062 -159.48199462890625
59.581733703613281 -112.28104400634766 -159.48199462890625
59.520961761474609 -112.443115234375 -159.48199462890625
58.953750610351562 -114.25627136230469 -159.48197937011719
58.882888793945312 -116.24161529541016 -159.48196411132812
58.842449188232422 -118.21683502197266 -159.48197937011719
58.842552185058594 -120.19205474853516 -159.48199462890625
59.339015960693359 -122.17739105224609 -159.48200988769531
59.521354675292969 -122.35971832275391 -159.48200988769531
61.496646881103516 -123.65625762939453 -159.48202514648438
62.610912322998047 -124.152587890625 -159.48202514648438
57.546333312988281 -128.2955322265625 -156.94972229003906
59.521633148193359 -129.40972900390625 -156.94975280761719
61.496868133544922 -129.79464721679688 -156.94975280761719
63.482166290283203 -129.40971374511719 -156.94975280761719
65.457344055175781 -128.86273193359375 -156.94975280761719
66.530982971191406 -128.10302734375 -156.94975280761719
67.432449340820312 -127.46486663818359 -156.94975280761719
69.417762756347656 -126.31011962890625 -156.94975280761719
69.600074768066406 -126.12779235839844 -156.94976806640625
71.392906188964844 -124.44631195068359 -156.94978332519531
71.706916809082031 -124.15255737304688 -156.94976806640625
73.084442138671875 -122.17732238769531 -156.94978332519531
73.368049621582031 -121.72151184082031 -156.94978332519531
74.208755493164062 -120.19197845458984 -156.94978332519531
75.353385925292969 -118.43959045410156 -156.94979858398438
75.535713195800781 -118.21674346923828 -156.94981384277344
76.275161743164062 -116.24151611328125 -156.9498291015625
77.014633178710938 -114.25616455078125 -156.94984436035156
77.146331787109375 -112.28093719482422 -156.94987487792969
77.146339416503906 -110.30571746826172 -156.94989013671875
77.146385192871094 -108.32037353515625 -156.94990539550781
77.146469116210938 -106.34514617919922 -156.94993591308594
77.014869689941406 -104.36991119384766 -156.94996643066406
76.285614013671875 -102.38457489013672 -156.94999694824219
75.353752136230469 -100.86517333984375 -156.95001220703125
75.019485473632812 -100.40935516357422 -156.95001220703125
73.368400573730469 -99.031768798828125 -156.95002746582031
71.393089294433594 -98.49493408203125 -156.94998168945312
71.251274108886719 -98.434158325195312 -156.94998168945312
69.417831420898438 -97.755508422851562 -156.94996643066406
67.432403564453125 -97.62384033203125 -156.949951171875
65.457122802734375 -97.67449951171875 -156.94993591308594
63.481834411621094 -98.029045104980469 -156.94989013671875
62.489109039306641 -98.434219360351562 -156.94987487792969
61.496402740478516 -98.81915283203125 -156.94985961914062
59.521236419677734 -98.616569519042969 -156.94987487792969
57.546070098876953 -98.738121032714844 -156.94987487792969
55.570858001708984 -99.538360595703125 -156.94985961914062
54.426227569580078 -100.40948486328125 -156.94984436035156
53.585494995117188 -101.04763793945312 -156.9498291015625
51.610332489013672 -102.202392578125 -156.94984436035156
51.428005218505859 -102.38472747802734 -156.94984436035156
50.273231506347656 -104.37007904052734 -156.94981384277344
49.635093688964844 -105.27159881591797 -156.94979858398438
48.875415802001953 -106.34530639648438 -156.94978332519531
49.219696044921875 -108.32053375244141 -156.94976806640625
49.634929656982422 -109.31321716308594 -156.94973754882812
50.019786834716797 -110.30588531494141 -156.94970703125
49.918487548828125 -112.28110504150391 -156.94970703125
49.918502807617188 -114.25633239746094 -156.94969177246094
50.313552856445312 -116.24167633056641 -156.94967651367188
51.204925537109375 -118.21689605712891 -156.94967651367188
51.610107421875 -119.07788848876953 -156.94966125488281
52.136852264404297 -120.19210815429688 -156.94967651367188
52.653541564941406 -122.17744445800781 -156.94967651367188
53.585494995117188 -123.69684600830078 -156.94967651367188
53.879261016845703 -124.15266418457031 -156.94969177246094
55.277217864990234 -126.12786865234375 -156.94970703125
55.570991516113281 -126.42162322998047 -156.94970703125
57.363990783691406 -128.10307312011719 -156.94972229003906
59.521404266357422 -130.72657775878906 -154.41743469238281
61.496589660644531 -130.72657775878906 -154.41743469238281
63.481945037841797 -130.76707458496094 -154.41744995117188
65.457168579101562 -130.61512756347656 -154.41744995117188
66.145912170410156 -130.08839416503906 -154.41743469238281
67.4322509765625 -129.15647888183594 -154.41744995117188
69.417572021484375 -128.28536987304688 -154.41744995117188
69.599884033203125 -128.10302734375 -154.41744995117188
71.210334777832031 -126.12781524658203 -154.41743469238281
71.392646789550781 -125.94548797607422 -154.41744995117188
73.084197998046875 -124.15257263183594 -154.41744995117188
73.367790222167969 -123.69675445556641 -154.41744995117188
74.309783935546875 -122.17735290527344 -154.41744995117188
75.059288024902344 -120.19200897216797 -154.41746520996094
75.353034973144531 -119.74631500244141 -154.41744995117188
76.284950256347656 -118.21677398681641 -154.41748046875
77.014266967773438 -116.24154663085938 -154.41751098632812
76.943305969238281 -114.25621032714844 -154.41751098632812
77.328262329101562 -113.27365875244141 -154.41751098632812
77.733474731445312 -112.28096771240234 -154.41754150390625
78.128578186035156 -110.30574035644531 -154.41755676269531
78.128623962402344 -108.32039642333984 -154.41758728027344
78.088188171386719 -106.34517669677734 -154.41763305664062
77.733726501464844 -104.36994171142578 -154.41764831542969
77.328567504882812 -103.49882507324219 -154.41764831542969
76.832244873046875 -102.38459777832031 -154.41766357421875
75.535728454589844 -100.40939331054688 -154.41767883300781
75.353401184082031 -100.22705841064453 -154.41767883300781
73.36798095703125 -99.072334289550781 -154.41766357421875
72.466468811035156 -98.434181213378906 -154.41766357421875
71.392768859863281 -97.674484252929688 -154.41766357421875
69.417488098144531 -97.137649536132812 -154.41764831542969
67.432090759277344 -96.76287841796875 -154.41763305664062
65.456840515136719 -96.641342163085938 -154.41761779785156
63.481586456298828 -96.641357421875 -154.41758728027344
61.496177673339844 -97.137702941894531 -154.41757202148438
59.520938873291016 -97.623924255371094 -154.41755676269531
57.5457763671875 -97.654319763183594 -154.41755676269531
56.056743621826172 -98.434288024902344 -154.41754150390625
55.570533752441406 -98.728042602539062 -154.41754150390625
53.585170745849609 -100.10565185546875 -154.41751098632812
53.281280517578125 -100.40953063964844 -154.41751098632812
51.609931945800781 -102.08087158203125 -154.41748046875
51.316184997558594 -102.384765625 -154.41749572753906
49.634746551513672 -104.17765045166016 -154.41746520996094
49.442298889160156 -104.37010955810547 -154.41748046875
48.702827453613281 -106.34534454345703 -154.41744995117188
48.064670562744141 -108.32057952880859 -154.41743469238281
47.943088531494141 -110.30591583251953 -154.41741943359375
47.710121154785156 -112.28114318847656 -154.41740417480469
47.64935302734375 -112.40269470214844 -154.41740417480469
46.869503021240234 -114.25637054443359 -154.41740417480469
47.244281768798828 -116.24170684814453 -154.41738891601562
47.649436950683594 -117.10271453857422 -154.41738891601562
48.145767211914062 -118.21693420410156 -154.41737365722656
48.702922821044922 -120.19215393066406 -154.41738891601562
49.442420959472656 -122.177490234375 -154.41738891601562
49.634872436523438 -122.35981750488281 -154.41738891601562
51.427745819091797 -124.15270233154297 -154.4173583984375
51.610076904296875 -124.33502960205078 -154.4173583984375
53.403007507324219 -126.12791442871094 -154.41737365722656
53.585342407226562 -126.31023406982422 -154.41737365722656
55.570766448974609 -128.05247497558594 -154.41738891601562
55.641670227050781 -128.10311889648438 -154.41738891601562
57.546077728271484 -129.51107788085938 -154.41740417480469
58.538799285888672 -130.08843994140625 -154.41741943359375
57.54595947265625 -131.24320983886719 -151.88510131835938
59.521213531494141 -131.88134765625 -151.88510131835938
61.496379852294922 -131.75979614257812 -151.88511657714844
63.481670379638672 -131.38499450683594 -151.88510131835938
65.456863403320312 -131.02032470703125 -151.88510131835938
67.330718994140625 -130.08842468261719 -151.88510131835938
67.4320068359375 -130.02764892578125 -151.88510131835938
69.417213439941406 -128.2955322265625 -151.88510131835938
69.609657287597656 -128.10307312011719 -151.88510131835938
71.392349243164062 -126.53301239013672 -151.88510131835938
71.858291625976562 -126.12784576416016 -151.88510131835938
73.367515563964844 -124.60843658447266 -151.88511657714844
73.803077697753906 -124.15260314941406 -151.88510131835938
75.059059143066406 -122.17737579345703 -151.88511657714844
75.352806091308594 -121.72156524658203 -151.8851318359375
76.284690856933594 -120.19203186035156 -151.8851318359375
76.831626892089844 -118.21680450439453 -151.88514709472656
77.327987670898438 -117.10256958007812 -151.88516235351562
77.733169555664062 -116.2415771484375 -151.88516235351562
78.087699890136719 -114.2562255859375 -151.88517761230469
78.259910583496094 -112.28099822998047 -151.88519287109375
78.99945068359375 -110.30577087402344 -151.88523864746094
79.019760131835938 -108.32041931152344 -151.88526916503906
79.019844055175781 -106.34519958496094 -151.88529968261719
79.019943237304688 -104.36996459960938 -151.88533020019531
78.624992370605469 -102.38461303710938 -151.88536071777344
78.088241577148438 -100.40940093994141 -151.88540649414062
77.32855224609375 -99.416717529296875 -151.88540649414062
76.568862915039062 -98.434173583984375 -151.88540649414062
75.353355407714844 -97.208534240722656 -151.88542175292969
73.367874145507812 -96.833770751953125 -151.88539123535156
72.385292053222656 -96.4488525390625 -151.8853759765625
71.392593383789062 -96.074073791503906 -151.88536071777344
69.41729736328125 -95.810737609863281 -151.88534545898438
67.43182373046875 -96.043724060058594 -151.88529968261719
66.449195861816406 -96.44891357421875 -151.88528442382812
65.456451416015625 -96.833831787109375 -151.88525390625
63.481166839599609 -97.137725830078125 -151.88523864746094
61.495761871337891 -97.623954772949219 -151.88520812988281
59.520572662353516 -97.654350280761719 -151.88520812988281
57.666877746582031 -98.434318542480469 -151.88519287109375
57.545322418212891 -98.495094299316406 -151.88517761230469
55.570121765136719 -99.234550476074219 -151.88517761230469
54.395069122314453 -100.40956115722656 -151.88514709472656
53.584697723388672 -101.33133697509766 -151.88511657714844
52.713558197021484 -102.38480377197266 -151.88510131835938
51.903133392333984 -104.37015533447266 -151.88508605957031
51.609378814697266 -104.86649322509766 -151.88507080078125
50.829410552978516 -106.34539031982422 -151.88505554199219
50.677402496337891 -108.32061767578125 -151.88502502441406
50.039276123046875 -110.30596160888672 -151.885009765625
50.019004821777344 -112.28117370605469 -151.88499450683594
49.634128570556641 -113.27385711669922 -151.88499450683594
49.218875885009766 -114.25640869140625 -151.885009765625
49.218921661376953 -116.24174499511719 -151.885009765625
49.63421630859375 -117.22429656982422 -151.88499450683594
50.019138336181641 -118.21696472167969 -151.88499450683594
49.917957305908203 -120.19218444824219 -151.88499450683594
50.039634704589844 -122.17752075195312 -151.885009765625
51.315975189208984 -124.15274047851562 -151.88502502441406
51.609733581542969 -124.50727081298828 -151.88502502441406
52.805061340332031 -126.12794494628906 -151.88502502441406
53.585079193115234 -127.19152069091797 -151.88504028320312
54.344837188720703 -128.1031494140625 -151.88505554199219
55.570590972900391 -129.4908447265625 -151.88507080078125
56.158138275146484 -130.08848571777344 -151.88508605957031
57.545280456542969 -128.51847839355469 -149.35269165039062
59.520473480224609 -128.83247375488281 -149.35269165039062
61.495689392089844 -129.03504943847656 -149.35269165039062
63.481121063232422 -129.68331909179688 -149.35272216796875
65.456382751464844 -129.79472351074219 -149.35275268554688
67.431648254394531 -129.68327331542969 -149.35275268554688
69.416999816894531 -129.03498840332031 -149.35276794433594
71.392242431640625 -128.29554748535156 -149.352783203125
71.574562072753906 -128.10308837890625 -149.35279846191406
73.367393493652344 -126.42160034179688 -149.35279846191406
73.6611328125 -126.12786102294922 -149.35279846191406
75.352714538574219 -124.33494567871094 -149.35281372070312
75.5350341796875 -124.15261840820312 -149.35281372070312
76.274391174316406 -122.17739868164062 -149.35281372070312
77.034042358398438 -120.19205474853516 -149.35282897949219
77.327789306640625 -119.74636077880859 -149.35282897949219
78.259727478027344 -118.21681976318359 -149.35284423828125
79.019447326660156 -116.24159240722656 -149.35287475585938
79.303085327148438 -115.74525451660156 -149.35287475585938
80.083114624023438 -114.25624084472656 -149.3529052734375
80.113494873046875 -112.281005859375 -149.35292053222656
80.235076904296875 -110.3057861328125 -149.35295104980469
80.974678039550781 -108.32042694091797 -149.35299682617188
81.0963134765625 -106.34519958496094 -149.35302734375
80.600021362304688 -104.36997985839844 -149.35305786132812
80.113883972167969 -102.38462829589844 -149.35307312011719
79.718955993652344 -100.40940093994141 -149.35310363769531
79.303680419921875 -99.548408508300781 -149.35313415527344
78.807395935058594 -98.434181213378906 -149.35313415527344
77.642616271972656 -96.448829650878906 -149.35316467285156
77.328605651855469 -96.14495849609375 -149.35316467285156
75.353363037109375 -94.767379760742188 -149.35316467285156
74.796234130859375 -94.4736328125 -149.35316467285156
73.367965698242188 -93.76458740234375 -149.3531494140625
71.392616271972656 -93.673439025878906 -149.35311889648438
69.417213439941406 -94.068504333496094 -149.35305786132812
68.789108276367188 -94.47369384765625 -149.35304260253906
67.431602478027344 -95.304313659667969 -149.35298156738281
65.456207275390625 -96.266624450683594 -149.35293579101562
65.273857116699219 -96.448951721191406 -149.35292053222656
63.480735778808594 -98.140571594238281 -149.35284423828125
63.186954498291016 -98.434326171875 -149.35282897949219
61.49517822265625 -100.22724151611328 -149.352783203125
61.312831878662109 -100.40957641601562 -149.352783203125
60.350391387939453 -102.38481140136719 -149.35272216796875
59.519706726074219 -103.74215698242188 -149.35269165039062
59.114501953125 -104.37016296386719 -149.35269165039062
58.223041534423828 -106.34540557861328 -149.35264587402344
57.605098724365234 -108.32063293457031 -149.35261535644531
57.544319152832031 -108.41178894042969 -149.35261535644531
56.409839630126953 -110.30597686767578 -149.35260009765625
55.569137573242188 -111.70383453369141 -149.35258483886719
55.133598327636719 -112.28121185302734 -149.35258483886719
53.877651214599609 -114.25643920898438 -149.35260009765625
53.583934783935547 -114.61095428466797 -149.35260009765625
52.317901611328125 -116.24177551269531 -149.35260009765625
51.608932495117188 -117.04199981689453 -149.35261535644531
50.434089660644531 -118.21699523925781 -149.35263061523438
49.69482421875 -120.19221496582031 -149.3526611328125
49.634059906005859 -120.30364227294922 -149.3526611328125
48.793544769287109 -122.17755889892578 -149.35269165039062
49.634315490722656 -123.69694519042969 -149.35270690917969
49.958461761474609 -124.15276336669922 -149.35269165039062
51.609512329101562 -125.38854217529297 -149.35269165039062
52.956676483154297 -126.12798309326172 -149.35267639160156
53.584693908691406 -126.53314971923828 -149.35267639160156
55.57000732421875 -127.28271484375 -149.35267639160156
56.917232513427734 -128.10317993164062 -149.35269165039062
67.431282043457031 -128.89321899414062 -146.82040405273438
69.416671752929688 -128.51841735839844 -146.8204345703125
70.044670104980469 -128.10311889648438 -146.8204345703125
71.391853332519531 -127.28263854980469 -146.8204345703125
73.367111206054688 -126.31021118164062 -146.82046508789062
73.559577941894531 -126.12788391113281 -146.82046508789062
75.352462768554688 -124.44639587402344 -146.82049560546875
75.656341552734375 -124.15264129638672 -146.82049560546875
77.033905029296875 -122.17741394042969 -146.82049560546875
77.327667236328125 -121.82289123535156 -146.82051086425781
78.462181091308594 -120.19206237792969 -146.82054138183594
79.302940368652344 -118.79419708251953 -146.820556640625
79.718269348144531 -118.21682739257812 -146.820556640625
80.23486328125 -116.24160766601562 -146.82057189941406
80.974365234375 -114.25625610351562 -146.82060241699219
81.227622985839844 -112.28102111816406 -146.82063293457031
81.288406372070312 -112.15946960449219 -146.82063293457031
82.109016418457031 -110.3057861328125 -146.8206787109375
82.03814697265625 -108.32044219970703 -146.82069396972656
82.038223266601562 -106.34521484375 -146.82073974609375
82.038330078125 -104.36998748779297 -146.82078552246094
81.694015502929688 -102.38463592529297 -146.82081604003906
81.288856506347656 -101.52364349365234 -146.82081604003906
80.792556762695312 -100.40941619873047 -146.82081604003906
80.235557556152344 -98.434188842773438 -146.82086181640625
79.496253967285156 -96.448829650878906 -146.82090759277344
79.303794860839844 -96.225990295410156 -146.82090759277344
78.047828674316406 -94.473625183105469 -146.82093811035156
77.32867431640625 -93.724052429199219 -146.82093811035156
75.353378295898438 -92.792167663574219 -146.82090759277344
74.7354736328125 -92.498420715332031 -146.82090759277344
73.367996215820312 -91.86029052734375 -146.82090759277344
71.392585754394531 -92.093284606933594 -146.82084655761719
70.531478881835938 -92.498466491699219 -146.82081604003906
69.4171142578125 -92.994819641113281 -146.82077026367188
67.431587219238281 -93.60260009765625 -146.82072448730469
66.29693603515625 -94.473739624023438 -146.82066345214844
65.456092834472656 -95.111900329589844 -146.82064819335938
63.480697631835938 -96.26666259765625 -146.82058715820312
63.298343658447266 -96.448997497558594 -146.82057189941406
61.4951171875 -98.241912841796875 -146.82051086425781
61.312767028808594 -98.434371948242188 -146.82051086425781
60.350299835205078 -100.40961456298828 -146.8204345703125
59.51959228515625 -101.75681304931641 -146.82040405273438
59.1143798828125 -102.38484954833984 -146.82038879394531
58.222885131835938 -104.37020111083984 -146.82035827636719
57.604915618896484 -106.34544372558594 -146.8203125
57.544132232666016 -106.45684814453125 -146.8203125
56.612205505371094 -108.32067108154297 -146.82028198242188
55.852497100830078 -110.30601501464844 -146.82026672363281
55.568885803222656 -110.66054534912109 -146.82026672363281
54.424327850341797 -112.28123474121094 -146.82026672363281
53.583656311035156 -113.67908477783203 -146.82026672363281
53.178520202636719 -114.25646209716797 -146.82026672363281
52.246742248535156 -116.24180603027344 -146.82028198242188
51.608676910400391 -117.14331817626953 -146.82028198242188
50.849090576171875 -118.21702575683594 -146.82029724121094
50.312393188476562 -120.19224548339844 -146.8203125
50.545482635498047 -122.17758178710938 -146.82032775878906
51.609031677246094 -123.0487060546875 -146.82032775878906
53.584163665771484 -123.85903930664062 -146.8203125
54.080493927001953 -124.15279388427734 -146.8203125
55.569496154785156 -124.9732666015625 -146.82029724121094
57.544670104980469 -125.44932556152344 -146.8203125
59.519889831542969 -126.06720733642578 -146.8203125
59.631313323974609 -126.12799072265625 -146.8203125
61.495182037353516 -127.05986785888672 -146.82032775878906
63.480606079101562 -127.69800567626953 -146.82035827636719
65.455894470214844 -128.04238891601562 -146.82037353515625
65.57745361328125 -128.10316467285156 -146.82037353515625
67.431015014648438 -128.51847839355469 -144.2880859375
69.416458129882812 -128.51846313476562 -144.28810119628906
70.277442932128906 -128.1031494140625 -144.28811645507812
71.391685485839844 -127.61693572998047 -144.28813171386719
73.366912841796875 -126.42166137695312 -144.28814697265625
73.721443176269531 -126.12790679931641 -144.28816223144531
75.352279663085938 -124.79082489013672 -144.28816223144531
75.990425109863281 -124.15266418457031 -144.28817749023438
77.327499389648438 -122.40028381347656 -144.28819274902344
77.50982666015625 -122.17743682861328 -144.28819274902344
78.664581298828125 -120.19208526611328 -144.28822326660156
79.302757263183594 -119.29057312011719 -144.28823852539062
80.0625 -118.21685028076172 -144.28825378417969
80.599357604980469 -116.24162292480469 -144.28826904296875
81.227424621582031 -114.25627899169922 -144.28829956054688
81.288200378417969 -114.13471221923828 -144.28829956054688
82.068260192871094 -112.28103637695312 -144.28834533691406
82.088539123535156 -110.30581665039062 -144.28836059570312
82.088592529296875 -108.32046508789062 -144.28839111328125
82.088661193847656 -106.34524536132812 -144.28842163085938
82.088775634765625 -104.37001037597656 -144.2884521484375
82.088912963867188 -102.38465881347656 -144.28849792480469
82.068824768066406 -100.40943145751953 -144.28855895996094
81.2889404296875 -98.555755615234375 -144.28858947753906
81.228164672851562 -98.4342041015625 -144.28858947753906
80.60028076171875 -96.448844909667969 -144.28861999511719
79.719169616699219 -94.4736328125 -144.28866577148438
79.303901672363281 -93.896247863769531 -144.28866577148438
78.422744750976562 -92.498405456542969 -144.2886962890625
77.328857421875 -91.201850891113281 -144.28871154785156
76.488136291503906 -90.523185729980469 -144.28872680664062
75.353683471679688 -89.641937255859375 -144.28872680664062
73.368270874023438 -89.003814697265625 -144.28871154785156
71.392860412597656 -89.216545104980469 -144.28866577148438
69.417366027832031 -90.107955932617188 -144.28857421875
68.78924560546875 -90.523269653320312 -144.28855895996094
67.431724548339844 -91.343772888183594 -144.28849792480469
65.456291198730469 -92.316200256347656 -144.28843688964844
65.273933410644531 -92.49853515625 -144.28842163085938
63.480766296386719 -94.180030822753906 -144.28834533691406
63.186973571777344 -94.473793029785156 -144.288330078125
61.495151519775391 -96.165412902832031 -144.28825378417969
61.211494445800781 -96.449028015136719 -144.28823852539062
59.813442230224609 -98.434402465820312 -144.28817749023438
59.519649505615234 -98.880104064941406 -144.28816223144531
58.587627410888672 -100.40964508056641 -144.28813171386719
57.837909698486328 -102.38488006591797 -144.2880859375
57.544139862060547 -102.84069061279297 -144.28807067871094
56.612174987792969 -104.37023162841797 -144.28804016113281
55.852409362792969 -106.34546661376953 -144.28800964355469
55.568782806396484 -106.79116058349609 -144.28800964355469
54.626754760742188 -108.32069396972656 -144.28797912597656
53.877182006835938 -110.30603790283203 -144.2879638671875
53.583450317382812 -110.75173950195312 -144.28797912597656
52.651611328125 -112.28127288818359 -144.2879638671875
52.013526916503906 -114.25649261474609 -144.2879638671875
51.669204711914062 -116.24183654785156 -144.2879638671875
51.608440399169922 -116.43429565429688 -144.2879638671875
51.112213134765625 -118.21704864501953 -144.28797912597656
51.608554840087891 -119.10843658447266 -144.28797912597656
52.246707916259766 -120.19227600097656 -144.2879638671875
53.583755493164062 -121.38751983642578 -144.2879638671875
54.930927276611328 -122.17760467529297 -144.2879638671875
55.569072723388672 -122.58277893066406 -144.2879638671875
57.544269561767578 -123.47414398193359 -144.28794860839844
59.519481658935547 -124.09202575683594 -144.2879638671875
59.600517272949219 -124.15280151367188 -144.2879638671875
61.494781494140625 -125.28726959228516 -144.28797912597656
62.902835845947266 -126.12799835205078 -144.28800964355469
63.480258941650391 -126.53315734863281 -144.28800964355469
65.455589294433594 -127.28271484375 -144.28804016113281
66.802925109863281 -128.10317993164062 -144.28807067871094
67.430900573730469 -128.86288452148438 -141.75578308105469
69.416328430175781 -128.79197692871094 -141.75579833984375
71.391670227050781 -128.79196166992188 -141.75584411621094
73.366973876953125 -128.29560852050781 -141.75588989257812
73.599945068359375 -128.10313415527344 -141.75587463378906
75.352333068847656 -126.84709167480469 -141.75590515136719
76.061378479003906 -126.12790679931641 -141.75592041015625
77.327507019042969 -124.37552642822266 -141.75592041015625
77.50982666015625 -124.15267181396484 -141.75592041015625
78.664558410644531 -122.17744445800781 -141.75593566894531
79.302719116210938 -121.33670806884766 -141.75593566894531
80.173881530761719 -120.19209289550781 -141.75596618652344
80.791755676269531 -118.21685791015625 -141.7559814453125
81.288116455078125 -117.10263824462891 -141.75599670410156
81.693313598632812 -116.24163055419922 -141.75601196289062
82.08837890625 -114.25628662109375 -141.75602722167969
82.584770202636719 -112.28105163574219 -141.75605773925781
83.060951232910156 -110.30582427978516 -141.75608825683594
82.969818115234375 -108.32048797607422 -141.75611877441406
82.969886779785156 -106.34526062011719 -141.75613403320312
82.970001220703125 -104.37002563476562 -141.75617980957031
82.970138549804688 -102.38466644287109 -141.7562255859375
82.585334777832031 -100.40944671630859 -141.75627136230469
82.089118957519531 -98.434211730957031 -141.75630187988281
81.694244384765625 -96.448860168457031 -141.75634765625
81.289093017578125 -95.820838928222656 -141.75636291503906
80.45855712890625 -94.473648071289062 -141.75637817382812
79.496429443359375 -92.498420715332031 -141.75642395019531
79.303977966308594 -92.265449523925781 -141.75642395019531
78.108848571777344 -90.523193359375 -141.75645446777344
77.328964233398438 -89.591300964355469 -141.75648498535156
75.799453735351562 -88.537857055664062 -141.75648498535156
75.353775024414062 -88.254234313964844 -141.75648498535156
73.368316650390625 -87.859214782714844 -141.75645446777344
71.534652709960938 -88.53790283203125 -141.75637817382812
71.392814636230469 -88.598678588867188 -141.75639343261719
69.417335510253906 -89.348274230957031 -141.75631713867188
68.161033630371094 -90.523300170898438 -141.75624084472656
67.431587219238281 -91.161460876464844 -141.75619506835938
65.456123352050781 -92.31622314453125 -141.75613403320312
65.263633728027344 -92.498558044433594 -141.75611877441406
63.480617523193359 -94.068634033203125 -141.75604248046875
62.903186798095703 -94.473823547363281 -141.75602722167969
61.495090484619141 -95.365203857421875 -141.7559814453125
60.117382049560547 -96.449058532714844 -141.75595092773438
59.519702911376953 -96.975799560546875 -141.75593566894531
57.979927062988281 -98.434432983398438 -141.75587463378906
57.544322967529297 -98.961166381835938 -141.755859375
56.551551818847656 -100.40967559814453 -141.75582885742188
55.568931579589844 -101.85818481445312 -141.75579833984375
55.133350372314453 -102.38491058349609 -141.75578308105469
54.110214233398438 -104.37026214599609 -141.75576782226562
53.583484649658203 -105.04893493652344 -141.75575256347656
52.651588439941406 -106.34550476074219 -141.75572204589844
51.608303070068359 -107.60153961181641 -141.7557373046875
50.929668426513672 -108.32072448730469 -141.75572204589844
49.633209228515625 -109.80973052978516 -141.75572204589844
49.217937469482422 -110.30606842041016 -141.7557373046875
47.840484619140625 -112.28129577636719 -141.7557373046875
47.648048400878906 -112.51427459716797 -141.7557373046875
46.3111572265625 -114.25651550292969 -141.75576782226562
45.733901977539062 -116.24185943603516 -141.75578308105469
45.733978271484375 -118.21707153320312 -141.75578308105469
46.453174591064453 -120.19229888916016 -141.75578308105469
47.648349761962891 -121.12419128417969 -141.75575256347656
49.633476257324219 -121.06341552734375 -141.75570678710938
51.608509063720703 -121.06341552734375 -141.75567626953125
53.58355712890625 -120.83043670654297 -141.75564575195312
55.568824768066406 -121.48883819580078 -141.75564575195312
57.543994903564453 -122.10671234130859 -141.75563049316406
57.655418395996094 -122.17761993408203 -141.75564575195312
59.519222259521484 -123.01834869384766 -141.75564575195312
61.27166748046875 -124.15281677246094 -141.75566101074219
61.494522094726562 -124.33514404296875 -141.75566101074219
63.479984283447266 -125.4898681640625 -141.75567626953125
64.158729553222656 -126.12801361083984 -141.75570678710938
65.455436706542969 -127.35364532470703 -141.75572204589844
66.448226928710938 -128.10321044921875 -141.75576782226562
67.430709838867188 -128.29568481445312 -139.22348022460938
69.416297912597656 -129.40986633300781 -139.22352600097656
71.391685485839844 -129.77450561523438 -139.22357177734375
73.36700439453125 -129.40983581542969 -139.22360229492188
75.352394104003906 -128.29560852050781 -139.2236328125
75.534706115722656 -128.10313415527344 -139.22364807128906
77.327590942382812 -126.31023406982422 -139.22364807128906
77.509910583496094 -126.12791442871094 -139.22364807128906
78.66461181640625 -124.15267944335938 -139.22366333007812
79.302757263183594 -123.31195068359375 -139.22367858886719
80.173904418945312 -122.17744445800781 -139.22369384765625
80.994361877441406 -120.19210052490234 -139.22369384765625
81.288124084472656 -119.69576263427734 -139.22370910644531
82.108642578125 -118.21686553955078 -139.22372436523438
82.584716796875 -116.24163818359375 -139.2237548828125
82.969650268554688 -114.25629425048828 -139.2237548828125
83.202644348144531 -112.28105926513672 -139.22380065917969
83.263427734375 -112.15951538085938 -139.22380065917969
84.043533325195312 -110.30583953857422 -139.22383117675781
84.0233154296875 -108.32048797607422 -139.22386169433594
84.063926696777344 -106.34526062011719 -139.22389221191406
84.02349853515625 -104.37002563476562 -139.22392272949219
84.043907165527344 -102.38468170166016 -139.22398376464844
83.26397705078125 -100.53099822998047 -139.2239990234375
83.203208923339844 -100.40946197509766 -139.2239990234375
82.858955383300781 -98.434226989746094 -139.22404479980469
82.220932006835938 -96.448875427246094 -139.22407531738281
81.289093017578125 -94.929473876953125 -139.22409057617188
80.995368957519531 -94.473655700683594 -139.22410583496094
80.175064086914062 -92.498428344726562 -139.22415161132812
79.304000854492188 -91.434860229492188 -139.22416687011719
78.503837585449219 -90.523216247558594 -139.22418212890625
77.328880310058594 -89.408988952636719 -139.22418212890625
75.353553771972656 -88.851890563964844 -139.22415161132812
73.368011474609375 -88.943077087402344 -139.22410583496094
71.39251708984375 -89.642036437988281 -139.22404479980469
70.247673034667969 -90.523300170898438 -139.22398376464844
69.416915893554688 -91.161460876464844 -139.22393798828125
67.431289672851562 -92.316230773925781 -139.22384643554688
67.238792419433594 -92.498565673828125 -139.22383117675781
65.455757141113281 -94.068641662597656 -139.2237548828125
64.878318786621094 -94.473823547363281 -139.22373962402344
63.480331420898438 -95.314567565917969 -139.22369384765625
61.849365234375 -96.449073791503906 -139.22364807128906
61.494804382324219 -96.742835998535156 -139.22364807128906
59.519454956054688 -98.140693664550781 -139.22360229492188
59.215553283691406 -98.4344482421875 -139.22358703613281
57.544105529785156 -100.0045166015625 -139.22354125976562
56.855304718017578 -100.40969848632812 -139.22354125976562
55.568885803222656 -101.08837127685547 -139.22352600097656
53.583576202392578 -102.08104705810547 -139.2235107421875
53.259441375732422 -102.38493347167969 -139.2235107421875
51.608394622802734 -103.69162750244141 -139.2235107421875
50.747432708740234 -104.37029266357422 -139.22349548339844
49.633255004882812 -105.48452758789062 -139.22349548339844
48.954616546630859 -106.34552001953125 -139.22349548339844
47.64801025390625 -107.99660491943359 -139.22349548339844
47.344161987304688 -108.32074737548828 -139.22349548339844
46.199638366699219 -110.30609130859375 -139.2235107421875
45.6729736328125 -110.98475646972656 -139.2235107421875
44.680423736572266 -112.28131103515625 -139.22352600097656
44.103153228759766 -114.25653839111328 -139.22352600097656
44.022171020507812 -116.24187469482422 -139.22352600097656
44.741329193115234 -118.21709442138672 -139.2235107421875
45.673137664794922 -119.03757476806641 -139.22349548339844
47.273433685302734 -120.19232177734375 -139.22346496582031
47.648197174072266 -120.50632476806641 -139.22344970703125
49.633342742919922 -120.74942779541016 -139.22341918945312
51.608375549316406 -120.74942016601562 -139.22337341308594
53.583423614501953 -120.48606109619141 -139.22335815429688
54.819099426269531 -120.19231414794922 -139.22334289550781
55.568618774414062 -120.02011871337891 -139.22332763671875
57.543701171875 -119.26040649414062 -139.22332763671875
59.225162506103516 -120.19229888916016 -139.22332763671875
59.518917083740234 -120.38474273681641 -139.22332763671875
61.494186401367188 -121.62050628662109 -139.22332763671875
62.051338195800781 -122.17761993408203 -139.22332763671875
63.297412872314453 -124.15282440185547 -139.22337341308594
63.479755401611328 -124.33515167236328 -139.22337341308594
65.161430358886719 -126.12802886962891 -139.22340393066406
65.455215454101562 -126.42177581787109 -139.22341918945312
67.24835205078125 -128.10322570800781 -139.22348022460938
69.416091918945312 -128.29568481445312 -136.69122314453125
71.391502380371094 -128.83250427246094 -136.69126892089844
73.36688232421875 -128.93377685546875 -136.69131469726562
74.855918884277344 -128.10316467285156 -136.69132995605469
75.352272033691406 -127.81953430175781 -136.69134521484375
77.327537536621094 -126.42167663574219 -136.69136047363281
77.641563415527344 -126.12792205810547 -136.69136047363281
79.019111633300781 -124.15269470214844 -136.69139099121094
79.302742004394531 -123.79816436767578 -136.69139099121094
80.447372436523438 -122.17746734619141 -136.69142150878906
81.288131713867188 -120.76947784423828 -136.69143676757812
81.693321228027344 -120.19211578369141 -136.69143676757812
82.209892272949219 -118.21688079833984 -136.69145202636719
82.858200073242188 -116.24166107177734 -136.69148254394531
83.202598571777344 -114.25630950927734 -136.69148254394531
83.263381958007812 -114.13475036621094 -136.69148254394531
84.04345703125 -112.28107452392578 -136.6915283203125
84.023200988769531 -110.30585479736328 -136.69155883789062
84.256271362304688 -108.32050323486328 -136.69158935546875
84.935127258300781 -106.34526824951172 -136.691650390625
84.185539245605469 -104.37004852294922 -136.69166564941406
84.064109802246094 -102.38469696044922 -136.69168090820312
84.044013977050781 -100.40946197509766 -136.69174194335938
83.264106750488281 -98.555793762207031 -136.6917724609375
83.203346252441406 -98.434242248535156 -136.6917724609375
82.585586547851562 -96.448883056640625 -136.69180297851562
81.694328308105469 -94.473670959472656 -136.69183349609375
81.2891845703125 -93.896293640136719 -136.69184875488281
80.397880554199219 -92.498443603515625 -136.69187927246094
79.303955078125 -91.343704223632812 -136.69189453125
78.169464111328125 -90.523231506347656 -136.69189453125
77.328742980957031 -89.874961853027344 -136.69189453125
75.353340148925781 -89.712913513183594 -136.69183349609375
73.3677978515625 -89.763587951660156 -136.69178771972656
71.392364501953125 -90.108001708984375 -136.69172668457031
70.764244079589844 -90.5233154296875 -136.69169616699219
69.416824340820312 -91.343818664550781 -136.691650390625
67.431228637695312 -92.316246032714844 -136.69157409667969
67.208351135253906 -92.498588562011719 -136.69155883789062
65.455757141113281 -93.633094787597656 -136.69149780273438
63.774139404296875 -94.473854064941406 -136.69145202636719
63.480361938476562 -94.656181335449219 -136.69143676757812
61.494888305664062 -95.577964782714844 -136.69139099121094
60.44134521484375 -96.449104309082031 -136.69136047363281
59.519500732421875 -97.208816528320312 -136.69132995605469
58.222846984863281 -98.434478759765625 -136.69129943847656
57.544139862060547 -99.0726318359375 -136.6912841796875
55.568904876708984 -100.22738647460938 -136.69126892089844
55.376438140869141 -100.40972137451172 -136.69125366210938
54.262107849121094 -102.38494873046875 -136.69122314453125
53.583438873291016 -103.07374572753906 -136.69120788574219
52.428699493408203 -104.37030792236328 -136.69120788574219
51.608234405517578 -105.29208374023438 -136.69117736816406
50.311744689941406 -106.34554290771484 -136.69119262695312
49.633125305175781 -106.87226104736328 -136.69119262695312
48.174606323242188 -108.32077026367188 -136.69119262695312
47.647918701171875 -109.00955200195312 -136.69119262695312
46.665462493896484 -110.30610656738281 -136.69120788574219
46.078025817871094 -112.28132629394531 -136.69120788574219
46.351497650146484 -114.25655364990234 -136.69119262695312
46.351543426513672 -116.24189758300781 -136.69119262695312
47.293521881103516 -118.21711730957031 -136.691162109375
47.648021697998047 -118.5108642578125 -136.69114685058594
49.633182525634766 -119.07810974121094 -136.69113159179688
51.608188629150391 -118.51087188720703 -136.69108581542969
52.600765228271484 -118.21710968017578 -136.69107055664062
53.583225250244141 -117.94362640380859 -136.69105529785156
55.568454742431641 -118.04490661621094 -136.69102478027344
57.543563842773438 -117.78153228759766 -136.69102478027344
59.518703460693359 -117.39662170410156 -136.69100952148438
60.865913391113281 -118.21709442138672 -136.69102478027344
61.493946075439453 -118.71342468261719 -136.69102478027344
62.648765563964844 -120.19229888916016 -136.69102478027344
63.479446411132812 -121.25586700439453 -136.69105529785156
64.188568115234375 -122.17762756347656 -136.69107055664062
65.454887390136719 -123.79830932617188 -136.69110107421875
65.748680114746094 -124.15282440185547 -136.69110107421875
67.248062133789062 -126.12802886962891 -136.69114685058594
67.430419921875 -126.31034851074219 -136.69114685058594
69.223602294921875 -128.10322570800781 -136.69122314453125
71.391677856445312 -130.27088928222656 -134.15902709960938
73.36712646484375 -130.83810424804688 -134.15907287597656
74.440818786621094 -130.08851623535156 -134.15908813476562
75.352470397949219 -129.48074340820312 -134.15908813476562
76.993415832519531 -128.10316467285156 -134.15911865234375
77.327682495117188 -127.75875854492188 -134.15911865234375
78.59381103515625 -126.12793731689453 -134.15913391113281
79.302864074707031 -125.20614624023438 -134.15913391113281
80.173995971679688 -124.15268707275391 -134.15914916992188
80.994422912597656 -122.17746734619141 -134.15916442871094
81.288177490234375 -121.72165679931641 -134.15916442871094
82.220108032226562 -120.19211578369141 -134.1591796875
82.858261108398438 -118.21688842773438 -134.15921020507812
83.202629089355469 -116.24166870117188 -134.15921020507812
83.263404846191406 -116.10999298095703 -134.15921020507812
84.04345703125 -114.25630950927734 -134.15924072265625
84.063713073730469 -112.28108215332031 -134.15925598144531
84.256210327148438 -110.30586242675781 -134.15928649902344
84.935035705566406 -108.32051086425781 -134.15934753417969
85.046562194824219 -106.34528350830078 -134.15937805175781
84.560371398925781 -104.37005615234375 -134.15939331054688
84.064102172851562 -102.38470458984375 -134.159423828125
84.06427001953125 -100.40948486328125 -134.15946960449219
83.669349670410156 -98.434249877929688 -134.15951538085938
83.264205932617188 -97.563133239746094 -134.15953063964844
82.767929077148438 -96.448890686035156 -134.15953063964844
82.221115112304688 -94.473678588867188 -134.15959167480469
81.289306640625 -92.944145202636719 -134.15962219238281
80.995582580566406 -92.498443603515625 -134.15962219238281
79.830863952636719 -90.523223876953125 -134.15966796875
79.304161071777344 -89.996498107910156 -134.15966796875
77.663276672363281 -88.537887573242188 -134.15968322753906
77.329017639160156 -88.2542724609375 -134.15968322753906
75.353668212890625 -87.859245300292969 -134.15965270996094
73.3681640625 -87.737716674804688 -134.15960693359375
71.392715454101562 -88.132781982421875 -134.1595458984375
70.764579772949219 -88.5379638671875 -134.15951538085938
69.417152404785156 -89.36859130859375 -134.15945434570312
67.43157958984375 -90.108055114746094 -134.15939331054688
66.803466796875 -90.523368835449219 -134.15936279296875
65.456092834472656 -91.343856811523438 -134.15931701660156
63.480693817138672 -92.316299438476562 -134.15927124023438
63.278079986572266 -92.498626708984375 -134.15925598144531
61.495098114013672 -93.977531433105469 -134.1591796875
60.867015838623047 -94.473884582519531 -134.15916442871094
59.519699096679688 -95.517219543457031 -134.15911865234375
58.466163635253906 -96.449127197265625 -134.15908813476562
57.544288635253906 -97.59375 -134.1590576171875
56.906070709228516 -98.434494018554688 -134.15904235839844
55.629642486572266 -100.40973663330078 -134.15899658203125
55.568866729736328 -100.49076080322266 -134.15898132324219
54.191196441650391 -102.38497161865234 -134.15895080566406
53.583423614501953 -103.16493225097656 -134.158935546875
52.600872039794922 -104.37032318115234 -134.15892028808594
51.668941497802734 -106.34555816650391 -134.15888977050781
51.608165740966797 -106.42658233642578 -134.15888977050781
50.301528930664062 -108.32077789306641 -134.15887451171875
49.633029937744141 -109.31346893310547 -134.15888977050781
48.873394012451172 -110.30612945556641 -134.15888977050781
47.830173492431641 -112.28134918212891 -134.15888977050781
47.647865295410156 -112.87898254394531 -134.15888977050781
47.263008117675781 -114.25657653808594 -134.15888977050781
47.263053894042969 -116.24191284179688 -134.15888977050781
47.647956848144531 -117.22446441650391 -134.15887451171875
48.802608489990234 -118.21713256835938 -134.15885925292969
49.633144378662109 -118.51088714599609 -134.15884399414062
51.608177185058594 -118.51087951660156 -134.1588134765625
52.226001739501953 -118.21713256835938 -134.15879821777344
53.583198547363281 -117.609375 -134.15878295898438
55.568397521972656 -117.04213714599609 -134.15876770019531
57.543498992919922 -116.41410064697266 -134.15875244140625
57.867626190185547 -116.24189758300781 -134.15875244140625
59.518627166748047 -115.46194458007812 -134.15875244140625
61.00762939453125 -116.24188995361328 -134.15875244140625
61.493843078613281 -116.5457763671875 -134.15875244140625
63.074081420898438 -118.21708679199219 -134.15875244140625
63.479286193847656 -118.84511566162109 -134.15876770019531
64.299842834472656 -120.19230651855469 -134.15878295898438
65.049568176269531 -122.17763519287109 -134.15878295898438
65.454795837402344 -122.80565643310547 -134.15879821777344
66.285537719726562 -124.15283966064453 -134.15884399414062
67.248054504394531 -126.1280517578125 -134.15887451171875
67.430404663085938 -126.31037139892578 -134.15887451171875
69.223594665527344 -128.10324096679688 -134.15895080566406
69.416084289550781 -128.29570007324219 -134.15895080566406
71.209320068359375 -130.08854675292969 -134.15902709960938
73.367286682128906 -131.65858459472656 -131.62684631347656
75.352821350097656 -131.6585693359375 -131.62689208984375
77.328056335449219 -130.38224792480469 -131.62692260742188
77.621803283691406 -130.0885009765625 -131.62690734863281
79.019561767578125 -128.1031494140625 -131.62692260742188
79.303176879882812 -127.75875091552734 -131.62692260742188
80.447761535644531 -126.12792205810547 -131.62692260742188
81.288475036621094 -124.73006439208984 -131.62693786621094
81.693649291992188 -124.15268707275391 -131.626953125
82.210159301757812 -122.17746734619141 -131.62693786621094
82.767227172851562 -120.19212341308594 -131.62693786621094
83.263565063476562 -119.07788848876953 -131.626953125
83.668769836425781 -118.21689605712891 -131.62698364257812
84.063804626464844 -116.24166870117188 -131.62698364257812
84.5601806640625 -114.25632476806641 -131.62701416015625
85.056587219238281 -112.28108978271484 -131.62704467773438
85.056602478027344 -110.30586242675781 -131.62705993652344
85.056648254394531 -108.32051849365234 -131.6270751953125
85.056732177734375 -106.34529113769531 -131.62712097167969
85.056831359863281 -104.37005615234375 -131.62715148925781
85.056976318359375 -102.38471221923828 -131.627197265625
84.935569763183594 -100.40947723388672 -131.62722778320312
84.196205139160156 -98.434249877929688 -131.62727355957031
83.264320373535156 -96.904731750488281 -131.62727355957031
82.970588684082031 -96.448905944824219 -131.62728881835938
82.221153259277344 -94.473686218261719 -131.6273193359375
81.289283752441406 -93.359466552734375 -131.62733459472656
80.57012939453125 -92.498466491699219 -131.62733459472656
79.304054260253906 -90.867645263671875 -131.62736511230469
79.020462036132812 -90.52325439453125 -131.62736511230469
77.328948974609375 -88.831657409667969 -131.62739562988281
76.711051940917969 -88.537910461425781 -131.62739562988281
75.35369873046875 -87.899765014648438 -131.62739562988281
73.368202209472656 -87.737724304199219 -131.62734985351562
71.392753601074219 -88.132789611816406 -131.62728881835938
70.764617919921875 -88.537979125976562 -131.62725830078125
69.417190551757812 -89.368598937988281 -131.627197265625
67.43157958984375 -90.330917358398438 -131.62712097167969
67.208694458007812 -90.52337646484375 -131.62710571289062
65.456069946289062 -91.718666076660156 -131.62702941894531
64.311317443847656 -92.498634338378906 -131.62699890136719
63.480606079101562 -93.136802673339844 -131.62696838378906
61.495090484619141 -94.29156494140625 -131.62690734863281
61.29248046875 -94.473899841308594 -131.62689208984375
59.51971435546875 -95.709701538085938 -131.62686157226562
58.172458648681641 -96.449134826660156 -131.6268310546875
57.544414520263672 -96.864448547363281 -131.62681579589844
55.569145202636719 -98.120506286621094 -131.62680053710938
55.234855651855469 -98.434516906738281 -131.62678527832031
53.583744049072266 -99.801986694335938 -131.62675476074219
52.986103057861328 -100.40975189208984 -131.62675476074219
51.608478546142578 -102.06084442138672 -131.62672424316406
51.294471740722656 -102.38497924804688 -131.62672424316406
