# XYZ point cloud file
0.29534622668515453 0.89283329164274505 -0.37983152330579628
-0.24555883689250457 0.050050913470840896 0.73904837240226584
-0.29799889607957031 0.10290947824083219 0.73485277981851027
-0.098100432463324339 0.33531469125500735 0.71391157295246899
0.042548212120948392 0.52438561081584112 0.48754601456934665
0.015139837421365598 -0.23496700109762969 0.64545864530467156
0.24509617813510332 -0.23819644939450768 0.60535167364704989
0.059580433453554349 0.80079509088341183 0.53984322417224462
0.47578531447360639 -0.30472276244717023 0.593556104984998
-0.1418618976912267 -0.10707617784305512 0.75255349776608682
0.073184849899973869 -0.12195421431715658 0.7200051372966243
-0.26640663671331311 0.16977263549378563 0.76887704521195133
-0.62696250594186687 -0.615932041108465 -0.38217211285703456
-0.63430654392116814 -0.62057520539366351 -0.29491064765625197
-0.058976347136157514 0.48446823865191391 0.68674604704301601
-0.14760868198441024 -0.13096691662170201 0.74664126499786221
-0.49406690371092044 -0.12712439810343312 0.69981579589816079
0.3339415019445795 1.1473718151394792 -0.51773398581633501
0.25400280022157773 0.43102951250614296 0.062938252996957544
-0.65726950911467963 -0.81053574765033432 -0.44819790202160448
-0.0011606661994640888 -0.081417653361768316 0.39773265918694278
0.57317979038804712 -0.29335326233888281 0.55378322188815332
0.29221584264110945 0.97867968918890824 -0.39075115406714644
0.13195975066104637 0.56032275275879329 -0.063067305510742244
0.027278365564253448 -0.090019030418716284 0.72751016587250206
-0.035206366334556094 0.5247474066990776 0.66770724538250192
0.28694713684955886 1.0760511884076607 -0.49317082533829648
-0.12057394365771756 -0.13637033981657964 0.63067879172021435
0.13690352369185455 0.0050099195536290608 0.66478265531219449
-0.12132259294254411 0.39639534649106167 0.74035801303807602
-0.56842141242777622 -0.47132631390905999 -0.48813875957128516
0.23770347971474948 0.27666963067429151 0.17058478811838995
-0.35098117949612373 0.030214485158666093 0.77048675993273719
0.23045205439987626 0.48841485862158152 0.0058307301886202367
-0.029489563117829576 -0.11352253130442591 0.7463874258269243
0.00074274126919249284 0.20447095509499036 0.73176324880623156
0.46648610222061748 -0.28718377922368177 0.58162085653498252
-0.21339142186588944 0.24959213020969173 0.73136429535406933
0.27397790842898928 0.92364661794056246 -0.32035948654080926
-0.20510797176526552 -0.2192828289879003 0.65341062271897954
0.27376895232269405 0.70552320165216997 -0.16542356359198607
-0.046359446150166406 0.5503205967746112 0.59749352465848915
0.013021666517794017 0.15568468272746827 0.72151957301841207
0.11359570556155418 0.16813726563796649 0.62825960590458862
-0.64488090341843574 -0.80349011891163968 -0.34014056281270655
-0.079293690509437909 0.48466525690739104 0.5017329964393582
-0.23754104710030166 0.16684469248610867 0.66661373392298628
0.27788895092614396 0.045168793076697966 0.54223494744428535
0.20742069141910591 -0.023949795672251639 0.58464259822397935
-0.42950767311131077 -0.13085819513040065 0.55782555088015329
-0.054954220637835505 -0.11992178295679423 0.74678750618454615
0.28621976179761077 0.78586962536351734 -0.23316381147319021
0.11530965513254721 -0.082314649580894184 0.63411957126302809
0.20049546762561121 0.54144560595648272 0.15019960366876717
-0.071055071165639916 0.4359476484851541 0.70053354136933876
0.23713481462505115 0.29329000144215911 0.15896353169597432
-0.079566955723258559 -0.10372165117661325 0.73995391078764783
0.66857660620822834 -0.41789583541952879 0.66785654401559214
-0.65867990278372712 -0.70236706419112238 -0.3675814339977137
-0.33662223892770182 0.06181602448023682 0.72565622993636225
0.29135298508633412 0.94474084063247687 -0.34254141761459778
-0.66629710509771023 -0.54158200803124146 -0.054671773657418044
-0.65496094696570673 -0.53656415998210605 -0.38277260450726658
0.02873412595033642 0.37945073456043588 0.61566901724003742
0.15632100224568646 0.74589513564882282 0.055358919474286949
-0.60907750430652818 -0.52484580568017236 -0.20042797920453381
0.40433229306557728 -0.28478530155473436 0.65447977582178396
-0.59872840511127556 -0.60145727549956973 -0.3119401649679503
-0.38249881072285064 0.0031700003442551861 0.77301785086916652
0.24170975084530966 0.42566507025210853 0.065077583362352698
-0.035741490022946465 0.59335374425560872 0.69144138063680316
-0.64944588212127119 -0.70254289291278837 -0.33038799616707593
0.044753796807571078 -0.16885144577187816 0.72586010493270692
0.040687208145172349 0.76588297124328619 0.51000258645464669
0.26930290470987117 0.46825410459243244 0.028825010908917648
-0.39417016429550777 -0.057419380420952848 0.461109386879059
-0.066539191400748265 0.35049579454880586 0.74247076088866493
0.17361124617381307 -0.1321085695320221 0.59611563930354805
-0.11380399097171612 0.42580770403887414 0.61485917745619645
0.39467740701932286 -0.29085705970285858 0.61540238598644237
0.58548197978242023 -0.34496307254832459 0.60225945752654297
-0.41249166303631313 -0.039845243017452958 0.73887824574163119
-0.35283310847768679 -0.037286289291643016 0.68861867498804941
0.098830427416356059 0.18866466266553061 0.63808487489768595
-0.0033052169472505 0.29813424335745253 0.70542142972280431
0.090526599912077899 0.13167061186391038 0.66717779833109603
-0.095888815802469551 0.36840826123656711 0.65108835781356333
0.075105195696643534 0.66606604285854587 0.29108086643543629
0.13303923566181552 0.29282295154251869 0.50702100869054334
0.032494044906211883 0.7232607171335701 0.56436971604307473
-0.65737710304828134 -0.43713510756964524 0.15617821590294056
-0.095815770111409293 -0.11502858274153027 0.75009204400080876
-0.66341680807504844 -0.6556133813686813 -0.33276790354375407
0.43883698121346271 -0.2769781408720462 0.60083931493636555
0.213134730381487 0.20436139412703369 0.24471708573503292
0.28719399765050113 1.026749995014967 -0.47220081950484882
-0.099144449470481177 -0.24150276771453605 0.65413586630256759
0.28948812148825809 0.77110819816203957 -0.2240942441458742
0.050612027238386759 0.74732346068026345 0.2227949663083848
0.40943200219868103 -0.29912109502370754 0.63631047835076515
-0.57935794054667866 -0.24007248082168076 0.60710865932171032
0.11868176580464151 -0.21979330164543853 0.69679796087783075
0.24206817854225449 0.9880755815946145 -0.45977461532027064
-0.42677564807172885 -0.049576715007844996 0.73628792135428967
-0.65023918705470862 -0.81594583153173517 -0.40021982176912729
0.80372096771905888 -0.45615694339107904 0.62083653738130806
0.2815597106997636 1.0393780910757187 -0.49558593347549618
0.2537893436434544 0.71461331752328761 -0.14322359612521041
0.13243074770464425 -0.12999117559971296 0.60766174335495293
-0.09567956572706926 0.33472542760986812 0.7099908743773824
-0.60638243052248875 -0.51992453392097104 -0.20804456541844729
-0.65089124639008755 -0.57260497218518935 -0.32416327484276053
0.27628443957521753 1.019735368624282 -0.44306112787631946
-0.062819040549294769 -0.22601990258772275 0.68110327798274284
-0.042210660965537272 0.48936640298956036 0.73935775396256531
-0.050765593203458081 0.47462855838099927 0.68464728923061102
-0.092554203566526994 0.21752683593467737 0.71431203889937933
0.26893454853705734 0.61239009077760898 -0.08068098593190598
0.24508049188659342 0.56496581277696123 -0.052443211646533427
-0.63134147193021306 -0.59231167176972122 -0.25077346039415715
0.11313367974809907 -0.1628968418158081 0.71372362472411055
-0.65011950696504961 -0.63053684462181536 -0.26083051010817826
0.45008032331823866 -0.29312882443463195 0.59884959235913016
-0.26614916368468222 0.16915667008711921 0.76424972778784195
-0.45444040533410401 -0.06912323897208239 0.71637241198376955
-0.64221488891166345 -0.83386092452980165 -0.41084024757611814
-0.10020896623237263 0.43970102049274828 0.69390753155710172
0.41395444343708654 -0.28470110541357485 0.59422987110670533
0.44995455086741831 -0.22508674969634512 0.5832163476094081
0.045866781662549982 0.14817523663799648 0.23809148317789663
-0.14494425589611026 0.33575786540862396 0.74032006028156161
-0.08694780315559747 0.4374774257761942 0.73890596742853631
-0.4023371281206316 -0.018731747313125879 0.75800785178719821
0.57553842767172902 -0.38913816330156692 0.67981433284739978
-0.35822302122084704 0.017799795303915289 0.73091650058444202
0.29294689649024619 0.88686992828672828 -0.31236301138935119
0.20711903894426253 -0.14889208229388373 0.5643653349670501
0.23455765057099498 0.5329232369631427 -0.025826333393581535
-0.10344437623158953 -0.15348104675902619 0.73473132114213513
0.47939842553941769 -0.26796141663507456 0.56006408649489003
-0.0089892050532469625 0.14426056987284142 0.72066953616260321
-0.15694187009288463 -0.13050892438505457 0.74580677973935394
0.71317819613528499 -0.42783346952279544 0.64540081081838707
-0.33094371392715338 -0.13260627625746224 0.68735252894526866
0.30265654752516902 -0.28270157585123457 0.69546533591878301
-0.021720518878552753 0.62347235387491651 0.71405962972502834
0.12601492489350363 0.39409196292550064 0.46112995492066489
0.26621226105088169 0.60855751175597561 -0.08324705574005975
-0.28109006476835496 0.11840842105567617 0.73767057451493656
0.089868074843643342 0.11751029749302688 0.27883812012848352
-0.57884882599911869 -0.1975965956610537 0.6541872823745507
-0.70328024217910112 -0.58317818440855262 -0.064808483544510409
-0.11776404616962743 0.40201624735047403 0.57354436094948369
0.27227553473944965 0.38605666645352699 0.085017609152913565
0.0059860607944912658 0.6924494729048547 0.55466777447392701
-0.17846030674108171 -0.11956296930409849 0.74396861628432021
-0.17833335833078401 0.29067760664653974 0.74357341701195878
-0.38029125154511956 0.017613513741423503 0.7776838561262025
-0.35190695842775988 -0.01355585226363587 0.74304060211642309
-0.59599526754922216 -0.55807313947144621 0.019805661905508032
0.25613795473689649 0.95435798451495657 -0.28576390609708824
-0.61640144964735732 -0.55523244758774126 -0.27359039188982592
0.79459239251400149 -0.40500386558233004 0.55896683003018666
0.81785652260055741 -0.39809469305089351 0.56185179611921399
-0.61090278412385857 -0.5505783537902289 -0.38523058637770191
-0.65164464877270056 -0.80941587757195066 -0.4762248515847034
0.31833660777354211 1.1739266461574402 -0.57724331808310581
0.15631357632356568 0.42480629510765766 0.37293633639040991
-0.033241460226438591 0.56714134628217039 0.53978266494189597
0.26965145139572755 0.51855599968286015 -0.0086395324291572706
-0.58293163299075346 -0.2621437255182002 0.52594016953651135
-0.049568367868427998 0.3545572611227783 0.7315187295856731
-0.62140173785284869 -0.84419459039037292 -0.33695273302288342
-0.4895686371162995 -0.1120552490875184 0.7110037356745238
-0.099212845569798702 0.43781003135174501 0.73483807748920071
-0.32522214487587142 0.022433770401562469 0.73459585488382118
0.2555003723029543 0.42465379078791443 0.17897822450510148
0.80043240841137298 -0.4019048449990521 0.55141829166510092
0.29274857491658679 0.97796202998071635 -0.39957705542173017
-0.022855706942539911 0.51075034356770743 0.65329850600679151
0.78138566364095929 -0.37738229684458702 0.5621719729076915
0.64942413271348443 -0.3562157690892036 0.59453249689636323
0.20587296872098548 0.57720423405001497 0.10067462831486296
-0.5532500766882702 -0.40684329928461693 0.26522171462698907
-0.70537148625508284 -0.55356584948279419 -0.039104256977708474
-0.10054905029870653 0.41177027079393724 0.72140583828115723
-0.05710012204540682 0.47520679286418499 0.68696563700734714
0.2805869535853347 1.0675033946900498 -0.35316304612891258
-0.40666002967177395 -0.058493292258958718 0.72926537325480467
-0.28206540818828785 0.091156053662786007 0.7663941069338307
0.03721896337054531 0.23538977142982276 0.68451734962164323
-0.64669244471846188 -0.68415209616662764 -0.39344618778360996
-0.37856105016622976 0.019580455628073423 0.77008036653620593
-0.082588511770614659 0.4005503799234873 0.66016180089494014
-0.6328355243020507 -0.82147177650494996 -0.33634557885915228
-0.039973659074911794 0.29267081626522895 0.74058197917361213
0.6416653563268202 -0.39165368398289502 0.64834495842245587
-0.44408639990129384 -0.0674367681365311 0.72550521661904099
0.56800097353418799 -0.31889914338441372 0.62391673266219527
-0.34664296079701984 0.021742564337102976 0.50491491456276094
0.0045774276567129846 -0.14297875878057198 0.73872429137068707
0.013470311382791422 0.16786886293220959 0.72856080781869537
-0.61727131966351223 -0.47158467902806933 0.083771184307551039
-0.66085729189610554 -0.48421424623592202 0.056734087530742272
-0.24170620059656045 0.20362683930105163 0.73339673562827556
-0.29218706358992197 0.055369130549706824 0.75781624024929783
0.53819813561572261 -0.32580986363885245 0.65813637970654781
0.043046175457288172 0.027422163351502604 0.32688207750419451
-0.63829645468051854 -0.6575690215752843 -0.33530047594854295
-0.045452336630834367 0.50028948418517416 0.59256755347362855
-0.28625796964907391 0.11273466714473557 0.73430545277679471
0.43270995670557078 -0.25718916237048006 0.64208177793719301
0.16767094666723636 0.29176851803316595 0.49746199221257825
0.2934373571078126 0.91235053407288547 -0.33786595335848801
0.24966783752019417 -0.18234049463819701 0.64541210949039396
0.43000203314898844 -0.28546677533481102 0.58888765601841442
0.37700075775432396 -0.28873884123947846 0.64979277447613981
-0.56600886564928565 -0.39692171566377965 -0.15888866149933278
-0.62891912166828412 -0.59806927126379605 -0.27334639507029124
-0.52062264461035568 -0.19990196460406651 0.55958711032374708
-0.26916986791682973 0.31481689413590175 -0.023664426449442999
-0.19910400859647837 0.26657323667888022 0.72301290664623252
0.07773738931584262 0.26887688187969161 0.61227504595689197
0.10192817096247442 -0.1582939392196181 0.63859518062682241
0.15100497512602118 0.77082228392032448 0.052803530708899871
-0.64837796423068728 -0.60704461014967137 -0.33342351245045165
0.12954896031541807 0.35174296667764793 0.11363561006569967
0.13020415567446442 -0.070507225865412693 0.61729079692142363
-0.39276336824562197 -0.0088582262532383993 0.71439171157726378
-0.47489461373698472 -0.093187493424352397 0.71969585190973362
0.22105103351987765 0.33461582818858915 0.13269335812242389
0.17723560254090387 -0.20417245803287187 0.64895522517980453
0.29472384857286471 0.93909794190386719 -0.35885646621488831
-0.1912520628893386 -0.10723669939500269 0.74215385575035953
0.058415204059247827 -0.18713682057600067 0.71339071423156497
0.74697910075802909 -0.37563840191214126 0.55460600344983391
-0.25395934213887905 0.027559707700021363 0.74296967758618848
0.0057961919699422992 0.62218599846329425 0.41396482441962235
-0.64888539942254031 -0.79682231528235548 -0.37694166862291922
-0.53818276564196754 -0.14969511093093502 0.68847019900232453
-0.65261205141223488 -0.77394880115147657 -0.36858909519864369
0.03417406913080967 0.39897156988504889 0.60205694678933241
-0.23463845684767293 -0.17270434729593376 0.70096923345872142
-0.35157785574974021 0.025619412390284424 0.76234742084926665
0.3335450812722538 -0.18091439718040192 0.56343829342006302
-0.56066873324468425 -0.34989340840411387 -0.42438437913693861
-0.12654366985378118 0.37989981393010908 0.73082644485964465
-0.69121675996170406 -0.63796881467024491 -0.15644203951956115
-0.076775855868696397 -0.18865957605757444 0.70873149935300717
-0.65002712113214312 -0.70741685003147836 -0.39991061189144261
-0.33172249858229108 -0.2703370000964469 0.21253182331491871
0.22603416345705973 -0.225340993467114 0.6701571989456454
0.08451996097714698 0.3234296319434975 0.55681354740997335
0.42904408924294035 -0.28356470342043849 0.59554359945826718
-0.10313895846046606 0.3379835524956718 0.71862035988232265
-0.36634547340006396 0.032954589059471573 0.76741561976359662
0.01837136032609088 0.1633822235090463 0.72461898955018
-0.46411324645363017 -0.077484526649129748 0.71725771026791563
-0.39522095503915367 -0.087279437053865649 0.60935142623065985
0.22630228206889669 0.47171279091872975 0.18103412535978691
-0.61166710291066373 -0.6124637984603396 -0.16946705232953718
-0.029158854501925902 0.52182895443462485 0.597335870765761
-0.12052577780076845 -0.24556183068173709 0.64425646718652274
-0.51040070628487122 -0.24937490698107467 -0.013206417232282774
-0.23055819544782885 0.20599533949908277 0.73524214812786681
-0.1456283250219057 -0.17525721593489152 0.65496441230428104
0.2634921490553559 0.86095343626993781 -0.26147641501782459
-0.029581507592716605 0.081914468543857311 0.2443138149801598
0.29254556151257205 0.89966848296680269 -0.33180753797950047
0.63594761863446791 -0.35259195006048571 0.5969746882837228
0.40828716745927451 -0.2185835066068762 0.55776270006006712
0.20349047026265765 0.13954258948825782 0.27983711736365535
-0.080805156718630755 -0.1590663970014532 0.7308976410678838
0.16949929859572777 -0.055982653241755997 0.5316996736930264
0.30105515239251801 1.0812842941732015 -0.48985810027042476
-0.0053621672703858536 0.19382493959363956 0.73703898028685444
0.28512032335329707 1.1643889187413947 -0.49968672072671438
0.077545600890001509 0.28606905816775452 0.60863322846589085
-0.36092935249511093 0.025904478935416364 0.7182875654215195
0.094542521062582097 0.87120103743376376 -0.0019015095263910098
0.042888009551589334 0.37449388878962964 0.6041658148547242
0.12461221609042639 -0.089667482490995098 0.62720900313325956
0.050682543046958628 -0.11039066948819709 0.72490403564393091
0.28817369081500033 0.92499949755438138 -0.36110083347927002
-0.62890424010243162 -0.58414819293972187 -0.31924949162589655
0.0071070428262522967 -0.24151856018471562 0.66478903207772078
0.86419543932225729 -0.43728774013803218 0.55799539169768764
0.17103556500832795 -0.2749494415328968 0.69912682065708509
-0.42613361984566911 -0.064352994865288338 0.72305489867838446
-0.67167386756827785 -0.69784375206387494 -0.46390053547349908
0.31493714366134373 -0.25665548311516773 0.60058993956909035
-0.40708954751850879 -0.041629237153728127 0.72643875026611227
-0.61939801408136219 -0.58954936432746763 -0.39164323185275407
0.51140392294216497 -0.29211922493652764 0.58241817940822216
-0.34998955789877595 0.008750112397308385 0.74116498307688516
-0.64875099575815831 -0.81276278868796226 -0.4008793633647656
0.48412979109994847 -0.30606272410278734 0.59228543341674822
-0.66027938153991172 -0.51451745632346046 -0.009174302981676874
0.088220247889339021 0.65939160545286768 0.26626350799844545
0.031717603705814668 0.69933973967147267 0.31452551152247565
0.29474210136263679 0.95827532455408004 -0.37978981516366161
0.3275479627781781 -0.20888804114048298 0.65416552171882358
-0.29325461671642827 0.11636141772873998 0.75872868941186766
0.088653101425499869 0.20188189457309136 0.64017759068318014
-0.064771558060746415 0.33057829798215721 0.74619602197500967
0.2881411068541837 0.77969014263709369 -0.22743293877400106
-0.052533296709542654 0.45621883874562741 0.6900733107844701
-0.67043185174703268 -0.50946180626738169 0.013188092704524479
-0.027435625864701052 -0.20890118358769882 0.67673959991097377
-0.41182835241421856 -0.089855866276252527 0.72532518776463917
0.58233154407809984 -0.33394590948080349 0.60136593479714406
-0.3780514324389479 -0.15546935694652575 0.64137204871573772
-0.48859896144384862 -0.10650698880240839 0.6876631319640012
-0.66654113418465943 -0.75975782438567308 -0.30704885411353189
-0.33745218601480786 -0.39937810229150728 0.3929216761419525
-0.64732969647054972 -0.7102472005169318 -0.38553271326463801
0.63639019384991791 -0.34147452610127971 0.5884034993641194
-0.081983401367310194 0.3515297896576044 0.71859029147677234
-0.19324899483585511 0.13231422380005142 -0.039712132835745706
0.090452528170663626 0.10924415949952504 0.67206572709949342
-0.21521872266711206 -0.14020608177563076 0.72474447514986196
-0.7173099633196971 -0.61935448695589912 -0.14345762139657836
-0.15243747638400151 -0.11643421277963739 0.75100620503630466
-0.24645329888660861 0.19568673922262292 0.73205446543272501
-0.37495817758029837 -0.010716623517595281 0.72800339154773042
0.22545892615389818 0.34364665551203188 0.12294021381143239
-0.42325724612357973 -0.14950417475984068 0.65146814132492636
-0.54158883163028548 -0.32819362270276997 -0.09100192337422186
-0.58346218333173283 -0.4469747267453954 -0.22010836667084277
-0.23979881503035827 0.20937281387426765 0.72954148121536377
-0.091581843533676377 0.19991455209665787 0.72033511811088147
0.24415386629128477 0.55081106103199318 -0.037102981953182734
0.035825776271348531 0.50927548049594407 0.51638430326477192
-0.49754820238323205 -0.12355522911533967 0.70693414388475162
-0.65669853200727335 -0.77770471093671745 -0.31475369234681239
-0.16277235187017425 0.30702917282363273 0.73215193975235593
-0.0065786048792269014 0.2949938830659562 0.71107671479708756
-0.14765955385642027 -0.15443828874487053 0.63730341648243893
0.089478392837508025 -0.13518605499581327 0.72117191331443564
-0.32732554201390407 0.069804797807364594 0.72981692711798019
-0.026213380352544391 0.36996956597005237 0.69306128858983129
-0.68702930909712823 -0.70067466709048176 -0.29430205606522009
0.0020283817094295387 0.30311825581344465 0.69358069106579023
-0.41739067144062147 -0.049346476335955458 0.74074104451307221
0.077300187389617747 0.1481792482940989 0.6639664395696343
-0.30529764057876285 0.097981393059257016 0.74105962595285746
-0.62107687098666453 -0.49942221373328266 -0.062206734994049384
0.095843016613402554 0.040568648290275178 0.67904030355467171
0.038003016420081082 0.36399469939260598 0.61209990486256061
-0.59717656894854088 -0.47706313458365912 -0.24059376437486435
0.083538828141449528 0.24504445817393616 0.61897671562795153
0.13687251230061648 0.18561668358574934 0.2465713746086351
0.015690844887938482 0.63701565744500499 0.49961960482781365
-0.24141805800030713 -0.17882664162968354 0.66476880133257055
-0.39675702166881166 0.18301284328589418 -0.49195698068083971
-0.63597977816888562 -0.87752109201886697 -0.41643218480743371
0.29532553564509811 0.97820641991350499 -0.4117280513249284
0.085564161689200446 -0.14707693765842578 0.72883043589760632
-0.49985366629177452 -0.12055496909013641 0.67087718569388244
-0.048869179881741331 -0.14216882997607172 0.74180138365900916
-0.64121329987531261 -0.80534081833221194 -0.33176662277062974
0.50746012595798184 -0.33748900014023775 0.67821955456105343
-0.43760577913802035 -0.05386179496144905 0.71805636203268364
0.33908199481401091 -0.27357296959650057 0.6628290849044447
-0.44159343132140272 -0.058598052452055072 0.72090936805017236
-0.26837015871079828 0.16534355461439532 0.75460434301831469
-0.45012214961539243 -0.068860506752884021 0.72474625733789821
0.1714899702484658 -0.038134697670813011 0.58653055161366296
0.019426424707940981 0.68083824361758616 0.48994561534087211
0.10351610827370905 0.45988341155691614 0.4293531289395105
0.20977478373076153 0.39795485319768886 0.30697405410521128
-0.10477827093474623 0.42441897506063242 0.61951458195537157
-0.56294915519924071 -0.18260653563177698 0.63931158083741479
-0.45034620215962651 -0.10311693565878954 0.7159784111746319
-0.41684778638491693 -0.044299061224705838 0.72798478623448659
0.086447491470547533 0.28360386497041645 0.60373032686956662
-0.65424932842795691 -0.78291756881120023 -0.39170931718689417
-0.017835546305153827 0.16003513045717455 0.73705468482620518
0.075251596510065966 -0.20642360585969755 0.62716238694855519
0.21591478941956765 0.43568933065245119 0.050431618598622663
-0.20037115489644997 0.27841821324597049 0.6546315674990808
0.29641284946720603 0.96307317762401112 -0.39104257953195543
0.29075486570727804 0.67784277183929476 -0.16310474286817112
-0.25790269850411995 -0.14490878914145355 0.70970744777298478
-0.06622145872826124 0.48137512232307245 0.69337832874697369
-0.17894580217354239 0.27944909963838427 0.7342774279871378
-0.24983417403784891 0.17639105301711311 0.73235043328733695
-0.63328926652265061 -0.60187404341826323 -0.26445069647476771
0.23234052019001439 0.36993126570121149 0.13397442667942983
-0.555770118338895 -0.51598229152511976 -0.33291722548125335
-0.49110469704798287 -0.20689201668662349 0.59953196728315561
-0.62163706969604249 -0.54208825583165776 -0.29282097965344178
-0.65462263038484991 -0.70824815168938926 -0.41287274352274039
-0.12734397962837818 0.38758716132301174 0.6760002294156493
-0.028031915564113774 0.15216441142081294 0.7259130195658372
-0.599396108542539 -0.60936879503856289 -0.26211124946544828
0.19248601894777551 0.4013839318078567 0.091996715110553851
0.90367790816499749 -0.45044876200856265 0.5507745155024395
-0.010773874855413368 0.67465323247793663 0.62101789493399906
-0.60778434323102992 -0.61122849306264015 -0.29555790803908621
0.76195808101948082 -0.38876125535270489 0.55632879269626301
0.04329273476271922 0.75831483281413625 0.5000618955978382
-0.056016739677049898 0.44378485586196348 0.67352045788021542
-0.24475601286429338 0.15350503413463912 0.73774365081115434
0.10678962780575851 -0.10242815299864105 0.68746015653974268
-0.27082931454202708 0.14250784287304441 0.7329378581656556
0.6167817366523014 -0.34754239798087383 0.59380520095490397
0.1015340324449916 -0.15923489900842469 0.72171276061405365
-0.20216115113155197 0.3832124398300607 -0.55501507838525299
-0.28889026422356956 0.12896321679934886 0.77097809671141704
-0.58799357125986695 -0.461253514078237 -0.14841469453412515
-0.62939609653304451 -0.61804843467371029 -0.38188676214016937
-0.69533941020870138 -0.58072222806472951 -0.069937351653351243
0.29210250301726859 0.84220516859073769 -0.28640767058311667
0.22066137334225999 0.46531325705251447 0.024850189481128382
-0.33891024006525328 -0.013867407827774514 0.71528106612822739
-0.046474152383803258 0.5563062922071822 0.69347240720094305
-0.47296486490764877 -0.19006091369155342 0.38326352132688157
-0.015958217998935709 0.42055740629092497 0.65502363069708736
0.20703756495173842 -0.267472840933209 0.68669831850013452
-0.32050111771069378 0.042006155504623166 0.7552076024537655
-0.18768377423932048 -0.17507953762520856 0.65325832971217324
0.2879928617244083 0.91055692549545597 -0.32625065898901084
0.21547458458824309 0.45917860816592793 0.033364548165451424
-0.693893744899448 -0.5396236835095749 -0.024491489544288925
0.26473154908110885 0.65295297276128395 -0.10473221003371691
0.14001009835258671 0.1435604781073323 0.62308600493625477
0.27854828174713475 0.74706311925757518 -0.19731970110385078
-0.031402110178913034 0.55417670942807717 0.62127474395231275
-0.64706775649029957 -0.62312795208026728 -0.25975210928277193
-0.22744584169653681 0.16457328839354091 0.76350115218042447
-0.084571662180300322 0.1667088248115931 0.72859129158862856
0.07420619889667357 -0.12574359716418826 0.72791770174680437
0.21523411978542839 0.53630138615602618 -0.016516083024271211
0.22869696837920728 1.1128365880290971 -0.50545979297106669
-0.2520290152169995 -0.15690969475502925 0.70629794443533456
0.28893577417696648 0.82415621986353926 -0.26456617111927017
0.12115504166571345 -0.12582195927302564 0.57115370055490189
-0.3543104836002513 -0.12539703343307451 0.6967577950786108
-0.65766653154735266 -0.52051816300581777 -0.025930440877147021
0.89637969073719681 -0.44875047507861154 0.55200736358051472
-0.25777919782683867 0.15543394412776479 0.74200533316047768
-0.66354967054786052 -0.46893120600151406 0.090747167945920637
-0.58350263633115773 -0.2544553890029988 0.55819741355639962
0.68076574821413516 -0.36342979216689741 0.58446299919927469
0.26036830092465735 0.53491797546811881 -0.021869410993048177
-0.021574603032689765 0.54261738135073756 0.56986827731142853
-0.38428840559130872 0.009491005882381387 0.77633268301198655
0.059990254019268718 0.11720358220389926 0.68729543638988844
-0.14470041773986075 0.36334238271524555 0.73364594392376148
-0.60667207872775464 -0.46808176321502515 -0.29144045918036454
-0.619125931290613 -0.59376534771490697 -0.17791228266844428
-0.38043113782148374 0.018448980111486435 0.77726385554069566
-0.27870327324654021 0.15157856984680507 0.77621737016610837
-0.08130377875848005 0.4635383119062908 0.56021495068756622
-0.63458532865377482 -0.83888914036688789 -0.3853329859776693
-0.15005743934492166 0.33707696641678808 0.73357440788231543
-0.40534149850276968 -0.030970609165422047 0.67988320717554984
-0.081622940375714492 -0.13041029420398331 0.61533542039393296
-0.65645568530142118 -0.72061353954043739 -0.32527733233743561
-0.45200843357487841 -0.4775315067878978 0.30155630401625899
0.26411390419014324 0.79023881158508402 -0.22415125389613877
0.23563482074724007 0.54364548429248316 0.078870312742452597
0.2819612720944491 0.77525880809187697 -0.22060340610011053
0.10453755067957005 -0.16759827886406242 0.71563429178223714
0.11780601355362919 -0.089679221078597493 0.64938883566145478
-0.24796987210103083 0.16614137945788343 0.74095696607918171
0.53861965972203052 -0.37699765595263557 0.69057341440466757
0.1883524681911446 0.12834003446693032 0.28641362105261692
0.16474309359782069 0.16043618315470098 0.56641953836160042
0.37638360122046244 -0.32409458220769238 0.69628032011115693
0.14402534836288794 0.5921525536990373 0.20959900222831607
-0.61884906911944881 -0.52481596950315179 -0.14315957500542709
-0.26163694284387873 0.1687121529546971 0.73990219295751558
0.0056151188678068564 0.56829009121619833 0.70625382326170438
0.69028273649626115 -0.33002325630673113 0.56219278118598481
-0.29653483487228449 0.11353971660909679 0.7684701794104285
-0.21469719885841521 0.24858975800754024 0.73076320890871216
-0.63911755846682361 -0.84075262091201353 -0.41159246537074523
-0.39162071033930079 -0.0038370062057140331 0.77199929125850986
0.24769057134901828 0.39820558213656909 0.084603942161436407
-0.64354495538506917 -0.83086213831947475 -0.4106153671074253
-0.096175019045913857 0.17026631470483267 0.72995194310604461
-0.073790930966978863 0.26731355929089773 0.75504362566749705
0.06702293765332179 0.064232455172458458 0.64001710301320713
-0.65297896876484618 -0.79543731995434541 -0.41233604937073665
0.29390847525210617 0.9124191053638242 -0.33407775933329731
0.25529558983663847 -0.25323702203004927 0.67008113676681091
0.51769037911734905 -0.2899942786596057 0.56278192547040362
-0.083127174902935863 0.36284393903591194 0.70744279294697776
-0.61174313787446444 -0.51766551803075345 -0.15875611229887454
0.23644771460122271 0.1960169697287597 0.2374608684945656
-0.14881793117759656 -0.25411227646702628 0.6295867592994
-0.12765176842816395 0.38818169519626622 0.59859997797553888
-0.078918175239431676 0.48049982652224799 0.5352109019104887
-0.065764186161255012 0.23331762405183554 0.75564581040302414
-0.13133312753565463 -0.23666790122985049 0.65482928842695287
-0.089750748247071854 -0.093242260588823456 0.73880756523743685
0.59174641315367982 -0.3041985124051223 0.55375083010210346
0.38480106691492821 -0.19915739035752722 0.56476759199185267
-0.66736328060920513 -0.74256137972980696 -0.37629337588569456
0.4447655449074599 -0.30292759165030247 0.64218697353049947
-0.65129584621123637 -0.69844788896227783 -0.32175978738723643
0.2526615225635247 0.32738508284515433 0.13257772064997653
-0.12295213744722133 0.20646930927031804 0.72766948102037077
0.25774885404216619 0.59733670912629577 -0.079403396189348996
-0.19931133141265356 -0.090787416076352656 0.74603580470108
0.31747778068691446 1.1179424394005082 -0.44420729106897738
0.2702765069668942 0.61536976903741447 -0.087899199709937648
0.03505176957260403 -0.21741720392597585 0.66025542841504148
0.23069245317362075 0.16276653123406959 0.26547000250963038
-0.23309269333339167 0.22032742708375963 0.7132496669841828
0.2501888020833789 0.49463274142669889 0.010113639859213208
-0.19560015639131301 -0.045440219726913256 0.74735101634453827
-0.17094361117887047 0.12050553376084849 0.73134080540879154
0.47808221723082056 -0.29107890730531949 0.60278235307177397
-0.075744122035576567 0.42422792820102018 0.70353861470363199
-0.42582837397052309 -0.11541353782388342 0.70779338430446614
-0.5206714589480157 -0.53367228158759872 0.17000916552831313
-0.095541302769028391 0.21340312545143547 0.71961718867797231
0.00293024995743707 0.66185719089995132 0.54649919534205083
0.28666544779876446 0.80156644962818291 -0.25895596608771143
-0.24088280503599968 -0.2978257252829053 0.56781142581729682
-0.25439871030470229 0.18756436136510501 0.7417786454544455
-0.10530097637047575 -0.11805392097011236 0.75032867369077394
-0.64571687899788266 -0.78659785224891721 -0.38551067297146346
-0.68928134279920883 -0.57180988822358358 -0.066633777120955529
0.18321571955224059 0.21299687461075223 0.23784211263438237
-0.59793120762835006 -0.23033611079497973 0.55688268692412635
-0.54172248309827431 -0.18774260483630201 0.59952897799306015
-0.071152146285639262 0.13203409562518686 0.72711880955938568
-0.61243024622702613 -0.30005411171794094 0.38773794357982183
-0.53904971368321242 -0.32532849797831886 0.13573019323766289
-0.31052251888786575 0.095902457956043463 0.72981354877481408
-0.2312548809807069 0.22064678535349458 0.73018726745945628
-0.3874490461283937 -0.11900263793998533 0.7042679117576256
0.30660494713444919 1.0885938528660404 -0.42256040869068556
-0.45885663489506268 -0.090196959967698831 0.7186070565684588
-0.10336619767349653 0.37030889234557662 0.72993879861189725
-0.020013215235609394 -0.090233205082654422 0.74382670072986912
-0.67981468319152683 -0.63755175215854365 -0.19533610548464253
-0.62479478590656878 -0.83687866851784065 -0.3332546857430998
0.59421555556744643 -0.3395719055093025 0.59538557957949934
-0.048414155859070718 0.31184199325772965 0.7417394044245782
-0.47122853508293971 -0.095069113507435077 0.71900837499967452
-0.055313119271211519 0.48892193746794987 0.68367894057226408
-0.59196503603455675 -0.45833567007417741 -0.30527355924257904
0.19457212294872406 -0.18807317972047599 0.64406234075772772
-0.61827144896254271 -0.36725870294608853 0.28515996387741893
-0.33387136369948678 0.010204667799314393 0.74714201689096171
0.11661049905164944 -0.18356855823640217 0.70984947335210791
0.25189487532762911 0.36205227686215835 0.10939203756984739
-0.65796524370713261 -0.62001630315336342 -0.33174142493962222
-0.10138655165460619 0.29712374136758513 0.7141404516825105
-0.68023799209588809 -0.66282664060051388 -0.23175284860940337
0.71201500835920406 -0.35680325460282347 0.55481777117162778
-0.64912275929752372 -0.52602690463609747 -0.35362341525313923
-0.060474031258994643 0.52682007750729554 0.71501773840770966
0.22538104192788566 0.68674695251786488 -0.1425910948477167
-0.64862217986939541 -0.64014981157288275 -0.27844696242567579
-0.21459434978322367 0.19981470199533646 0.76041171847623446
-0.028307316062299748 0.5097009146036271 0.65762318301219125
-0.46189920763053038 0.0001030724557153917 -0.49848005768038206
0.6585578887937853 -0.38089975995299596 0.64875704159675252
-0.26730406167599341 0.11034142617461384 0.74126136568932566
-0.032409014169207495 0.49366823497240375 -0.21907820968991132
-0.010669650835893663 -0.19433704206829816 0.70943137668066925
-0.38802759542097398 -0.14734858821785224 0.6478872370835802
0.2910470752550367 1.0969005588289065 -0.37025918833467131
-0.69323149697491893 -0.59615059829346251 -0.095151702214650413
-0.39753373011771131 -0.20826928084022711 0.58338767034774719
-0.13464080862493333 0.22189451984607445 0.7270822870401048
-0.31834280808642212 -0.16507464649012604 0.66783276104132483
0.23328256065490294 0.33301831157737638 0.13437614726055358
-0.40201965874158763 -0.0065329703714667176 0.76571312010526071
0.039928208637281415 -0.15194810029510109 0.73321406265733913
-0.11034215731917563 0.31691128067043906 0.72121622461145307
-0.10099089540628547 0.24394022020601369 0.71798981452511157
0.26051769522538137 0.55247207138884846 -0.028636046667173787
0.078168057076045017 0.35183130258491246 0.57227597057215007
-0.013746919738357732 0.1185466626997993 0.71730615073195736
0.13767796504253127 0.71180745307856341 0.12048928525061342
0.27515180638239656 0.45655812774367632 0.032830008578912384
-0.31469820580209173 0.26332083973824183 -0.10850506997709886
0.096791040366664305 0.77037906358469854 0.19589156340634872
-0.38607685702519401 -0.0045801998523415932 0.71682096184582633
0.29539628801479267 0.9110668397659083 -0.37934394256973292
0.057333870397208386 -0.24657598750687271 0.69492664137507631
0.081161579952343743 0.14285009595576525 0.66588697874087188
-0.067069248108563073 0.37258525083706218 0.7341032718643703
0.032810378070168511 -0.21616037009167144 0.68998858349451098
-0.016367840562108604 -0.10969366208482256 0.59614482490576393
-0.70867165743006755 -0.67933856046133201 -0.24364070612577393
0.24376352794546818 -0.0061769595304497216 0.56844537043289733
0.0019952004861352179 0.6348492796174412 0.49421331789750411
-0.073131811853428985 0.35251901320492607 -0.087851837064988558
-0.67873179963177055 -0.72826800578144457 -0.28450329777359684
-0.37601957053828805 -0.011736235924502125 0.74430543294451468
-0.5868110325213145 -0.44589792736206846 -0.062710654131848287
-0.031586243619951659 0.54618783824551542 0.56300762375269642
-0.061927523687796082 0.49743660672834267 0.5553951428714754
0.032532062849202958 0.49194495067976618 0.5408118777747859
-0.32722917708697707 0.061284850460111784 0.77090594846717408
-0.11419217038843854 0.1136783355537716 0.72854254860300216
-0.22339852237039182 0.2260931492160978 0.73164551301459824
0.2658939109681846 0.36611201727757248 0.1016245693542146
-0.38553308051401558 -0.40562581250344465 0.28038407950251099
-0.17046816429932576 -0.1064726639722835 0.75116481690051273
0.29614111155786205 0.9715357431824998 -0.37385788539921805
0.060000292840602043 -0.15210289461919047 0.73126411859513496
-0.65056846850404426 -0.68939013129522664 -0.40496055084119575
-0.022808832808644652 0.18961869541513465 0.74573302166220401
-0.44147684285921684 -0.070959244952348399 0.73179170258055137
-0.23161588069512185 -0.14934678691034264 0.71562672723567289
-0.0086767697410170541 0.1631263972219017 0.73909957885115318
0.074928996101359502 0.55578445363880746 -0.10629499710103119
0.27484469679029644 0.71879465546300025 -0.17445746168203868
-0.56271856556959321 -0.17351374178983292 0.67330444975485193
0.089682079490366107 -0.13837324836148923 0.72692622399659967
0.25972676107592108 0.59249590886258829 -0.05360754335632123
-0.096838147273784259 0.39899697843699755 0.71169242010822131
0.17769414823646557 -0.047013683700868114 0.61476153857074678
0.079350089429834014 0.57986539613497712 0.36424701386891911
0.60025165886123588 -0.3888114542328367 0.66655827569746862
-0.39735317503131817 -0.1774828346842412 0.61622295068053745
0.042187494381305868 0.78730268882736709 0.56363425777146858
-0.70498211908356367 -0.54587376617118366 -0.021615279869422466
-0.059741690582521656 -0.10869432649968758 0.7455560272528885
-0.66086983461023063 -0.67021486343048764 -0.34165550102756015
-0.40465043935646161 -0.035487557978541417 0.72824029549434499
-0.66097889122300479 -0.70568091650332576 -0.33957523196724537
0.69229716219053472 -0.35979935903864657 0.574677995173829
-0.016347600514940552 -0.10846343785718204 0.74577397234060072
0.045721863820851638 0.3804832333676984 0.59695051811817734
-0.64679282678650374 -0.75163324351899519 -0.37513204743498818
-0.44608756282989948 -0.086812322012178811 0.71906503342623296
0.20774390318798197 1.0721264706822353 -0.60349215813110391
0.34624641483664398 -0.22021807003008576 0.56559449008170759
-0.1309672614946038 0.013962700259440908 0.73849743206403673
-0.66337734630126732 -0.50622267920726927 0.01247200843141627
-0.048915319914499378 -0.2480869082336028 0.63692560190108338
-0.13106756521751706 -0.28433846988559708 0.55420704082013117
-0.19047865273996223 0.28899433070236569 0.72644362539708141
-0.67583120523229567 -0.66635798779464039 -0.24542904541701205
-0.0091618901424599386 -0.10194726621892869 0.74486254625045945
0.28593342890855311 0.44391525242662055 0.034046897823117206
-0.28954013673708978 0.13225149979112416 0.76081088032461253
0.21667698071403141 -0.17650501857437462 0.63199916455587868
-0.43812345871511305 0.079314623363927694 -0.46925072898667963
0.24888573663467639 0.29506260088936642 0.15583919225542786
-0.17122781987228919 -0.096286832229992569 0.74678231601907896
-0.15550178273475801 0.34363982227381484 0.74235816728466375
-0.63866585603826476 -0.84126229390014373 -0.41519487232721985
-0.28472357181932928 -0.051972273747821873 0.74970320537724433
0.2691752031203265 0.70040232983515693 -0.14866596372888807
0.2269642506527374 -0.24957493850871515 0.62833899652147807
-0.069151666424628999 0.16050343529346378 0.71834091977913772
-0.40011038961572964 0.17140767513637911 -0.37497022143631398
-0.25425980007913296 0.1824279870265002 0.7344788621742282
-0.4966224117525968 -0.094753177614336437 -0.41319833499230185
0.061437178435140183 -0.23383747771950425 0.68985227162320939
0.0074260116796054376 0.15909354357268057 0.73038598872557259
-0.20672121553938716 0.25932713657462614 0.64666285746744734
0.037058690178305653 0.74751095161130365 0.49576352847989824
-0.57631864432405955 -0.18618946223628541 0.6482690583724775
-0.17898403508428551 0.30323826803257248 0.72173780416767386
-0.61895286410179029 -0.85336248881327492 -0.37759857865421509
0.3515679616478522 1.1952938364948977 -0.53512094354175588
0.06714761284158044 0.14577302778280909 0.68025455133255264
-0.066627117349078446 0.14624317767635375 0.72861354609395335
-0.060315011188730949 -0.23385043575507325 0.68136437255932947
-0.29794405695692561 0.12423821031694615 0.7795382184269215
-0.64611206770937812 -0.60333339055716806 -0.22344084596295488
-0.1317195253881529 0.38711012821940471 0.7326778797033171
-0.059176501785236368 -0.12212475796556532 0.62328187551466385
-0.011143920555003461 0.39699087657282917 -0.034766022910446281
0.28441488002182425 0.25564196458049082 0.32338937694220249
-0.093940429715647866 0.35459645473468981 0.71149752917813203
-0.3399111664797001 0.018405009084602852 0.74969685909096029
-0.093044514163882042 -0.11138969118579212 0.74970735635628216
-0.68179548317968397 -0.75292292685713846 -0.43900874665186507
-0.63535580055542873 -0.60103488209327338 -0.33481493854043265
-0.23921048422393376 -0.13330107118372325 0.72192441033328691
0.18676627034549753 0.86043961087079879 -0.35081364323258413
0.58657687090858612 -0.29328635051464857 0.5539312423509557
0.69798985309861727 -0.35295165189913291 0.55978475004360462
-0.083716227542581123 0.46804499032882063 0.53983183578566241
-0.38697071429609853 -0.011503662363566036 0.72843115846339401
0.69334078671447052 -0.35532663484886484 0.60610601029506483
0.26276477145176536 -0.29658251765232535 0.70569141929692591
-0.63425131596756845 -0.85136627315844748 -0.41620065772880821
-0.38786093827748847 -0.038685334867153642 0.73395732926564961
-0.46134177170884882 -0.16507407457146428 -0.54425847729459065
0.83931053197642669 -0.44384913968769979 0.58389318866207418
-0.045967287368785748 -0.15505153632435054 0.73589057146290315
0.026444512917816354 0.17138758851291414 0.71895064989072921
0.022536855341769524 0.69209191360707223 0.48147602419584246
0.89278816658070248 -0.46777667829505276 0.58064505884982509
0.23532771936005048 0.42472308997159303 0.066627028326735172
0.42616338056123126 -0.27726208289817578 0.60587770401977536
0.14518560421136684 -0.060888969057998565 0.62356533591821517
-0.20429554838995223 -0.25337384806678642 0.61742922609559514
-0.33896229920967791 0.046248501346781268 0.77378326640069872
0.056697045550684777 0.78283910012561364 0.11325532862767318
-0.10922036326182827 0.43259768036185164 0.64267872418250249
-0.68167525137721618 -0.52648927810827217 -0.011646634969025627
-0.47950311112138611 -0.093925819173563241 0.72013008498774411
-0.32330109709109678 0.057219314363010199 0.75655166135149443
0.65698290900128509 -0.3183947373060505 0.55486469751764389
0.36860628125937822 -0.28796703782754207 0.68483459675894665
-0.58569935710857735 -0.53774519060607417 -0.44549224756190142
0.16632242213336212 0.34886788004129698 0.44222973407502764
-0.48001112556035963 -0.089561503117238317 -0.22302306962183138
0.23698031109168127 0.70230189512710695 -0.15398144556490934
0.29190641451337385 1.0049961376285523 -0.42899320215860826
0.62716629698802606 -0.35068385727066698 0.59594754205843969
-0.047231548104340604 0.50584103475324582 0.67698212897113308
0.64851047458543931 -0.35818162021124067 0.58676057768821011
0.82044225130133164 -0.45951817972613185 0.61827739537122284
-0.17512247671354153 -0.17124011045166299 0.65221232208682522
0.2270827988184223 0.41087350031580172 0.069381411377321456
-0.10960551367726268 0.15681325940056468 0.67610797281858481
0.04316767620755968 0.73213140008476785 -0.47278084544399235
0.12473085742698231 0.55104015837574138 0.29326790483690957
0.04703462067989328 -0.18157630130619395 0.7162604515900739
-0.4952429817284667 -0.11742691695184249 0.67935236170558255
-0.28024857598751041 -0.10026785845127506 0.7324073514798215
-0.19599693839946397 0.27747900362891187 0.54378967348466745
-0.13221194408532355 0.37305903027387899 0.717760491630969
0.12822639076513731 -0.22947344082032828 0.66211289615594637
-0.4059839007831556 -0.067774453905713017 0.73125545872485986
0.26335098235758636 0.69160759263507998 -0.13679423745554686
-0.58618688521443296 -0.4511334290814375 -0.23611317550845001
0.036596641113550987 -0.16434143413707147 0.72851535557930447
-0.26332452139167728 0.07823106517122369 0.68059360491534449
-0.053238991951531034 -0.075232439804153728 0.73535734318463142
-0.078386406757566363 0.22653585923023911 0.7516204424027535
-0.37539832692577413 0.023742495226031224 0.7728339727718776
0.08777557712383377 -0.15720189011426555 0.72570892376037932
-0.12479151008582434 -0.15959624971168296 0.72480505852789179
-0.35748916681488652 0.10969071935863894 -0.57169931562253851
0.37153338564264349 -0.20827351194904509 0.55845365116181256
0.23587983124065914 0.46223435185510198 0.02502104688039708
0.51042845393325642 -0.30539042045700171 0.60377307339732056
-0.68413973395009542 -0.63271070741382118 -0.1768119212399597
-0.65019970320980391 -0.81418015614232786 -0.3915655071611468
-0.12221511276816699 0.40754801119314266 0.6473030643471418
-0.33486141800083846 0.070416674724924633 0.76320762765348604
-0.0057104783622623501 0.59025043341191008 0.5846193379859983
0.27046214420596826 0.64751218111706521 -0.11557549681472779
-0.23049143774738567 0.22599168384016366 0.72870977097792888
-0.022582358861367169 0.30002741996463556 0.72498818353224692
0.27194217757065076 0.81537653707314917 -0.26845308905578236
-0.0069567264780570071 0.68146377009273351 0.69837398431377551
0.44005200598757366 -0.27812345898760782 0.60291414482369987
-0.15573770526662933 -0.091573639149515884 0.74451375561392297
-0.074888289613729953 0.16057902606101493 0.7261731837966181
-0.23894531134134844 0.20505738319980082 0.73578662595284072
-0.33677996674447908 0.02818253989315167 0.55516288570345296
0.019270887084100963 0.25582864658724702 0.69859129687222321
-0.58913061944855016 -0.45087373693951349 -0.27203690752787679
-0.43697726437394113 -0.046609062275990709 0.74041520232239577
-0.048238081386966059 0.44273256189632093 0.68707537157473553
-0.41161525642934205 -0.042390448915426759 0.65995934653207655
-0.65249184909651703 -0.80047966522215575 -0.36436836808869089
-0.048362970696187446 0.54899301355376906 0.62718190127753815
0.17607795387020353 -0.17483976114800726 0.6393463653980973
0.66250313395358518 -0.33571603640990588 0.55656145529013656
-0.32691944632404635 0.060446117150888767 0.76718890639000392
0.030020317757571746 0.13361708317086141 0.69195479682025507
-0.53876415894178109 -0.32943137699692215 0.022600901815366115
0.098594787920976756 0.28557343876272512 0.58919420740460282
0.015214316049279475 0.60737276939570961 0.64582548048446142
0.2433576850740522 0.34457901047244377 0.12383381305167518
-0.64329708727847024 -0.67196685776363552 -0.38213168327879998
-0.37627909944218452 -0.032680622039322316 0.73981901588138044
0.79516571970555283 -0.40902468000243175 0.59567997092227642
0.76849184076024812 -0.38536370382507812 0.55137295443827838
0.27595407548507467 0.81787321144099678 -0.24599106568894058
0.18788523190467998 0.69164478259804696 0.027771987123401232
