# XYZ point cloud file
-0.89823363937182421 -0.1630291424785355 -0.27212149650085848
0.74423749867389688 -0.0086294373160740179 0.45090794873703999
-0.47103277907490337 -0.60186817633763212 -0.067150062762948437
-0.25247057192910205 0.38334908403827228 0.65443532615176991
0.19661531800645093 -0.0094429496981049965 0.7291779738616242
0.71829020186146408 -0.56200525812835167 0.6853520984577699
-0.30797658539449912 -0.27947370444479702 -0.59930758894938663
0.34442260832952343 -0.18665010006685634 0.78014170069855027
-0.34859552273397298 -0.65190366428754487 -0.23172623352024857
-0.053689800530044351 0.35254483273712367 0.76810437679614552
0.44676642728791194 0.72990332548769743 -0.27671386530391828
-0.43676988789127336 0.58512882931385946 0.67839836351595295
0.2365838761879786 0.26077221573072507 0.68223595386666602
-0.53174676666708365 -0.66240375350042768 -0.26904267893996803
0.78787984620407769 -0.18809676649829754 0.64769334457764671
0.11453697491313619 0.70547835930602076 0.61216436109680217
-0.23916207406784906 -0.043353912654040982 0.7608876036069887
-0.45226217261415513 0.54961271280380686 0.54906628378785172
-0.76449353390898978 0.36000678479872761 0.015047938142060957
0.70655137360324716 -0.21413724180402482 0.66178303449419218
0.40436880021005095 1.1553082420553835 -0.46281450913147637
-0.4578718423659609 -0.61646947701439103 -0.076314730886906545
-0.20838486797314459 0.56892835982121426 0.79746417868727804
0.70213288124813289 -0.27103484233190756 0.69779600156812194
-0.10807771966182145 0.090833708572574778 -0.71067638784165865
-0.6714295465473441 -0.06357842245324008 0.74191553223272422
0.097617010344066557 -0.086072461804889144 0.78407437304076666
0.45533941292484315 0.4404304091296467 -0.16656897229177048
-0.11595283391137201 0.40895081230823394 0.75472415471722343
0.01493099438857115 0.60198385276191146 0.68971607872413188
-0.09951438103268373 0.82597921781284356 0.66410547477130422
-0.43875877994705093 0.14835164426915526 0.75089718575054576
0.10137975272883182 0.46816022717644046 0.73560149659078888
-0.20220121775412281 0.64732820879373776 -0.69983480336190951
0.29156614867670783 0.83577116429910348 -0.23801756181819655
-0.26728224944136514 0.34866840718905223 0.6317420979041799
-0.25275974365118259 -0.10194939167131167 0.76397805243732364
0.40272776868695814 -0.20509351099222073 0.77752707733179705
0.10382411274360948 -0.074851404593481163 0.78511905110485714
0.05972411126509769 0.34260294701402927 0.76771284910910254
0.12306190907025893 -0.064495364972295022 0.78864199012173231
0.35778380775569474 0.48120378981178646 0.14918528089060601
0.13080746572700264 -0.12985237321721144 0.77329211420146748
0.54016554771388314 0.63912554375696118 -0.2211188376663813
0.30216768688802631 0.98635425102605723 -0.36599817556543712
0.52840496681460536 -0.3297447436014096 0.35075582053832477
0.13627438424586558 1.1415970057541358 -0.40874139635002393
0.65346651573179315 -0.088080657074890212 0.61133773857091001
0.29246709436271345 -0.094402018829782719 0.12237541671925101
0.17240947470864398 -0.14839845415419006 0.73558631567925659
-0.5660947915711958 -0.16064833323088124 0.7278044421220784
-0.63152934126657101 -0.98496773929264236 -0.41646134518964573
0.70490116494886479 -0.40928681151984847 0.64471603542847333
-0.67778087683882404 -0.29029755797782286 -0.52926116485650709
0.29150843532244153 1.2746381418570536 -0.46658666250323222
0.24757879873317279 -0.052760130119565929 0.7949190363146954
0.3742802227758375 1.0587952099820654 -0.41307035627073674
0.33146097309443689 0.40518927763457668 0.34592494794355844
0.37085392061402445 -0.52769594584381707 0.54895660443548877
0.41024119073753695 0.89028029799425212 -0.34744722021309826
0.82888026683792759 -0.41610330822112473 0.50339880051410546
-0.090671032825035525 0.27925394817677329 0.76416870543198456
-0.65449974108906872 0.22824883558948272 0.44558852049681263
-0.69925083339327898 0.024678106579983705 0.72843586496401258
-0.026047652207182637 0.41261281566070807 0.77560804981635556
-0.011498858779162902 0.82107492702691331 0.54670843942199099
0.33561166061252834 1.0472612745008689 -0.39950343741634242
0.22999853035204865 0.79226198155708971 -0.066123383387548529
-0.55150577211354346 -0.55263161053419196 0.27862669569185528
-0.019099277991280417 0.65233845825486014 0.70207034637223842
0.16330498485118028 -0.13715994096817496 0.66452958915692761
0.33796518138825604 -0.25857822628500315 0.74498744917150361
-0.79722877006469162 -0.74392963487284192 -0.40925983737247407
0.10658628099059797 -0.073922119683331289 0.78638607933658022
-0.16969846632521524 0.007584902182713904 0.76089438336293824
0.064896307781964424 -0.093600463260642641 0.78246972489341715
0.28664159711127013 0.33312116125745206 -0.4570639849350755
0.14155485986327676 -0.079254694112876223 -0.57256207405362147
-0.66354391844259908 -0.58263864047876268 -0.26614232788642767
-0.0073337007888198968 0.92037195921750481 -0.2138279778694141
0.30622089825348553 1.1355357861233983 -0.43875470189323096
0.71663429427223946 -0.40830366837716525 0.70520971741052563
-0.061091691805643222 0.19182325186680771 0.76314493722406951
0.28404751469148692 0.083173291165167029 0.4851814364042184
-0.47094353238193776 0.52634780717312424 0.67451209754085539
0.19141333431593921 -0.24882740806992132 0.67914734210785355
-0.44446278516619486 0.074382824340290199 0.76419478398156571
0.16421197532845611 0.35532152119890981 0.7037297654055692
0.77117075828329007 -0.044024030630758659 0.36981544622449292
-0.084811789020790229 0.29236825485237716 0.75688776377000977
-0.2436258788509349 -0.53129309458810781 0.019260046547742604
-0.35430769358470826 -0.11393658770396087 0.80897776157280532
-0.52742737609595736 0.24239814361428103 0.76707282699703683
0.19176555194088252 -0.37779885033995697 0.18540202958729424
0.354547545123296 0.69271035265310843 -0.234893526939004
0.15457395323259959 0.37250963549374205 0.71262409844871399
0.38370535754617663 0.41411951623373966 0.041068498497679684
-0.89924824745094156 0.17596598361700444 -0.12322845895937462
0.44386483590690773 -0.57924977024470081 0.50575932803212709
-0.27321084555418906 -0.12045801413607649 0.7648320167672864
0.80483581538203453 -0.44469428840609737 0.67897719985330696
0.70302042658192931 -0.43543457388645379 0.66961277925634022
-0.71104811514345556 -0.77220372128300596 -0.36832092718304921
-0.21897772826918072 0.61048908017814796 0.62236421972966127
0.013775664837829993 0.61565458106518633 0.67439733198784779
-0.18662810839079214 -0.038994911830599222 0.75999685567921915
0.36064721261780619 0.66346827124348806 -0.22689671243165321
0.44432801486425433 0.58716417148497158 -0.20746746076065392
-0.54169052047862465 -0.65321849561163958 -0.27191956994806787
-0.29733239192754013 -0.21841197176348714 0.75191750699082149
0.1537595050266134 0.042672704365422476 0.76779196216625678
0.034411651849353575 -0.10666702746447498 0.77842493950470271
0.16189496112009749 0.44823706568183752 0.67397174238931257
-0.84002331014062293 -0.70669119167231997 -0.421853909012043
0.81057137449215588 -0.53323463570532681 0.59475820409306834
-0.59838332410214434 0.57180859412424923 0.1095476324419451
-0.18801422605079665 0.65590015442130323 0.79273442975295438
0.45385580920040525 0.48019330649145786 -0.10705932456698974
0.37789388527545498 0.45344779210057595 -0.013694758146129971
0.3398698034243921 -0.23766078306242377 0.3782366343805279
0.22030849165324184 0.83805205721989751 -0.30387777985106368
0.22780027180153439 -0.30646682268167069 0.21462497514426104
-0.41843843214223142 0.13530988677477751 0.69700099641704583
0.27955990828067456 0.7613877410365717 -0.15861589363089479
-0.22354848766917002 0.32354414750230376 0.76936322150481828
-0.46785492539248708 -0.8090664609457292 -0.31535819122382236
-0.11105058856963979 -0.45581500720771828 0.51930864628820927
-0.10449229194615839 0.34710074440046412 0.75266701120676771
0.039089773934392724 -0.15905405745839118 0.76652384911744775
-0.64246836087568227 -0.67570855555089793 -0.31861144638833139
-0.67175576000516912 -0.81756976276125215 -0.37024227141273514
0.19298015137422908 0.48930772500514053 0.64521677702055058
0.080371870457156547 -0.095907821108951907 0.781259813255474
-0.075971841158491316 -0.2825796121410562 0.71573632778358842
-0.14941569881494843 -0.3894028154362843 0.6314306490544368
-0.2483754213323266 -0.13793074962273977 0.76064313048095755
-0.39760637467814064 0.08048437750611015 0.75810582015424188
0.7601168141578114 -0.49534439220460058 0.69358730620297138
-0.087738952363217493 0.55624350075240159 0.74221459035152293
-0.94941899224704684 -0.53619694348083158 -0.44013232544466518
0.17523254629475105 -0.11014341885386614 0.78007503106277909
-0.79782546514587693 -0.47522288250104339 -0.2699388772259681
-0.61397340706429304 -0.56534215717124425 -0.12397660017904855
0.11180592874387685 0.46757970440836516 0.73030014698065315
-0.49086475961112086 -0.27257485515771407 0.73625065760893449
-0.45446693520898407 -0.7992764324046675 -0.32575694554088841
-0.099064818465961935 -0.4948030743441052 -0.06698134997463967
0.26708536582336251 0.53762792957804351 0.5542665862190006
0.44676408380132671 -0.14036444836612816 0.67131504910844342
-0.92083843805875176 -1.0529730902998722 -0.42874872560514632
-0.022626705630756305 0.26037476165052453 0.76140132573414121
0.30186302702553292 0.16171532877004324 0.4959525251440482
-0.4121431129375992 -0.60818758496139935 -0.33586010103726949
-0.64109422056202447 -0.61092611049639345 -0.29702189682984681
-0.73937964885081442 -0.49965212468063669 -0.18831995230380016
0.04476048030986135 -0.46601655539825515 0.46267419465925741
-0.62043192355395149 -0.042973303161545573 0.74821679277465591
-0.19531715911746517 0.35240291743950536 0.78738269391624272
0.28297129149422062 1.1599232861529458 -0.43665459652265781
0.13386732118863165 0.54020633216886438 0.65432541453969861
-0.42728117244531205 -0.23661977271527235 0.7713040106052631
-0.26622571891371649 0.0054429848621850851 0.76430706931114401
-0.1987529815623077 0.3107894844994803 0.78490047581158251
-0.7007353127562439 -0.22056058166132431 0.68870236651650885
-0.331026335238775 0.040312057472931428 0.73782371849574702
-0.39535349426022037 0.21734611627258005 0.75839508620242668
-0.40314391608683309 0.15452152952931897 0.75408283952424426
-0.40267741510449184 -0.21139962329969819 0.79038950759559157
-0.27562466133662156 0.863806739525387 -0.41448533733705517
0.01618036056615324 0.041959038452041852 0.774522853651888
-0.0082187864018408163 -0.29631570827460507 0.69414768324986653
-0.73785407709181072 -0.73638678132604696 -0.37322191843190922
-0.031553018244622422 0.46592447537759085 0.77198618179818368
-0.26025147867484577 0.39910799891333681 0.60960930091891896
0.1685228062922306 1.1320788025926731 -0.35685313320527712
0.77486240078678748 -0.33237868261512915 0.62469148213745029
0.47870595713118291 -0.29771410628092099 0.76754274609788808
-0.05068692977034317 0.31550548739154749 0.76481508077995386
0.18390405886776762 0.0098159383264260214 -0.57680209492127688
0.51174739429211513 -0.29345974810826192 0.34305200843050443
0.24316175638000459 -0.46569649692534654 0.55413487566147523
-0.35774737157768755 -0.32001804217699004 0.69266770320200521
0.48433670705091458 0.85974067205387428 -0.35303144623867411
0.73336234898158636 -0.57790010512883327 0.67237431795410885
-0.33498982756237439 0.12135441077148812 0.76489358163553334
0.34180995747044562 0.52407152077825003 -0.31227412807515975
0.43777425762108635 0.35519922846734175 -0.11323681812359609
-0.067200591200048621 0.21818095117578196 0.76411622424552661
0.48106490885930953 -0.60402269071408909 0.48252285376861437
-0.76503872979043308 -0.29756699555045429 -0.45786070213375751
0.36748162242588478 0.33104262464479461 -0.21800075942633157
0.7698716133508583 -0.6227702976303533 0.58307501778926962
-0.13088627922332563 0.43100186376521776 0.76071898831901308
-0.55361227381453659 -0.61937766748673084 -0.24554975684986857
-0.36822990165385505 0.08631743127286029 0.72981642302011096
0.14556042877333653 0.20490247487925473 0.72163814387658931
0.34917928860548386 1.2876455012963675 -0.48975979081251353
-0.77152357046310271 -0.61694775419147163 -0.45212157677815412
-0.4401861782246641 -0.37942883543603756 0.65790437748273689
0.28392251591282047 -0.15649345412705884 0.78244658952939972
0.12010991908701385 -0.048419815898292029 0.78919607900274968
-0.44342687112475687 -0.78838671849723596 -0.33212437931911154
0.34747574027647943 0.99645187773663224 -0.37804820193173327
0.85861612245622609 -0.29212025030487609 0.57348330271770465
0.19570859073385805 0.35852685756605496 0.66665179983692724
0.74642287385216832 -0.48274899707165275 0.43317650691528797
-0.063000298343737882 0.84373409636217644 0.65907461861343108
0.1071711605439134 -0.42662636932453779 0.47836182152832407
-0.17667622684454898 -0.39692833855232834 0.6217598793716661
0.12574297160392689 -0.13972510464061116 0.77117121317041892
-0.077408804685759947 -0.47689583023901605 0.44749254627640767
0.11034625396170128 0.59099253525675266 0.65213745624123476
0.1256309112413021 0.86160394198292067 0.0060063011103466124
0.34158367044518911 0.33586133751323644 0.51784976546832695
-0.30625673664599873 -0.056148237037916715 0.79797395079935995
-0.28374354962548409 -0.21732020149239872 0.71412465424668881
-0.50116605140347303 -0.49560131635083593 0.5043804081383314
-0.47291103232734599 -0.6706253079296971 -0.2035551582748667
-0.11939879366164519 0.78208281830720239 0.73108654479233337
-0.11808053864183421 0.48887382148964775 0.75461096073695444
-0.6641479728443187 0.22950723892734004 0.57800442927714357
0.53582071983404944 0.92942718349007691 -0.39519014961888388
0.22713196700775029 -0.015246451396464522 0.7959934830810198
0.16073788330533034 -0.21815706070846375 0.71120057132839065
0.051451407121305692 -0.1091817323621882 0.77906722879106383
0.30076441640653684 0.85312852451676235 -0.34494987458583637
-0.079491433567881131 0.088283571459776056 0.76336849339759283
0.52647402240535257 -0.19972482701513883 0.73654233753586595
0.32447016401874862 0.91403982018914576 -0.33424298374643513
0.41957564217716481 -0.12012098871658594 0.57686153909844506
0.070241464888169958 0.69028874547896635 0.64107749011918713
0.34841539699253588 0.56636576558702245 0.021697195126535007
0.11134625487051153 1.137230749466255 -0.38369395872905443
-0.13250022612339762 -0.45979511667937345 0.51541683976370223
0.030036488596635991 -0.10894448606738649 0.7792174809608241
0.38527340112030117 0.38318185086154699 0.075600734046247453
-0.39276970976374059 -0.34449102424866851 0.68410459331994389
0.04191731978636426 0.35744896493073952 0.77054312852123985
-0.46808922172372291 0.0089807832448229874 0.75087724330683159
0.19526295288511619 -0.47697983058583304 0.4974625564445887
0.44415927694001311 -0.13201269201309884 0.38301165399866477
-0.42513771387734778 -0.10760656347338227 0.80208062859651363
-0.2124265369089926 0.59081763451291636 -0.73858220492866167
-0.92926210924235875 -0.99150179631988067 -0.41080238871586516
-0.46283370531608625 0.18938373941913511 0.6328766073852421
-0.20148742126994534 -0.38345317951908697 0.63330072133453541
0.25227087311196783 -0.42921138682079629 0.59063783298847738
-0.38497137851476282 0.3194049972246944 0.78243085856593098
0.4023501200533417 0.91707584227654593 -0.35791260460882768
-0.99253256711830318 -0.65443614805917605 -0.44529603991941258
0.72053939416184676 -0.26019910036139038 0.6266413973391991
0.44120428759256924 0.57408574070376517 -0.19432796546743702
-0.40039804685679314 -0.36094164179446864 0.66716908162266009
-0.32685194061875222 0.32705073392572359 0.58801509421027731
0.36637279969914971 0.63877557445945854 -0.21999240188074509
0.25808804200224245 -0.16438831325916681 0.77574581056705938
0.43844168448401888 0.82967207435379464 -0.32499404583018077
0.43332537641148861 0.47225301968200029 -0.11227312313872062
0.46367497469476859 0.56588306255844145 -0.18393791647531543
0.76654740921298981 -0.40290118979696388 0.64138157985348698
0.1763729666812992 0.97495120765699994 -0.34383328794979207
0.15741482508286708 0.81918759485253645 0.091951292272597129
0.26173900860436561 -0.33994293914565787 0.41318784938994213
-0.058367944671090299 0.92762559973067482 -0.21405352621604834
0.75886368874108712 -0.41878247177573513 0.71036842007606538
-0.73232943445424326 0.12243930468194719 0.57679474515157381
-0.58156034336496987 0.076730097840545852 0.61911217943816155
-0.57627796971149792 0.034660935426245487 0.75837655386931146
0.15701306397161829 -0.047839112063790878 0.78328343751672946
-0.65467718447706602 -0.39777105248991518 0.63478525397749763
0.16924542501689643 -0.20217361232393927 0.70076954238538747
-0.23950776209726143 0.27202366147095347 0.76691334686893242
-0.28254259341483134 0.2879361681803374 0.72769295067632811
0.81473754249770991 -0.39681894605470802 0.65630561939474319
-0.10086157469348223 -0.35552967211751252 0.6616357732580127
0.77559723043094664 -0.48241455601743155 0.46019842016266921
0.51466553799592418 0.73194354379612037 -0.26764690742493258
-0.56671560916906571 -0.42224153267412845 0.65905875011981152
0.29227251475154503 -0.16212682274944967 0.77620414244165659
-0.62858964545665685 -0.98674073000259455 -0.41996622175111042
0.36354165612934253 -0.50813694739682091 0.57878629724018538
0.40617794347518554 0.41958124942641462 -0.06204920486698029
-0.75514961136224201 0.14280567123964261 0.29259255186798327
0.1166530125425993 -0.32075810021979123 -0.45138806221939376
-0.77312423751379811 -0.45038533339993592 -0.39191436766077459
-0.095848427016420601 0.8032210522801364 0.3506936175035662
0.25490075779583776 1.0606023857396565 -0.39363261299126862
-0.5388282211380897 0.28994311593091027 0.48280178949971742
-0.44225534748599671 -0.79978394085821947 -0.30641886022795006
0.28671484566925187 1.1627650041598372 -0.44270634951499233
-0.59996077441229545 0.26856887437086385 0.4625623284100584
0.41075596616599341 1.2059957325185451 -0.45731108920494989
-0.17713244057651423 -0.063063170312062766 0.76104320040622042
-0.53240391979694124 -0.0047268372419466687 0.74328697443047531
-0.11325047866518645 0.36526817544327628 0.75857006816136163
0.068711543388431551 0.88169649335382161 0.54134639142216656
0.15837922492526957 -0.44156795604658328 0.46579411077937038
0.62267919912380876 -0.11701497512163428 0.6506466201180956
-0.230148611721404 0.76472310497759111 0.68535590508463429
0.69755916809401697 -0.22487369396124279 0.70427442837194576
0.071692554108551576 -0.082984712103367997 0.78472880104277465
0.20065814202260412 -0.069195252409272712 0.78435153689838444
-0.35830077277356764 0.0055312060717938039 0.79957246198546272
-0.45498601967858576 -0.57199708691291562 -0.39586945518340144
-0.67727809996574706 -0.62139954563076572 -0.31676347276470551
-0.13447189028821072 0.54088909463752088 0.75079250395447161
0.093359992010306314 -0.099508214590102284 0.77991153186621887
-0.38502134904896934 -0.37207930404353107 0.69114004190305423
-0.23246805493721467 0.85799627757720032 -0.39503971779913627
0.49094798399544004 0.73804084990626961 -0.28592940706880654
-0.48891013286129237 -0.84629387351321839 -0.40991888546841437
0.32678213622759245 0.019755248756979427 0.026882613508860231
0.8498190991346064 -0.24117557275053514 0.60547341548499389
0.14167310088140539 1.0469306504207907 -0.29740459615004511
0.24063346365119287 0.67589592444159052 -0.39869615159682326
0.15739194617890462 -0.039413134097848967 0.78334032972384193
-0.09592619003311853 0.67502949655180089 0.73093782652313166
0.12085677772415693 1.158427581286702 -0.36642780839747502
0.38185448518515841 -0.18830394653652149 0.3787083497011281
0.20249077328691101 0.10104424565265191 0.73239542686201276
-0.31491821972058176 0.28526894801223079 0.79503061764103222
-0.38008521698947106 -0.39182020104493631 -0.54153532770510537
0.44253862276752898 0.47185620521423743 -0.10740777734531548
-0.29940311887428095 -0.14696023669796432 0.78679862307899384
0.35846805572992935 0.64456655304485366 -0.2007792441249876
0.1606688926191282 -0.032492304631894342 0.7934453757677602
0.093049336738744159 0.43381222456710589 0.74790866324656236
0.74056730889014943 -0.20741738992603587 0.66013458447741868
-0.3246895596333772 0.10591316226637559 0.76546863189582837
0.053859164890553757 0.89487916406085333 -0.27152603075523984
0.04709307836952803 -0.45565418172657246 0.47563738103553987
0.31163049022393352 0.85017667958257448 -0.28655711988244548
-0.24405581100396034 0.4892196582171664 0.68029338878932322
0.10639334175007775 0.34852228550514752 0.74947690194744609
0.1833184996192756 0.37466412717855491 0.68036203308724907
-0.50085482353532029 -0.85059837913775027 -0.33736322923118678
-0.30996063432507981 0.4027630902798407 0.56113154639660934
-0.64679985726792211 0.24190003919320446 0.62307472617089843
0.30309107494792897 0.15116924894513772 0.6228295945957143
0.22178061089229573 -0.048576011476825443 0.65034255569980814
-0.82392396189905526 -0.092074983779646402 0.47360350302164989
0.14722708324879363 -0.051188923211036297 0.79133165457051291
0.27749423162470066 0.91485167479518736 -0.29484413539512389
0.14682716154291597 -0.17993033854486384 0.67863272454610524
0.2085408415290857 0.71366685249594752 0.26626984007998544
-0.122500116802577 0.4921276528959595 0.75576458489058496
0.44884950278657243 0.50248332352202851 -0.13304939266708971
0.089075711033842708 -0.096275428791408046 0.78134045909246197
0.5788817704099074 -0.663428385964977 0.44352495280759285
-0.90461384818127044 -0.84237879395041659 -0.43300468163101868
-0.525062880657579 -0.085890466163419887 0.73328099170294081
0.20364221815705719 1.0456916133475147 -0.40507592886092425
-0.33331378315699567 -0.58079383413948449 -0.13417168364821919
-0.95382979835824244 -0.62897515798181303 -0.47099670552779571
0.062788679592571839 0.63215127934757476 0.6622628861910016
0.031569692494485935 0.85155958965228251 0.23699927395864506
-0.74655073097824243 -0.51606557823720323 -0.25170205115477984
0.47264159005402462 -0.25749411198767547 0.7744418471024801
-0.058463532581413347 -0.42256394657704277 -0.44642641809878114
-0.32772459526401576 -0.18838903349362113 0.78939070554156388
0.45462471704101404 0.68117778514059069 -0.25441282603992477
-0.16028313771722225 0.6578608099702592 0.76944396108979163
-0.65312644820602372 -0.72272988562178853 -0.33556631592023223
0.24027189326409371 -0.084415436223672202 0.79058548397119921
-0.21128539632852039 0.76400869644379554 0.65538489235495945
0.5153889443890165 0.81877343822930015 -0.32167661959806537
-0.81843983219272332 0.0018445647308524826 0.36053864490668275
-0.04228715851530751 0.49920245833764909 0.76848663053146993
0.71878398528878051 -0.10302177672195967 0.32337259795940554
-0.33339987146202077 0.32545580003935015 0.66315407895172029
0.62194757689434255 -0.2086770803118867 0.71911708286870635
0.64837741409223781 -0.32720617260888929 0.74671536538176042
-0.35719926783502842 -0.25453557473116462 0.74668898258028094
-0.76395525617255089 0.05153304125958158 0.62577998410233704
0.17275043924777833 0.41586449395546765 0.68335095704992455
0.05987523735380762 0.54293049348468969 0.7260590328910439
0.17022109277795039 0.32625437435631 0.71366998774260537
-0.16233646746108121 0.34499123584772917 0.71157007919737225
-0.060955963670465962 0.7493620063805011 0.44834120155451274
0.17835295563180864 0.49866837497230421 0.58010503828609217
-0.23872377056612493 0.67162513593740414 0.6835265527622596
-0.59485384628553106 -0.57358261343796357 0.093215998974756076
0.11529732359031186 -0.063550608365844141 0.78872439262613625
-0.97083967679850502 -0.79681127648842676 -0.42750303371303744
0.68616844352158068 -0.26422093944379554 0.62440859118487424
0.50540386533469928 0.49956232000670298 -0.1770060699309397
0.21777012950613539 1.1814129750006259 -0.39838243760050318
0.10428133921010385 -0.47269431861440125 0.45490008206979837
0.38879581285061704 1.0226120070958018 -0.40041696342996147
-0.32143082960791958 0.72284911403804131 0.28757175349574027
0.55184764338144987 -0.24822130706760248 0.7535742175082305
-0.67919482108448648 -0.42703910977699877 0.57948677679337379
0.3132780345759727 -0.17789567149992536 0.7691077466056413
-0.15251405413744124 0.76771330374674562 -0.54645845658592407
-0.3772344437496713 -0.27101067008040047 0.74319628921739422
-0.48093550596729528 -0.86167006375501387 -0.37719114593232916
0.60034421090233536 -0.70735026468992146 0.51534284443846445
0.24093524911452846 1.2236250227901451 -0.42297695951401693
0.48777133878516565 1.1384636449829486 -0.47090004219262482
0.67203396431142437 -0.12425583508164095 0.30577035125133989
-0.11060377071668626 0.36651387556028681 0.75553403149183396
-0.76773045067392331 -0.50669265365488059 -0.26332934119363927
-0.97929492176496069 -0.65165417019093752 -0.4255182257186334
0.30818716558295023 1.2792598167575306 -0.48851497149985335
0.20259112509100419 -0.4343094289072269 0.46058586531444234
-0.34652269009907855 0.44811745137542403 0.80171330028247212
-0.10346498442268626 0.57772295841110122 0.74372530210712284
-0.05630839385452191 0.25680168605639153 0.75397417016711188
0.44498200630383167 0.9003901005321211 -0.36333189557740297
0.3478211166680012 0.72277234594156425 -0.24283528468004079
-0.65589783719639172 -0.59263912341776859 -0.2780983225941327
0.24862017325372676 -0.10874340771520963 0.78667270146775081
-0.55188364134744461 -0.63298871627739572 -0.27564815610799087
0.68112362591125475 -0.23703825507240595 0.68157052986589406
-0.38817139767048303 0.0082494025311206087 0.79442986415710948
-0.51084138998835726 -0.29057384682579368 0.71939727869448689
-0.49113502967645672 -0.89850672861234671 -0.39117811156802418
-0.23078939461863257 0.36948343052688415 0.75461577848591332
0.69208309071143503 -0.18265207860158483 0.68836632138572895
0.81907659781126085 -0.23996636237173163 0.43209875250249752
0.38020814893491206 0.3568668947026481 -0.20223556284054212
-0.20448556045394639 0.27006440935747378 0.78322987568367353
-0.3352475400854189 0.3512213505348285 0.79782464175536916
-0.3552587811443928 -0.22462412237253204 0.77094019289552307
0.49460337506809537 -0.62118536959505377 0.49239682630059178
-0.57687147632424285 -0.10195905649908354 0.73216360512606116
0.26572318050864396 1.0326159844921392 -0.38360923037635075
0.77350130041253351 -0.016029088811514214 0.44216873463983575
0.35734408108137927 0.69855630499566246 -0.24457294660760454
0.13563582373524241 -0.12048005955355023 0.77534396824194118
0.82016027850380624 -0.17069131775593149 0.60868388656103889
0.077238232669131435 0.28902899374344315 0.75500181230518137
0.082216178409566965 -0.10951895678216772 0.77774648774516209
0.54873370678257061 -0.66832178474754755 0.51633760009531215
-0.18178028183996275 -0.34303789546301289 0.67461584401553409
0.49105374806663349 -0.47771444173690725 0.40008047211586018
-0.20079632505358802 0.59743300015298928 0.80326169223963007
0.20049352516823404 0.74378948238560127 0.50699040662061634
0.39860507828862524 0.82907912657509542 -0.31500438998386926
-0.29872560137269488 -0.044047087015073316 0.75940840376188135
0.39866278882729489 0.30917708686428114 -0.12342691112257853
-0.57605921543012784 -0.43983890205239362 0.63864039992040489
-0.469640078364705 -0.63943516680052426 -0.10582356213694766
-0.29206611404588045 0.30469358179644246 0.62795848552082134
0.50395581118425525 0.68402490381180314 -0.24049921518667361
-0.15917993431442312 0.79371196073859096 0.67737483781343144
0.036427233679205528 -0.13931887136116927 0.77195801636958095
-0.24724312941582838 0.1849024007657647 0.78242571526925531
-0.37439688845452679 -0.18134228899006644 0.79868362090383016
-0.27226400871592205 -0.19216066263425091 0.75417806610334992
0.069212716041135991 -0.4301031861609772 -0.23394849772284942
-0.01509840309748256 0.92873866054208065 -0.10115130878716627
-0.83860990610679664 -0.54719343601334458 -0.33622840262364662
0.74225969566373351 -0.47953747991243745 0.70522136548083836
0.80153924082924277 -0.55345769280137347 0.57437015747814257
-0.66746057194211517 -0.53108141235156836 -0.41259171660931315
-0.63988730950836725 -0.9065049419048421 -0.45303140633450312
-0.27404703335770364 0.85155051157943262 -0.48177085752217863
0.2225306495055932 0.73990680860588043 0.44192353532343986
-0.23070472407744091 0.5187052484448671 0.6315908676433537
0.51511640922691981 0.88773600234833339 -0.35697460887513444
-0.70880049491272246 -0.43989924362888644 0.48289366726726257
-0.018521893766333619 0.54045210569641711 0.75570519877919651
-0.5924751954145222 -0.95972056412679763 -0.36884400038138665
-0.55199518582284668 -0.32863925816908335 0.71128683979145535
-0.19411184733581877 0.39730941523022523 0.79039363725541989
-0.27885890972677885 -0.15369464844917502 0.74879264962714842
0.29784202825808848 0.58539979733863845 0.26217571179972765
0.77878716682863569 -0.46822768443145435 0.69276050801113342
0.16577209757593891 1.0674213840819107 -0.31405507798217513
-0.05241922912541952 0.73648457233088038 0.70540061295855594
0.81830720564113335 -0.50824493272729399 0.56797632760708439
0.68173770553863733 -0.42914133167343493 0.67782632809485222
0.20126102932165679 0.73306202967808076 0.22006734818501172
-0.077776925402872621 -0.49014835207833585 0.025923007468918513
-0.38997025017280862 -0.61600748231848002 -0.10125904865344637
-0.17036953406199729 0.39722038972553264 0.77381248548704207
-0.12093192435951039 0.54939447920696693 0.74837589154390116
-0.15050432650357948 0.9363040480076279 -0.11159828785275749
-0.63075600855890457 -0.16426399543001224 0.723231041595227
-0.57954905533718204 0.062148746103318331 0.76977603940872541
0.1146165634856402 0.48036323068532027 0.71224910243358863
-0.8138663040793972 -0.7542768315437911 -0.42532854227306416
-0.43892570241741424 -0.17623433595335314 0.79129086251168701
-0.14904724984884865 0.40152851837098069 0.72263913383562794
-0.53654781003729113 -0.8926985028815011 -0.3473886137333011
0.021465175812650727 0.49852602410965119 0.75648838957044973
0.50065600963671386 -0.6140554169189727 0.56224914746076138
-0.55163085605094153 -0.26112293120991126 0.72963158373340775
0.46904259479086363 -0.43383858028477107 0.70757438244595505
-0.76885792379454188 0.080327333703237969 0.41647743951102711
0.2071598097845424 -0.045388938420707348 0.79398435435950887
0.11177620012985301 0.38686546579980785 0.74936052085831761
-0.20504138552615814 -0.52337723378400369 -0.06713290240236347
-0.55543006513613591 -0.58544196087794376 -0.0017802445163397351
-0.33367448854144044 0.048293263200790193 0.7625384061116165
-0.65234855948243364 0.10114780313036675 0.7374198156944658
0.65164354460694085 -0.52225510913206108 0.40485174287209702
0.36414190533727719 0.18045181130162291 -0.061356138219935019
-0.72981229626674349 -0.6737559754277811 -0.35679722295594729
-0.1615270279050236 0.5060564501588658 0.67799688858099216
-0.54535358992624339 0.027718824630355243 0.7398461939092158
0.39035503620740997 -0.34066427910729402 0.72307124556323288
0.24498837493074888 0.60032454973491411 0.54614846213121382
0.28603538165361897 1.0903836377017626 -0.41558543233918499
0.25150818599985314 -0.31452631130819952 0.67042708065901024
0.71119232656252507 -0.18476091828897978 0.68093700720532979
0.50445164326657732 -0.24186402867239565 0.76486555446467719
-0.84982624243525606 -0.34847373970174544 -0.25181838448179406
-0.6950489162684903 -0.5965065849160851 -0.30245003351501509
-0.40629322427295733 -0.48581846992631483 0.50085526944849335
-0.74541609516609242 0.53364774318833952 -0.19975586185250904
-0.41457490286978071 0.14840064545468579 0.75269152175928866
0.13871023953186068 0.50879524809549537 0.65958564989318802
0.56600610021854436 -0.22297520303055762 0.3176923656112649
-0.0026225440092986219 0.85653003634181601 0.24395541640160445
-0.94595727208894687 -0.68406755771843564 -0.4190613930265954
0.37394418051192702 0.55527806677667968 -0.27310147719549605
0.15570112148556348 -0.16688039388544951 0.65994212256237006
-0.55215305756996713 -0.17961315765049335 0.71605430843851536
-0.52933699255040523 -0.31222384265234382 0.72290778036222036
0.44450906981903415 0.56127696485705769 -0.18939634253706572
0.21386385299479116 -0.39059579337948946 0.59113267078146237
0.25432309166171763 1.0913040193460688 -0.408907126405893
0.0014983651980173818 -0.15480158411681089 0.76778060765150258
0.23842338769148341 -0.1566933565388382 0.77707089068485402
0.80165853219244809 -0.41789227393745421 0.67094268766390996
-0.16950920205022157 -0.085977853957388106 0.76330942013396452
-0.20233886693745262 0.59315527219486341 0.52882058296813739
-0.8106439140460111 -0.96536236501128769 -0.42326978205687737
-0.47590110824310017 -0.40466691403776878 0.67928320536952924
-0.59652247518801005 -0.81638410034702247 -0.35944423260161784
0.069177968471279883 0.6753523618760866 0.64718477262613305
0.015093170555417146 -0.29107305055467236 0.68936501264761318
-0.30320547237595008 -0.15499540078310758 0.77749158150959374
0.82813752430638488 -0.090828224000865987 0.448920944020756
-0.72043864772592769 -0.31002070425498118 -0.49362400747327229
-0.21106508353870623 0.31530327292523452 0.780211629142741
-0.48302084156455294 -0.66833815753005865 -0.17829998932279523
0.17681857069956664 -0.19395003551708356 0.74271339394726965
-0.81542960166393641 -0.79695171260823372 -0.43066397941333889
0.35253545489490534 0.054704963860274347 -0.36886608189070103
0.54193886781320089 -0.36666225144131204 0.35813087295309742
0.12807874783373308 0.5496107261293659 0.61960033019181537
0.69124498080975627 -0.21494921185558269 0.66949000705471917
-0.12181109773620591 0.35995536256839955 0.76262576782528413
-0.45037917528515692 -0.15582311548541838 0.78851829427503617
0.1157710641000449 0.37969186497250007 0.74753092665423537
-0.48688206540929713 -0.30890399280684733 0.72016477793977174
-0.80664723004213101 -0.020340067998283473 0.5292319032080286
0.25875144152133345 0.64963261708854247 0.28017569386383911
0.022795410822141093 -0.43591493497393685 -0.35278053856359293
-0.1264057391670832 0.58133153059949194 0.6854868802627152
0.096250761348358083 -0.47310929557133363 0.43202412390860445
-0.92349507281289789 -0.14557798926419707 -0.15226508950149764
-0.28906169219142441 0.065224944157876052 0.76526126583758014
0.25652840084853779 -0.31432667312600415 0.41204708411464708
0.1049166534509709 0.87998310620085363 -0.19020200701152135
0.35828914679598256 0.29885427687429456 -0.23411062612217393
0.31690014476896522 1.109309237995376 -0.42783924587274669
0.67448885558491156 -0.42018905867654155 0.68163422113593697
0.8418927749767704 -0.12301660979765927 0.51723809514191998
0.38976076391797676 0.25164587371585867 0.043339872640672183
0.14954839472341064 -0.12921434584025349 0.77455493610773374
0.20604862225260945 -0.16322686005730702 0.50899561733399423
-0.18691790826358101 0.8281975143155762 -0.45788828226159239
0.089304795461956132 0.4127804438033138 0.75345754107638641
-0.26863678820399173 0.93111069579126138 -0.39928965350486578
0.14008376067137362 0.54572937695697732 0.65244308327760336
-0.55573342121375191 -0.11910409915890341 0.72028241482371413
-0.35357308093188067 0.9105354277732971 0.0059216879685664026
0.086466981074806881 0.65209037017037019 0.64718753378315341
0.15279591150576266 -0.19910455172644959 0.66461285342666088
0.18366790323386795 -0.054873207144432001 0.78519163030591699
0.34380279984364392 1.1808418452563956 -0.45956028977684582
-0.87498453509476803 -0.60301506972695051 -0.38495026446798875
0.15556636655037437 -0.46403476880692551 0.48904000301376982
0.69377824614082328 -0.59249190766800552 0.67705755225642861
0.28732199894932364 -0.49568286339872714 0.50998722943336361
-0.59974672294777776 -0.2150347117046465 0.72172951574953004
-0.85975463548317066 -0.87841528600793595 -0.49639549289349816
0.65578504180143682 -0.13911165461174591 0.66673533126731854
-0.5923144398090372 -0.18513693612297999 0.72613248755396853
-0.56542936250616549 -0.56166697260624687 -0.40605999812237314
0.75039908843905323 -0.26682013296274931 0.62808187271980387
-0.61337448678075646 -0.062792473310366859 0.73671982682276393
-0.78265913313140345 -0.99157621890805103 -0.43621138474736654
0.70200782514632465 -0.23097209766550009 0.70177281617407061
-0.53249041714059331 -0.59094634943210167 -0.062345771469153988
-0.028739845278280995 0.76280760569002837 0.42409915838220513
-0.27159555536405833 0.64929524504342595 0.41374121744411241
0.25472272950423758 1.118396317843974 -0.41760750893490695
0.32329862596083103 -0.27774219118722243 0.72839919343437032
-0.31139044291300166 -0.050917958884127756 0.78112441327880333
0.16127869143204521 0.42981347223310706 0.68433120538747971
-0.028999593236214594 0.4885549906468043 0.76867898141654223
0.33854638245179558 0.9713329730039959 -0.36568042601447814
-0.093692077213660241 0.56653552647492234 0.74497120766727676
-0.48983278531088104 -0.59620788624712873 -0.047171217846653235
0.299781490403916 -0.3807461750898824 0.41588280044538806
-0.28083081574513358 -0.29180074363375752 0.7263878777418995
0.67150049604367723 -0.37887192781437307 0.67657819734495206
-0.23986689627311364 -0.41265535728914671 0.60154746043872365
-0.52227538928672601 -0.34493341840365588 0.68219954021378726
-0.45536124288975088 -0.7785772150756145 -0.29926813498104821
0.31249278382473733 -0.21350688891817526 -0.11586919094179393
-0.79957950334687666 -0.78557567389020733 -0.41410063230227934
0.72511360822204551 -0.40925406427274424 0.63798048544276753
-0.087357769185004486 0.42283344367348263 0.76062988489161398
0.20221127221526558 0.32951330614486096 -0.56183133752961112
0.17026405150647861 0.28592111344505611 0.72132307877495805
-0.0080085600618247099 -0.2293570959519684 0.74077449642027204
-0.35145222239276563 -0.64316746991647733 -0.17987795286830988
0.074085360822522262 -0.0925273033107743 0.78247210465633543
-0.43504187649159576 0.057582113904402377 0.7560121593205622
-0.60352066494193224 -0.12008242820397186 0.7246704331764704
0.43583838873368563 0.55720950676135317 -0.17776497887939513
-0.28893610451424934 -0.40638563125488503 0.62032607623518743
-0.89272002662528394 -0.25560645748831234 -0.207221778870462
-0.82872978166926714 -0.40976476229124614 -0.29889695306064823
-0.34718902952779729 0.053501789500785435 0.75870641967389929
-0.045581860316616485 0.24426960442252721 0.757997689917147
0.37604315883504569 0.73814785426947083 -0.27105892691952249
0.068313929966997478 0.87845323042360235 0.55881497066411612
-0.56724927429867478 -0.33609562269322169 0.70572588586060192
-0.42216203525879337 -0.79962346873384149 -0.30954568019296858
-0.42828595420985494 0.22986625986018794 0.76369024005202846
0.058223199436497453 0.53908496710839415 0.72999321624570257
0.31212220216696096 -0.19052612615183762 0.4881367522743858
0.22648172391126309 -0.062596976006879856 0.78870458043320468
-0.5315105012009127 -0.064582763793765707 0.73747990869856039
-0.0014234578119314278 0.57131592193502456 0.72779530133766457
-0.38057482205499582 -0.6935214379251704 -0.29314691950162342
0.061052069369310402 0.54365274236727146 0.71891023405396481
-0.3446678424321874 -0.26153358935573578 0.74796901583249564
0.15204732601260673 0.33167044621210806 0.71179003263659979
-0.51399003037380453 -0.028764716564410264 0.75371169811865002
-0.6814154064331035 -0.53442129593361187 -0.11331053030539806
0.17266042382624391 0.15817328054058066 0.73789782714538887
0.078839587572765879 0.62200018921203082 0.65762452035551178
-0.88074010003754211 -0.44504585579093714 -0.32738989027075149
0.14792497338081034 0.4784236012444083 0.66617724963953151
0.43411714685268521 0.41336652636488225 -0.16493415337413353
-0.087936205548572843 0.80824127985933103 0.61629164587429841
0.10743645200943774 -0.30113665151248625 0.56916622568155617
-0.63753928451188813 0.2394207956340324 -0.62937571676843618
-0.71863244392324077 -1.1370616221119008 -0.45860608826433236
0.24666492165087561 1.1373265347944255 -0.40638378959147303
0.25401797109145718 -0.031234770640779175 0.79592699389013433
-0.53944224381542227 -0.3613073515653582 0.66095000017207894
0.17367339859598019 -0.063639981673645707 0.7896647344516623
-0.46333096809635776 -0.84954362802213268 -0.33227559314218524
0.58893313462067454 -0.55071360748860343 0.41211936804984362
-0.52836432385522869 -0.26069070672120631 0.72151609282991558
0.45666076389113641 -0.22915422249169382 0.77332042160628589
-0.52910826270061051 -0.26555738713068422 0.72495918566482942
-0.34325556323906881 -0.00010899895991656194 0.78197693156630521
-0.53264827624143862 -0.27578222116903817 0.72952794659749998
0.18817589478979357 -0.10623190494027313 0.63649103504712912
-0.14505460219397293 0.76261524072988607 0.62389948678151086
0.16429774398267938 0.81332714730091027 0.48447621099990101
0.26594633147395541 0.64215045517563851 0.39312050772241491
-0.25894903996447738 0.34069993358060913 0.68063250062050429
-0.45585767922051446 -0.45523087645725724 0.60978567478173318
-0.33213113901366853 -0.32761511193795911 0.71314862675467339
-0.56935696423699511 -0.21131987527202512 0.73106945939025536
0.15296880218014053 0.55618172437919355 0.64541525895697305
-0.82960989947150665 -0.957894257804071 -0.43679579433796789
0.076460970564880881 0.33206716812247805 0.76164279854924644
0.48932898900903865 -0.11415433034935063 0.62992499704364491
0.386060730042459 0.6183501022311475 -0.2156085579779301
-0.40061814598748668 0.14757597971934899 0.67978217382596995
0.24367177922064798 1.1124766348879405 -0.40035970076223748
0.50054826784776196 1.0578619343919797 -0.42010096190529111
-0.066238108921055527 -0.29172605201569723 0.70967010966569433
-0.15146999705527975 0.51083264188042676 0.7574677777429315
-0.44610026483262288 0.20375369921337949 0.76149872502810467
-0.49043808574228365 0.073998793926662643 0.74819619376467017
-0.64849262339282632 -0.6016076790542968 -0.28864661085890475
0.54917885188055493 0.79114740318760823 -0.32857174025343738
-0.022602285422635759 -0.31330424556335856 -0.51738515449665101
-0.79179221919136467 -0.24481195607643969 0.54262539927913167
-0.90887137160115117 -0.54627973306944 -0.37592709298041882
-0.83532434046537674 -0.82111599836557048 -0.44732266197502213
-0.26113244918016676 0.29376375399603205 0.72922328898243904
0.05525340854532601 0.28143743027474244 0.75917614074887751
0.0088927676612229334 -0.40686419156770626 -0.43137956440682501
0.42110671703451885 0.63772809541023889 -0.27019386399979339
0.73510596538824302 -0.63469963756598702 0.63624585964498692
-0.16186455722800019 0.79102936511421262 0.72376891503904517
-0.080960315005029315 -0.44951575134427912 -0.41718635514234848
0.7756817560131708 -0.42864227965861801 0.70051306777486388
-0.22118334653231386 0.73383292870262551 0.6399096238844777
-0.10568521943620368 0.52063983348637066 0.73472725037709097
-0.25569945942671524 0.019318959852498097 0.76349884662545264
0.17684697546835082 -0.11946702697825629 0.75266781030973107
-0.51451718128949153 0.042417802417560324 0.74418998323812957
0.68294274640203412 -0.37537647245104466 0.7031766258216976
0.25991506250699103 -0.064872851333880988 0.79345187498938685
-0.22658017532597796 0.32480437953853425 -0.76249047340070319
-0.31383733878192999 -0.036761068063711377 0.79595769939714955
-0.80506654773967057 -0.43888521338146802 -0.22101272816166784
-0.6481414706008195 -0.6109502301437999 -0.39412262963764988
-0.48214586371801715 -0.63656230130942504 -0.11059643239127581
0.36117869322828255 1.0836975921860414 -0.42224672902216298
0.36562899377796043 0.6291489256487921 -0.20788134731105856
-0.28382261431306688 -0.20665784366155293 0.72573830209103107
-0.1675599427930976 0.58548905835539244 0.76848417869246077
-0.86113427137468079 -0.16365870001072125 0.28030793930383879
-0.014064731378425677 0.61913677712667692 0.70435960499344219
0.27134389918012403 -0.48215424215879921 0.55052052150517738
-0.60160301941404271 -0.0072823845626999173 0.75393673308872167
0.20492388986858145 -0.31760572699975853 0.44340429644694268
0.16547865725362954 0.98127006533360372 -0.26029505156020605
0.37936943550266733 0.64124091650370474 -0.23332008055899678
-0.38571309169270762 -0.60614451772568145 -0.093541071820709476
0.48189604514820417 1.0250976689508775 -0.42530599364499722
0.21163687096294836 0.35567011837625984 0.67659491910740144
0.26088963982820701 0.85742198610387277 -0.2199279401104377
-0.34681612882488366 0.50249120040112416 0.67680135880118542
-0.55721744786086447 -0.62455128518263336 -0.27626411129767803
-0.56521117874432036 0.18007147819690772 0.76509376428998621
-0.020785115802226528 0.22341587991266465 0.76365236151923455
0.22234914515132687 -0.033740015518610278 0.79166946592249587
0.36624578138514607 0.72792035685304768 -0.30535858722646481
-0.27713315816976092 0.93123116782658144 -0.46492444686441559
-0.042363691491232203 -0.29928815286965715 0.70118912130283206
0.24426925200808114 0.93557703481175736 -0.2676681591981378
0.72042469861150948 0.0013273916015776877 0.41059981016519487
-0.20142263263488758 -0.32938231238728122 0.68835796912412661
-0.53768519612009413 -0.59006958088494343 -0.076785981194234409
0.72200352747739771 -0.62624877461627193 0.64928749453201817
-0.28611598485262846 0.0061437371584531775 0.76722095375521349
-0.54885230277176333 -0.58498275501733588 0.028183097595956497
-0.69745316605481378 -0.43790706428585224 0.52078019878013038
0.7122104616651086 -0.43388059500281884 0.67387913177594783
0.4426714417987796 0.79593758539380133 -0.30848046074129343
-0.13443630534931827 0.59136461256856165 0.66620840571545159
-0.3547074350791064 -0.18799718974911173 0.79538362801054063
0.14251891021370966 0.28389851280342526 0.7325770391835249
-0.27112534276313482 0.25398305635101792 0.78247261792307654
-0.91791718960433855 -0.44915322579129224 -0.38788000686668056
-0.098005780942173715 -0.48174498933744303 -0.3096345283786377
-0.38738639084350268 -0.18131155847400748 0.79887362597264655
-0.3545047405049857 -0.01650312799057474 0.80649097534796965
-0.25394267693837236 0.38985159228546706 0.63020123714113652
-0.65088634467912243 -0.96512763257757683 -0.40138443448154248
-0.22812903220514613 0.25229816682362127 0.77797517919566417
-0.59985270418560077 -0.18601467295740548 0.66911554126409101
0.45164251756671092 -0.11214509215593438 0.4237736386467077
-0.60012957737711758 -0.74044218847913612 -0.32305011467383338
0.26768655790826301 -0.29889464066474147 -0.15793609216871118
0.21291049399405892 0.86596724311959861 -0.30609533467873007
0.25116757343852214 0.692600798762669 0.17606915411238333
0.25114421323382885 0.88365830184662286 -0.22935920923146114
0.25133995942138654 -0.10805566736607375 0.7879918877399632
0.1549709177825207 -0.17090004493964983 0.70158666193333374
-0.51802951320820512 0.094063995400091471 0.75274176463585718
0.51600358068145624 -0.60984854376010844 0.45280986689158453
0.39861566419534711 0.25778139836006631 0.013792824034680962
0.21656085349017928 0.32741354724506522 0.63582451363390646
0.39328154689530948 -0.54466116256060104 0.51706875225022486
0.11612964061245634 0.77219270796116746 0.34601986391362516
-0.67933254159868284 -0.53783944804146699 -0.18832787279461627
-0.45637336782088056 0.03408429140847602 0.76162972365500536
-0.34353262777902671 0.56429376098166983 0.76940838494101627
0.84611843834017009 -0.40208718980720448 0.55015720485721431
-0.30723977180527129 -0.052650756848009905 0.79142261848596718
-0.38410112118207707 0.10858486493469854 0.76273857750584284
-0.68176728465948599 -0.98914646450077726 -0.42540724294372012
-0.34203510594628028 -0.20096270747603739 0.78850557767509599
0.47151556865610189 0.66623293646983939 -0.24281144326278081
-0.5071504701484173 -0.89597106017836836 -0.39118031156749566
-0.036499652702843832 0.21372103685094146 0.76465502725955048
-0.015942585733057513 0.40600686331615066 0.77504241071619617
0.11489138923225539 0.097554059819131567 0.70533762619470508
-0.79601668252314539 -0.96646579347509487 -0.44378862318558276
0.26121239838991528 1.0623267371165923 -0.39848976837743066
0.27676914069974146 -0.45181329685291871 0.5865877068165446
0.80772747581630711 -0.20289093363633981 0.64088944914396961
-0.1019430134344077 0.41655590311174251 0.75454461554841146
-0.71408730177307689 -0.52052089836450932 -0.20797380750741468
0.3925729580477082 0.30718587607736936 0.048088256170331078
