# XYZ point cloud file
-0.50604386186122952 -0.282142839348694 0.69606810724692991
-0.32607122186556126 0.46386405706635969 0.61400659540677793
0.37342658140397589 0.53806571788786073 -0.19768083941400505
0.21775256683116595 -0.17818636764752682 0.75791915914521724
0.43078596051321938 0.67827095340166466 -0.27937791959510605
0.40752352676418013 0.32696150891393927 -0.086206525102682008
0.43175720334392054 0.38332127365151791 -0.14687839569990047
0.77509319228772711 -0.33319593635013689 0.59523812663744025
0.3224047514721633 0.98203864294706023 -0.36238874946457145
0.21211612536643543 0.79117423674730958 0.0025833642242503174
0.093214277210705632 -0.4004878040617541 0.52813965330119572
0.17890435480302358 0.97565985327139515 -0.28723040126610044
0.8442798981592432 -0.33381832099661324 0.64540195717950155
-0.6767986989696908 0.089069176209136458 0.59223343637805215
-0.56312545566777317 0.13972875772645921 0.64888452203311431
-0.53123834912472034 0.031203204700943843 0.73668355105579053
0.10657367108780136 -0.041998956809692345 0.79025675902974513
-0.67408153003523807 -0.39167822226460203 0.60879635405956378
0.16956348257869536 -0.11177790388430253 0.73979738418870511
-0.22407174842740574 0.36939768800402817 0.76263870845147608
-0.25950527293773007 0.40310049936715586 0.73013415250460412
0.82929821693639383 -0.32066963678335014 0.58939760233755578
-0.21395497696028087 -0.31390109927005483 0.70398548090676627
0.67817410110012588 -0.42236196189369934 0.50711449719699431
0.46147051726927657 0.51008078369000032 -0.21418409512418179
-0.62103067400994405 -0.40372057081799539 0.63668954717275028
0.30898499903184984 -0.13499761498695761 0.77987854101158405
-0.65442290703467165 -0.96542001024729984 -0.43072432284722595
0.43867186586788876 -0.44948694609564654 0.66710331840118897
0.38385236044274507 0.30543692273312217 -0.042960915774472141
-0.73384873361632685 0.1795500204453333 0.36379550271621497
-0.11609697618496284 -0.56527093656615079 -0.43167199915907872
-0.77215468874339876 -0.41647481379675355 -0.36827640363961223
0.0032928090756456641 0.81444400586278221 0.26880479213866693
0.35890848330080871 1.0436549361923539 -0.39638563741112876
-0.51489817302228857 0.37503915138503885 0.53309923243270418
-0.49466673846904996 -0.83260163551254607 -0.34866397522253578
0.35733011929573877 1.1402738978014497 -0.43341847294109925
-0.57092911892343068 0.32870207756778314 0.51517508243193788
0.37690905975466649 1.1302863745808907 -0.4310528613171698
-0.27592700489989852 0.0082137664213632888 0.78088381551924613
-0.51050411674921747 0.035341179730664862 0.73603834224013553
-0.12210669650465888 0.40591951378169711 0.75686856346143827
0.16212883931794408 0.68965186782077126 0.49508611214130838
0.11244528903083051 -0.39767605985755949 0.59225082047089472
0.50626099074759168 -0.21011244655983319 0.54307526494022795
0.014215539935008792 0.8366509416447343 0.61280468555358425
0.67428349044399738 -0.23625144485893657 0.61188922255743705
-0.030436910148296192 -0.11663021023881015 0.76660205953916716
0.16563953496239492 -0.064877795499768354 0.78829158026837831
-0.3675662874543093 0.081481671898927743 0.78501532318765044
-0.53430015406115672 -0.58532361056848003 -0.38140739201844553
-0.68948517177827284 -0.59590947076003431 -0.3021311215661342
-0.068014713785146341 0.56673871741097059 0.72752792383943188
-0.013518237992201421 -0.15060033964491026 0.74984081579793838
-0.49189474132703026 -0.33499604444745046 0.69005606662679497
0.11154609581325303 0.97146584792434965 -0.38708652225977858
0.44905108746837641 0.52467753478913437 -0.23088056358835729
-0.54553033237991144 -0.85657264949406908 -0.4238832173945184
0.23561653828090812 -0.13514966156412811 0.085406404743508801
0.75235295071792052 -0.23469633747754415 0.51233987795740177
0.30342729995743412 1.0577750172833476 -0.36902204080854517
0.30686744086699491 0.58971548563914666 -0.3443705764662468
0.10736183024147294 -0.034458497801324484 0.79054328869648316
0.0022370921891194939 0.63719861827647151 0.69810761541634747
0.29857534016912268 1.1902369373772217 -0.44794263808236678
0.15230200210183398 -0.32257603967553905 0.43138817344191693
0.18984107882539547 0.11312395391720997 0.74646230597420526
-0.23852481793468883 0.3778428922456385 0.77109108938125814
-0.46755097292651726 -0.42636981992744438 -0.54075288255253895
0.41592987699351625 0.32254375665525004 -0.081257321065692167
-0.37748557963132612 -0.098717677814732951 0.77214897318273756
0.36855955549970076 0.55943454576760132 -0.18605341402420095
0.08700524806846488 -0.068327768385444188 0.78054799941224928
0.077905312030708274 0.35877334520426984 0.75458336427990957
0.67423183367060346 -0.22888041349395394 0.56352103668652376
-0.33296251585812797 0.20885772195407526 0.76827049546321291
0.23106958905020747 0.9314899914254795 -0.30949927887098738
-0.067288492754045137 -0.42746355260351265 0.60993021500493683
0.36820968147532085 0.80091589024806353 -0.2849694329780732
-0.16974302303393074 0.59619486728553284 0.66550853097680829
0.076995192644488952 0.29787284087606736 0.75848004138447322
0.17447867008874596 0.32576379435903391 0.68460073271026545
-0.53951690241694905 -0.86732219321069692 -0.37242260863064303
-0.29382158135638292 0.53559149737722578 0.58017147070759734
-0.58082214439812674 0.21863973397131531 0.63347775203132528
0.33554511215763227 0.16141689382860136 0.62604090585932681
0.23570883240998342 0.024404926709252095 0.67199040975910407
-0.78093546398784497 -0.10838372190653445 0.49638471358136371
0.065653366547195446 -0.089473610411914706 0.77465638173927687
0.35580478043954145 0.88536931795636065 -0.30950172992012881
0.13770084561349449 -0.082616217652400792 0.71978935851714709
0.2268996340577587 0.66484245032728495 0.19517230702422239
-0.080761794348148896 0.51831256582289598 0.73963350913618342
0.420941159264828 0.34303727073370283 -0.10385228681354874
0.0070350599822575077 -0.096725895968802433 0.78185252919993786
0.59622886579631995 -0.63550705024235299 0.56331918877373255
-0.89268961568899385 -0.79374892290337584 -0.42203080521071001
-0.52691048253225858 -0.029856719377647778 0.73204841865876347
0.34507888810742315 1.0460513235670703 -0.40212034866982549
-0.47285256307168311 -0.59504641800523927 -0.06274357054476809
-0.95009556278975538 -0.58164876938062093 -0.45492857188668268
0.090311442185821988 0.54035191004288663 0.64680799465742211
0.11715408566635688 0.81460477304901246 0.13447967871456967
-0.74489922865942049 -0.47618987945600111 -0.2216713539229147
0.53955481438723041 -0.23030985703499596 0.74779950575631915
-0.24826816137590413 -0.57806652912454126 -0.43178487452289005
-0.40291372853417329 -0.15272031290371046 0.76372203735346034
0.43201219013195669 0.50507638875316729 -0.2119477219319208
-0.0097080780721228166 0.6702202613999475 0.72443646388347815
-0.66550887772851297 -0.70705172569164176 -0.33505922275554667
0.1858283477824898 -0.12254331691320886 0.767367380662904
-0.007885604151795178 0.81380190105198835 0.58735423770070838
0.45502732558566095 0.58576556110293154 -0.25606646470075134
-0.78436669016988958 0.01372516134262014 0.41362514190632282
-0.021252612343886312 0.46578427920937315 0.76049764671512321
0.41971794346250135 -0.22838398416880068 0.34380108627456707
-0.30105044265849301 0.45015534267315616 0.67521497400855424
0.59889672957504558 -0.233607798993404 0.6356900961318388
0.72512836716970241 -0.28255062397803954 0.68796090461739823
-0.44905500454120784 -0.2003979597819523 0.74301251991272466
-0.70193355101181965 -0.016039637497641479 0.61797545591173275
0.16576355828317446 0.3527013173840885 0.6871666118962878
0.070257479372060061 0.4573362574839166 0.72521667510500265
0.15296900458645268 0.28283401995904001 0.72234648963461723
-0.1783086101381457 0.42715132555841251 0.71580727530499644
0.0057092517580770163 0.74750942661555086 0.37964048042815079
0.17746184180870728 0.44755286062556365 0.5635587896308607
-0.052844550176303073 0.76469086417958465 0.63320821442692932
-0.65521683071369807 -0.51687828664998392 0.15158828445592576
0.02304162748302474 -0.10231034001182593 0.77015262529593542
-0.95513346190915627 -0.74725669970191433 -0.41105524287868889
0.61927927022625795 -0.26856694013162041 0.56992995460123552
0.44262233992787969 0.23538225095293797 -0.12428969209619822
0.32567812509989835 1.1895823930633469 -0.4530411786710431
0.018463073444308975 -0.4341734692526984 0.60203229043497686
0.40720198608499913 0.92777370525419656 -0.36291287744722922
-0.22819897380404086 0.81846615939988965 0.29669667447018355
0.57973626152616475 -0.24427009094057439 0.6976233853266649
-0.69824994318213385 -0.41298084756897424 0.56403331293140013
0.27813672009534685 -0.20102481061863386 0.73935164410050902
0.12655198415370705 0.86820900845197002 -0.46927824925879236
-0.46604185769243145 -0.21930154954020509 0.73720079085896373
-0.53155337030770511 -0.87586867552286662 -0.40217881080525331
0.70201964857170651 -0.64212340863173267 0.5897802596102224
0.32302291496000635 1.2308629488883582 -0.47244418575058944
0.40081918197563482 0.92112768033101133 -0.36448265897556098
0.37569296456712209 -0.25208537874624426 0.35174821707909132
-0.12092592570235183 0.40705072066666048 0.75431231855239389
-0.76065670747718173 -0.46762076522747975 -0.23416658346278041
-0.95795010729406727 -0.61154857473079005 -0.40848126891435754
0.33186578976136616 1.2574316308942457 -0.46252981237637414
0.091128840474112849 -0.43663579067751357 0.59881141055032572
-0.19834905815810089 0.49975449060406163 0.75703047238258137
-0.039407941897309229 0.57463902069878259 0.72062550938883874
-0.10754923827474272 0.29170313061953834 0.76477119963897167
0.43169490014270195 0.74184204402655496 -0.30824844233532644
0.37308812240058842 0.6453569015318692 -0.22871559883242298
-0.67595223010329164 -0.56407312539063525 -0.2559379322381119
0.22539629794681559 -0.10990887628167911 0.78226883435851846
-0.60172073687002126 -0.62067882917661166 -0.25440409082258952
0.64408179550474642 -0.24720765742486606 0.60178612065945458
-0.38795769681723868 0.0819043876616945 0.78004771467124101
-0.56106065121699089 -0.23987565950173462 0.71179959269929327
-0.53967628968345593 -0.90817900846610655 -0.41715946000942949
-0.18415327274888682 0.4666093603659931 0.74313400821978348
0.63523431254498064 -0.22053398212756292 0.58649941610622136
0.60995906345462458 -0.2635776520361901 0.42596982389852656
0.32117504480368098 0.15123981558039645 -0.15548740854882226
-0.19839108312083908 0.3501288080126983 0.77685276224195832
-0.22478973999707819 0.42894799365734571 0.76476160843625962
-0.4350057161559846 -0.18149637493979753 0.75328290894969996
0.55379384319894598 -0.59388461047652186 0.60504328168926236
-0.56543268018884874 -0.074900562015699279 0.72119154547661424
0.36347835743748647 1.0087657229562979 -0.38310975280006687
0.50301421162490101 -0.16192270458699909 0.3521728608966157
0.37625734020872414 0.60870454273020869 -0.22462311931647605
0.039034786222970297 -0.16793226875776668 0.74577657015831278
0.69906794860571608 -0.20487632045779947 0.49968283402384372
0.035603364601143994 0.26561150878779927 0.76524438003306727
-0.025935276837486754 -0.1568660027485862 0.74917268085312116
0.64734412847775502 -0.6190574396316606 0.60339337471179988
-0.29845825726656017 -0.27514871460238055 0.71945499946218661
0.38651559559687598 -0.48822309217865723 0.55062995111370583
-0.016813021118764482 0.66328923719396471 0.74883429814678948
0.24080786518362629 0.57957646503854221 0.47883187545659212
0.41376129048040866 0.71506216222672947 -0.28244146328759712
-0.36561198872396972 0.049645187679573155 0.772796680785234
0.33876538937693113 0.11491982622450791 -0.080271170158852101
-0.63111218434320904 -0.42089539527546549 0.61908986263105703
-0.5483098782588911 -0.6483560843157079 -0.083853963420807531
-0.30067250208549012 0.43814772295090165 0.64938020021753573
0.4585516113866106 0.47397140435296592 -0.19326990649136633
0.018107451704139521 0.77260617567463896 0.61135257863779202
-0.071629788604440137 -0.16151488560001326 0.75676172548713794
-0.253277965694366 0.2767939065521432 0.7794765445603673
-0.42698884288378736 -0.14367522560098678 0.76753714136094686
-0.37595180854600585 -0.1316637842288344 0.76125028336559808
-0.19511398867268781 -0.61185409269467073 -0.13479296923966899
0.17086829049031849 0.94565348296421803 -0.20015894801093737
-0.81527987968971161 -0.51513020397528919 -0.31775623585542689
0.85978657631250144 -0.37515559964856493 0.65498636115071918
0.81822239651165773 -0.44092094805074566 0.5667008599710357
-0.68968772142068246 -0.50667024616551259 -0.39773384227169117
-0.6679483670591253 -0.8844328177143268 -0.45973824658562989
0.02811328988701689 0.96842229683886671 -0.4268009995446107
0.25589163304070439 0.59803168087159975 0.39947743257582147
-0.17069857579116388 0.62318635920266274 0.61825636911831339
0.44907224533551471 0.65402476446004698 -0.28354018395287994
-0.72894319263917851 -0.39667864950482112 0.49808014746872686
0.007285374078236373 0.48586666543542378 0.7480667475144287
-0.61656693343670099 -0.95427796887295813 -0.39472165191560293
-0.59259208410159658 -0.2988217818638077 0.69133096448712195
-0.13376245055860636 0.46982941488948882 0.76922099173179959
-0.37639674224487862 -0.073490630263933099 0.76588529644891423
0.30259492744511363 0.55133766905390758 0.21067488730383843
0.87049528584347513 -0.36520563417690255 0.63437570390050269
0.31434315595350881 1.0740445142060651 -0.38264378051965764
0.045376764837186556 0.64710531866154497 0.67365042575877965
0.80647846294900205 -0.40693072462752866 0.55360647218276426
0.74270883097602791 -0.35299657070896728 0.64727733742839177
0.22380244528744697 0.69210424750173161 0.14449827476954624
-0.2925244927679671 -0.54586384034865887 0.17598887103213201
-0.50643339290832046 -0.63255536892616249 -0.052914838020768684
-0.13525039681408657 0.45973451039952806 0.76043494210975382
-0.058847140466241399 0.5645431116336681 0.72604996803559629
0.12313004739144162 0.97626810256579688 -0.21345852362568962
-0.61484173710718437 -0.16530164889744015 0.70023320589731952
-0.5257860802959442 0.044655002969449242 0.74223748255732858
0.10982319366945603 0.40033137146201625 0.71597567589793698
-0.8046838991086247 -0.71827030851979146 -0.42117022031132478
-0.46973458364837484 -0.13554204984666285 0.76303223003336029
-0.14559157056564231 0.4678471706386631 0.71894950044961092
-0.56696072773237915 -0.90180265807865112 -0.38225303291329737
0.026780232328832199 0.43305501684397996 0.75567759197249984
0.62169069123788745 -0.55459730662795437 0.63824676980686945
-0.57791361941892205 -0.22744721205876317 0.71194814743580537
0.62389875340613798 -0.34622310965775682 0.72429477355302652
-0.73473473080105123 0.09318686217872596 0.46737891292488598
0.14026034188523795 -0.092133906634984442 0.77237243020732649
0.088880812726131353 0.31948991479666233 0.75783855070770301
-0.38807146820570892 -0.55447245882484708 0.041458943578703611
-0.6234113603547371 -0.54133912194957645 0.055002310965846846
-0.35896005363443351 0.14971401324052636 0.76896300112295535
-0.58659317472182693 0.044012303366059768 0.71076505088680619
0.55334360092905399 -0.49689910888224631 0.52132252087545794
0.28941372718134062 0.0042966255153089605 -0.015197251978264603
-0.72752074498896491 -0.64794126039825528 -0.35042050430635641
-0.12607432466123214 0.57398286219921602 0.6621213237719985
-0.51385179167215256 0.058066216215593158 0.73162585588039519
0.50331064928784031 -0.26232112666608032 0.74293803510448697
0.26803846915245799 0.4771432352308409 0.53155508012144992
0.36808435271848339 1.0606137751751419 -0.40588164002676308
0.30111981639961982 -0.2232060908847302 0.71799022941686985
0.65018010699466799 -0.22003374132017939 0.57750345358277855
0.53862880505542421 -0.23570822645223188 0.71984614601063868
-0.82886629584629645 -0.30930270845774999 -0.20927966450730651
-0.70344720088158397 -0.56730755608013794 -0.28427255839645227
-0.52268487818508902 -0.39014342316517059 0.58149789715906763
-0.72899408280579792 0.51097029202028921 -0.11826470642873232
-0.37997002914002564 0.23168089061323371 0.74938179124060866
0.13923812013445058 0.43454770763776196 0.65533795486018676
0.31477416318415408 -0.323775809977775 0.41343660355036604
0.095037919113167391 0.82778294537007469 0.14044197548005855
-0.92295412577024649 -0.64427718829398373 -0.40515573244454117
0.36021256222358033 0.3888134587511729 -0.22704740157573156
0.15014138453551595 -0.068511335447226429 0.70013303534631177
-0.56889598296098143 -0.12696215674861833 0.71517687731682145
-0.57374225555292924 -0.27768482265256011 0.70407020689782485
0.41755658029177312 0.3898777414980259 -0.1535131797022018
0.23627836300514105 -0.30694995624901367 0.67113904657253443
0.35730067442239033 1.076875846289056 -0.41005292719304975
-0.10594594081001674 -0.15639762035240778 0.76361578156561905
0.19287007034412795 -0.17013653864634648 0.7614712826080563
0.84151384061868839 -0.33335263116345004 0.60615586525898379
-0.27225776305030536 -0.022285765161996096 0.78075537008712104
-0.15097376103034321 0.68652853355723664 0.5076894176957012
-0.80958581048435008 -0.92068947691707592 -0.41784299418154092
-0.5599920418096076 -0.37538557932558092 0.66634496880362803
-0.61913570734120071 -0.81152978348390548 -0.37231096369924899
0.10736811083950215 0.56490898678049462 0.62837804509342732
-0.09836951312647102 -0.30359181645260946 0.69393343799649188
-0.38545534675179738 -0.099681722850789356 0.76965125179899019
0.57921894403452256 -0.18217116316239412 0.37970551025327381
-0.74005053445449676 -0.27925820688007263 -0.46976544370676265
-0.18457162838043928 0.39932655699317365 0.76965200932309585
-0.54876552798435796 -0.67922222278070876 -0.16891564403587722
0.086524573301318242 -0.23550023664307673 0.71393506836935217
-0.80787042317601276 -0.75887504190176003 -0.42715156456259251
0.16178657588727674 -0.29633580263353565 -0.32227937672735152
0.36295359586239329 -0.40929174168365989 0.49034401149950213
0.13204594252928814 0.48259240534306969 0.60498513435942414
0.63469559226228967 -0.23760872212432105 0.58339883719312979
-0.12818034307076687 0.4037950508341055 0.76020276962114508
-0.47367789648103553 -0.11162162315537216 0.76350034448816473
0.092251988704873611 0.31470919805880726 0.75623036838496205
-0.54869954354174411 -0.25884611670133495 0.711996546205512
-0.75530330099272192 -0.058720160526860354 0.54223057887466553
0.26795180618302084 0.6028436777298225 0.22027723707381597
-0.212871098593439 -0.61721588591754539 -0.30293989405322463
-0.071146605442578448 0.61157223858393195 0.65894322245534909
0.0023513575109177509 -0.43998046874145302 0.58384977952584904
-0.88799870393216906 -0.12430830126305636 -0.093559138339657011
-0.32682373237858542 0.16485672280634844 0.77376677497849755
0.077712487637825234 -0.38873808077838135 0.5135378466400482
0.2354617480931438 0.89739478185785515 -0.24683416963031846
0.28165305533138962 0.07505813321762389 -0.18441663089453186
0.37539813540030309 1.0651360417101046 -0.40849771278465141
0.73425200119817191 -0.34733518506243399 0.65022191964501985
0.64226052036892156 -0.18733581432965707 0.42502519530572158
0.36164863382015255 0.14938083227218613 0.066734252684113926
0.059799332441514252 -0.16994222055456021 0.74833708564560197
0.20744799340587861 -0.082570757990367838 0.55289509404596515
0.1275366646620455 0.93939200240816945 -0.42073849207474723
0.069613378227757039 0.3432405381325907 0.76046728708374189
-0.026818254267425345 1.0125861085077759 -0.36057472910314914
0.14733940692138958 0.45709367273209978 0.64655344719852792
-0.55823333518344498 -0.070724025416353697 0.71912080134387679
-0.23833227932831846 0.95249416430837641 0.035318530176397189
0.11692551333987922 0.54337831700186712 0.63166771525797571
0.14826312467710068 -0.098836123613921245 0.70864393826448691
0.14071232794799471 -0.053541694376207261 0.78926872487568289
0.36912167251199435 1.1273685755258498 -0.42809452634244849
-0.84999787420952089 -0.57030986006198248 -0.37155646001843934
0.10623966573248822 -0.41634205253865275 0.62137315160893536
0.86203094300728367 -0.46758244740092891 0.65876292932415481
0.26417012226147563 -0.46324234075339632 0.64136231317746706
-0.60288482679206368 -0.19591599858509312 0.70312008452950181
-0.87622630618426456 -0.8173061675508464 -0.48635563262007508
0.56150362887777305 -0.210890538120168 0.55990227018747873
-0.59218352060250368 -0.16294705042048463 0.70995820706059476
-0.6131073336525219 -0.55238475702500978 -0.39305546323197404
0.68627711800451152 -0.2606302039588968 0.55827546557580376
-0.58287625378980579 -0.066130340809650079 0.71676832493756137
-0.78960568030956324 -0.9458787722472124 -0.43097980473666553
0.67968649461570863 -0.23898060660405918 0.61074244550906087
-0.60430102335510583 -0.55583566898465619 -0.0087408217885922568
0.033990999955278767 0.74608873257307096 0.35029668780222778
-0.19363119721168687 0.75837053073101401 0.40605081407213106
0.35432309201416956 1.1068073163667691 -0.42094894097323277
0.39764604077416266 -0.20346069547562706 0.75207480263051707
-0.36564023245037447 0.028611077703004639 0.78022217459817966
0.15383423497982562 0.36554597895690222 0.68746279228216167
-0.014965524874128278 0.44956549429917914 0.76291975313378657
0.39161844734422857 0.90781152388726127 -0.34806650521863958
-0.038105657623702882 0.55939160318479253 0.72451087382032142
-0.57761350107568887 -0.56907202057263362 0.011470700472983708
0.15192526912741755 -0.42045414976973916 0.5495729755336356
-0.39802666497618588 -0.2527479267295405 0.72879449438747201
0.70291407837299857 -0.3236179699827062 0.63924760517983259
-0.35789461598443495 -0.32028091274150938 0.67600675421897449
-0.58515607442370765 -0.28698042628442977 0.68539167069181417
-0.50844866069931527 -0.80689149383036352 -0.33054796809366849
0.067903832805711772 -0.5007562093167337 -0.0051855172195871546
-0.79008836458098131 -0.75138315293841629 -0.41192003282651513
0.73684586841187638 -0.34304939174694482 0.60610919454362033
-0.083430487672160325 0.43928226959300787 0.75496501581039865
0.17977217087275221 0.12699481257305933 -0.50601579899577587
0.1496473646328127 0.25294451275320284 0.73128852598725302
-0.11735023471612749 -0.22676399646888967 0.74120297358194875
-0.46663867413448656 -0.6878887316091209 -0.16256786425654468
-0.03178432541096754 -0.13384079660045245 0.75887811921583648
-0.42103779779139927 0.13697816652609163 0.75429837473569705
-0.5890205772096806 -0.1044256685630387 0.71083643481790659
0.41295279421808573 0.4004945903548105 -0.14612786855283844
-0.40966473179281593 -0.32541737768352164 0.67783142364345395
-0.86344516417111095 -0.22256924297664682 -0.1564701119316112
-0.81164333467128813 -0.37222612832685797 -0.26478368717999956
-0.36689336986012222 0.15605101915105024 0.7653438616825099
-0.099727536564358843 0.27457556645416048 0.76931147726730842
0.39366564784216962 0.63479954166695052 -0.24522305027096536
0.16270078019826428 0.67988491004683738 0.51889045043935766
-0.60387936018969413 -0.3109610010334336 0.68371382210560228
-0.47965186405761528 -0.83667642802443254 -0.35486541443299302
-0.36029123522817486 0.28892536860703899 0.74904047309854604
0.068100926318635402 0.45353733711121436 0.72961449924372346
0.12400966111172806 -0.31654166526786298 0.48679471317024081
0.1947842267751696 -0.070071308898320694 0.78686050590758327
-0.52514436800936437 -0.015700487461685952 0.73327017718278853
0.02467426452992072 0.51051676707854199 0.71817544133750744
-0.47982740339338648 -0.7275822459058503 -0.28259028248885443
0.070719197708172032 0.46168482941553179 0.71704398596364172
-0.44078966952315568 -0.21466584755023632 0.74096455839989517
0.13134983599348971 0.29488617547320928 0.71979401877933924
-0.499497566960315 0.017408326898333826 0.74457537326455281
-0.7029066457484987 -0.48284848064363928 -0.069427298004939075
0.14704525528259182 0.15724905937946687 0.7513746542305455
0.10223816519402362 0.52806049355766049 0.64375654912706182
-0.85221515767830169 -0.41397736848445277 -0.30011312647758359
0.14485148915426294 0.40960429698125722 0.6644712960577408
0.38289589150764414 0.19990328011681413 -0.12001099146982597
0.036928146003134543 0.74270968736803411 0.55318613493599855
-0.033292089127115787 -0.36129860606169473 0.59016087702767095
-0.68068642939647361 0.27112291921798715 -0.57201750085829417
-0.75447414008743863 -1.082012963916938 -0.4436906931934459
0.34634271515767523 1.1325097598920593 -0.42887494220545364
0.21509077879250071 -0.068058428243972457 0.78161088138423906
-0.60230808117287893 -0.29900217159499221 0.67021934622658819
0.090421635524052135 -0.11521565403353407 0.76296930018207831
-0.50962066369152126 -0.87501963844137265 -0.37603249537056627
0.51851991467427183 -0.53267585109398397 0.54496411823649282
-0.56650419981062328 -0.21043992402931622 0.71428026835798164
0.49155708866985037 -0.22159715741750574 0.73885909877961353
-0.56656844284682961 -0.21930308081229555 0.71455732705601349
-0.36965368227964746 0.086878982919188275 0.77870628981767709
-0.56870372487904319 -0.23698511726311722 0.71350520929192385
0.19174688643170157 -0.016495173559150089 0.66750537324057291
-0.0092683603850218788 0.76000408162155964 0.56170592243486794
0.2190489977569996 0.63657392658419099 0.44347477885179387
0.28197428683151315 0.55506201006394917 0.34739939818211951
-0.24772217137513053 0.45974893166231823 0.68815597512838167
-0.55753620524063763 -0.41266979079944122 0.62484494944158087
-0.44467309978750791 -0.28791863996454481 0.71369126475278222
-0.58046311847451193 -0.18084723545129577 0.71509805591887243
0.16317449626063762 0.45895759742850828 0.63962385277841349
-0.82997333660011918 -0.9086890085170225 -0.42883205192953255
0.040689047311616378 0.28972680133745143 0.77005052230595084
0.34878827779931498 -0.23526271308637092 0.53802239017090869
0.38432120120927493 0.49996417629745338 -0.18903607467410666
-0.40192027745845849 0.26743866275990058 0.703894056419756
0.34929778085444241 1.1060731850540719 -0.41820317235331572
0.42711223610081106 0.8721424665353652 -0.34668755394662298
-0.17752223305762982 -0.2638454466485598 0.73020012456649397
-0.085669070827464111 0.55246159198890155 0.73513830390140811
-0.38367696860774458 0.25733548644171833 0.74813888337462231
-0.45889374869480548 0.12739906984091931 0.74266957884432827
-0.67014680354208167 -0.57519841879749833 -0.26828477754074243
0.45071990992420297 0.46768443550919869 -0.2425480466554859
-0.1945750428879478 -0.48627367391468113 -0.5166506696966735
-0.76005387646213762 -0.26045889778845321 0.53859750654751792
-0.87875198341288296 -0.51549144546348202 -0.35815170296922361
-0.83092777252113592 -0.77752365393317291 -0.44195562284323842
-0.24598119227823645 0.40552272832718472 0.73198815220996494
0.0099858620332042847 0.26518853779094798 0.76930048911924587
-0.204989923759058 -0.59315164252154773 -0.40966360294021342
0.40542924516756784 0.46067997312056264 -0.22357659411329678
0.86940214292943097 -0.50208871577376613 0.62426454081369798
0.033078618324140052 0.75971499644393248 0.66144640607291194
-0.2706635325254183 -0.59153534423349186 -0.39518481433992747
0.8541466332354446 -0.33936651354537162 0.63508065579532058
-0.033593484725599865 0.804064777451174 0.58039684599688712
-0.067954098136596031 0.53757933613135833 0.7181747263739453
-0.32014630561889135 0.11147523976575258 0.77727221519961631
0.16067507139149484 -0.06553748368929746 0.77549304839374145
-0.48606991735255178 0.087642615848324112 0.73828284934512567
0.73820969791742641 -0.31580768252024427 0.65406824336108116
0.22790383914369272 -0.089657576278654005 0.78068369761183476
-0.20289666757298619 0.35946382222556394 -0.68229143448223795
-0.35563198501597526 0.03561236476869567 0.78578771227935817
-0.7912627961586054 -0.39505281738325948 -0.18281080850604781
-0.67218535174981753 -0.59087149771880831 -0.38383077310163571
-0.55872554986925138 -0.63759715856082266 -0.082724911220537933
0.39193626020266947 1.0119855320707813 -0.39107510896303666
0.37149797078996016 0.53208528957640056 -0.18785124433509282
-0.39089858699202296 -0.11782739735258474 0.75396319107713339
-0.048215553234683739 0.62351386718526669 0.73170295506088223
-0.8296895931715369 -0.1385093205599901 0.33213896038631674
0.025927870647507234 0.55918197737909736 0.68664414110804728
0.28426359696888426 -0.42866907288208722 0.66118385298770477
-0.55999599786721888 -0.020041148303363343 0.72940254652505132
0.035797961650388288 -0.38722253588758804 0.52910295048238254
0.30206842346046869 0.98393378375862994 -0.32174853595751074
0.38266736369064347 0.52532236590084835 -0.20551779218402544
-0.50713937194339564 -0.61520411866372626 -0.034129860179831439
0.42540215302653905 0.82233787927285107 -0.34077181521666944
0.20863016712857529 0.30413557835103688 0.6816699986308663
0.33073594865703626 0.83622175798771536 -0.25167449473505599
-0.22468120301965655 0.59444881967087326 0.66249046135135359
-0.6060533109074413 -0.61038447251902994 -0.25385768907466399
-0.49198090218848733 0.15399640257402325 0.7393183943887891
-0.079280993585285842 0.24421055508986456 0.77569164926129019
0.1837824452471466 -0.052926789100240512 0.78734917247814451
0.38694457065656707 0.60881478184214188 -0.26681724765941794
-0.092143562323769856 1.0032619018732021 -0.40164405869333564
-0.15351381218729898 -0.28260112594375641 0.71875745428272353
0.3364014079626827 0.91908376707146999 -0.30397719001356904
0.43364055337110585 -0.16991165462451363 0.33376883068723373
-0.32175691546538587 -0.2721906138300767 0.72135463768228192
-0.60676283651423546 -0.55509134859411802 -0.024865023122742969
0.86997572338819396 -0.49509347595568443 0.6352552534053757
-0.34144285727455781 0.099386683626420336 0.77695363505745263
-0.62126456890908344 -0.53932787385656411 0.088110966695495563
-0.71773223667105412 -0.40539310779209359 0.52454592576461323
0.77044073706755967 -0.35366586728730454 0.63685757471856164
0.43190504867641266 0.63942904207010542 -0.26403996619120562
-0.0770283537674743 0.62901237475966809 0.63749677872908705
-0.41745721764388577 -0.15225382235200868 0.76537017596575652
0.11396039593617502 0.25461029812467473 0.74313577916922213
-0.23648634032500127 0.35343754109968017 0.77101710536490486
-0.8911771251882783 -0.42001999389134426 -0.36406629709455274
-0.29809756677894939 -0.59905964444425308 -0.25595155128110036
-0.435058393295634 -0.14324575791795269 0.76736952715776852
-0.36829926906861488 0.053040929237823775 0.78777360670110852
-0.24362446853163533 0.51185416847681608 0.63851464714161921
-0.66809066072590895 -0.94481928880355781 -0.41366693465971593
-0.22016470023362444 0.34258584841742845 0.77287895564140285
-0.61323929119998866 -0.13025346101187552 0.68069617711722685
0.21700621820363608 -0.2716043830287731 0.41156860563017972
-0.6244385346619481 -0.73342174184249131 -0.32613296517658341
-0.018608533680492201 -0.57671176548538483 -0.031957229163850798
0.31805760507580771 0.85495570497081985 -0.31106350754427581
0.26503149783900426 0.65977095334031333 0.10890940563098184
0.32939534980488361 0.86513701800785725 -0.26548122045696232
0.22345153319568567 -0.11589307593601461 0.77972116036912098
0.14666407492134681 -0.081589889697255558 0.73875912378747444
-0.47374290375196892 0.12470447347368463 0.74103999553503286
0.52403569559353969 -0.59207701182273809 0.58400369743108627
0.36406899366471634 0.1331172771135698 0.042056887341317406
0.21328243424727589 0.30483583094351729 0.63541893702929997
0.42454200466431757 -0.51177003681948463 0.63597226682645669
0.15548576269813452 0.70945494621116723 0.26758653474195171
-0.6981789084210277 -0.49399333788622357 -0.15124176581866777
-0.44016342925908702 0.10169137286411001 0.75568154356886907
-0.1662736327622838 0.60561867728702623 0.72245635426335753
0.77180825625748639 -0.33495209724441111 0.51953511098454896
-0.35839970989832182 0.01897214634715283 0.78385035139163506
-0.36834831372027566 0.20170021120958381 0.76075196836961823
-0.69949498487795836 -0.9591242155738442 -0.43062608387253931
-0.41494081637844715 -0.16684092761292391 0.76087809007302099
0.44043948165960956 0.47647989311801098 -0.19895514495621569
-0.55205928679455951 -0.90282936646541145 -0.41515383922146043
-0.096594356337277532 0.2406895667015192 0.77691077812013987
-0.029289799367944624 0.37733485698643676 0.77488228301530171
0.075855091877315317 0.14709951754613826 0.72458305458476957
-0.80165908347342452 -0.91940929395597948 -0.438154259105346
0.36153877774506782 1.0422300549763008 -0.39717791231313981
0.31975861816192719 -0.38247767943369126 0.67497838660759157
0.72357410410762668 -0.21896158026942203 0.53364712536242109
-0.097911007084690027 0.4450334821198112 0.74891595056502069
-0.72253035380231267 -0.47664698039014297 -0.1727726383409447
0.37411609342416341 0.22502741473417132 0.061769149547018287
-0.014963873303997843 -0.45096835432221383 0.55391647543757472
-0.30415793554428205 0.4170683639204924 0.66997390464965179
-0.36974118168174641 0.55560888101294381 0.5623599582476686
-0.015818726346196854 0.34795074658643443 0.77656399878111415
-0.0082198565130795487 -0.43528559307253545 0.60624890463651582
-0.014643899083495171 -0.090143062043239297 0.78394003713688676
0.76572557479687475 -0.24098433569776034 0.52745695920791036
0.60735639175680944 -0.19846466917039152 0.39904296061968125
-0.53682861491790845 -0.75899882554863041 -0.35625390245144217
0.58797216030720278 -0.24682228090449598 0.73116350941029395
-0.65145811135027998 -0.70143215315309249 -0.32409496942727856
0.43973146073938096 0.38990441861156455 -0.13942905621172486
-0.14473120458762878 0.26057325694455358 0.77473611361790518
0.34479757817200607 0.68085398790816498 -0.19098532525404721
-0.12520251347052636 -0.13685289024189728 0.76907348633409356
0.13451518957180042 0.99008807005134258 -0.30567701269831105
0.42310521490952624 0.73235290699255984 -0.29515447204067868
0.27147582186901786 -0.25034726674459762 0.61862204423505318
0.36692120660001137 0.18305020915173031 0.092468745252858753
-0.41399849521727106 0.17505992093725808 0.74346607768995909
0.42658451802782338 0.58568001842138528 -0.24066764156651743
-0.15533709808667595 -0.076573207902555396 0.78214193587731984
-0.20206356780917645 0.13399075656866444 0.7819640670976753
0.63848618744705732 -0.28779025275693471 0.58617536705202156
-0.088915986792017065 0.50358009755811395 0.74307067774097391
-0.40262219818254152 -0.28949823081947557 0.7125912291372174
-0.04683585645562971 -0.600532311323974 -0.14098526138323564
-0.10739115308271607 0.2865474634191969 0.76811833709101052
0.027241765423724473 0.75658048946030476 0.59783939363239824
0.40008380384392694 1.0105974526969703 -0.39034160412737151
-0.049537736170265134 -0.49171122159370384 0.42804752031011617
-0.40372200076859599 0.11817106663033883 0.76521982411080103
0.017654139656514189 -0.11008054237871079 0.76642863625235691
-0.73212455569921531 -0.86030047158156719 -0.4077958020584731
-0.5622183368386402 -0.62457980676265379 -0.074626221621571176
0.42206133346155639 0.23996245949112449 -0.1325924714867881
-0.65015157018061132 -0.42822828078385555 0.54864288503540593
-0.55044767570387876 -0.39396662808997007 0.60861930602197845
-0.058715758168290222 0.2108801776890914 0.77747255372784707
-0.60128330115512085 -0.46154710859352122 0.39700374520541004
-0.85366856771662469 -0.25303423009027881 0.082423879654811572
-0.50528630127467977 0.016060280276150252 0.73807986472803577
-0.3993624504958575 0.1680805545816213 0.75612162775212255
-0.35709442387599211 -0.27654934168941736 0.71894192048327454
0.14892774000850295 0.98856766082170111 -0.30146396495626959
-0.59970503309872925 -0.25084022326964828 0.69888722333760711
-0.35520857416835838 0.40636918296107183 0.72267348085171079
0.075570460855317378 -0.039242040861807936 0.78886100521322078
-0.54348863119832913 -0.66234323272188078 -0.19241071254452891
-0.62297394323351796 -0.9390204760541252 -0.38880156656190934
0.72464745911173623 -0.30688206086256287 0.64711376780488195
0.0135412705025999 0.44614876597842112 0.75678517374015541
-0.49484831856125311 -0.290096872290178 0.71189776422644968
-0.059420688312115999 0.57553283653004428 0.723795308443556
-0.81380093689915611 -0.39337187158645293 -0.35201309597400154
0.24695740476008154 -0.26734424171786486 0.68691886567501115
-0.74075646766937098 -0.43694869765764111 0.27169568018265977
-0.36429846904920282 -0.095056711136862759 0.76801054545424563
0.2385810860535571 -0.14431674190086596 0.77476142481395982
0.44422579131060047 0.43409790909706203 -0.17447380137306823
-0.95265541670636367 -0.68523459421462007 -0.41092424050017939
-0.12601308784121557 0.36735267765612889 0.75957000566950228
-0.53677337300379691 -0.68573494410081537 -0.22738409376631807
0.82220881919238309 -0.31250855095015595 0.58222982055517036
-0.95781318611258826 -0.55676264032564404 -0.43473554805791537
-0.073898309722693512 0.57784056882152868 0.75092586869482147
0.32589787457442299 0.74390927783207417 -0.30613466487864116
-0.61686808178930619 -0.62841880709751763 -0.27324554576924243
-0.44675568124122833 0.17324410217412378 0.75227215622001609
0.01914030834259961 0.63432677633647927 0.68547762748539753
-0.70103599344741951 0.078926990843100953 -0.57212326380505374
0.61580188789139356 -0.56026263524640285 0.54122876654147944
-0.3324976672420803 0.053887627769171331 0.77777707409768482
0.16738461473300958 0.46098366307525396 -0.54320106000042756
0.14702687375901746 -0.21170324319527367 0.73076177065996717
-0.37635418017887901 -0.31054480696931819 0.68300607221470955
0.11042019740915521 0.98027762483536662 -0.21542466569223961
-0.55874955897891709 -0.64638626123388576 -0.10702170520968934
-0.32339079028875517 -0.40047006703517241 0.59076943893848011
-0.16641048764259381 0.26727876790789651 0.77400515916176005
-0.25464727466089698 -0.32926803580778596 0.6904633832863567
0.43124215581678982 0.39242977023681647 -0.15717044263152502
-0.47273228949759982 -0.17532650225024327 0.75578954495011885
0.17698021462874181 -0.091687938155189386 0.77397784669750536
-0.13813473571514123 0.37833015735236586 0.763587254585957
-0.11929333899448125 0.31491139765674347 0.7653049008265782
0.43930650406599625 0.67342186004029259 -0.28949740833442661
0.16550001047752971 0.53064434514246273 0.59907010910347935
0.021524055474685611 0.22637373551691553 0.76896086693801635
0.096659146706542742 0.788899633381277 0.2002415194044147
0.45824329929456553 0.57256383664713439 -0.24699030192675764
-0.7669764589700776 0.45325238750189101 -0.21481230641026627
-0.023983632909704511 0.81633921541509835 0.30332286539672282
-0.57122088676169369 -0.11649176689519436 0.71496203567150474
0.37379574132631888 1.122937443924485 -0.42851361309180902
0.1944294913568001 -0.45841459798305095 0.59224757873712974
0.13849719473989808 0.29137436947183915 0.72112193093525434
-0.030505102439917664 0.4827625218389926 0.75577210609566237
0.22331094754383685 -0.2325453538120712 0.69455983573874391
0.29447105572390342 -0.22749884314939095 0.34860406288109402
-0.43432090530424716 -0.73321496631579919 -0.25533044920430825
0.28078283616255817 0.063334941905850428 0.65633524755264716
-0.10757654954480245 0.69910250954961839 0.5775642541497632
0.20931502912748101 0.34277648090153434 -0.49105037680288888
-0.51226869465608615 -0.76669289761809978 -0.29602780945043605
-0.41274351930991315 -0.14748981498351554 0.75645169014313751
-0.79349207990662762 -0.38791709975122046 -0.094925842312022723
-0.31348714937308841 0.63376730922288971 0.57464410734851867
-0.36344346087429358 0.5870744626027431 0.56429047053367754
0.1618670835915168 0.66691180519586624 0.54094457517473415
-0.36467980370713349 -0.051038651833607673 0.77870542079094207
-0.12079096890778374 0.16147687747212558 0.78170268831559042
-0.40692331154431827 0.17931608680564182 0.75271233725058551
0.45322978351794063 0.44447831265989635 -0.17535291102913675
0.10169728264082778 -0.46116976770878182 -0.19695864707620103
-0.064749277645461234 -0.13391450527953452 0.76306992155360831
0.30974077705650416 1.0414228676331163 -0.37758817087868124
0.19523987308329538 -0.084041600676499684 0.7767914675600025
-0.82226459676772379 -0.73884974232031198 -0.4343819510125968
0.046384622494315408 0.32851472401486603 0.76887445855268766
-0.46329136428923334 -0.25036811964355365 0.72867982113913854
-0.13375959765207313 -0.25531004877535679 0.73090534965075449
0.059753508793107812 0.30238792720027163 0.76801353229686242
0.26307999587470476 0.55852053389941148 -0.41698996900720431
0.33258174844212363 0.80717510124668479 -0.23909811608865539
-0.59630743168176537 -0.4034214936526439 0.64372030794478974
0.20919525213847123 -0.060154421499930777 0.7850755878074267
0.4342021037235213 0.74734732387486247 -0.32004441574292741
-0.13102191267918784 0.45709060389376077 0.75382238149745717
0.2059710822393015 -0.0063225348861806197 0.70586020135209537
0.12357719923923582 0.71150549709795996 0.41114786697443151
0.5806814521430681 -0.5752092083552327 0.62209380293529648
-0.36053054174212207 -0.35641404981595315 0.64269693829962193
0.032644959010013963 0.82991182375729977 0.63022058877905351
-0.5222513690436017 -0.62713028928675385 -0.036505689255818652
0.045506415269358058 -0.082728527672969676 0.78031123461235552
-0.93385153737438031 -0.75891961961484355 -0.4125896827203519
-0.58446522851113514 -0.15929865507479235 0.71405650578435598
-0.92229631754420893 -0.81259617943610607 -0.40864624767669966
0.78489308071135611 -0.34510281893224715 0.6106388418857307
0.096718632615448996 -0.05572668831308647 0.78368925845040849
0.12205687667633924 0.55039265177259722 0.62373447384391056
-0.75597756024865248 -0.80511151286542315 -0.39977471316512947
-0.61209893034418883 -0.22986618886443466 0.69560619982334515
-0.081373665297519437 0.92536823617264474 -0.50997593064798252
0.60749681149377466 -0.18081079264658229 0.44959454441067237
-0.1134274361629366 0.031010745735585488 0.78993787232033696
-0.60179462033138975 -0.55624776170751034 0.01196529602751184
0.067960110676096974 -0.42549576416445234 0.55965181393199259
0.077947170530478616 -0.43952507254573447 0.33741998396615713
-0.32552138801867159 0.25545043271335999 0.76264115956905698
-0.54495780877604716 -0.68395889857620773 -0.23910030259875725
0.098540330894138606 -0.045234966312875713 0.78637659649228908
0.46235971249723207 0.57318899210312679 -0.24938024451338947
-0.4310553995570956 0.036411135952931772 0.77154274024979941
0.40050426979976805 -0.31674766440980306 0.41300518769031669
-0.7231012142972304 0.17206654616272488 -0.55100680252073175
0.42973380885217694 0.34791499355532096 -0.10234424116922014
-0.087721013154293814 -0.12801144243212548 0.77091407115321431
-0.24225329471624946 0.32748837373304696 0.77691180045604824
-0.58073728161474492 -0.92607278576525687 -0.4231315582527202
-0.24995412209977985 -0.1339310206073776 0.76740516674098558
0.41589408488459867 0.88866099767335527 -0.35753962290021946
0.46702506662856536 -0.22439588156080958 0.60104710823881646
-0.064692708640819774 0.24317123225569048 0.77024704373818054
-0.76087352626529992 0.3001494261851434 -0.47296658173502237
-0.43139089536526853 0.1200439867073726 0.75412244704557452
-0.78673338120194103 0.0031260351628219496 -0.49280099655044296
0.21197801821020335 -0.44596870427380964 0.56428905314430722
0.077821899665195815 0.30417864985602705 0.76204495409604078
-0.3874574429925417 0.24937402592050262 0.70720569408874212
-0.029202515216638858 0.79832297680877673 0.57613856132974206
-0.5827332044564173 -0.42187989297198669 0.62391592538122609
-0.34082454327730716 0.27393687752493179 0.75373503587252344
-0.52234295591011914 -0.95966005830788959 -0.42222529885580684
0.085123455807149639 0.98422162176629513 -0.3619462111775249
0.12840244752942453 0.29592139838223375 0.73053288381160542
-0.050312710811198258 0.23208626172686309 0.77617088523166444
0.079104084350376525 -0.4406507123534027 0.61415872608188238
-0.39153360101471435 0.011518252347542557 0.78574691256989126
-0.60840802737908461 -0.5924573311117598 -0.21883757490482481
-0.23133783698727939 0.37586901292402786 0.76901487787881706
0.21458223299691781 -0.29991853720829909 0.38423345351705507
0.25342052985212149 0.39878379018000487 -0.42602312316810753
0.3392109238583032 0.37903179725844893 0.37007369515458777
-0.11723245412903793 0.42672508134580767 0.75394613264398913
-0.376584200455369 -0.092100718589733788 0.76803324971811548
0.02056806121723298 -0.097825331303369012 0.77303446901029815
-0.91768869121446528 -0.94594141426728129 -0.46793684759396115
-0.86176387248582387 -0.60288863044699781 -0.38865811949119689
-0.15752269647092021 -0.2306807155925128 0.7425621238233191
0.18053331231243419 0.7945717535235417 -0.4660179183579487
0.7530870475698066 -0.24504260503107389 0.50568130831928215
0.80830982547325902 -0.31499604394304015 0.58401569130620601
-0.3883268893430909 0.55106805433834438 0.55691847186767518
-0.57180118749903386 -0.12639653873961265 0.71940239325346056
0.69004894362598179 -0.46326992395444222 0.52348471736789293
0.34398772096369612 -0.49976222783067215 0.6137554881834717
-0.60964368480009057 -0.9530704959538383 -0.42934481397992386
-0.60753774100072633 -0.13305411073110918 0.70525014547132514
-0.4010048201591303 -0.12784085391226085 -0.65072398108762286
0.78807071565060482 -0.55241186086345806 0.64362417825074658
0.099509423518725271 -0.13617753843962532 0.75599967226108333
0.10314458223913903 0.32810210884747448 0.74999022702019147
-0.038920394402992997 0.7598399923053023 0.56129396535320097
0.78613334220202091 -0.6089233011294084 0.58570503727878531
0.42632010439251644 0.50071873953714885 -0.21099649624432004
0.606405603489236 -0.27122423301250365 0.58058202169726769
0.16845703074540097 -0.039443454898332675 0.71251972715882061
-0.063227986041027862 -0.45626195479596277 0.54579696693156166
-0.3673700340885091 -0.075621366089876574 0.77645658490018832
-0.27093640929834351 0.87667394798043574 0.15586860469042563
-0.27542169501964509 0.4512494292403062 0.6987846445655066
-0.5046586165564122 -0.5985083494247192 -0.019095461208650022
-0.5594019706147435 -0.2861615212738684 0.70592585197840663
-0.3729620686623889 -0.045083447350663164 0.77476023095493929
0.77924880315853784 -0.28955332390012245 0.52134171461281653
0.43684357385441785 -0.48299770951467735 0.53213307232437046
-0.41785712768927397 -0.49662386018094651 -0.49917792375509862
0.2737409704458571 0.53330222305680763 0.46924934606977331
-0.86630410533200575 0.051350276032053443 -0.32241947768454793
0.33129486493533022 0.76515683488057107 -0.30361261367386305
0.31454883841047376 1.1116519515705932 -0.40618487394772274
0.73605703155749325 -0.33245086380031807 0.65498332740733645
-0.039953716199136124 0.60005375852455245 0.71518841394225774
0.76657659574667036 -0.3161313796720151 0.6587593858749301
0.70431553031622229 -0.64827915533356872 0.57035285907366529
0.076374621972803425 -0.32482774010907178 0.5428626740408049
0.39882090135580484 0.4766149171882148 -0.1727478148655166
-0.16348564457456405 0.20131052010714257 0.74860078999211055
0.033486531113226192 0.63572931853340719 -0.60221703245187541
0.16677321083221841 0.6866920085169852 0.34123973134384755
0.18003435463262463 -0.16312609283650659 0.76318734234561703
-0.55577176378906756 -0.3073623400617862 0.68342223680454595
-0.22501776929453854 -0.19803680600716689 0.75230343981979786
-0.54461316002965532 0.3536562125140108 0.54482517711502965
-0.21046131020577263 0.38753011767903445 0.7617912957059616
0.2026417347536551 -0.36947331054980737 0.65010157299786897
-0.41114808110947365 -0.22412269759394121 0.73774586450872448
0.29662685912296638 0.77576893698164895 -0.16771352825298891
-0.82139081640738709 -0.37812641947805048 -0.28464284574488374
0.1777352013425002 -0.11635510894731738 0.76796559283491206
-0.36656390014030649 0.033022449485059724 0.74545042444464116
0.012701194956520112 -0.049899668171178746 0.78975240584492212
-0.043757158465808743 0.32700931606967742 0.77840004930547479
-0.46209359083724166 -0.13146303105469315 0.76548833341226441
0.21941386598706458 -0.08553329469444293 0.77904063233188481
0.0035908236894499623 -0.20682919105064457 0.74185336226958043
-0.37929174072229443 0.13455968637669002 -0.67614828819856143
0.62113120010053535 -0.1781191906713957 0.41646818418382736
0.35795379562381413 0.53293499669194944 -0.13870494025786684
