# XYZ point cloud file
0.32880734022410252 -0.52194766676939253 0.52005425431525509
-0.32044322376520995 0.44495802006736085 0.71477614290427027
0.22898979184890322 -0.025177009458332122 0.79646289404911386
-0.10397559351065411 0.50159859156542552 0.74886045151072267
0.14263960794158947 0.13413777811075533 0.7522343831346916
0.40260381702250925 0.32827223550043527 0.0095188281123910201
0.0025815304686602758 0.77351761479604875 0.40261714698863216
0.23196635402376842 -0.23344380780764595 0.52022515109388223
0.48233880118630168 0.45527604908443209 -0.084482253309374755
-0.77875597527850005 -0.00011330557319411128 0.62372911816805754
-0.061705485305481034 0.17380994372888381 0.7425287626899717
-0.41055740413594322 0.18260078203917374 0.75126247554919701
-0.74482307956998284 -0.54700663316805276 -0.28039827461338973
0.17023353045135536 -0.12834567500823368 0.65434456333184698
-0.33285087379033484 0.22741929724438137 0.7745921199342547
-0.36892047987191745 -0.80665650499850017 -0.33314481905040338
0.10710960952940241 0.85937078500796815 -0.32678406875891142
0.076109868927346724 -0.27005580238366633 0.6750277427573792
0.30360376726639515 0.11579036040728852 0.59562072228072793
-0.66325979385601386 0.22434909060226005 0.393188481809716
0.068694865217707957 -0.1199086132770617 0.77597825174939317
-0.30671796957494735 0.41855130991163492 0.79024809369502691
0.37231237187177157 0.63785953414821961 -0.22424577303900151
-0.16149987750378614 0.29920870899567831 0.76967168591818336
-0.46643872749132242 -0.67068456135143606 -0.23590065532835069
-0.1480324867170566 0.37659274742011917 0.76321331211681809
-0.58233625490299801 -0.12666541467928027 0.73089934918812105
-0.8258088437501101 -0.48687680912695441 -0.2987964930130147
-0.48780630085013854 -0.68129253414730329 -0.25409130181640194
-0.46963733280540509 -0.12726082013928419 0.77710867796861294
-0.63841831891318179 0.0076369193597827234 0.76309026373644429
0.22840353083375931 -0.0048190410064421485 0.69439817684497029
-0.23975452338879677 0.71607513806986844 -0.65667538720879293
0.70340815556076564 -0.26354655590375842 0.62111632831670249
-0.29895535827250797 -0.020588748612141217 0.76367285204014479
0.21261338625276949 0.39693993353537849 0.66139184194832978
0.17106179274878741 -0.39090421055561819 0.08831293775483573
0.56285260331583231 0.85679097393438042 -0.34837438777014995
0.43222709718611441 1.1283994139904507 -0.45674632060888598
0.243838023117803 -0.10317305594503523 0.78844618206721861
0.36576457224828118 0.5043544929210384 -0.017885243268665363
-0.10676868134032702 0.48665998592852588 0.75042559711982904
0.70712118118180456 -0.58030845493703964 0.45038193361745016
-0.062138988608467116 0.41039502331722133 0.76993568369300647
0.25321816033806499 0.0086855295022587597 -0.51204027214862435
-0.15282593412882761 0.80378321464434066 0.70088849021988153
-0.49860696238488345 -0.86164509513650955 -0.35620568303647815
0.67749169224109096 -0.32645274374743849 0.67477604317991791
0.063623052741093034 -0.093646837980969622 0.7819233088899864
-0.90368404803291469 -0.73289494074600725 -0.42520442365912459
0.37619055245590971 0.6118002476532638 -0.20967087654184979
0.27952557922765209 1.1044663199195384 -0.42217034600298575
0.11406334666980911 -0.046043757087630865 0.78554812151799069
0.38220688466651609 1.2851716824764026 -0.49561207169881527
0.50845902942273824 1.0515703911469245 -0.41545443295933637
0.15652084109558473 1.0128107686670091 -0.27963206485048886
0.37978796402978787 0.55022112428844139 -0.14593843464092515
0.18816984073976073 1.1627844916592949 -0.38157058903209418
-0.17431025673647582 0.75294788111082767 0.77766783183517418
0.19974400982152929 -0.4693143278859111 0.54697343124541931
0.31764461674481481 0.44688695742206619 0.52429346443148006
0.21829997756481134 0.57355740862413995 0.58593274999498135
0.70829965307953557 -0.43399423386392755 0.66148397091467359
0.26012680748101502 0.74843998055087013 -0.029469221225440378
-0.54208781232591718 0.041899420037168511 0.68116037020172371
-0.10256746970543418 0.56545500930491244 0.71591130249305479
-0.32430757391432508 -0.24289650596989532 0.73951752280970595
0.25891411003874509 0.98925910284401652 -0.34060577791376545
-0.81505198473905693 -0.46616644011879771 -0.2839945961001149
0.2365286378582141 -0.26886460285606972 0.69651345126544584
0.0085326208125025005 -0.13043713232349319 0.77388181888807139
-0.92827727167241392 -0.48783399007112394 -0.42540292640831012
0.10874066539571459 0.33536579325817684 0.74624176720647029
0.20035154108455799 -0.098875058117187109 0.61766090224148229
-0.39933511623149798 -0.16484189543305661 0.80176364737440053
0.70948290327618224 -0.31634468082353351 0.70782085683913465
-0.18860530956203547 0.5631073255040917 0.79928020322449811
0.85773534059546819 -0.29387093016350718 0.59080708455223885
0.37963315959427746 1.0009180027622051 -0.38692707606878685
0.25851520183562116 0.93147601328485052 -0.28070817474952037
0.18481143300698477 1.0942727910610301 -0.34323043239226081
-0.43211859147231735 -0.72107021894754553 -0.24379203722492093
0.64793159891510754 -0.68168614217501045 0.46181905965681835
-0.89718655760816546 -0.16237781471403423 -0.27362200942707204
0.74048580491995608 -0.0095773007706725366 0.44553921226304283
-0.48637187317262942 -0.60338424989919304 -0.057611102115515678
-0.25096106326896006 0.39005588072103592 0.65225368938388328
0.1962023169510303 -0.0098631699439692966 0.72927200342599008
0.72316067375209059 -0.55702372951145662 0.68502392070217866
-0.30787427705320169 -0.27573555995115839 -0.60322254710138168
0.34524495742493855 -0.18659692672946449 0.78046233219060923
-0.36351170573061609 -0.6549625953603595 -0.2216530993489414
-0.052148245688499628 0.35452514792717693 0.76770104218405777
0.4517789914958712 0.71827611451976736 -0.27136121961677873
-0.43064377527923625 0.5937873448025357 0.67502613922033561
0.23670871933342141 0.25919307610598707 0.68145834892209223
-0.53741548325069743 -0.66138205364387659 -0.26519124239734992
0.7889141100977497 -0.18588968596304767 0.64435723719975613
0.11576514754381151 0.704206146520022 0.61130739912255194
-0.24234588662511669 -0.040069545756466596 0.76126574979730322
-0.44784758165883432 0.55761973202663739 0.54482739597096952
-0.76535234180391853 0.35945984204153092 0.012425182922584099
0.70745404708065962 -0.21249329173366505 0.65932388961311972
0.40685396794856388 1.1492450398224037 -0.46055174301238821
-0.47216380953602766 -0.61735839299194595 -0.067019543247852198
-0.19709424194559233 0.58109481447289113 0.79589182018912652
0.70404498194812959 -0.26878473540659797 0.69605423690859425
-0.10332330540586554 0.098660308628950588 -0.71635885023374613
-0.66948985051089949 -0.063521547612452878 0.74289939867105659
0.095104101630909099 -0.086454367597639248 0.78436100551232357
0.45793588849699063 0.42457310473423604 -0.15862849157315395
-0.11317425047445795 0.41296355719850908 0.75388829944813551
0.01755345763922378 0.60265735363947215 0.68874396920250547
-0.092327825936308727 0.83038864478666596 0.66308413778642716
-0.43668790451079076 0.15503581268131938 0.75009997422682773
0.10271009088387473 0.46672749216179454 0.73534510963884259
-0.19896302772519903 0.64931579937217521 -0.69600495230338311
0.29501177206725515 0.82969223025077099 -0.23532153367114006
-0.26696567728833998 0.35485489212558718 0.62961892705754963
-0.25627401546336159 -0.098818253970449632 0.76462548201266145
0.4035960785062116 -0.20486836923518581 0.77760986342400429
0.10146020451065851 -0.075270664446804858 0.78537200839912202
0.060535281017905618 0.34205531984517279 0.76756127648343409
0.1209512533959014 -0.065088488476305884 0.78889834200424502
0.35886607360851031 0.4757640042845992 0.15234081237895225
0.12819934664946686 -0.13027195092405464 0.77349503509174156
0.54417074576622326 0.62315532066440937 -0.21426320494344964
0.3067325272600101 0.9812795842375408 -0.36430693758438792
0.51477763184408332 -0.33994183621115326 0.35706810140300149
0.14156109915438719 1.1443417794190509 -0.41198330820566298
0.6526839407074192 -0.087644320346640825 0.60770461103197704
0.28037989870733782 -0.11329382554413314 0.13864072486489931
0.17101588255980005 -0.14861315144258924 0.73666200645811841
-0.56626619906376163 -0.15727332868999611 0.7282370974545529
-0.62836978805012222 -0.98356847752120302 -0.41646785881971482
0.70707529485258647 -0.40677159682473985 0.64367318717540911
-0.67511111279100078 -0.28588701498983937 -0.53213023767239065
0.29134519496062694 1.276981757260728 -0.46896846040726814
0.24672826430429495 -0.053796698380892849 0.79504091375338248
0.37782061083544249 1.0526408432739345 -0.41083915675812932
0.33189011722618034 0.40217691418035884 0.34692869129798964
0.36793614278388986 -0.53430806123162711 0.55757568982448902
0.41515039551268273 0.88116470755085174 -0.34353965189848168
0.8284497383237408 -0.41447124804176383 0.50092677107681993
-0.09016760847794103 0.28178734425449647 0.76367116052460915
-0.65510254472280849 0.23053445940385586 0.44311526361843789
-0.6976054620066634 0.023327222790697988 0.72952175343152703
-0.023508984713600967 0.41406801376930957 0.77554013181202208
-0.0082340563824345736 0.82320084892418777 0.54494076889568532
0.33948812783080484 1.0421743241656714 -0.39787732981983481
0.23134453645684516 0.78820082824199744 -0.064860450091032362
-0.56515763299807986 -0.55148809123875253 0.28512809990525056
-0.015131151991795377 0.65385415347876119 0.70130241644233138
0.16154230853419449 -0.13796533430928548 0.66692121310393304
0.33972861745832006 -0.25824534027918844 0.74623167105949051
-0.79448278001746075 -0.74191250410058274 -0.41089950763625893
0.10430648319953661 -0.07446862496118456 0.78673817928711287
-0.17286886538340696 0.010013093658017169 0.76106369689046005
0.062188107883400789 -0.093861368490848918 0.78288062097556121
0.2850947876806913 0.32260827956758931 -0.45445618168787405
0.13239263510445198 -0.088097814581601597 -0.57366821191658346
-0.665601583673606 -0.58011807404216142 -0.26505944715336227
-0.0037948364534940993 0.91913300641920159 -0.21435635887394255
0.30976846045120965 1.1327576420170544 -0.43842912569084547
0.7200869843449027 -0.40469957964739933 0.70425432789511433
-0.062102285981495697 0.19331225310031641 0.7627648641007454
0.28486006061143598 0.080659861749609263 0.48796008334306862
-0.46609301389173652 0.53346746359477493 0.67164885742124625
0.18969245696513326 -0.24987762628785504 0.68248670537275302
-0.44301886124128487 0.080479421678688823 0.76392857344967524
0.16435258198634983 0.3538011142469486 0.70287736764294095
0.76469388585587694 -0.046838519721575267 0.36550465131051624
-0.08438550427734981 0.29476991057526902 0.75627074574322251
-0.27598322156723043 -0.54413553749753873 0.039247150692972355
-0.35429302133871943 -0.10888392784309531 0.81028681545751624
-0.52464678663557152 0.24644681979751226 0.7667985730579403
0.16190635229543204 -0.40403513272133296 0.21068524015629464
0.35876523512774838 0.68365197454249937 -0.22995098049648277
0.15483462632687406 0.37092442309122475 0.71186198765667541
0.38566175104176637 0.40523927094500323 0.047278235287876669
-0.89995388937302323 0.17379504973507665 -0.1246854891927569
0.4413490003535685 -0.58657145847064385 0.51396669456403288
-0.27660203736888889 -0.11712254306604564 0.7655615933598483
0.80825890118077837 -0.43987675270051341 0.67719465770744591
0.70606759599289148 -0.43228711026858946 0.66876758954879278
-0.70805387271229847 -0.76945083561145111 -0.3694027553081014
-0.21331341362338208 0.6189528156298536 0.6194069839182248
0.016298983957256041 0.61644071439965842 0.67326694343228155
-0.19029484560479659 -0.036582230694705231 0.76034207058330594
0.36477810974918157 0.65398197826607429 -0.2216310874790679
0.44859817568294602 0.57432967720819761 -0.20098669453318507
-0.54726157908896766 -0.65218043717680985 -0.26828682263987957
-0.30163862346933001 -0.21548017959864296 0.75288390600371713
0.15274532409000585 0.041990249286584458 0.76757274205056092
0.031168546260005314 -0.10669366912190981 0.77884382025774812
0.16222387080341605 0.44660420605322315 0.67300804817898552
-0.83771522500103401 -0.70510978688935211 -0.42343053688125565
0.81340710724737164 -0.52873021203157577 0.59276831012425646
-0.59800192373973005 0.57388192537217719 0.10566921859890499
-0.17575275720594163 0.6669903176232026 0.79160586976195191
0.45715162317219438 0.46722379910488598 -0.099685324932238473
0.37998413840773537 0.44403604844262645 -0.0072960085900604099
0.3242957318817048 -0.24607460088020616 0.38372616897299849
0.22502089331874231 0.83263818974978676 -0.30126287787618367
0.20666212704838927 -0.32860916083416214 0.23577342483520169
-0.41818190823676105 0.14177860166427081 0.69571230457518141
0.28214436392352127 0.75530639911812614 -0.15562929146847182
-0.21982685080894271 0.33099171546226103 0.76836323603470191
-0.46360446544065326 -0.80419334454677482 -0.3143626350431532
-0.12893759040736086 -0.46102402639780848 0.52900250098105062
-0.10309089902091273 0.35030235049327985 0.75189516556429226
0.035421787522182058 -0.15906734154782498 0.76697761773368711
-0.64271466178593073 -0.67302038415544985 -0.31817233033575576
-0.66852532687721578 -0.81478453694234076 -0.37102745412721561
0.19312223183953847 0.48727699588468454 0.64425894195653655
0.077600913993649101 -0.096173880128873179 0.78158191138459188
-0.082874951526775931 -0.28239551278559816 0.71729262468659272
-0.16106652464600302 -0.39048373191650398 0.63588217595281549
-0.252406965276748 -0.13513971410662862 0.76139805446700848
-0.39664462376413212 0.087052534180088514 0.75768232085999898
0.76426691856349294 -0.4904168989001505 0.69258369771739581
-0.083076854209821249 0.55996911303657271 0.74138280164072512
-0.94970066664552633 -0.53677796703863123 -0.44017665517378646
0.17319363234150842 -0.11075440339359943 0.78021615760542318
-0.79668774163178568 -0.47235192109212676 -0.27096215883238983
-0.6212438427211282 -0.56376412147596966 -0.11969162278830936
0.11298801219766119 0.466002587166372 0.72998424690274533
-0.4927107764306129 -0.26870953229939687 0.737072834997889
-0.45222311250176972 -0.79526548875958269 -0.32411964296636597
-0.1385335623544961 -0.5155739747213488 -0.042003073858040807
0.26627227471692549 0.5351291366586679 0.55331234543245955
0.44527560177266423 -0.14054098339315146 0.6695491115118557
-0.92805702773512166 -1.0589212713711049 -0.42410151675107954
-0.022823464054965825 0.26136381709366674 0.76091869568926995
0.30291200657211448 0.15966120942812267 0.49742928865714475
-0.423584126916694 -0.61109703112759917 -0.32994947650274753
-0.64304617954564947 -0.60856156084690838 -0.29601382220528194
-0.74077999115854709 -0.49675858949376561 -0.18778218062448104
0.02429225312005201 -0.47640017404069113 0.47664224813013334
-0.61895544928643176 -0.041366177869008425 0.74890498312777254
-0.19069071578809371 0.35968002997412896 0.7867130642422353
0.28596349927852316 1.1586550611001485 -0.43724218678096349
0.13457549089196164 0.53882489453519611 0.65329248744501456
-0.42866673772977038 -0.23247974679409822 0.77242234260961595
-0.26822198823020926 0.0097223448686918346 0.76450436633467689
-0.19512125883591125 0.31752755960661716 0.78432129138661821
-0.69854273040107273 -0.21958505112615967 0.68913083116478902
-0.3325406960490227 0.045646062761449002 0.73750384742970709
-0.39214381733961545 0.22534604605053232 0.75723569293802484
-0.40105158770040816 0.16177385840728675 0.75322153988270202
-0.40343301701028622 -0.20705731370946978 0.79170676824435304
-0.27309487527634246 0.8608551675858962 -0.41181507887938551
0.013885555757326529 0.042131151230819341 0.77450096188727002
-0.015105314937272851 -0.29664612736010554 0.69572114565369247
-0.73500401213084388 -0.73367302016174563 -0.37456277185731324
-0.028224086678903859 0.46763914446316335 0.77191445070434384
-0.25946803020940479 0.40544508096544973 0.60724528844605175
0.1713732627445097 1.1347519679018205 -0.3603123937593864
0.77630043170429985 -0.32972699489039314 0.62232845169717166
0.48166346699713358 -0.29644811877625443 0.76806521541732309
-0.049866936828948383 0.31725240196774962 0.764351354575183
0.17668878937161026 0.0013893752790181679 -0.57861029173795941
0.49729986203914223 -0.30365132685733442 0.34911257574435695
0.2357703070361481 -0.47315726350342402 0.56447004416509117
-0.36465873066157428 -0.31749681675239572 0.69398005939672203
0.48953197334390097 0.84749268952998591 -0.34825310852386338
0.73813907145745361 -0.57271554831021376 0.67183764169442384
-0.33384490762722407 0.12827219651424571 0.7643979079221026
0.34485261082284069 0.51283093457300311 -0.30665741985615114
0.43888151660974017 0.33910108778547965 -0.10424699320674335
-0.067787761852457606 0.21989299337479906 0.7637105911018125
0.47876135179114954 -0.61142927729088115 0.49020823373052735
-0.76287095882389622 -0.29430036281661387 -0.46012012124526791
0.36540457465412146 0.31523101360903638 -0.20930819465820605
0.77339696462334473 -0.61823065276104217 0.58184085175525979
-0.12717910140304411 0.43581738525412561 0.7598882675540608
-0.56025165959340484 -0.61853758262225256 -0.24150989576173743
-0.3685617811127031 0.092520205617347528 0.7291112825506616
0.14508504380779641 0.20407445724936224 0.7209141839377935
0.34884809173343001 1.2870176752323914 -0.49011583054880248
-0.76891565102823733 -0.61401288785492625 -0.45460294409167545
-0.44698523632467868 -0.37651045328638588 0.65926752436917013
0.28346184424384546 -0.15679799442318654 0.7826495863787386
0.1180978802443633 -0.04901210593411065 0.7894133947197588
-0.44297973025913961 -0.78519485395059974 -0.32987459954040332
0.35169390106216269 0.9903429421066221 -0.37579649606482235
0.85920703254953423 -0.2893184230758834 0.56977921076213534
0.19575545515465365 0.35697709924878041 0.66566312817417383
0.74345811622876568 -0.48479779312555138 0.4334450274000119
-0.056720975394625839 0.84666013459769829 0.65846167930283173
0.089343655339007455 -0.43548937672375132 0.48933217918727223
-0.18893908693542016 -0.39799745277713328 0.62654261465081618
0.12299491816776253 -0.14009667519394498 0.77139675745854674
-0.099706037373948675 -0.48572137125995596 0.46120605325245378
0.11147936708431416 0.58986887899752105 0.65114134025043313
0.12665424877945952 0.86011407142393637 0.0052719225706141515
0.34162186086348356 0.33370363599664188 0.51753875133863403
-0.30680068043244546 -0.051166738073902707 0.79890590618038004
-0.29035522270453384 -0.21506635354020887 0.71516144809061188
-0.51208251341410005 -0.49348772749257819 0.50795756158095173
-0.48019299803127069 -0.66939086534398484 -0.19772940119162286
-0.11035941559237017 0.7874328004555764 0.73070753213733042
-0.11369015739808219 0.49353817828588831 0.75373345582011098
-0.66369949778652426 0.23061604416304249 0.57660717670705708
0.54093663740763986 0.91500318954831528 -0.39075335513553
0.22626908965611392 -0.016451127214651251 0.79613550109445441
0.15678557068883947 -0.21854903662836023 0.71134179947875964
0.048516057689425907 -0.10933022249258784 0.77948775715833563
0.30653819057715737 0.84634035858630341 -0.34184744318702087
-0.081844489010393318 0.089690526658614544 0.7632333939484397
0.5272355249923919 -0.19908395370853782 0.73560249890897467
0.32915035513747171 0.90756983867959207 -0.3315790836021506
0.41567060656919352 -0.12115135365326068 0.57472457245387432
0.072326826868618355 0.68979690855982767 0.64017678686138879
0.3499776590718966 0.55968728845931537 0.025642456969194427
0.11625733999483145 1.1409564292126788 -0.38770004752041132
-0.15065829502731276 -0.4648408046019199 0.52520417537471076
0.026877889924151077 -0.1089590699032783 0.77966907787447326
0.38715336625136842 0.37461805992211339 0.081734018966926669
-0.39939531714048826 -0.34172694554780492 0.68538720194567304
0.043040809838089444 0.35721827219526858 0.77045660293197216
-0.46762496063797698 0.014315810012362817 0.75078387291102899
0.18091921468669625 -0.48744968092353247 0.51037743375104583
0.43260450085142566 -0.13781421979541619 0.3840423165311222
-0.42461965100267207 -0.10254558750139608 0.80316094419595174
-0.20948327949031409 0.59408224175228952 -0.7348688864643691
-0.93455575750635944 -0.99654891680643232 -0.40698241228164989
-0.46273345530175902 0.19548875553846301 0.63089578633184829
-0.21313842099942804 -0.38394313998151119 0.63747231159322837
0.24822051329635997 -0.4343739775304698 0.59894727769540168
-0.37961124980756722 0.32866229678914749 0.78099995105424114
0.40713182509614398 0.90844876136998209 -0.35427752011423763
-0.99607872366868833 -0.65736317237809772 -0.44331806345212499
0.72109130227198648 -0.2586200116052737 0.62430174631185764
0.4452949667181656 0.56137327680983162 -0.18773813306927423
-0.4077577525862921 -0.35832879630459047 0.66865101842324748
-0.32704535337688867 0.33352054457071745 0.58558478104714595
0.37040458526291786 0.62890031647043543 -0.2144523856449041
0.25689612074995694 -0.16474380708208969 0.77591888196980108
0.4435299989294208 0.81910992816654016 -0.32039414433563707
0.43637463333448068 0.4595503697348704 -0.10485844350716889
0.46775931877675703 0.55245611557916163 -0.17713742109367558
0.76891398326236526 -0.39957100191332984 0.63956945517361419
0.18155402096670059 0.97225304333812801 -0.34350245391021872
0.15780625227750988 0.8177049831582508 0.091152508402160493
0.24458879687500712 -0.34965426065298288 0.42202387596148583
-0.054578862417770324 0.92700236265096692 -0.21493963111390713
0.76248888831412387 -0.4145097826870483 0.70918596137471468
-0.73207852991924938 0.12170062809849469 0.57616505558553399
-0.58205920062744099 0.080421277157086024 0.61782495291015493
-0.57473098401567313 0.037357395514248992 0.75879614726738964
0.15550532311397092 -0.048413018865346658 0.78336597302870814
-0.65405656026058523 -0.39431261721034616 0.63481510910673933
0.16739789872144684 -0.20275184158663251 0.7030886810582615
-0.23675043581221189 0.27915181295693969 0.76602041289208955
-0.28015404781001507 0.29563242160367054 0.72612752656118573
0.81744296896366109 -0.39262189491648769 0.65402855854085828
-0.11046548960291602 -0.35615772943651791 0.66474709071906091
0.77398282412542585 -0.48277904311675002 0.45941660937842244
0.5189100477635975 0.71797791112180676 -0.26157676096613613
-0.56839852963122439 -0.41832013960896575 0.6594971887597012
0.2925775411072209 -0.16224301708916755 0.77657385102384069
-0.6255090929095104 -0.98536103439215594 -0.42000922232023186
0.3623374067850591 -0.51320193123029867 0.58640129498814986
0.4084362459670956 0.40774676293892753 -0.054417212665384795
-0.75648163006826508 0.14348270468144619 0.2903376760447145
0.090332511719907416 -0.34206742813330493 -0.44065329515001395
-0.77125752334291064 -0.4472780413564692 -0.3938796259362789
-0.093456503783727385 0.80614269788617321 0.34851375598384493
0.25942271811345563 1.0579160589604726 -0.39346551303117394
-0.53907673920571142 0.29471761862072299 0.47982322744383055
-0.43746469829261514 -0.79436226048926528 -0.30534792652758824
0.28990383032669342 1.161316049029665 -0.44315355119306332
-0.60032634370395499 0.27207119100870614 0.45977664428437492
0.40935236342284043 1.2016734007976311 -0.45574800930376114
-0.18107948496219706 -0.060920572252456395 0.76148551162737022
-0.53165898915040088 -0.00062333296801853066 0.74334307142021316
-0.11119668559479123 0.36892478517131622 0.75784138097367304
0.07044407949433662 0.88177820366269088 0.54047713247530282
0.14394942319557913 -0.45321706428649122 0.48063771234637898
0.62239856538917593 -0.1164589242614511 0.64774446421540688
-0.21697859333528413 0.77837900467929444 0.68196338425570957
0.6991932454337757 -0.22294175150025808 0.70232971222469587
0.069096658327737259 -0.083306952478437779 0.78512765234631843
0.19962100125104598 -0.069797148336164128 0.78444686714294676
-0.35737352487825547 0.011716281371718651 0.80012499426936756
-0.46208450983976945 -0.57283417418079807 -0.3933315308723877
-0.6774703941197231 -0.61861816945241799 -0.31675250215846518
-0.12879454588170347 0.54657073077123641 0.74975206540170802
0.090808536697522868 -0.099903732650915344 0.78024813695662942
-0.39069066201699343 -0.36916991277325906 0.69225469135483308
-0.22884807823515985 0.85603441811133507 -0.39340724901467183
0.49590061929689 0.72471524333991511 -0.28027605220609075
-0.4884988240957 -0.84446116573826657 -0.4092144469585719
0.31691541541704282 0.00058594057122718368 0.041604047620694473
0.85070792289741348 -0.23836200193431978 0.60167099800798951
0.14524097593118768 1.0474261477902473 -0.29957757885267711
0.24623821198031237 0.66943460512050024 -0.39515427230435307
0.15593659580014219 -0.040014460126201357 0.78340035758674276
-0.089316623583840737 0.67934507029821134 0.73019314636019317
0.12443337438139679 1.1634776423350104 -0.37134407724670382
0.36805222707045004 -0.19549854043651749 0.38212037165590118
0.20229274630844429 0.10017623535046027 0.73195750221839262
-0.30951029675361497 0.29515025370282899 0.79393832049731827
-0.38194147966385117 -0.38966461561233245 -0.54385550544111538
0.4456802815196852 0.45900709636225656 -0.099978053499626185
-0.30136431244125106 -0.1430610042523881 0.78794030859830855
0.36221510582015526 0.63518658921907445 -0.19540471739560417
0.15909135668420049 -0.033394187390229035 0.79367052726911425
0.094312840374527696 0.43254564933141637 0.74772962890256167
0.74163326286955567 -0.20548473371326281 0.65737388642537553
-0.32397084640513185 0.11249666831741933 0.76508818969182357
0.057825637397058927 0.89229588419971151 -0.27089906113815232
0.027618265352202798 -0.46504633494572545 0.48832012273885539
0.3159399702896053 0.84347615919955388 -0.28351294793617399
-0.23909553738053546 0.49805175025460358 0.67770422879800662
0.106860432613189 0.34732626108697673 0.74905902609020814
0.18342831069696786 0.37304630356470625 0.67941330564906366
-0.49561344376377292 -0.84602909839361473 -0.33699381656674632
-0.30930186082184719 0.40955954099277392 0.5583347881354257
-0.64596750412692927 0.24307475608904383 0.62200684571359943
0.30400016439818955 0.14991618278332908 0.62271862995987703
0.22178279341267171 -0.04931333939708793 0.6517853735360859
-0.82328504653969503 -0.092969399092396543 0.47289700106784949
0.14540219592481662 -0.051975275894335482 0.79159030709070066
0.28140085526933944 0.90968757854670912 -0.29296742832150358
0.14441363547405217 -0.18071755559009262 0.68127208413784501
0.20816328939429241 0.71222286417054192 0.26525162903067212
-0.11790938407307294 0.49700977910993061 0.75487815226949806
0.45229716049072977 0.48945011095952395 -0.12581428534656425
0.08638540633228331 -0.09657246265504682 0.78164896626208247
0.57787865098251245 -0.6689133393754787 0.44848997148278613
-0.90556230859499465 -0.84378859282486474 -0.43240705557457204
-0.52533231019435789 -0.081762676874802764 0.73346805204096199
0.20959527288664503 1.0437222682941183 -0.40522911615494195
-0.3569661449199657 -0.58833265826029901 -0.11972598193938211
-0.95603796879356651 -0.63041166105000457 -0.47006661890543455
0.064789289889120028 0.63181633764131107 0.66129845760713124
0.032717561360072978 0.85250488644146571 0.23501076677109722
-0.74668508795014077 -0.51310266823327311 -0.25190126865879847
0.47481886709050514 -0.25657456967076087 0.77465385033610801
-0.079442997772048329 -0.43631893336282701 -0.4379196732741093
-0.3293409879827891 -0.18439538492441443 0.7907053615622317
0.45950225108651921 0.66884045310780493 -0.24864341290424363
-0.15046652773992264 0.66607147984751691 0.76854676368384389
-0.65184178857339248 -0.71980069382658485 -0.33569801591181658
0.23916679707519961 -0.085245627798855139 0.79068714656659722
-0.20072539881823559 0.77475924444814837 0.65249981261672474
0.51981768522671246 0.80511381643077584 -0.31617251982925154
-0.81903312327006006 0.0014686512106436567 0.35907149731008303
-0.038400815375894126 0.50131129917727435 0.7683482835407176
0.70921161656463028 -0.10841980033012533 0.32169847021089026
-0.33135006171619352 0.33345571908247962 0.66075411199608425
0.62322543330830626 -0.20740362357699382 0.7176237102100913
0.65145515821069466 -0.32467630013735516 0.74617390349192192
-0.36103254188020628 -0.25115239177964099 0.7476947381788932
-0.76310041974181786 0.049289481846869876 0.62612306666028417
0.17299377778522285 0.41412997464146883 0.68244895258226279
0.06208845886715153 0.54227760808879566 0.72572163682252722
0.17030457658330533 0.32469372435863875 0.71288948774747496
-0.16158754281480014 0.34934692977151371 0.71025995704667366
-0.05888066580416762 0.75195567905467442 0.44622109169904434
0.17835405044053232 0.49739994743964644 0.57880310079190167
-0.22808615846520297 0.68431460861506821 0.68004930585027523
-0.60530583318484332 -0.57174055393761591 0.099143758658328807
0.11313927084131592 -0.064160130305594976 0.78904707337665059
-0.97415629158922457 -0.7999801897699399 -0.42547503258856523
0.68637306348330185 -0.26306690368971886 0.62243639776727377
0.50915191957994921 0.48273919125506382 -0.1694949493396507
0.21945505180860891 1.1841914599651773 -0.40167983646267658
0.085009122101041612 -0.48492707966198623 0.47054870325609954
0.39267391342161773 1.015523304707699 -0.39768013168099969
-0.31744998333874719 0.73023324097823661 0.28300614942259017
0.55364404808585732 -0.24704011443157015 0.75306641870679414
-0.67889832211608336 -0.42335655019692808 0.57937728022045576
0.31250629660297591 -0.17813998204800896 0.769118292042549
-0.14811459726081466 0.7668438701392688 -0.54365258026803076
-0.3809324596334136 -0.26754151847634944 0.74420420779199503
-0.47801537193572585 -0.85838769014333138 -0.37647435254837092
0.60365445263303741 -0.70803804993158792 0.51804290120662699
0.24154457885424563 1.2271262860273282 -0.42650695923771309
0.49096093186790313 1.1283988912649647 -0.46724762793428454
0.66061740466824403 -0.13114678628761567 0.30572753787612328
-0.10867381408462506 0.37005959615686379 0.75476652029033175
-0.76717457964252844 -0.50371453815859013 -0.26394292927238894
-0.98115546881149385 -0.6537743043223827 -0.42441456590108828
0.30960439611499169 1.279780218138967 -0.48963746623212501
0.18551779235332333 -0.44481894300992053 0.4723108016723927
-0.33838262781080175 0.45972735282396116 0.79964565295631473
-0.098032154025531781 0.58217161854227584 0.74285107561161112
-0.056668975504976515 0.25840768823394455 0.75337967857387866
0.44999751730085791 0.89009718810075356 -0.35910658543389218
0.35208373065870546 0.71415274809407947 -0.23823349733595478
-0.65789613833408112 -0.59016744418374856 -0.27705456264425266
0.24797171829231957 -0.10926989609617976 0.78681782813259815
-0.5576161349671338 -0.63203927609185939 -0.27220428239456851
0.68235324072480807 -0.23534356363484221 0.67960099809658914
-0.38710435293410228 0.014426726809290358 0.79486013667599309
-0.51296502840017411 -0.28681911083268119 0.72012666377474943
-0.48734560769719337 -0.89525208256168298 -0.39082908439229413
-0.22644096897693089 0.37756216410764409 0.7532005142345497
0.69317521134416893 -0.1811105366158472 0.68599482311344673
0.81518064170151661 -0.24109035296754655 0.42907198256682477
0.37934130556641321 0.34138169334096347 -0.19369009475622079
-0.20170969300664865 0.27639475638005706 0.78274582499057033
-0.32851541258435191 0.36202814259758043 0.79628055930572827
-0.35768719040157748 -0.22082443440325505 0.77208260582995081
0.49389981842347197 -0.62748460229960301 0.4992877085502414
-0.57646838800019395 -0.098833973789425045 0.73252138745874618
0.27036400988572495 1.0291243262724947 -0.38292485802526244
0.76970079638797984 -0.016942608724434649 0.43670081584889431
0.36172736752291712 0.68940768614959325 -0.23964869560973057
0.13315529271847026 -0.1209501300417628 0.77553645727937237
0.82064207418602564 -0.16858246361857709 0.60466214500354454
0.077247733399474328 0.28841262427016545 0.75449699363753098
0.079498145985326119 -0.1098281738550213 0.77808805241693335
0.55118286979467257 -0.67111917326678849 0.52071878474203004
-0.19119924751868211 -0.34277639093249945 0.67727746625644158
0.48007983632595597 -0.48848168818949489 0.40883647217538055
-0.18872853419509283 0.60963068301768431 0.80188161226806187
0.19961891094436623 0.74186924812681809 0.50594992548008122
0.40361147513260676 0.819831099340945 -0.31080043119993661
-0.30118208565698978 -0.039763834030964063 0.75974036930369948
0.39766558170447297 0.29303417187747982 -0.11381983036926613
-0.57794678502887109 -0.43583128623882317 0.63904400475780676
-0.47905704949289429 -0.63799383178502467 -0.098703436899540975
-0.2924004925052941 0.31080204717437709 0.62592225399896506
0.50827538606051803 0.67021443767282562 -0.2342438876455617
-0.1501067818910542 0.80104557399022269 0.67572245098972417
0.033015725633447346 -0.13933569269013901 0.77239331424550528
-0.24549495219486062 0.19136614213397252 0.78210160803109829
-0.37501585686868566 -0.17683875059719867 0.80006351682095556
-0.27667681303933023 -0.18940510419548673 0.75508018866037219
0.025803490500493353 -0.45943053282951496 -0.20770106830468649
-0.012385011314790972 0.92857503066073832 -0.10255848904807863
-0.83600538220355247 -0.54472967095625791 -0.33784605257335443
0.74644986332748431 -0.47488313244969049 0.70442499069713449
0.8041380885208298 -0.54934556214078611 0.57254974418674465
-0.66694545569509955 -0.52800866095475385 -0.41412344809077695
-0.63761175347349308 -0.90474283843707326 -0.45442963120558488
-0.27247325575069681 0.84779142730013746 -0.47786544752250393
0.22125347538860751 0.73836295026200105 0.44055171689160488
-0.22692921957661838 0.52635914650812765 0.62888743639700806
0.51933828502535562 0.87453920858354195 -0.35182278647857856
-0.71021479450575953 -0.43625714180629416 0.48301653422538493
-0.014729301759302871 0.5418134643970518 0.75554169769930013
-0.58720831281846131 -0.95715301152284837 -0.36845078843668944
-0.55312014346014848 -0.32502579151542932 0.71193486250240312
-0.18829507078083907 0.40530669489372428 0.78961804840037075
-0.28331964701612833 -0.15073135139627425 0.74952139367246673
0.29756817564145877 0.58260513156398019 0.2623663515298631
0.78262787560277047 -0.46335560821120225 0.69145394736926846
0.1689748674373277 1.0680607401916404 -0.31631605097061311
-0.046594508756413688 0.73901084744733225 0.70490978644238567
0.82034070638121648 -0.50444713271929231 0.56579893913431079
0.6848003177260864 -0.42620540554531772 0.6771955413505566
0.20102669107086513 0.73148817763592433 0.21922106707449984
-0.11844559480994121 -0.51179363055348404 0.052255647141578265
-0.40724242155692991 -0.61862813725872456 -0.089975135451823007
-0.16597553948093946 0.40360033832487829 0.77299428959747729
-0.11549695186960207 0.55449048451984595 0.74740911289495671
-0.14671685540452017 0.9372790176536796 -0.11331692867111087
-0.62971224349200838 -0.16219961763599144 0.72377809630506817
-0.57772939378480714 0.064504799447405503 0.77035767881250194
0.11564344051873832 0.47891648996034064 0.71165881490787797
-0.81145719851247122 -0.75261139590685389 -0.42692409176129331
-0.43907048397090875 -0.1717072234951047 0.79246868987831931
-0.1470113266119597 0.40615555539832826 0.72132013633358838
-0.53041223325988085 -0.88850832628082799 -0.34733833194536601
0.024218989661619617 0.4987279931110038 0.7564275217193881
0.50348587046755711 -0.61660386772069842 0.56720694347848166
-0.55226082442760571 -0.25759132466620827 0.73031095009741875
0.47350719658999196 -0.43256262547907909 0.70964450067890539
-0.76958082494104474 0.080379497273298739 0.4148579510754189
0.20587323247156064 -0.046423384634039166 0.7941747458289683
0.11255455816080939 0.38541303471609467 0.74909790777860508
-0.23853442007134618 -0.53821500707584846 -0.04638668664006218
-0.56724231165844685 -0.58474396718042954 0.0053154150591581129
-0.33397918698727835 0.054193200958366106 0.76241015552000135
-0.65086916222685431 0.10107227444282785 0.7381452922409153
0.6463702242262741 -0.52805400321494744 0.40848683999047353
0.35930463413978941 0.16314445112504927 -0.049640377790524326
-0.72766056536102042 -0.67081890074791772 -0.35799500374969284
-0.15841940919688113 0.51152798868477589 0.67610168852183961
-0.54433618059999844 0.031559306241035756 0.7398181088532283
0.39339904801727243 -0.34008493839712628 0.72498352976754177
0.24414510013610879 0.59788697504939137 0.54515440801526438
0.29021002243041494 1.0873723515639995 -0.41518935903536658
0.2510131553989936 -0.31589324796806295 0.67447894181566426
0.71229864996558945 -0.18308238663607312 0.67839380272391736
0.50612773073345352 -0.24097136797695384 0.76465477388478575
-0.84855550962458892 -0.34624039272040363 -0.25322136811894325
-0.69520924301082232 -0.59364284728172834 -0.3024902101948328
-0.42097090009968952 -0.48569636931739524 0.50655126992523947
-0.74634540504064262 0.53151844288601069 -0.20134302132453286
-0.41255499195176526 0.15546063705927793 0.75186076713964667
0.13928454448324601 0.50741337473547787 0.6585343464756761
0.55204721874321194 -0.23228465424898559 0.32163227851435749
-0.0011175785230079782 0.85788230928892517 0.24191112809637616
-0.94629112240681934 -0.6851054474490752 -0.41884123291799824
0.37770393924495238 0.54349172635863852 -0.26711021258086021
0.15347911383133805 -0.1678703472101688 0.66283886886219534
-0.55309116990417806 -0.17598851586876663 0.71641455055760161
-0.53069492435861321 -0.3085259483250411 0.72364862977667599
0.44852449174163667 0.54829189528652478 -0.18267162946028748
0.20920714345265878 -0.39541788828830704 0.59928248562050612
0.25870283168842434 1.0892402884660441 -0.40911195785520249
-0.0024440181276759176 -0.15462012464308827 0.76832676516642096
0.23703359499296539 -0.15708942876946708 0.77726407561294764
0.80474889948578721 -0.41349176928650877 0.66900076427998556
-0.1736104137116854 -0.084033442133176095 0.76385163996667416
-0.19992754742565921 0.59905262025327488 0.52610840388263114
-0.8104501684765637 -0.96633073024031546 -0.42264910195319771
-0.47979400967130914 -0.40105673882953852 0.68011506638697483
-0.59393014724162185 -0.81334490195058606 -0.35948961866051832
0.071248730120032633 0.67487442781740015 0.64627594351077278
0.0084118409739062372 -0.29149301990884169 0.69079130888701457
-0.30572588487740404 -0.15125921320051816 0.77851305990213859
0.82478026544271188 -0.091279449912804012 0.44389600970782794
-0.71803357706380666 -0.3061596424395816 -0.49620824470855496
-0.20729722414330354 0.3224544268168188 0.77946734643740001
-0.48929428151916454 -0.66628740443070456 -0.17281313897444761
0.17377942956187553 -0.19429309377684945 0.74284991653780708
-0.81333076135206284 -0.79569579098557597 -0.43200811883264123
0.33455975952085737 0.029674728786403648 -0.35902949510182225
0.52920285621064522 -0.37680668523358918 0.36465335503635288
0.12860901275735159 0.54864111526785564 0.61828632924607518
0.6921842770526041 -0.21337884457176415 0.6671958978568
-0.1195823006420369 0.36390095967161074 0.7619389989387173
-0.45038773513374508 -0.15124427090077575 0.78957908061283888
0.11645314842178323 0.37822562422383044 0.74721466429855354
-0.48952864151726772 -0.30515535481771394 0.72098061703673011
-0.80599338233650997 -0.022011266828826592 0.5288575354478553
0.25823074570257631 0.64756559770762578 0.27959044578187786
-0.010620734312169589 -0.45867617921226156 -0.33496840954921936
-0.12223037777675927 0.58620007895200388 0.68377869977916816
0.075413911145858492 -0.48646877316548398 0.44884898959401198
-0.92275285323455591 -0.14553926726995314 -0.1537474980668776
-0.28968245783596558 0.07064446843472183 0.76516586400884989
0.2397931286807875 -0.323284691127526 0.41986046007070854
0.10773282595141609 0.87710493424907554 -0.18964741741876878
0.35470122234721657 0.28240035648423145 -0.22521139125524314
0.32053007822833024 1.1057279647201312 -0.42707190866701694
0.67749046680907554 -0.41736078179854985 0.68103276268129775
0.84049145708502238 -0.1220243747427503 0.51226333034242089
0.39023247422278473 0.23919423354118408 0.052466924763393763
0.1471139979529994 -0.12968290980083452 0.77473259329065058
0.20322686195646611 -0.16747454631752134 0.51573402050723871
-0.18296113099927425 0.82632174142759141 -0.45565923570143241
0.090478422891919763 0.41160436021209534 0.75330352089804364
-0.26627558184486588 0.9285404450639021 -0.39710571767193414
0.14076011353006379 0.54422588802077598 0.65144289690044843
-0.5561092651821582 -0.1154823227614088 0.72049925085741506
-0.3487469714184499 0.91566649626213348 0.001370288413909293
0.088166805154060057 0.6512898789180781 0.64626974776058432
0.1502625554990118 -0.2001835298037804 0.66782660776993907
0.18244524849177424 -0.055515915763635348 0.78527000671806491
0.34610336661216934 1.1776955998466292 -0.45888257294529922
-0.87251702336027392 -0.60144113670389743 -0.38646139739341834
0.14090026569732572 -0.47490153806700164 0.50310329418800848
0.69899626244827573 -0.58765460120366697 0.67711563077000392
0.27711095659276452 -0.50529285164606108 0.52131201121210324
-0.59944884467944348 -0.21216190013888081 0.72226265318977312
-0.86138889467997615 -0.87906485193394701 -0.496480063172271
0.65608905267410478 -0.13817180280059915 0.66400477301590399
-0.59204180032088516 -0.18220938905193407 0.72664656967845076
-0.56793532231301924 -0.55990004018036643 -0.40604896090189868
0.75126421366579166 -0.26482777901406962 0.62551391355839314
-0.61222811735149207 -0.060734991506535607 0.73722331700355426
-0.78246040243197967 -0.9923978079018525 -0.43573133512427376
0.70367205442417458 -0.22897193887382628 0.69981352451566181
-0.54474199404717183 -0.59094956983398106 -0.054857323006558545
-0.027029812026285072 0.76478455089937825 0.42204399167712836
-0.26833263491619164 0.65657147526408721 0.41001252409660083
0.25870821392732068 1.1169782363915601 -0.41819803764133212
0.32496164288050977 -0.27759514601086721 0.73016148413978499
-0.31267920701981211 -0.046122185961195328 0.78175006888454845
0.16160164573255997 0.42816591943150684 0.68342105586918933
-0.025452929070922892 0.49021717244977481 0.76859793373091634
0.34302072540481277 0.96514697265979521 -0.36333866802488046
-0.088628906916312644 0.57055203786063657 0.74416632699501406
-0.50469129777661692 -0.5973124245072654 -0.038046285800874102
0.2830177971729313 -0.39155958301171268 0.42593159869306874
-0.28652315734615286 -0.28954811662202928 0.72746892300017407
0.67385882084715831 -0.37647991355481736 0.67572294320257242
-0.25294162376377471 -0.41338783387118383 0.60651902877691555
-0.5256776624411259 -0.34132637886023076 0.68292207403533212
-0.45285751717108269 -0.77403666003380067 -0.29750630964599623
0.2762754390257669 -0.25031324922360909 -0.089988520677252382
-0.79699378323209658 -0.78392920013629919 -0.41552717759782354
0.72725753113803648 -0.40655998253913594 0.63669081727550747
-0.084510410065263386 0.42606042773516606 0.75999551838390289
0.2036012568391925 0.32557061576324031 -0.56303655321926271
0.17023476060080611 0.28448895281513842 0.72057270950494967
-0.013149255457506115 -0.2292250481075655 0.74161514452237043
-0.36411357184113058 -0.64385346412507261 -0.17043805141349821
0.071457625026482674 -0.0928448715916943 0.78286883137593577
-0.43412228836507438 0.063662340667036688 0.75570424865043151
-0.60293094589746943 -0.11748195107992387 0.72507050279580199
0.43969808648887465 0.54469084316747285 -0.17105501378148347
-0.30040148304084369 -0.40591995684388849 0.62389507795501231
-0.89155121292708372 -0.25431631741486171 -0.20870427067825403
-0.82713623720894702 -0.4071893300163083 -0.30039033940533955
-0.34734686463229991 0.059561142483602225 0.75848517006807015
-0.046041483535248062 0.2456381344124452 0.75747307888673276
0.38086992809212461 0.72877710131160711 -0.26633843827369219
0.070195757041631168 0.87825722881296997 0.55819262499107936
-0.56807386160085116 -0.33254412198141381 0.70631360679510635
-0.41716384472408663 -0.79400933365974424 -0.30841942132860822
-0.42483495893304735 0.23732513443019343 0.76264005942448421
0.060490023025636219 0.53844398480686095 0.72971235390298261
0.30286712894391599 -0.19414157330169246 0.48908637623139839
0.22570841026572452 -0.063341077116859879 0.78877509140249913
-0.53139614891199471 -0.060534463558440166 0.7376565840290823
0.0018070031530896813 0.57223852978961531 0.72724786702110578
-0.39053391728759834 -0.69484568296036286 -0.28608638986167989
0.063123307220450897 0.54304737903640898 0.71843375227228989
-0.34854667117133431 -0.25827498668220983 0.74900251061444578
0.1521150212005864 0.33033839064989934 0.71094831349273591
-0.51336426674947688 -0.02437889672276583 0.75391913542478051
-0.6859112596232535 -0.5318872627537985 -0.1107951320597067
0.1722735280999359 0.15718114158545404 0.73732170993878299
0.080533343927811529 0.62137591409066317 0.65664738359578223
-0.87842004311960409 -0.44316213707605812 -0.32900717175357386
0.14837088982864088 0.47695421747687305 0.66515164121585713
0.4359147485779431 0.39773377989911296 -0.15673787631283176
-0.082240862088724498 0.81233002928743758 0.61466894494230928
0.097492884274629432 -0.3037786361612973 0.57196109759263436
-0.63754188203154172 0.24062439815043035 -0.62775784691723402
-0.72102141401558129 -1.1397474562179468 -0.45634034487000008
0.24963052079647241 1.1370439791153331 -0.40774394003449288
0.25338090284861892 -0.032391854776591344 0.79603936600153702
-0.54322795221759179 -0.35775554627144857 0.66166487949465136
0.17194898370735245 -0.064499519741048061 0.78989493177141412
-0.45707525080342748 -0.84428104326326547 -0.33188433429506858
0.5831333414758717 -0.55818457251649534 0.41778160148908228
-0.52994686489080323 -0.2569661265689831 0.72216092190194558
0.45811397125004305 -0.22855873946787142 0.77332488714421288
-0.53052397001579266 -0.26184310806652888 0.72563700950195198
-0.34335169475167504 0.0056529801571088001 0.78232340819249657
-0.53375872841741057 -0.27210043033647935 0.73025287037364706
0.18705432550257228 -0.1072903171934172 0.63902830427593926
-0.13834774987776655 0.76883958223530158 0.62177602616679906
0.16377105431848804 0.81218638262055265 0.48328594923316359
0.26486277816206893 0.64034437469558725 0.39194343694350664
-0.25750391954284169 0.34747792354920648 0.67869647914471898
-0.46317679775683018 -0.45227567854092854 0.61145226537473718
-0.3377969806681449 -0.325005803143398 0.71425576001252011
-0.56948540469318232 -0.20801771887738596 0.73166012275169123
0.15353589158087289 0.55446362157331919 0.64445457552210428
-0.8300603463292191 -0.9590892515784617 -0.43620733554223534
0.076997701076948033 0.33129284022376737 0.76135575102625808
0.48745209477007734 -0.11442330522885413 0.62746044641608023
0.39013447745276153 0.60772577825832741 -0.20975368618849188
-0.40089310308917447 0.15398135557899195 0.67833809180297067
0.24722994850833402 1.1114997214955338 -0.40130271451187127
0.50214716277002935 1.0470299725870973 -0.41553018409001652
-0.07330599856209119 -0.29167393637362693 0.7113319918732941
-0.1457312498371266 0.51719050205610984 0.75638647747041432
-0.44309019885406542 0.21060531212279443 0.76062070844261598
-0.48914011936790303 0.079239060918354198 0.74786739890544141
-0.65045642616814803 -0.59918915709056364 -0.28763365502948091
0.55417023052802961 0.77482103999716401 -0.32322529130055955
-0.036725259944205391 -0.32300944818200605 -0.51441418912236259
-0.78988297750288439 -0.24426966446523579 0.54222017283905188
-0.90676540322510846 -0.5452569936548457 -0.37720001297236649
-0.83409628894401067 -0.82050469863270337 -0.44833557000515611
-0.25900450246797391 0.30096151708721663 0.72776225104837522
0.055231713749435585 0.28113247202037428 0.75870826056495844
-0.016506108390672125 -0.4248100649231219 -0.42019530830725671
0.42613725445812634 0.62560251129229982 -0.26451602244253536
0.73988162616936393 -0.62945091988143531 0.63566157316245153
-0.15132295452417566 0.79880437826162165 0.72271843280987014
-0.10368945466109381 -0.46379792227560301 -0.40692090749439558
0.77926207933924729 -0.4241523645629286 0.69913355754079021
-0.21127192679443851 0.74486724221674194 0.63664553107764732
-0.10162066890251253 0.52480056114706031 0.73363808867065927
-0.25767448527619763 0.023515496963597116 0.76363660443541903
0.17561608887399416 -0.1196752190626853 0.75326032677628518
-0.51348474573728708 0.047027410937062086 0.74402530409213341
0.68589647780481755 -0.37249029210391882 0.70229272609219606
0.25932708955502903 -0.065766964753350976 0.79353598815293935
-0.2218309054699148 0.33280073581227043 -0.76331904037670029
