# XYZ point cloud file
-0.1339285138348032 -0.46226888454339132 0.53172686292145954
-0.10266913638258757 0.35143827639592473 0.75162693607848041
0.034187817512531637 -0.15900137298163486 0.7671159192406094
-0.64272267503520197 -0.67256274966189267 -0.31804913473024499
-0.66766511795140104 -0.81424728429061588 -0.37137005072224838
0.19338493235488841 0.48657659425214206 0.64386454456246156
0.076624297018042853 -0.096210237516686448 0.7816619416987578
-0.08499659097338963 -0.28224447844462475 0.71775464607117101
-0.16448343758366946 -0.39068720615966868 0.63718027044080827
-0.25380294350054555 -0.1341097434501819 0.7616795713730653
-0.39641807649582006 0.089316233091295771 0.75740997350339967
0.76554132199899527 -0.4889374060855971 0.69234447359860951
-0.081538061400465267 0.56113998342203786 0.74111081065132112
-0.95008525546063538 -0.5365800377583696 -0.44021096250855862
0.17249718294220884 -0.1108806604262611 0.78021835481922608
-0.7964550818569478 -0.47189755383215015 -0.27101241340415072
-0.623249275783337 -0.56364982414822862 -0.1182985812432662
0.1134903998619734 0.46533554156354739 0.72989073319081399
-0.49327427087348497 -0.26746587369495955 0.73738629542413037
-0.45169713315283389 -0.7946205877618695 -0.32392460642415699
-0.14830694111742559 -0.51972106175924182 -0.035300444075573978
0.26625971253099578 0.53434467429650567 0.55291006885806837
0.44501699493315527 -0.14044050682727516 0.66890864760830482
-0.93036668708907655 -1.0597289991647472 -0.42283807650096605
-0.022950872872911532 0.26172141531759507 0.76076088051911483
0.30310895165587226 0.15878635726863877 0.49801854014469882
-0.42629972099905444 -0.61170805536437456 -0.32837163239059919
-0.643527169598201 -0.60819800513155542 -0.29563444002576489
-0.74122412994722708 -0.49635694547271214 -0.18737756614757473
0.01892035879109244 -0.4787922535481357 0.48039078025067283
-0.61851567568032806 -0.040827976961139711 0.74897235097557768
-0.18932763962470744 0.36207818478712284 0.78652550894400974
0.28729888613645471 1.1583711486260881 -0.43765566152853808
0.13497398603112742 0.53833296298319055 0.65285924435033849
-0.42917037661652557 -0.23114428544104726 0.77285129993606461
-0.26897313342567486 0.011275950692095194 0.76456380266154156
-0.19408170842280015 0.31977720337948767 0.78415499734035166
-0.69781568037194575 -0.21937808570632455 0.68928815672666133
-0.33305818397536768 0.047597855387436994 0.73732453886850635
-0.39122462164630178 0.22803870541923743 0.7566424333355144
-0.40046739309696022 0.16424950579954611 0.75275502954877993
-0.40379368010758299 -0.20567487203706492 0.79221170878463454
-0.26894971964793513 0.85970096957919395 -0.41131956663889468
0.013040759175908079 0.042235939681461332 0.77448479105612478
-0.017127628439141063 -0.29666361583554135 0.69616828959783561
-0.73425528785617189 -0.73311320564482685 -0.37497456296773635
-0.027208293568151021 0.46803240894081455 0.77197983999815278
-0.25896430601255815 0.40793250748447463 0.60625847521771448
0.17239821164071145 1.1361012013470599 -0.36169998899856637
0.7767252173707675 -0.32879288814280017 0.62154440342249018
0.48276607776597302 -0.29610892427331237 0.76817146058328944
-0.049670842608975363 0.3178395592282186 0.76421688013982703
0.17541203570579 0.00011859452752105426 -0.57916715967064647
0.49377473910595882 -0.30589684507674519 0.35044080128216137
0.23411609270834788 -0.47502302354263293 0.5672734025599766
-0.36677270425730057 -0.31659624590361091 0.69444190856756904
0.49106163057206231 0.84292415498202899 -0.34633724832110602
0.73960229211292017 -0.57125234192744756 0.67181248828876505
-0.33357498053783274 0.13066897678834266 0.76414673398090827
0.34610596627203449 0.50893426711331813 -0.30445077525655506
0.43953325363918339 0.33413592075544329 -0.10095218953688345
-0.068063186242738993 0.22052734515727934 0.76357868942159257
0.47894285492748168 -0.61303004190091315 0.49210724486999879
-0.76252211406961123 -0.29367796847668615 -0.46050080572285879
0.36539778853716598 0.31070355742645006 -0.20618463621838146
0.77436989680495572 -0.61689530841056239 0.58156651583499297
-0.12601094736919549 0.43742969175485769 0.75962449844615776
-0.56194220399231654 -0.61850845532632093 -0.24032737063021159
-0.36868356850595774 0.094750599489742626 0.72875684329972046
0.14497238320331007 0.20379052272056697 0.72062916549862166
0.34922408476211331 1.2871503352316722 -0.49041341973793351
-0.7683637271969701 -0.61329903284689635 -0.45530027875929591
-0.44899427080588339 -0.37556165447068679 0.65977131934664612
0.28335780523701715 -0.15686880315024609 0.78262114312906306
0.11735751484127377 -0.049172509845959667 0.78946475259454019
-0.44285440593739622 -0.78469425789597835 -0.3295455678402277
0.35319408557393217 0.98805652736791671 -0.37504946756257596
0.85927249209018441 -0.28832146332774755 0.56863471699239199
0.19591684455190261 0.35645022184274922 0.66527388939687171
0.7427792497784651 -0.48498210443000289 0.4332859997992955
-0.054658386870983122 0.84734783590499774 0.65819156077350272
0.084696558761720553 -0.4375552378784846 0.49221283724637033
-0.19254555118590133 -0.39819120633887906 0.62794524504647597
0.12207614064647032 -0.14014393819590509 0.77143685101509618
-0.10575527704543219 -0.48777671952751689 0.46499437232671426
0.11200986942924374 0.58944211629378174 0.6507153286280527
0.12691087488531139 0.85987960281352116 0.0048308865464150585
0.34174898893093086 0.3329691580829035 0.51747356850353299
-0.30718513930298741 -0.049506638525315338 0.7992577547165638
-0.29245140567559247 -0.21417292699595691 0.71549021787677702
-0.51522967123730723 -0.49295504983615501 0.5091471523249993
-0.48210265269938191 -0.66931223363360459 -0.19622022232101699
-0.10740286187296988 0.78886358744225049 0.73064108852219078
-0.11227359337237885 0.49506984740244775 0.75345291008216009
-0.66352717826339358 0.23117062922108289 0.5757821967002883
0.5424178783808884 0.90969117706197267 -0.38894352520662778
0.22596484065297773 -0.016821383635885923 0.79614224838906011
0.15567602701696615 -0.2185790863441639 0.71132729928729077
0.047455995296218134 -0.1093239768189278 0.77963916386931942
0.30861835345183408 0.84355188033498507 -0.3407586022411806
-0.082704135201765894 0.090260089593925841 0.7631798498224498
0.52761594761045671 -0.19873438518254716 0.73516677621205417
0.33078255798773171 0.90508619001479929 -0.33065309171684021
0.4147950702728167 -0.12134287183098991 0.57403785119493023
0.073144656175600176 0.68952759243339301 0.63977191657068033
0.350197778862821 0.55727453680822236 0.027204631810946012
0.11829445787611803 1.1425159692338411 -0.38941537870221055
-0.15574696255714571 -0.46604485671849716 0.52797118081684857
0.025744746235091043 -0.10890739146688588 0.77982709238892767
0.38749216708356471 0.37150313385109257 0.084129884367257546
-0.40139429887653932 -0.34078225801647477 0.68585595832973922
0.043354819815533574 0.3570222707687094 0.77048682521211731
-0.46753190294225533 0.016146208013083196 0.75060504947259687
0.17743449536527578 -0.48986002619278679 0.51375970075378063
0.42969481411523702 -0.13924862254475556 0.38422532158915601
-0.42460179635133954 -0.10090937877049555 0.80350158212041833
-0.20645580630798577 0.59354402440283138 -0.73409122682539873
-0.93629977336865977 -0.99722199446267723 -0.4059183023625792
-0.46260247307611735 0.19773040176895051 0.62998726456635268
-0.216602102484444 -0.38396719955454728 0.63871062035570958
0.2473585125721911 -0.4358078198136468 0.60128596596587158
-0.37809329522519874 0.33165981659510635 0.78026763803154608
0.40866876354084525 0.90514996130650616 -0.35291301395545815
-0.99741395722571724 -0.65747264995940213 -0.44286606201160339
0.72132372539365974 -0.25798091775232024 0.62348916042367364
0.446516434263458 0.5568845558537987 -0.18513353912237562
-0.40996163621412052 -0.35743747023008154 0.66917592465938469
-0.32686131321520406 0.33604032389337135 0.58456335916582702
0.37166100778290456 0.62519619296972451 -0.21227960009684921
0.25655013769892321 -0.16480058720088664 0.77587852650947298
0.44506113909142186 0.8151215192968948 -0.31857890006926937
0.43726723319582561 0.45515283201541479 -0.10197511658270741
0.46895835220345816 0.54776508016107073 -0.17443758050455926
0.76961425493067281 -0.39847681739780683 0.63897703526538407
0.18374271378206686 0.97119114057102252 -0.34363045989448437
0.15773055995987306 0.81748644434065909 0.090704131838265312
0.24025484295822253 -0.35190250314457217 0.42423150297713619
-0.052316178582145767 0.9268814208475078 -0.21559499787508685
0.76363894201708149 -0.41315319642006898 0.70882652608327135
-0.73195897311529734 0.12164047701514846 0.57566817670146975
-0.58214002175031965 0.081791700488054175 0.6171570023369668
-0.57430470100280218 0.038269914107274872 0.75871836736382647
0.15497803069854399 -0.048589966082602132 0.78334934052418248
-0.65376961179208593 -0.39348371780565117 0.63499013256625858
0.16678898003033282 -0.20303677740326975 0.70375882834366621
-0.23594270226658409 0.28161522543717865 0.7656882299412473
-0.27936680498964961 0.29837712986815745 0.72548780635042931
0.81819734591010729 -0.39126072890695696 0.65332980003995544
-0.11328739917178154 -0.3562468364864344 0.66565293303369799
0.77357906025275724 -0.48257124504954163 0.45902047429945014
0.52006664083569376 0.71297880408349101 -0.25908224529382551
-0.56879825651969895 -0.41728097975482115 0.6598108878434914
0.29273112525442002 -0.16232190966519511 0.77661727014833559
-0.62483588108602817 -0.98510498517816814 -0.42021616892805014
0.36250125591612914 -0.51454353078031545 0.58848285816918633
0.40907675119785836 0.40364242224450209 -0.051485276537732716
-0.7567790184690466 0.14382750873278383 0.28945037699384102
0.08491673168964553 -0.34552856368645735 -0.43808537541804071
-0.77088510203634542 -0.44669202258978657 -0.39421968728697721
-0.092426417336241684 0.80751303773416794 0.34746136253158966
0.26124061398809317 1.0569548693873685 -0.39361523676029719
-0.53897459095253453 0.29653767687642585 0.47854062865258129
-0.43641464510187689 -0.79347752273872629 -0.30524958394914847
0.29133089898948583 1.160928047768607 -0.44353129544697367
-0.6002939164518466 0.2734436891329608 0.4585519759490353
0.40910996348998196 1.2005294845882872 -0.45520721272578157
-0.18245591205021583 -0.060081515279591713 0.76163863562703682
-0.53145972648439965 0.00077591055821812915 0.74318667442673814
-0.11057481595037189 0.37018753768614943 0.75760180879183281
0.070992632809975476 0.88162784432205399 0.54001943515413586
0.1404083664136806 -0.45599301331714059 0.48473642391638805
0.62247677829392956 -0.11609484785446966 0.64675733590047457
-0.21253812426664354 0.78291319332220155 0.68073060904714566
0.69979759877068659 -0.22216392260475004 0.70161321282398603
0.068133484310294534 -0.08336484306624925 0.78526785770463903
0.19927520585946468 -0.069990992504813221 0.78442289918302777
-0.35726273207444592 0.01376829758862641 0.80027695021288991
-0.46373982676391279 -0.57302003120230438 -0.39259330349204902
-0.67749834162964362 -0.61814770325935342 -0.31666296296498331
-0.12693849983429573 0.54842667242638754 0.74941264491667425
0.089880711134298963 -0.099975660562847679 0.78036457425389472
-0.39237484387632549 -0.36824895700968341 0.69272400465479222
-0.2247533726444999 0.85511551159572718 -0.39335511148112801
0.4973237351946409 0.71989938280125898 -0.27797735169394855
-0.48823754714351253 -0.84413178433487701 -0.4093882071255166
0.31494639858021856 -0.0042770270316623282 0.046290631780607328
0.85090690745062147 -0.2373403953982347 0.60048116384791683
0.14658590754970646 1.0478639332144439 -0.30056410225620311
0.24845226692343658 0.66651187301863501 -0.39377666362031505
0.15542634892699425 -0.04020243587007144 0.78337830426721666
-0.087123087678151023 0.6806091099502396 0.72995729619469785
0.12573909209811518 1.1656719903104431 -0.37326483541369271
0.36456015749865855 -0.19724586327083671 0.38292522950632701
0.20227731927070636 0.099840555384218987 0.73177997115431026
-0.30796400557824199 0.29837868658495381 0.79346100232521621
-0.38247752957545345 -0.38923432824913107 -0.54434490730602647
0.44658595921271171 0.45456001941238355 -0.097079645404846815
-0.30216954739944413 -0.14175763364309546 0.78839375116353949
0.36335928616813362 0.63165747343896328 -0.1932995196129923
0.15849677141102347 -0.033657980908088803 0.79372345803551525
0.094784791961444625 0.43197404512238791 0.74770556337216476
0.74202469275886074 -0.20470694160349012 0.65643292023139566
-0.32383921179325625 0.11479014561697909 0.7648915890980561
0.059964240615045128 0.89129777895448115 -0.27094186531701325
0.022480651459545697 -0.46722756045573988 0.49171531479021269
0.31741525045492835 0.84091506169943386 -0.28241182920567098
-0.23732975004020318 0.5012279879544792 0.67667932416782151
0.10705932715154631 0.34684849906659565 0.74892858600401269
0.18361909033080792 0.37248736186177211 0.67904098225619691
-0.49440438748001725 -0.84528104450424735 -0.33707325536693133
-0.30879064064845352 0.4122107628189724 0.55717479169504713
-0.64570928421846929 0.24363235944090889 0.62127201914665875
0.30436810217270249 0.1493818541475207 0.62271485193059561
0.22171689174751918 -0.049725742616033131 0.65225593964976269
-0.82302873237676977 -0.09322852995080666 0.47258893473940589
0.14471934350052607 -0.052191589184587883 0.79165672149770216
0.28280504481597291 0.90779766999776257 -0.29236256796286852
0.14360660034446937 -0.1810665504839335 0.68205347623745638
0.20780594469965763 0.71198082466969481 0.26475184725495637
-0.11642948096869077 0.49861061229788106 0.75459683926112575
0.45329863306858442 0.48492537793595147 -0.12297557107638113
0.085440370269509458 -0.096620720967933948 0.78172008870762966
0.57833177958576698 -0.66993714335291088 0.44963722288593999
-0.90606375240611214 -0.84374790811307321 -0.43233751988111635
-0.52542365377985334 -0.080351636342754773 0.733414468942442
0.2120897492277436 1.0428631963303587 -0.40559017264126851
-0.36304154318781912 -0.58997183055856794 -0.11577819185390581
-0.95704038232406674 -0.63023248271429111 -0.46993776565329881
0.065572913420965051 0.63162901000478655 0.66088577159109718
0.032977663525684875 0.85315619882987903 0.23403097406526285
-0.74677235496119465 -0.51265198730487782 -0.251730709293156
0.47566110747277435 -0.25627532606813475 0.77462358846867119
-0.083985398228378472 -0.43864524946161509 -0.43578477722337539
-0.33002478441801486 -0.18309932328395462 0.79123339570890039
0.46093360056454458 0.66436227200290432 -0.24632887954487614
-0.14729575230376213 0.66857541091110306 0.76833305795690876
-0.65145064991918389 -0.71927458253622945 -0.33578769936013941
0.23879798239647698 -0.085457447094540839 0.79065559915511585
-0.19708427773309722 0.77843043126219413 0.65139653852571655
0.52105072259189456 0.80014899097977832 -0.31391859029645275
-0.81914034639567035 0.0014232767259159118 0.35848180267328189
-0.037188322594602141 0.50182715434027614 0.7683879365699795
0.70669316751374822 -0.10964481832604633 0.32108205700615144
-0.33056542404892753 0.33637700600439757 0.65974658246398121
0.6237544635289396 -0.20683568738280655 0.71702613993625164
0.65255432953676973 -0.32381600766916563 0.74592537737896691
-0.36228691090337861 -0.24999788471774309 0.7480922306864386
-0.76280803288909738 0.048716930386433432 0.62600712173775719
0.17324379114677413 0.41351886464792642 0.68209343298406111
0.062903451474653593 0.54188850947846845 0.72562319060364189
0.17045911759231558 0.32413786813214074 0.71259362257399061
-0.16128106557027877 0.35101548882755651 0.70973236555789754
-0.058065695851837518 0.75315681135151635 0.44520703712066734
0.17845005708238659 0.49703908333719937 0.57824688154119031
-0.22447431305226928 0.68862051468633467 0.67874326479051206
-0.60829778727202211 -0.57157888346966956 0.10100261547813716
0.11233007609229162 -0.064315215332783282 0.7891475580659062
-0.9753606144765854 -0.80019626259280585 -0.42498547805632825
0.68653080753236395 -0.26255802341029266 0.62172061868739092
0.51042812920081815 0.4772869925559462 -0.16657098891357691
0.22011192460161055 1.1856662835764382 -0.40295996899101283
0.080123005708003348 -0.4877234281074152 0.47475235181468634
0.39402919555925564 1.0128698435925116 -0.39672957316088286
-0.31555618059837798 0.73304107033214905 0.28122189622467886
0.55435288688801165 -0.24656336756589781 0.75277644591153603
-0.67871877481650245 -0.42252927492131676 0.57952623483060961
0.31233077254324826 -0.17813947448988188 0.7690090601817019
-0.1440438110055311 0.76552652604493687 -0.54317546008815043
-0.38212645687906388 -0.26637478090634659 0.74460756024768671
-0.47726865878803437 -0.85784843521037146 -0.37657677980757853
0.60506205068617192 -0.70811700055372739 0.51884217026804436
0.2418577013399954 1.228951350910279 -0.42782415520775885
0.49207335001619867 1.1244712668519696 -0.46597843654069493
0.65766624452064093 -0.13272383587707282 0.30552833280182767
-0.10808371134839945 0.37129406897315675 0.75450746351998532
-0.76708331759766679 -0.50324831056849462 -0.26388944305767836
-0.98196065431761781 -0.65382175688966981 -0.42415432598443203
0.31063534400732351 1.2802069967443686 -0.49029223348225059
0.18124673489194265 -0.44720862489572255 0.47530164703664468
-0.3360646791304589 0.46336759334508315 0.79868019623000919
-0.096241889518069001 0.58357176448362225 0.74256959327919958
-0.056837797690377556 0.25901533321140846 0.75316749459057064
0.45153729649734942 0.88618057782696269 -0.35746618742950886
0.35343599859822916 0.71084929882374581 -0.23645064336938049
-0.65841201762975743 -0.58979882213662904 -0.27662947283420181
0.24778093400203716 -0.10942823423212644 0.78679231995624832
-0.5590370926668129 -0.63196686985708084 -0.2712213072538816
0.68282976417037844 -0.23465883076272576 0.67888015783228184
-0.38692359352205585 0.016480491560031396 0.79493696536553671
-0.51358755225658115 -0.28561995114705496 0.72041087059994879
-0.48642151641922737 -0.89472065821365732 -0.39102212758780297
-0.22506242950942124 0.38034626795041504 0.75267429790869755
0.69361989137533442 -0.18043548031499768 0.6851472705255901
0.81405261105211935 -0.24114873757741861 0.42807155697175858
0.37959434862432317 0.33679643322523134 -0.19058506737007974
-0.20095048132202464 0.27853271554059233 0.78260432528622914
-0.32658182275372383 0.36549615135743352 0.79557765645392919
-0.35855870339446483 -0.21956764071808266 0.77253966159810261
0.49449341569760463 -0.62886586801550948 0.50102954869350924
-0.57633930917006637 -0.0977909005781612 0.73252448371977152
0.27218724052966081 1.0278292511435438 -0.38286407029454494
0.76870400670054551 -0.017063618737097386 0.43510435538382808
0.36311277329957647 0.68591247066297001 -0.23772864339377975
0.13230500575565429 -0.121030799367702 0.77557292769324704
0.82078598991466833 -0.16774976236860084 0.6033882655447087
0.077250382161366815 0.28817342774988219 0.7543281701775868
0.078522823805599273 -0.10987006303190583 0.77820671561528343
0.55248858648093346 -0.67173219274963003 0.52191772472417597
-0.19404171360423561 -0.34258434419177775 0.67808225374358244
0.47777707500722499 -0.49071304320347053 0.41080980617982732
-0.18494362346746129 0.61341308513357262 0.80152771651711419
0.19948870866721791 0.74125610153515709 0.50544643318414728
0.40517249144909329 0.81629444701707143 -0.30917455274834538
-0.30206316249996235 -0.038209846397506908 0.7598405759903244
0.39782744368210388 0.28824829015604791 -0.11038369641141799
-0.57839938459483164 -0.43480128913975591 0.6393581928346066
-0.48165177646467328 -0.63792116705883473 -0.09675919724884352
-0.29230754827483452 0.31318976041450242 0.62506089295118272
0.50946495480934573 0.66529507834275137 -0.23168771804932931
-0.14706206674475197 0.80341682980798623 0.67508039474557791
0.031835668952851393 -0.13927637653972624 0.77253827721847301
-0.2450792518346816 0.19357662953510157 0.78198872588876611
-0.37537660742543721 -0.17540012747059563 0.80059123018401124
-0.27816584483520046 -0.18840525659163632 0.75542265897104244
0.015927221768947675 -0.46477739224917514 -0.20097395507139026
-0.011043025685467001 0.92875984348091833 -0.10333624240422523
-0.83539257377287868 -0.5442502409070471 -0.33815753931946801
0.74777517609436472 -0.47348013898528052 0.70423395697127944
0.80479923306927503 -0.5480717327018283 0.57204178763788605
-0.66685539772140601 -0.52742806289950295 -0.41440159830085577
-0.63698545636168546 -0.90430496323034504 -0.45511647660100607
-0.26847306009244676 0.84627293273888426 -0.47695007274296586
0.22086802070384692 0.73798475299935262 0.43991986708886088
-0.2254561529973671 0.52923511719882299 0.62778834460300459
0.52052594483643588 0.8696837569134459 -0.34973367545808287
-0.71057901088488507 -0.43547688438985688 0.48321430146529565
-0.013499765772962746 0.54206090596369449 0.75555660554044834
-0.5861274216019865 -0.95676941272824934 -0.3683887626567639
-0.55340541133682564 -0.32395243412926789 0.71223049063405597
-0.18654534057998262 0.40790639068643486 0.78940552572771594
-0.2848140356049953 -0.14962523954301332 0.74977810297423275
0.29723388881325263 0.5817858392179005 0.26242648820823433
0.78378990614800159 -0.46185806288366393 0.69110224068413117
0.17014151546459289 1.0685921185103098 -0.31730601387175739
-0.044636439692453678 0.73960329129843672 0.70473998353099887
0.82081918482407445 -0.50323374422777079 0.56515807690016118
0.68581070517558373 -0.42527615131785979 0.6769460140172896
0.20070179064157401 0.73120952261768934 0.21878254212208503
-0.12863051797626213 -0.51619811145462791 0.059334614494559901
-0.41183404015612268 -0.61934956137741892 -0.086932794699578153
-0.16462928814655697 0.40572540883886177 0.77274609870016775
-0.11371565544800433 0.55613859168900603 0.74709508709656802
-0.14444261800952063 0.93783354273239183 -0.11424691073307258
-0.62936001077127912 -0.1615628049628981 0.72389823580851953
-0.5772379299877457 0.065299149777644061 0.77031338324161425
0.11611588668051809 0.47833288967495946 0.71144096678392543
-0.81093174650095534 -0.75211600327673978 -0.42744386111940003
-0.43922343744657155 -0.17025459714983526 0.79287803993145189
-0.14629824528412883 0.40786176820384412 0.72080789399069545
-0.52903881454574275 -0.88783228596730623 -0.34744255360681109
0.025117984485405032 0.4985937412348278 0.75647664238920242
0.50485301713939634 -0.61727326836410157 0.5686050603815147
-0.55242378895854927 -0.25649154823474873 0.73055816021360442
0.47508149991853088 -0.43238766356091674 0.71032186158493005
-0.76971375407026699 0.080539072251497146 0.41413150567609591
0.2054030080563507 -0.046715148745818169 0.79419790334270601
0.11287091124421522 0.38481203561607913 0.74903400445407442
-0.2470371952555297 -0.54127892493426089 -0.040703784408492538
-0.5705361229142909 -0.58482404773809549 0.007457559717067852
-0.33416915218435861 0.056269614034363258 0.76230960027464789
-0.65045712981611814 0.10113339514816744 0.73810462476342309
0.64536904888586832 -0.52908733617414327 0.40914332934789854
0.35853076755120128 0.15836690616720261 -0.045659319344395044
-0.72708906767581993 -0.67024934320829743 -0.35830606451827407
-0.15725740764412421 0.51358629918121323 0.67533171187608332
-0.54405418118381021 0.032874651350397244 0.73960452511357744
0.3944805605975148 -0.34010292373784523 0.72557167221589225
0.24411198397581302 0.59711982182619749 0.54471501064722361
0.29190113994604872 1.0862978830605243 -0.41524608585439182
0.25092796540315021 -0.31646248994445614 0.67568093205716195
0.71273508810440944 -0.18236571075857455 0.67750114426564778
0.50680059474899508 -0.2406102057847761 0.76446104073329479
-0.84831265928926314 -0.34592411296995351 -0.25334342556459433
-0.69524935471997651 -0.59317011814903253 -0.30237508536788482
-0.425220866628365 -0.48563218433253041 0.50831254234674361
-0.7464592879881593 0.53104304129738011 -0.20194362550432743
-0.41199256631841763 0.15786951378370873 0.75139573742296761
0.13963285214322241 0.50693057054849078 0.65809922728533365
0.54856394168280076 -0.23437092777265889 0.32243072251560534
-0.00066339675333892956 0.85868031277584578 0.24089975133585995
-0.94663103220739231 -0.68500736154629749 -0.41881323248594526
0.37905735031756649 0.53935217299465421 -0.2647700124499579
0.15272305829319066 -0.16830342254348807 0.66371727666182778
-0.55335389475567354 -0.17477954769404391 0.71647738321405541
-0.53107079699066162 -0.30739576110107691 0.72396339330043702
0.44973234642975513 0.54374138456864785 -0.18001924884708842
0.2080645671877619 -0.39680390726232417 0.60162359690752965
0.26050374274655042 1.0885330558255646 -0.40941283848053445
-0.0037852599879215632 -0.15448985866800058 0.76850297474175022
0.23661065093494926 -0.1571617371559455 0.77723735609879441
0.80564197240349245 -0.41208645569724922 0.66841376845263767
-0.1750419461430397 -0.083272293655113572 0.76404527257170685
-0.19877312341145625 0.60144527423528871 0.52495692981062803
-0.81059719249094542 -0.96634436869652518 -0.42257922455485186
-0.48089201776468826 -0.40000660062599991 0.68052984892358381
-0.59321227422447009 -0.81280201348545233 -0.35968156041360544
0.072062347352243705 0.67461541686398618 0.6458729953560578
0.0064748354460562041 -0.29153922366359097 0.69119058092974228
-0.30667739526739979 -0.14998285744206896 0.77891327441648173
0.82381492728941907 -0.091226553345222783 0.44239424977979525
-0.71765607225825079 -0.30540715787867612 -0.49669514276672544
-0.206195638696272 0.32486101579351612 0.77922695854363155
-0.49099319369179284 -0.66606556031354103 -0.17137371023409287
0.17288150544118253 -0.19431218209246026 0.74282474551910127
-0.81289942223611433 -0.79526006761574308 -0.43248653387706781
0.33141773584725343 0.025106692351073434 -0.35631262059928304
0.52621783928350396 -0.37895409871805441 0.3660505085862269
0.12890803948823759 0.5483509679173153 0.61772017062855866
0.6925694792329864 -0.21272144733438836 0.66638048318338861
-0.11891591402172708 0.3652532856414723 0.76172078478066396
-0.45048969547667639 -0.14976270112268253 0.78992481062516617
0.11674335536690705 0.37763018616550426 0.74712659345919974
-0.49031620234154616 -0.3039593928737645 0.72131323131452518
-0.80573450147039694 -0.022442295327493866 0.52858382612942023
0.25783516524859351 0.64706491319856241 0.27930512040893518
-0.017997403142430812 -0.46267567637221418 -0.33046895912571017
-0.12074383541903444 0.58796528609425991 0.68308949471190772
0.070147221921729397 -0.48949494494712553 0.4533774199637719
-0.92262046985933921 -0.14567353260486016 -0.15398403576125475
-0.28998586085822353 0.072571626168951298 0.76510367524122103
0.23553524101021139 -0.32538935116241419 0.42182178504776857
0.10908300547600902 0.87615240134948635 -0.18963833013822295
0.35437603637865323 0.27790009051363995 -0.22206592763177468
0.32201269856591352 1.1044641192393101 -0.42697047935496357
0.67849023454618873 -0.41646020474382794 0.68078535729000578
0.84005862018830157 -0.1215470722403893 0.51075625241264788
0.39043928474211498 0.23510812463575803 0.055809946259955723
0.14629622450689794 -0.12976146291364898 0.77475061080747309
0.20233802446512072 -0.16894483017614448 0.51790814741536906
-0.17886655291749776 0.82513260893153983 -0.45541769256567477
0.090900542910617332 0.41106892451861654 0.75329261602132647
-0.26274606497281638 0.92763686058543726 -0.39653484457437571
0.1411582791396313 0.54368715188445549 0.65102223560450057
-0.55621037751063795 -0.11425397197535858 0.72046879116521723
-0.34639500800824408 0.91753459721667241 -0.00035410601731200586
0.088872797082103716 0.65093561098478858 0.645865944100251
0.14942733151804077 -0.20063237359846653 0.66879000534413535
0.18202554921037972 -0.055718463274928354 0.78524697302407276
0.34720864998359957 1.1766711896535753 -0.45881996227217314
-0.87199172732118768 -0.60101969656278698 -0.38682355494711373
0.13727469083471533 -0.47745823538559762 0.50691147619579624
0.70065675953014761 -0.58634360092173665 0.67729430796407541
0.27487393895415835 -0.50749581184271619 0.52421586647642471
-0.59931901779054897 -0.21127383916129361 0.72241798269772062
-0.86219118198857814 -0.87873896869359669 -0.49677928940764104
0.65632019319198776 -0.1376810905800312 0.66305651705704349
-0.59192983085574724 -0.18127970469524257 0.72676910406016759
-0.56853131164757542 -0.55958863642138112 -0.40594308943400392
0.75156124015063597 -0.26406499721798582 0.62464556141435423
-0.61187707933822821 -0.060046507182505593 0.73724249929784946
-0.78260216235162261 -0.99238866311975471 -0.43574276890979036
0.70428068033581326 -0.22817721434336136 0.69909558844767616
-0.54809122029894297 -0.59116209481300075 -0.052637680581483437
-0.026404428760884002 0.7657617555419165 0.42104739695014359
-0.2667447428258356 0.65942985244913643 0.4085048057536369
0.26038329518712544 1.1165630328040379 -0.41863783627161411
0.32555836778533376 -0.27771995416338768 0.73067875760239076
-0.31324585688480511 -0.04446602578684633 0.78197230311940302
0.16187097049646582 0.42758228591270608 0.68306100323025021
-0.02435114734146282 0.49057987747971765 0.76865856063989213
0.34460207622896633 0.9628050921033946 -0.36255416521680672
-0.086963962217055268 0.57180337657547398 0.74391180455035055
-0.50872794333304228 -0.59774714637984516 -0.035410332825222213
0.27888543102676522 -0.39399707147072149 0.42840193356369127
-0.28831802034710563 -0.28875604935961974 0.72789119180163198
0.67466511408508723 -0.375675083838928 0.67537048969177249
-0.25679063590416717 -0.41348332672362176 0.60800200879236854
-0.52665135736333468 -0.34020223179732056 0.68322666580729674
-0.45230775559389258 -0.77330522231267196 -0.29723760425667933
0.26891634808043818 -0.25714155144453343 -0.083194725999874208
-0.79639650585693289 -0.78346623562146078 -0.41600565600731443
0.72793872549880234 -0.40565891140153099 0.63622929466055211
-0.083626637101815504 0.42711270756709041 0.75980766848579151
0.20443808081711268 0.32417225317794873 -0.56309419019873985
0.17033168566632639 0.28398008355549109 0.72028942477118107
-0.014769716165289992 -0.22910150233843751 0.74186202499265619
-0.36747401421848735 -0.64417518543348251 -0.16804886334296043
0.070488838121150366 -0.092897873027311562 0.78301073266857202
-0.43390292657056762 0.065746872505656029 0.7554494859020906
-0.60273107557190997 -0.11662693482173836 0.72509932089280937
0.4408406900981845 0.54027064711749517 -0.16840968211602103
-0.30378987142353253 -0.40568460311669696 0.6250008759919865
-0.89132644248616089 -0.25419556153190115 -0.2088760480221481
-0.82680893231554364 -0.40677286453052375 -0.30055765530323697
-0.34747865988856574 0.061692868619161345 0.75833822726042399
-0.04625262975048372 0.24615345240675879 0.75729120268579209
0.38238221235258152 0.72519344050886048 -0.26449656617694473
0.070833728053230516 0.87796471755575567 0.55784243668540512
-0.56825811992939634 -0.33151243974492672 0.70659721677634479
-0.41608685412165869 -0.79309447350624396 -0.30831675862862085
-0.42386691723299919 0.23980192472910744 0.76203644677582361
0.061315322996733812 0.53804995756644303 0.72964108591696686
0.30054564352718671 -0.19504846419897603 0.48928020449523046
0.2254602103794241 -0.063575772034795364 0.78874199314805082
-0.53137534669747311 -0.059154852278282988 0.73758288804174299
0.0029172063156011063 0.57240434011401931 0.72706917936631044
-0.39294964511793751 -0.6951997941809509 -0.28443102379947049
0.063900111782913882 0.5426999974855562 0.71827103041073315
-0.34981928011842456 -0.2571705521984029 0.74942030691829586
0.1522451717119111 0.32986909736553116 0.71062598128912668
-0.51321309651314095 -0.022895820586626314 0.7538403565409908
-0.68720280071181605 -0.53158217857242107 -0.10985415736331561
0.17219566195211655 0.15682443602020157 0.73709712030324681
0.081226921849861355 0.62109948877258603 0.65622779163777523
-0.87791403336893836 -0.44280538196670705 -0.32927632231587722
0.14867751302904253 0.47644264401901637 0.66473321113619477
0.43675618811505501 0.39283661143406334 -0.15368557381714254
-0.080334829942898978 0.8136862263841067 0.61394532130088919
0.094854765156981102 -0.30443751178859202 0.57270993811994231
-0.63767285820472352 0.24072138638075558 -0.62720957962585544
-0.72197784693378253 -1.140170237276152 -0.45585364224984914
0.25087688552412146 1.1371988057759381 -0.40841325235805925
0.25317728789735838 -0.032741102153067914 0.79602387237252969
-0.54430168691283143 -0.35666743430181214 0.66196849839570859
0.17131362245550008 -0.064724902830704423 0.78994301775549047
-0.45569279386484141 -0.84342685340982371 -0.33194457857098314
0.58217218105806978 -0.55960826662430918 0.41896300030327893
-0.53040527728489906 -0.25576732778620226 0.72239027710463688
0.45870935062094986 -0.22831616780933928 0.77320578169462806
-0.53093217656430625 -0.26065820346258306 0.72588423364152277
-0.34352605267690706 0.0076236651942167555 0.7824097052482557
-0.53407243711910724 -0.27094696593979961 0.73052911718025371
0.18661859254905266 -0.10779171054713288 0.63983319019962437
-0.13600794149715512 0.77104128291011875 0.62087803608176273
0.16364078517187863 0.81181862023385065 0.48270193722510157
0.2644548401863176 0.63992402175563257 0.39142954790759177
-0.25690595793014381 0.35002199288570068 0.67790036788596808
-0.46525968319684807 -0.4514586607496085 0.6121082652369978
-0.33953944540826342 -0.32412874037510164 0.71470222945777095
-0.56950047827365324 -0.20697024494259608 0.73183249469764178
0.15391692737193807 0.55384836127291237 0.64404693679216507
-0.83039367324590785 -0.95909059486757542 -0.43617542816275545
0.077165872255307022 0.33095112674260463 0.76128771112087179
0.48711127808059018 -0.1143521284411122 0.6266347618417285
0.39138596302427686 0.60380534690204968 -0.20745032077866199
-0.40091339926800629 0.15633230842200874 0.67767264514031922
0.24870015876160778 1.1113251436440805 -0.40184228739622085
0.50264038143393464 1.0430809928521967 -0.41377460190278725
-0.075456057649603281 -0.29156622864832116 0.71182063734465828
-0.14387444460385268 0.51928619531651066 0.75603694724543402
-0.4422541362348511 0.21288923862178422 0.76007266517882499
-0.48879226625047068 0.081026212617985038 0.74755148873350663
-0.65095165642276243 -0.5988224710782788 -0.28723469353690234
0.55562427795314306 0.76910415102850038 -0.32099747197753459
-0.039722814313222443 -0.3245380545123453 -0.51368811874067433
-0.78924766935404023 -0.24424758925104584 0.54213899858609693
-0.90635698403343667 -0.54494154092958524 -0.37746994398526112
-0.83394968614857135 -0.82013112050549353 -0.44875402642139761
-0.25829677076330881 0.30354820121186776 0.72717419956074991
0.055200860942647978 0.2810044242843901 0.75855708194558247
-0.021942778485708914 -0.42783255855272273 -0.41743390468616326
0.42773286496526453 0.6212333461360231 -0.26226902958421761
0.74130103109507672 -0.62799938326838856 0.63565771209050581
-0.14785667183605256 0.80114303977461532 0.72238717159166299
-0.1086934303466478 -0.46627824088420766 -0.40430154180648969
0.78036634059378684 -0.42273361189450043 0.69872516516443284
-0.20780271452872512 0.74870244262609731 0.63538497083277434
-0.10026162843439579 0.52620306494529245 0.73324745068373431
-0.25841695839608292 0.025046587658067665 0.7636752195542158
0.17520459674454969 -0.11979269249724211 0.75338729429518025
-0.51320761125839454 0.048603175368498341 0.74377074834194445
0.68688952897548461 -0.37154205719434685 0.7019511609609026
0.25915123786307959 -0.066029183880573328 0.79349988460205623
-0.22014426955206545 0.33362041878592663 -0.76356144902024425
-0.3144720327769619 -0.029750773774679828 0.79703574040263447
-0.80442183508830567 -0.43569078059289268 -0.22173472229439994
-0.64808691884854852 -0.60777000671055248 -0.3952527130272756
-0.49487195153051289 -0.63559164942000734 -0.10139492762743885
0.36587684520009134 1.076351477568096 -0.41989233966899064
0.37067124955342479 0.61562209400290158 -0.20006879710535941
-0.29170330810188716 -0.20326341618076071 0.72696562205214832
-0.15639502791975701 0.59629481243541704 0.76703406861554413
-0.86119649226975525 -0.16336440646273331 0.27871497824412472
-0.0093546409842701905 0.62087213536273111 0.7031915029931497
0.26283350779590364 -0.49164688159169145 0.5634313871815948
-0.59970201682222068 -0.004575069403699672 0.75454695445705511
0.18515071487234991 -0.32690707807148556 0.45214940903701972
0.17009294285162468 0.97922569969261986 -0.26143022064820798
0.38501990188046875 0.62705512094760252 -0.2255174497400958
-0.41021095174414768 -0.61103048941293991 -0.077947121204033465
0.48733745982644905 1.0101683921938047 -0.41974166913973932
0.21190272996881276 0.35320159455500288 0.67536151159333713
0.26495022962853909 0.85049998056990717 -0.21730063027348478
-0.33782618531495245 0.5175321766447496 0.67164796530914828
-0.56434003391996157 -0.62350586927158247 -0.27195937726503416
-0.56246498205416628 0.18365385963079461 0.76502339409125852
-0.021693801914977939 0.22462208745577072 0.76309058818048925
0.22127461906961798 -0.034988558745766341 0.79170050997242924
0.37354304768086877 0.71472801769618854 -0.29892211225319443
-0.27272094768045463 0.92678148090146806 -0.4611259970190531
-0.051619283070010624 -0.29940675353881829 0.70340308757363346
0.24869221488188487 0.93032173624101233 -0.26647774093839871
0.71389222666320507 -0.00099557751013890083 0.40410676008775681
-0.2125259999918967 -0.32826887222927326 0.69102675184683449
-0.55264056714918297 -0.59016717226444371 -0.067468694125750517
0.72849135055145098 -0.61965376830926289 0.64899678599942945
-0.28827869972928966 0.012549010670909411 0.76748760849216069
-0.56492259616834417 -0.58448841676170105 0.037880966287502815
-0.69839606140897104 -0.43340041809233298 0.52095773519420163
0.71636978822772335 -0.42948999147364475 0.67260809744391281
0.44926918570035923 0.78086697297408136 -0.30168343947457288
-0.12893464259889242 0.59831072219529347 0.66353024230465962
-0.35620918182974037 -0.18231008002311455 0.79730390273880403
0.14248927758529817 0.28223599581679082 0.73160943558923464
-0.26639230345199394 0.26502918100175066 0.78135667417848254
-0.91591474626250147 -0.44800424592278887 -0.38937834149555783
-0.13469896599860931 -0.50221912686242831 -0.28873336742674383
-0.38815506667651789 -0.17530407450499297 0.80075148179247435
-0.35353907968499243 -0.0085188702566938446 0.80752566948456206
-0.25241260801919907 0.39872270242381092 0.62700575492385724
-0.64663387025041175 -0.96328018688041084 -0.40155935920313368
-0.22480869754406285 0.26135296381968942 0.77716010983959904
-0.60148903302035706 -0.18180108221505975 0.6691076398919904
0.44020759272115129 -0.11734533176638706 0.42300220640208863
-0.59940347716144515 -0.73709203085394392 -0.32222684805890367
0.21253349249104758 -0.34581807403731091 -0.12044753997690805
0.21955710042550436 0.85899281748766043 -0.30323641842267079
0.25066579015685875 0.6893372139118128 0.17597202581293914
0.25520305027464474 0.87742614496028182 -0.22732616543100903
0.25041387104488422 -0.10878682247499682 0.78809098190504301
0.15231644173252334 -0.17163607135029224 0.70415324449243144
-0.51591595559739289 0.10015724568791029 0.75224117533707613
0.51256205373636021 -0.61925610880928161 0.46180765423650882
0.39914401375222042 0.2399374235766345 0.02671044805447309
0.21669794330159675 0.3255453361622358 0.63450502484465687
0.38828164095519924 -0.55443425658398837 0.52861056298445419
0.11629483360513859 0.77249409435120242 0.34332397598234365
-0.68371595687233366 -0.53503664744863499 -0.1857744583181784
-0.45519013444254597 0.041659212222043607 0.76135455117707806
-0.33145653990789015 0.58091618854535909 0.7648360698989336
0.8469909689396502 -0.39811688376431675 0.54628373706384536
-0.30853217892433804 -0.046083219301010558 0.79252080017499793
-0.38229471082001965 0.11792159676849678 0.76191695081985245
-0.6789644501411658 -0.98821507186272584 -0.42565848972560616
-0.34421193809839679 -0.19561972627454338 0.79036529248298848
0.47759379126557633 0.64857687742050985 -0.23434686049415632
-0.50262280813467441 -0.89232383248076985 -0.39114219600037359
-0.037527676710510605 0.21526869592446474 0.76413095744192105
-0.012950721525442077 0.40741204421297539 0.77505386656594055
0.11303900112284282 0.097158831165245374 0.70493364582068807
-0.79591516325513112 -0.96697785923061019 -0.44379996124450827
0.2676400928781959 1.0584305210015827 -0.3983129858798975
0.27233252967585031 -0.45870010713349529 0.5973301859211233
0.80916336835804259 -0.19950271447214618 0.63633206570204948
-0.098378364029144905 0.42137071598943976 0.75349453219803308
-0.71651239126435939 -0.51734909346555469 -0.20665807248542478
0.3943529690241121 0.29245059726383715 0.059101442579617469
0.062604342914823974 -0.49102000851070216 0.41897158485153341
-0.29857470906893013 0.29415641131055281 0.64697262201184458
-0.44419356460105064 0.4936571159252594 0.53554408295622125
0.0097463884715693894 0.38306115954787856 0.77389822449600842
0.062264359392543156 -0.4867984756047008 0.47821462362139755
0.064815272137252578 -0.099762279283538646 0.77900424451354411
0.84640531496415861 -0.25098212062823677 0.61712612658959642
0.83403398637074133 -0.13166065430624485 0.45383204257143461
-0.4760319762671088 -0.74300412264108218 -0.35148492350003835
0.52385382410574266 -0.27190061788900266 0.76859498723683828
-0.6331423495657873 -0.71177833835957927 -0.32532094479483931
0.47701443935682164 0.55167062543000611 -0.16486866246361842
-0.089357607289343832 0.2175542894086675 0.76272175861652158
0.31763289746459122 0.71323678598230345 -0.17578295439784597
-0.022092061017758624 -0.14027005903676582 0.77150551890508723
-0.17545467828210803 0.91392667400623395 -0.24370176598733906
0.42424649371844225 0.84862883282960411 -0.32987355227885473
0.37321179049160946 -0.1598213442581482 0.68711573637483525
0.38717033780835663 0.24598496538612835 0.088113977901798535
-0.42308405522533121 0.090861366601814098 0.73599350677363873
0.44283416727057556 0.72434850075410395 -0.27363085252284236
-0.055927381967990186 -0.10258288051448972 0.77332766602319225
-0.12296020657345252 0.071462417126127775 0.76238552556139894
0.68426044582014356 -0.3005576429183634 0.62826939353647049
-0.11873063497523617 0.47962429055013445 0.75620665986764379
-0.29060431521122609 -0.32825203030958505 0.70330534199194972
0.19792512896879089 -0.35482733557091706 -0.20995247233611281
-0.056363802243595273 0.25591768977477614 0.75687723096018544
-0.11851581317432647 0.8125977334670722 0.65899323208759597
0.44057385220196466 1.127221114168492 -0.44909456850348306
0.067388953002591734 -0.47958551970475582 0.28596006259488149
-0.40542821734891277 0.042290379683947776 0.76858710192800572
0.1099998273308529 -0.068009119691765818 0.78835562501399181
-0.7282152707101659 -0.88655734614837911 -0.4038461795208832
-0.49725629328418108 -0.62913715096919987 -0.09992346160879606
0.48156877468966286 0.46121006332339221 -0.17185867314447023
-0.58550223644340349 -0.4876579423479086 0.51953390595031124
-0.45562120015370056 -0.46805584361550245 0.56170016926432709
0.0025860068905103617 0.19320584935789498 0.76311092222272237
-0.51959478682420013 -0.54621063720179563 0.31886279087859748
-0.88462763931306654 -0.29213734465190555 0.026973763407454499
-0.51172265889908886 -0.034518265463475473 0.74041880297863827
-0.41343578424778116 0.091003441252439643 0.7566947976507663
-0.24446590896354792 -0.32200589833425397 0.69993700876409548
-0.1380424277746215 0.92094198572840469 -0.2345708883323141
-0.57936849316217831 -0.2715523754979472 0.72012173287544101
-0.4641018462473312 0.41837005041196562 0.74551287480312567
0.14088241020044734 -0.022233624332471891 0.79115584572025455
-0.47861183514487493 -0.65656383670193463 -0.20704667830113976
-0.59645222111691965 -0.94120055766381938 -0.3627229378184893
0.68703947266203613 -0.35491760485166424 0.69739698600039901
0.0070612548589679136 0.50534757599331215 0.75977882774043337
-0.40568751029024952 -0.3279156514739725 0.72048395769661511
-0.12082498142171971 0.56397654994856339 0.74671328134240866
-0.82344399967280424 -0.42414332739940619 -0.38062590878871561
0.21315798312389234 -0.36282006996060545 0.62784174634361989
-0.72259244855729321 -0.50123407250919172 0.22581530902209579
-0.27063814872281 -0.15518186168941384 0.76171505347099355
0.26090733154961754 -0.14352831065627925 0.78367831865011794
0.48503435247062043 0.60939001224630829 -0.20704962807258198
-0.97487305365746124 -0.73270883333805159 -0.42502337879466268
-0.098911055409416804 0.33045178266087305 0.75552398321212877
-0.47245426999268147 -0.67434756327816103 -0.23536620940831199
0.82250116977283483 -0.37770061494535412 0.64785010337448057
-0.97259825924231791 -0.60039578996412502 -0.4512204433642637
-0.17144982519118912 0.53165467221438689 0.78308535789949474
0.25303888073108283 0.77538646310540571 -0.32375299884893138
-0.5809056065046434 -0.64052971121503788 -0.28721193034755288
-0.51053260015112301 0.17257019314394029 0.77550063079411302
-0.062957192059457157 0.69756241586236456 0.71561525310812613
-0.6579426762618823 0.048950481113251954 -0.61464250276253551
0.6537348228122255 -0.61286238808617099 0.43775866597434288
-0.25916581896785829 -0.027788576840009682 0.76377520057724269
0.066606552204575564 0.52425016874497032 -0.63440298587568122
0.2162231522721072 -0.1781167840068747 0.75831921109499945
-0.27335210608765692 -0.40197641876750367 0.62109739748791526
-0.17875712330510396 0.93409892171780484 -0.12059404009187347
-0.49761998102985672 -0.64255827060230786 -0.12188448294614318
-0.22229175348354602 -0.48572137995125786 0.48836788217670346
-0.11410867841323125 0.21582001961587594 0.7625691012972311
-0.15675154972694827 -0.39547811578006531 0.63194504779073668
0.46886782065462285 0.56051668076418082 -0.18679750658861849
-0.42764940344545721 -0.20789700267135913 0.78578309106205779
0.23148720086334151 -0.049214998065224336 0.79495112011204583
-0.12016260570578652 0.33619891263282398 0.76251168755106846
-0.075460022074821609 0.28074104592627691 0.7562785941271386
0.47493586714119829 0.84587487866167521 -0.34403337145715795
0.13880772787820206 0.65277262204114095 0.61266804024671728
0.070405747476968372 0.23216540123360119 0.7558707449617259
0.024109198484211447 0.82464379033905288 0.29140992175393876
0.52463867164090061 0.78519272900496162 -0.30171622800673958
-0.77657024871723479 0.4719629104976093 -0.29481082361257904
-0.12397975005626449 0.79439505329048643 0.37386075811321007
-0.56233126261361122 -0.15859534392743058 0.71830356408520402
0.36727919118004593 1.1739312390467376 -0.44218392968036824
0.2748933760693717 -0.46622986194336136 0.45769456489517779
0.15824827457265656 0.32917110970663543 0.71174181610194864
-0.052478842482855725 0.51011735846952888 0.76585834788352258
0.29471375872890349 -0.17839030418568314 0.74007173015638728
0.56403353926555155 -0.054203770135075047 0.36561692889040387
-0.33049460630797967 -0.67616945676991236 -0.24464397513747826
0.25728980724613848 0.0061432597074713158 0.64339336599948638
-0.18812703692549348 0.63304003143002774 0.60683701830805603
0.16796670643338985 0.47332404350277102 -0.56486235079717062
-0.4521618636747462 -0.73640912975315587 -0.27488159511642607
-0.32361801741552654 -0.20395465344830654 0.75625597309351633
-0.80770383584524552 -0.43405668028555056 -0.13854777222252324
-0.42761173647454598 0.60659875684268627 0.56582362474057391
-0.46011807879324351 0.55856005282336696 0.54566198324243942
0.07300169393795386 0.86471371028983413 0.57436783085302068
-0.29628770218414502 -0.10286685822910613 0.79072617404960965
-0.047616227754758711 0.12027358809859834 0.76377701992737457
-0.43387196874266465 0.1133430892790841 0.75654970587834214
0.49814788840956226 0.62513591488323073 -0.20874082866725985
0.31523336645227573 -0.14839360273697366 -0.24446555804797754
0.038412070445247082 -0.10662625234138545 0.78046847361054006
0.14662067054496219 1.0206559489746496 -0.3376253423482467
0.24299531200057345 -0.043877451888306496 0.79576876673093011
-0.82733981144531299 -0.77717403567538668 -0.44114705664856046
0.073384057631017185 0.38650564400325038 0.76217305235377353
-0.37185955575637308 -0.29029885847674564 0.73737820681310495
-0.031857462194921027 -0.2654577869438981 0.72399015516009513
0.091072172811493601 0.35644722118024674 0.75960583594542186
0.1786681911796677 0.63124630268873716 -0.48572400522664338
0.27484451609143434 0.82384254946509827 -0.20869681861358913
