# XYZ point cloud file
0.17299561500107075 0.83822357615156307 -0.028184540644133449
-0.59632377766791933 -0.14816812887658415 0.673594517551237
-0.16043855858887923 0.52867429733478133 0.70899368768755267
-0.2317701314605074 -0.239086882974064 0.7238972402921604
0.22097695038547727 1.0398033721362054 -0.34739086793723573
-0.74674828264679149 -0.55140236693019062 -0.18308762299841419
0.40005326193409019 0.043956497327922506 0.5271414326316517
0.077480789134256156 -0.13811154677168247 0.76016047169599688
-0.95387943395746788 -0.54464678011949275 -0.22587589573379319
0.067161113452243626 0.36275643098694133 0.7658871789505497
0.31531281611765394 0.21677067325677868 0.44811768217772396
-0.44768375970409124 -0.23286615071790351 0.79455747639218544
0.67422745404829243 -0.34077109299801656 0.71426426082325634
-0.35607132849662548 0.47115798049757984 0.80403100456715038
0.75703933800039636 -0.48880040467968133 0.67043277668199153
0.35604875615712217 1.0457407016520506 -0.39499745371622907
0.19944377181039386 0.98973425598704523 -0.27894858225562302
0.19006480253227664 1.1464326890642056 -0.34973893009137669
-0.50904014378937745 -0.91550527868511722 -0.33193566770830785
0.92392578659925562 -0.28944009395145365 0.5009398672910379
-0.81959591890458228 -0.38377491440054712 -0.031326349453536295
0.61902413559062097 -0.67419250283522558 0.61316040523962556
-0.34337154465498543 -0.65521846728282895 -0.17827051621964074
-0.32400395061532095 0.32966903271466919 0.66396177189511718
0.25170812970372936 0.18545798875972608 0.64436999604339462
0.81368092415181081 -0.22070839005535392 0.68134596745227327
-0.78676585693219181 -0.18781085389565533 -0.47570354273341309
0.39892851273216934 -0.06191984373874071 0.7208872016116743
-0.38316315160824388 -0.75408118402916102 -0.34509398964144111
-0.10422221518103925 0.34159422267479655 0.78196040004189626
0.40981525439292454 0.84058319411983717 -0.34003113298149401
-0.72614363239864588 0.14292788999884465 0.72048557665749513
0.21405785160339974 0.40454574022510315 0.67081123998508474
-0.54319822206801405 -0.69771546104146864 -0.3302457398090155
0.66439258241379662 -0.48121736037285778 0.71004522367701384
0.067498720483342822 0.71110352813019517 0.65080188670970074
-0.22265537417021619 -0.022805341955727698 0.75528543532044523
-0.65680878977255475 0.17638879918202122 0.65164503653528527
-0.7497204580511152 -0.080329291569015027 0.31104448348503411
0.63498203842070211 -0.44803425807674202 0.7003733349656045
0.43323794499684709 1.148672672529365 -0.4736552267276295
-0.3434231850087599 -0.70346330822389547 -0.18615881127465173
-0.37719550332860763 0.47934668615506837 0.79878682027487002
0.65089627861976851 -0.37990537713927308 0.71372025173917564
-0.76856068952875489 0.17133503993169086 -0.52128386491466472
-0.72264894773533683 -0.38520746032961029 0.65227699088109148
0.13891840182486703 -0.086758546770543177 0.77288686145351448
0.43523215671893922 0.63484996511720482 -0.33400440656015462
-0.17630636816545575 0.38780471259039828 0.75805999157148563
-0.026181996404829988 0.58893033198421207 0.69611801856979127
-0.11311742400977209 0.77937921435847102 0.64286624742953791
-0.58226102032799076 -0.027395670106898251 0.74795531568906881
0.043578684071121643 0.46172544739798482 0.7778004942351231
-0.66427091098699975 0.62889169502771836 -0.31853903986342402
0.2155123603474749 0.90494370198522489 -0.24479486944363771
-0.32531115023596158 0.2991121896048341 0.64247644780857627
-0.22503349207335077 -0.086922289475928949 0.76138561383413617
0.43680979161513278 -0.16088137066711283 0.73750416179888134
0.14283066929786514 -0.064838309796986238 0.7710753840410689
0.0086087212380903111 0.33701945095113217 0.80015725201525356
0.14654827447279217 -0.082237988542537721 0.79139863001876165
0.30639242474552475 0.68663254824630826 0.11735567312456396
0.17406467767776235 -0.2047946106128542 0.77918705193445703
0.57438276777494934 0.80068200223130503 -0.28728634839518463
0.2696237539119295 1.0309742396676285 -0.37745778262069507
0.67778798745231938 -0.5420357776116127 0.4087105638869275
0.19454937911393699 1.1937741369133263 -0.46839248845631687
0.56146703706565404 -0.54587852701387707 0.69248392660239233
0.3681514842317597 0.21939091976431513 -0.17682992406122366
0.28085214584618257 0.061002683152008075 0.6150176896320545
-0.57187082992618343 -0.3062168994809582 0.68449152445077743
-0.80606422671343125 -0.94885141796142136 -0.47073122480355778
0.7357143644106543 -0.36630384388243353 0.65117948831186823
-0.89736304670248046 -0.32048484880773742 -0.25909084743028643
0.34709725871755381 1.2801105255394489 -0.48215203568202014
0.2461445142608909 -0.06499047709336736 0.80039377450617621
0.36841578758500759 1.0850465432538599 -0.41633844636095318
0.29148011680206309 0.63189363071663252 0.32187563969137045
0.67069441376688133 -0.13811798887505233 0.38430867284643
0.37540092787151025 0.95426665494657925 -0.373769500698927
0.82404064753816897 -0.48610140963807247 0.59759804686848383
-0.12965314208710765 0.28159934855603908 0.76718174391095317
-0.67082473246168206 -0.10277377620220562 0.53100279391657068
-0.76722448190690784 -0.36736111550597172 0.63720961195190284
-0.089613416002265467 0.38355405110377561 0.80664731798736966
-0.030022167320510107 0.80698828068399564 0.53024212419848027
0.32290325818124188 1.080176537408029 -0.40497152721695784
0.14499733919438995 0.86137122518362474 -0.061792156984438407
-0.26328978483650189 -0.56829743917629827 0.16812772248670171
-0.060535168626046243 0.6203780178755629 0.71011429149479
0.28928156467978283 0.14420806062684477 0.50171303391527999
0.45268120995896766 0.012519644734444668 0.63479046663746885
-0.85736032822183006 -0.71178651107375401 -0.35476931288519609
0.12110712127315537 -0.1384110628005697 0.81134540957441459
-0.1477357867397302 0.041082337862473395 0.74729389170556715
0.092584487309977703 -0.15190505152044409 0.80291282777920969
-0.039462815792916217 0.46124391952112376 -0.64483938414775821
-0.44887346486569868 0.064442064418159362 -0.71728118924067985
-0.62659367481674622 -0.6119812539875511 -0.26227450017256615
-0.05173594598070963 0.95091009608891852 -0.207258027674186
0.32605423568691094 1.1538753597481062 -0.45684755659448228
0.72503809672258512 -0.29784280866208146 0.70097226269831481
-0.074476325242699204 0.2173214949365061 0.75564250790586129
0.33673347920495189 0.40179817754076552 0.3594704444508352
-0.73179210339529277 0.088422678526889342 0.71016194451323145
0.35695940681958405 0.053846326844332992 0.50127523418706232
-0.56734513893903227 -0.07622932325782017 0.753836137747669
0.12824311447022296 0.4272234464553577 0.70968256635455873
0.66750516605765142 -0.69008512106624664 0.55706197426417248
-0.12009939689087901 0.29832098141312713 0.75531181003157144
-0.096310436868236593 -0.49438119280146964 -0.17900299040837808
-0.42397737517961787 -0.16621897370740868 0.81503821724976433
-0.72713870626523658 -0.10973920727143138 0.73169021521607647
0.37041300750829009 -0.10963563270779986 -0.14162230534992659
0.2757981327065977 0.79678644468162219 -0.29329151596397196
0.11374145555569726 0.42783659668423724 0.72699622785711426
0.35406860463066891 0.63627096866178334 -0.046385029376324383
-0.82060208074844354 -0.23548427783563852 0.17577739544645965
0.76226557310425846 -0.18109022579123568 0.39288351662850118
-0.24778618017242593 -0.11133995392396301 0.76430042111360308
0.78426473201173508 -0.33880663361169994 0.70335042663538161
0.74226366614786343 -0.3240589714362323 0.66604065183702232
-0.76539086996120886 -0.77058101123520828 -0.36934782043647374
-0.3141592732934555 0.52619463752853335 0.63359123046427612
-0.024737572956468057 0.60623537957054552 0.67529175954751963
-0.15284929949598336 -0.0053254134880518222 0.74569543887611189
0.28223233093029876 0.77539449058519949 -0.2954676108566332
0.406959507322739 0.74008738303292887 -0.31025997969931041
-0.55102066332409549 -0.6814634400227817 -0.32736767768494701
-0.23054050824262617 -0.21681272086180314 0.74633940422575051
0.1759853920851242 0.14169000699138579 0.73078199693236456
0.088633757020545545 -0.10973891072013231 0.76707458408566254
0.1174040457255785 0.50847487878482411 0.6893565924270888
-0.89688582217729618 -0.67609971700380811 -0.33383794083221119
0.85158074902190606 -0.3734437853300796 0.64549013081685302
-0.69322003550939826 0.11682096694019606 0.41828804308221379
-0.31275761365083099 0.58000921684362083 0.78485226118641549
0.44036478328311546 0.68406890845214718 -0.21106017819414546
0.33592382247064734 0.65211629533835946 -0.10330776106161466
0.50339398223093212 -0.60960496511432893 0.42233822540708843
0.13565957567806208 0.89070118648011487 -0.32736881297415721
0.39548821148264324 0.016862665098919649 -0.11265796145534068
-0.50188020830819369 0.02088507371473014 0.70850716192563823
0.192490054024546 0.84198498028959534 -0.17026502748007033
-0.33240952500494814 0.27661028270340893 0.78064190922680154
-0.60619821695090081 -0.95669974907204391 -0.39431805554113453
0.1922555328388853 -0.38000227660939956 0.350889794260695
-0.15120726676840945 0.34094908540261315 0.75242099245605232
0.11130941264690364 -0.20063440421714063 0.75835141498941994
-0.66187482908958373 -0.69509575363159115 -0.33164182588404856
-0.75062269409548321 -0.82052333726781512 -0.39399192928306093
0.1413077994123455 0.55793606797178086 0.67304840000247168
0.13090139618191188 -0.086931640066062243 0.76291446851507771
0.091611207614789691 -0.27307808743692163 0.65196703189303662
0.10487446202239425 -0.32892500869913732 0.50880498326426959
-0.20274173723208833 -0.1218890848530414 0.75535402009109021
-0.50257704788791102 -0.020473557532355358 0.75838654365918501
0.7899421970444962 -0.27617727272784443 0.70027747446522426
-0.14586765913691124 0.51940955474085371 0.74527340403085418
-0.99007678642087171 -0.5668124436948716 -0.24387304110371133
0.20316081569407629 -0.1796141252200556 0.78741735030752125
-0.72395042456548708 -0.55236058548355516 -0.18324774639165753
-0.49238387744753709 -0.6047324628975872 -0.17369664581883626
0.054756735479287499 0.46689941046924943 0.7717161006518154
-0.4439556287472044 -0.33385335435274754 0.70591592715237539
-0.5919715729881716 -0.92693867656653595 -0.40464509667106086
-0.045502404436433608 -0.45351659469763916 -0.30287493281031175
0.20225317649487806 0.64991036431901605 0.60488602633790833
0.44564646441006062 -0.46371602613710472 0.70603661208463109
-1.0142979057121977 -0.8869450722561254 -0.42916076571884787
-0.048251394706255724 0.27863029814188778 0.76080147527824238
0.32494331638631024 0.45559304000526879 0.40915039248358198
-0.52062304087760936 -0.58140926172156071 -0.41105274524039714
-0.63669608284874357 -0.62820485552688865 -0.29860106382653839
-0.62773837846262381 -0.56681612915890867 -0.15833285161068034
0.34826036757723955 -0.35447493381952455 0.26871855176733561
-0.68888132331935026 -0.31775851906559183 0.68076856915251938
-0.30922860028761079 0.30642063128682651 0.80217939300069929
0.31031560051158635 1.1809473232398631 -0.45365941404830323
0.086617266770019796 0.57696201139329872 0.67415972891865295
-0.41965395147505546 -0.28952011957328239 0.75793700674802267
-0.28295632110493329 0.0096901279241450311 0.76568955630506252
-0.30305021859336989 0.27190724786044029 0.7997815510664168
-0.66189027500351472 -0.47722675833619377 0.59856233495816014
-0.36396255044985537 0.020538148397115208 0.73709985348693863
-0.56536949520963731 0.048171885101659484 0.76329614439379156
-0.54166698546512748 0.013883871560615546 0.757053774889755
-0.42388419838403024 -0.26851387947764493 0.78463126055748944
-0.47376498444504023 0.82804121720549517 -0.1027706456096098
0.039931759534027833 0.090711705702574363 0.75329934953276734
0.16809107712219884 -0.34725164330462377 0.63745447004879452
-0.78183907891536819 -0.73108977048335078 -0.35294909870390256
-0.097517431154187761 0.42968469270575227 0.80284385073360909
-0.32438394264696058 0.33971315527247015 0.62515230649245268
0.19653804212049408 1.1881215363074844 -0.37401928941241636
0.73244786986819577 -0.43725015997526762 0.66642113890458177
0.54362711335284075 -0.089588783065684297 0.70529184590077421
-0.092028781260978576 0.31514323314998549 0.77270461538864765
-0.39643597574669798 0.15409265739745592 -0.73112887459109288
0.6509856580187261 -0.56752742319105032 0.40966986202238331
0.52700185300543012 -0.12880427745820811 0.33433530193372007
-0.20299697022059604 -0.29620026873013217 0.65023358047386637
0.4816738201397186 0.93058354847939739 -0.40279926201191074
0.8304975953656708 -0.23746904474246255 0.67658799409377934
-0.43617085113817211 0.056825865865000935 0.77232291738124559
0.20497211487744948 0.64605077710332637 -0.46316761306263743
0.42461308868291781 0.57566230935432117 -0.29872094053541787
-0.088748217895414427 0.2363567987481936 0.76094077711218233
0.80612412148087742 -0.20212517190460311 0.40096210781234731
-0.86831126252420177 -0.37200896035014352 -0.20572545942599163
0.25475700102822429 0.5065375791132567 -0.43541210001052377
0.8888789016696137 -0.3196860560652639 0.62819823493325089
-0.20225653433237767 0.40062958236074309 0.76663355715754733
-0.53482472730934205 -0.64240183122284122 -0.29708795996282333
-0.43382784552827047 0.026587003595778924 0.7341553694956815
0.14338024360705504 0.31445570134554757 0.6887807045195018
0.40767421897831468 1.2654311365981741 -0.50580786059191496
-0.87587237221995906 -0.58361698670940143 -0.33307783128003621
-0.25876973653598156 -0.37377129792648134 0.60832026248749571
0.3321492969181179 -0.10825195108229302 0.73923739793133336
0.14354695186239042 -0.046068062579625035 0.78580295517105014
-0.57945450482944239 -0.90016195554653677 -0.41179499818110799
0.32091956481144734 1.0383889718282759 -0.38496830664769277
0.76102893196119226 -0.50475686073501702 0.65810871700864482
0.16278660228249464 0.46490546136780253 0.66316628940688815
0.84421322842464974 -0.46435919658923552 0.52447467351544219
-0.072972263546233762 0.79757513644167233 0.65312319870457713
0.39148634496089585 -0.42648931547525493 0.34602153316228623
0.083287159935537147 -0.31985275976888872 0.4918453618863623
0.17704616948171292 -0.20724177730665616 0.77068682867940197
0.23239276395375441 -0.37912028237883177 0.25163380395633794
0.063441241085371303 0.60988660790169291 0.67436016284193556
0.058218640739056582 0.90076948397956613 0.010966879069428614
0.30359221235207201 0.56764784722231099 0.52754723007302573
-0.36457209853293193 -0.084923633036655843 0.81170820869203908
-0.16417279990258749 -0.16503123818195675 0.66970025021242918
-0.21823622920231855 -0.49035546481489689 0.41246497470677923
-0.45952082591975341 -0.77424488795915636 -0.29300528059928865
-0.15300968494128142 0.72198947974656491 0.7210346781388921
-0.18673786327579478 0.45385784120393069 0.75868729949070257
-0.73313000659970839 -0.16512995119972373 0.5990384199261598
0.58314315620728507 0.96697125159976594 -0.46397271863591527
0.21849561821059638 -0.015619895154594943 0.80658151361620867
0.26405284275443819 -0.36866908390122077 0.69689905212703707
0.087726586626899916 -0.16787236689192753 0.79630186135756276
0.23230206001417741 0.91320758567269422 -0.38674315747636001
-0.066263441028866055 0.12908516251062707 0.74499663479963374
0.51104132472096353 -0.33075441635676217 0.73523541841854012
0.27331852577836457 0.97040539598731357 -0.34971578329970043
0.44744605395067083 -0.57014552615821223 0.64111625237228509
0.028831353534428672 0.68313160654710003 0.6644506723649215
0.28170104976129551 0.7287425842856976 -0.011441808587733249
0.17115980864571156 1.198647998295101 -0.44011825395446635
0.1721383368472118 -0.37436513332216492 0.34319401057814503
0.074724641442458051 -0.14132868486704453 0.78491371316511049
0.36420942943212253 0.62128750425085855 -0.013650151658566756
-0.23245085236820273 -0.3324047342041041 0.64242877010087795
-0.012615950408388699 0.34424085575296459 0.80519504966764543
-0.55381028178538827 -0.12490991828330777 0.7366093938129552
0.49218386051512653 -0.26193094323848598 0.29654811860962127
0.52344508401665735 -0.6594557582086118 0.48821020494710865
-0.50472246882861782 -0.19737033263682235 0.78646816951072651
-0.75978364971604151 0.54910849153239383 -0.28848644906400978
-0.99297723226587209 -0.8714279562609164 -0.40373479452625816
-0.54110565058309135 0.025065327616793809 0.66287245713527909
0.047721586173736341 -0.30169234478183782 0.51072087797183485
0.51296877840150046 -0.056437445016378263 0.37149732277708836
-0.62239351240111773 0.084359016310919799 0.78157287919009377
0.36988775300156362 0.97439172922637596 -0.37901169416909397
-1.0409375215545538 -0.63089579523294503 -0.27839709397221668
0.67365603669858842 -0.46094751924736155 0.66727571360058846
0.40349263438005778 0.73183621692012935 -0.2966335786108516
-0.22076196536596626 -0.34164278881412002 0.61666805543740111
-0.38971748859057698 0.2428101735987056 0.62080563090648866
0.28905431427392614 0.75778972584811299 -0.29752743930009729
0.31059007929181348 -0.1687489632965864 0.74164546519210717
0.40595092687601664 0.91073658846847394 -0.36605926414648593
0.40730507018150774 0.66842956319064939 -0.22777315516680119
0.44219436914900712 0.73441755287517907 -0.28330876722378662
0.75875092220965712 -0.38756595737520172 0.66774308759994483
0.1435488047002309 1.021676371285821 -0.36560261671212402
0.085785298858638726 0.87046861930665642 0.096413457007884062
0.48839397262256057 -0.52921618639007839 0.38003634364372374
-0.091851456992827707 0.95943532698073852 -0.20350738996233986
0.74611220271597745 -0.29732683391100689 0.71667915890390077
-0.74972180877080064 -0.27597815874200649 0.5656480450608683
-0.61554677775382061 -0.14331002044218621 0.62807457911594611
-0.68511326481393553 -0.23805115663866872 0.70684214636509068
0.19376647677196956 0.01624945590641147 0.74993828890734449
-0.51585873697482043 -0.54297897790237215 0.55889885358425317
0.31220316851280927 0.0616253259683468 0.54275634768589498
-0.34137402883214918 0.22920661595455982 0.77804916801437685
-0.38572975658064479 0.22439882058841931 0.73997434995618505
0.77069752797092406 -0.3881684981295197 0.69222051757395775
0.12560645718096453 -0.33937107214648421 0.56660699172738305
0.84797295917238102 -0.46195243200286829 0.55167155501902698
0.51937687423992429 0.85584684107171682 -0.31429375157267714
-0.41536009606033986 -0.51098812527875737 0.60356474170146157
0.3564846514179294 -0.019285950658039397 0.70752320418876025
-0.80686820359494504 -0.94641709990500544 -0.47379035984619122
0.65002492169492143 -0.095927049314767032 0.40610808838306411
0.37778932905501961 0.62880554131896105 -0.18521550416664923
-0.68557790841896349 -0.19109997853851013 0.41115922673361638
-0.33860344144423493 -0.20630384327596119 -0.68687115075027805
-0.80605585478880926 -0.49142211045543149 -0.24226542799056006
-0.13862234150502672 0.76781653964162189 0.34274954985448858
0.2501154579123579 1.0984317711154716 -0.41182190367331373
-0.59972058290063046 0.027926133343470383 0.57304516022207963
-0.59045886818938698 -0.97585476822882811 -0.38802177479522015
0.3167793486391588 1.1810124308803225 -0.46370348755206692
-0.64338685335516743 -0.038270555963713093 0.55397058628807372
0.42640717790428084 1.2008118503490621 -0.41918661364937293
-0.13393655913054658 -0.028582720663429484 0.74529473139227775
-0.61419192469872996 -0.19546999898743422 0.71322427481123896
-0.16895859785833522 0.35083162972549431 0.76258748459406434
0.045619972649234342 0.87090778261563884 0.57933765426452055
0.43740248349860167 -0.11691129127155264 0.19708987630281172
0.54661752361440108 -0.49697160940673868 0.70971835691381102
-0.36340513423382959 0.65721567825503513 0.67997294607687309
0.62387948511147329 -0.39254851538132396 0.72878563039853361
0.096462784877274999 -0.13299938816617285 0.80324630280409792
0.23830996416506878 0.0047645459436260751 0.74678343948278325
-0.46179700992374251 -0.062306326496710085 0.80152832095569693
-0.61217511161231641 -0.5193396249050295 -0.41952376860217555
-0.67878016049380108 -0.63934944591467513 -0.30196281947411308
-0.20882826955070755 0.49655918891491524 0.75131988520331561
0.11704325131617566 -0.18280982304275639 0.80671704012553391
-0.22558267217556249 -0.39580607313556015 0.6618121330780582
-0.34981782840765163 0.87915824084153371 -0.23135651677955593
0.48174481734184837 0.8514727555298478 -0.35073706944808691
-0.67393952617814534 -0.8503926306656524 -0.47309852347632386
0.34418795457588658 0.29838488294424792 -0.25673302427406952
0.726527571671852 -0.50203231808022863 0.6832554308874137
0.13856025781299763 1.1026966462285799 -0.30935050343839521
0.082776794214140637 0.74841089889174839 -0.47737360114257399
0.19132502114919703 0.025278395416716393 0.75152481550043149
-0.14561488308518733 0.62504881590454175 0.72879511111932516
0.17970827455815197 1.2239489995886714 -0.41012555184192934
0.50935044410914543 -0.63577450318647166 0.45255748040415256
0.21723193136728014 0.25216826989595376 0.68671734794145323
-0.51352570054672242 0.15419259616023595 0.80350442487235796
-0.75053480418984009 -0.30366432962019019 -0.45869705465054267
0.42291020245082223 0.67295872527023448 -0.21903719614903139
-0.30958994850348631 -0.16767940624288613 0.80150554008321251
0.28056071513250913 0.76290625121308864 -0.26745086920584527
0.16467607148871366 -0.053471376572192142 0.80605608063422096
0.034951602505117307 0.42490770868872829 0.78987275546074898
0.64830674388639409 -0.45625602488381878 0.70674486467947872
-0.41378102738650568 0.054543011747334447 0.77276160632447954
-0.011417052376998527 0.92799173712374738 -0.26872110718977638
0.34761502631133112 -0.38042670504578524 0.30140130386882902
0.24270353220563834 0.91699450864653897 -0.30381523421698375
-0.35659377873832909 0.40583161434266657 0.69480722458786204
0.061148145374573915 0.36682912286239855 0.77430086690321787
0.14631883466486784 0.46187719387220838 0.68486924840499341
-0.65293396851464536 -0.96962788913037912 -0.41321813717519262
-0.38666609873445168 0.30349752028149624 0.6041990206587684
-0.74477481417520153 -0.16413253827747809 0.62639265147015522
0.31094282640447091 0.40554051497261767 0.57659221526159854
0.30863012371867171 0.24047795448567655 0.51706203746931578
-0.71498999877462666 -0.42515290481316725 0.44892504581190451
0.15650453847337076 -0.086747230676527565 0.80595331144974125
0.2186064647705166 0.97091158524129639 -0.29836597487587824
0.28904426893336677 0.092223744355727888 0.51105634151883805
0.13815599811528045 0.80027257088566017 0.27189089357142393
-0.19333952228714679 0.45544078525416865 0.75992384926229306
0.42712664809789658 0.69265244217785948 -0.24047945513467539
0.14030362098228011 -0.082979271476339989 0.76025463536205962
0.89980437132334146 -0.25294121427498784 0.44670299027660576
-0.97292023528225968 -0.7571406664974063 -0.3668839539069495
-0.56243102780646836 -0.22270543028067635 0.70499828597638725
0.20420466659481917 1.0869779680994114 -0.44443820153210822
-0.28006803447499351 -0.60083968232695639 -0.27991404179653046
-1.0411831003672489 -0.59548891148138239 -0.28359912887219707
0.020261109324792415 0.62933013041888586 0.67861579613781942
-0.011881167367533862 0.86401505722014349 0.22350406132591161
-0.67398150760686804 -0.573591346504017 -0.20289855641004806
0.5119388450345923 -0.13708084320014358 0.72634253432062224
-0.44498025892278292 -0.31916370222700152 -0.60885682081527648
-0.33821569873649082 -0.22258875741028206 0.80283251782827847
0.42097363862680481 0.80750654935901878 -0.33136689033824496
-0.24751084535773771 0.59375206016472504 0.76363844133908287
-0.6905043316318995 -0.74181834614890363 -0.35240589540359224
0.25141030459320746 -0.11219225826525303 0.79078903039533088
-0.29838542180101513 0.68118552991428061 0.64167083778164624
0.52524122832389253 0.90830990205041928 -0.36313894444015204
-0.7057307846695835 -0.32896386399640676 0.4075743615650822
-0.10810245096027415 0.45972352419713758 0.79577295879499843
0.67837581158451599 -0.67757676174478831 0.50454367670016609
-0.44139358446463461 0.2176852725243279 0.69166883172084681
0.57333744808553888 -0.36878064349628303 0.73235021474744144
0.64286490824559905 -0.25239642922463101 0.73003475475906043
-0.29037734250772473 -0.26573560705029919 0.73805975718266836
-0.77409261848833921 -0.3674265866962827 0.56646084858823542
0.12918935507920537 0.48272166626479418 0.69872255971409913
0.0054678298569399431 0.52340781742231357 0.76138379842478798
0.13587180894916173 0.40072496689340653 0.71953364632514649
-0.20360023703267416 0.33941700957993959 0.699580303876985
-0.096797930065747551 0.7312380170387911 0.42287439615040512
0.13614137223632383 0.5930978344222666 0.57531769813653
-0.39463838885473024 0.54935746847313993 0.6971650011085444
-0.36721469367745385 -0.63115238490829029 -0.00028096500074070718
0.12969626063545547 -0.11049419411339301 0.80721927272952598
-1.0133808431391174 -0.72834385955221137 -0.33234383482368912
0.66008876797681637 -0.45700457139648165 0.65749165124498177
0.52560308380435572 0.69379232801217228 -0.31432825540753129
0.25205035679431376 1.2252040628190599 -0.40832668813854411
0.40276615019078577 -0.25539214340646765 0.21859065443771897
0.37587548355688227 1.0557487993511216 -0.40606681588229776
-0.48557712206698511 0.46149645471851386 0.48562312981169953
0.54935400911588772 -0.26541027681000973 0.73438703642250402
-0.50375855246659285 -0.57100996024094286 0.50037086339682446
0.35629817659079777 -0.21491378365726455 0.74124125925493445
-0.38242037632056736 0.78863932488823707 -0.37164261907469154
-0.30657866059772232 -0.2876150461485274 0.73206590314492814
-0.65726297428287239 -0.92995539199968391 -0.44990805622086327
0.92049532585380689 -0.18736825997720263 0.51731335187321292
0.28358204940369092 1.2584669481892661 -0.43120565549071443
0.54421648014294988 1.1113827987154608 -0.50845007688678834
0.66824401424977964 -0.67172325318674897 0.47762543338461683
-0.16385388159838499 0.35389366637252095 0.75792095039258811
-0.69744403134257027 -0.57002907689748383 -0.20020460380845861
-1.0042763947951414 -0.64581478517511925 -0.27711982207756591
0.3793564036040209 1.2653476730332329 -0.53012580973481249
0.48033456911679195 -0.40725138241855774 0.33433398201555065
-0.64939125203255799 0.16676627040699543 0.79877717431008932
-0.16513647269110265 0.53544512809341072 0.74487956102723274
-0.078150727082402227 0.27763217424596931 0.74586078343651252
0.42667845815014971 0.96061984209174511 -0.39638945098235467
0.26935569763250555 0.81910660391950074 -0.29118587623946723
-0.63087462453691501 -0.61752068562172724 -0.27574887457103614
0.28716213412585034 -0.046316506218328612 0.74934943684939981
-0.55887932477938307 -0.65005508244576049 -0.32201578366004924
0.6283565746722104 -0.41317589308196201 0.7049672040075734
-0.49707558985207356 -0.080063103996891982 0.78981386713837765
-0.44427514745095209 -0.35231506328355522 0.68400619713600008
-0.68654855565469575 -0.9545455122802764 -0.46361816597448069
-0.34533821808634002 0.31221888838020107 0.76457783871848051
0.60468609691676534 -0.43094867305472651 0.72653417612320936
0.75752418093782126 -0.58994699175836196 0.56949446061975095
0.28711926831311985 0.53527823708483169 -0.40928939060086122
-0.30025478541429607 0.23730266751883278 0.79785071619238579
-0.58198615211637161 0.15486767764594589 0.80109336973140444
-0.33280999463445937 -0.25239399359567827 0.77315851763006549
0.82640580240965278 -0.18014025598084338 0.41768856987721392
-0.61134814152154604 -0.28637354893251654 0.68702367446030621
0.2497249901906855 1.0724900075984536 -0.39966141811515854
0.63862967351752786 -0.67486964876350708 0.60936827752806266
0.2794448767072879 0.80111020179020898 -0.30457777761853322
0.17156738119396664 -0.20094260932706476 0.78668714558961028
0.68178007373697369 -0.52354255361005086 0.69162895767851751
0.045682155483035558 0.31816699169002405 0.76345052652266077
0.11286910224902158 -0.18973979389756046 0.80093459110861431
0.87854951714945173 -0.16464084955869041 0.47893874002551229
0.032393873885666835 -0.29326033791445383 0.5834504831731806
0.72987715033784184 -0.40696567611771961 0.38055500915567109
-0.36201646035939916 0.51166576935332131 0.80156741770861117
0.13812602226937543 0.79154645473173701 0.57466172281141326
0.34958692766696231 0.90768875617001754 -0.35069739746199957
-0.30436370887832709 -0.041404835996296185 0.75794443689710533
0.35472305792478664 0.52138855181746635 -0.33262828015182322
-0.40639789461809528 -0.53026465579181803 0.57940990048291496
-0.38754591948645611 -0.77463430513214604 -0.20437472758322883
-0.34458477944201604 0.25316395671310943 0.64153352337490333
0.50198612980400981 0.82373843238190858 -0.29804108453345179
-0.19443003183573637 0.73866641183848003 0.64659156022776187
0.094441044071999158 -0.18629560023639868 0.77436880931082896
-0.34167829837284103 0.15128412758586762 0.79606337844705877
-0.41133275604698838 -0.23295059989587941 0.80093989110446273
-0.20845453701241468 -0.18277822109679676 0.74747423918290679
-0.085084840978566945 -0.38072868432384155 -0.50915115697495139
-0.05161921536000591 0.95240286100416682 -0.097395227994582001
-0.80504033489700078 -0.6041843359885064 -0.23726785024246055
0.77239549919201522 -0.26124615840883658 0.70467026834990065
0.86411688712283308 -0.3748360884770392 0.62994066952140315
-0.75913067810137136 -0.5163212590856574 -0.32239214330002142
-0.82076578403683698 -0.81857056711423581 -0.47093440403688192
-0.54905640971986713 0.77426253466219919 -0.076287120464883174
0.15519427331801694 0.81156751672402194 0.5017366120351312
-0.31951829217655359 0.44426566558223612 0.64477402848507381
0.53097737893384078 0.95221190567291103 -0.38965721365167383
-0.49001257868312109 -0.56372620228592041 0.40874034675533721
-0.078792643669743256 0.50091654039358602 0.78439244262648344
-0.76243168038266163 -1.0138213059517653 -0.44276206594742007
-0.47335670314834033 -0.41839287754564225 0.66400164777758164
-0.31883440397058394 0.34312528599836156 0.80432689447764005
-0.22144190974725575 -0.13111014313692948 0.73532881425728647
0.22771483019553784 0.73908937339430025 0.26711297101752507
0.78297547087498742 -0.30067881945516794 0.70572089657974857
0.16556958067647543 1.1225381999819959 -0.32168173106754239
-0.086810218052931987 0.68804903231927028 0.71105964613559536
0.84852760655493853 -0.40616298678827789 0.63083156665283013
0.72798559521379502 -0.31162169259195549 0.66619489565266576
0.12892185857157301 0.81289069144481374 0.22356217323880401
0.049626930012834691 -0.43409157365071849 -0.21959045013272771
-0.30631232841432166 -0.72481392470047012 -0.21955866971768501
-0.26445018760810513 0.3576548431863813 0.78408059478874748
-0.18946922266997035 0.50710492124075657 0.74916304734801997
-0.16989728791963898 0.95484267054854399 -0.083114452953680029
-0.63521056677393517 -0.3777619378347552 0.65652117355750761
-0.70659495751934287 -0.23834161629623196 0.71142320319398777
0.063108310220343355 0.49337785080370011 0.74329945826588073
-0.88682857816374394 -0.70696170402362668 -0.35968632753287011
-0.48138758050754404 -0.25468682396083864 0.77346810762418272
-0.20207214644412375 0.3848420130253345 0.71495584584675953
-0.69784068199635385 -0.99499112721191807 -0.4227520999168064
-0.03970538620529851 0.46555874065538205 0.79460739903674948
0.80842258874460526 -0.12266742952368048 0.47722882936869837
-0.51588379443333565 -0.36752328081747265 0.68411385724340334
0.63873897148863534 -0.031991477496937648 0.60550730862564706
-0.70499501449793911 -0.26316526252694672 0.46702837529420549
0.20455980607212609 -0.082826186137022972 0.81018895843101291
0.05773916261210843 0.3917169305369157 0.786610481131504
-0.13097107046291967 -0.49024813146325386 -0.27001085545538217
-0.37553561974073091 -0.63596310205780071 -0.096760845625738057
-0.39863199782368497 0.010217183420422771 0.76676448782473017
-0.7606942896420037 -0.28557363999522778 0.66670909036901094
0.83638528342260088 -0.42212882050260525 0.46283620105191403
0.33491364355731434 0.4204719573946889 -0.30489338478298578
-0.75403626467792151 -0.68110306779557561 -0.32576473954031826
-0.21952842519738169 0.47265826109341447 0.66701877691747313
-0.63865716100599457 -0.19276411105014546 0.70816342158565249
0.53751146240708181 0.0044968614291587272 0.60396662535066525
0.17855118900564548 0.68798459127561173 0.60308889612815619
0.29076706259246521 1.1199588510841849 -0.43299879166684718
0.43990138387462707 0.031363638378532954 0.48772644815460353
0.61731830950461131 -0.44070017855289834 0.72313357961695601
0.51812656675701874 -0.22315134144342608 0.73548531785786508
-0.75465840833970788 -0.48014103878266212 -0.10760877588876383
-0.67785131374841967 -0.62293027591603334 -0.27914023074441729
-0.10812664144711448 -0.43556203712656583 0.38180404479220442
-0.82327506895003921 0.0093089047400241043 0.25910934833950705
-0.55285219489002202 -0.00090009557512615856 0.75391124871777038
0.09318821824109591 0.55372223958706357 0.67519325236429495
0.65363376210561341 -0.61705563471173974 0.43094113709713611
-0.042134835931506132 0.8583693126287173 0.22906677828228794
-0.97222464568321243 -0.6692458465176685 -0.29596208724950657
0.27612965078716911 0.68419841055246877 -0.41230217036445538
0.29533185327824185 0.1212409992123753 0.48663702609155735
-0.53793197546244187 -0.29563519269238014 0.67883116921910869
-0.4628485894159553 -0.39205326358091241 0.68185699573604097
0.40981381101582315 0.72367748615287297 -0.29639919723797448
0.45926840169897787 -0.025179932584808995 0.36126016851767417
0.26213003352501119 1.125367591717378 -0.43059273053086145
0.076726014241756957 -0.17376015521747235 0.75482738608531008
0.2916270203801048 -0.15900028883477013 0.74408524729653891
0.77208169260629234 -0.36006420503359493 0.6978072439915195
-0.12015154175728071 -0.055088178585076975 0.74904979986524722
-0.2711327588302197 0.52300790771058558 0.54509035172981157
-0.91612750825458988 -0.86822791525645471 -0.4277090333557112
-0.32127397282354764 -0.45422113571677158 0.64217150890937091
-0.69457371871777696 -0.84445817130118428 -0.40595962144664099
0.027167512259723026 0.66908548485502095 0.66922856719207857
0.1872222230430225 -0.36594502681789365 0.6393085783722654
-0.29672639322453165 -0.16782570139884712 0.78647390546103679
0.69331079986537247 -0.64414141010390624 0.60593891136937827
-0.88005844763964092 -0.35539479310682509 -0.2398175807884968
-0.31962025198077981 0.27229067627581571 0.79356773800265046
-0.45318070119822096 -0.79239559686169514 -0.26761766326541192
0.25725136373154101 -0.29719795265583571 0.72578968702299562
-0.89880926238387815 -0.73397120854548348 -0.37576876355734612
0.02422031517548362 0.21382454489277336 -0.68227258509324429
0.70355710225001644 -0.51605482604746911 0.40780821492018049
0.08558268299879046 0.60002765839107752 0.62319469433924723
0.62575562344656532 -0.43803994908609845 0.70325587552559909
-0.18178977936884166 0.34284914033118241 0.76861674865511986
-0.49975608070568001 -0.24330690417663448 0.76735209816990846
0.063622328079190993 0.3895682523314612 0.78206822569188716
-0.4076287026991281 -0.3565643253125188 0.68865871418199731
-0.74379968657757445 -0.39648034386907938 0.49592879775855181
0.18614755281811313 0.77006842856014401 0.29078898964058908
-0.26709990621404245 -0.36514289170540337 -0.58910595852177039
-0.17812606357281879 0.54739180943843735 0.67035331428451173
0.39267837772032976 -0.25152177385192331 0.18656927041502058
-0.78406940927976621 -0.40510212769171972 0.041679475303340041
-0.34124828159130516 0.047647149661543153 0.77085256025543458
0.47210185492573942 -0.5535635066350828 0.3954061285517696
0.034410446544768547 0.91448355742616627 -0.18662485514721538
0.22511263461885278 0.47309966084481658 -0.46419066498475559
0.32601431950857318 1.1315038186548136 -0.44043891690776604
0.7191724017469312 -0.31037068579114591 0.6679040317160343
0.6952398096242689 -0.60074419869978146 0.64457329127964158
0.40185861686305202 0.52043240091258269 -0.12554582971353057
0.19196472739002957 -0.19787534420174779 0.77627014595708488
0.35569486458399524 0.19908073532022996 0.28906835873840464
-0.3363952847428493 0.8514953038344828 -0.3072817586128167
0.031725060277096873 0.40396955496611753 0.79458750063867001
-0.58274448800517575 0.72529566190476658 0.10493326901166711
0.091351521628297405 0.58248623383130038 0.67583939424781647
-0.57165578678851148 -0.26465923727251806 0.685109283036752
-0.60674697966058488 0.48339387651481047 0.41259911564077356
0.04175361352309892 0.65341062446933762 0.67183136765180507
0.30512448539437287 0.090604717093658138 0.4857288293147235
0.21720784688926642 0.0089263255426139665 0.75337515453242077
0.37487286337008641 1.1829923964331499 -0.47167977165463526
-0.87715635461589159 -0.63056079388840658 -0.27153253201663574
0.44754201000947091 -0.18013779214413006 0.24328245785363833
0.82562579316450524 -0.19158611473333087 0.66797355347733856
0.58252452419935707 -0.24137673586553277 0.3337855063946904
-0.58187402085107465 -0.37457958934067648 0.66471482438942076
-1.0284594389273423 -0.71301167150942035 -0.40526411337413037
0.5707311059503013 -0.47172679491991687 0.71802062519702758
-0.58919462103122555 -0.3491790941131967 0.67254410464130387
-0.68971185750362451 -0.52288252367486621 -0.37261596588763268
0.68994011926324106 -0.4604616079775834 0.67341865645840926
-0.66670772366927622 -0.3108211622676933 0.67726466282778119
-0.91402126835802733 -0.87777881806330527 -0.44725067209708413
0.6297612733527842 -0.39369747242412023 0.72609965531870557
-0.39031534576270133 -0.63468152437071979 -0.15606546435788005
-0.064414602277906852 0.75560105762300367 0.3976203708349999
-0.38854431268686085 0.49169636889900659 0.51286444057183189
0.27212209252363095 1.1497141089056058 -0.43947898783281403
0.45886506423536844 0.024998962906620292 0.6005305422153242
-0.3487333402748618 -0.068755194068636172 0.78844762095690157
0.11737740155405163 0.48903984192972416 0.69994423671869299
-0.094259325298878593 0.45036851465290084 0.79938092405842553
0.30445529677353989 1.017961601756447 -0.37593336541004874
-0.1539888444380324 0.52647508083746786 0.74831909189765611
-0.34566036907813213 -0.64427398147966386 -0.15583562623646685
0.53779224627098188 -0.48343922292077757 0.36240958515702459
-0.1563568838769811 -0.29922621260326565 0.70868137642298734
0.69726544154821113 -0.34176540582723058 0.66910017957542323
0.028223763041410166 -0.33054718067770139 0.47237724533431447
-0.40163980734163829 -0.38938305228090542 0.63995672497065925
-0.57298862941618722 -0.93125864583093687 -0.37963167330497072
0.23591779486386599 -0.025226868947264336 -0.48102920919274084
-0.86910229324553256 -0.74084532313507623 -0.37026804717748973
0.74592187541730937 -0.37751677313173815 0.65251496621090155
-0.14657470689817842 0.40049873335208375 0.76951938369120398
-0.23279972850104969 0.44535217349691436 -0.67153375897191836
0.14251501172483927 0.36849018326018523 0.71988769516610773
0.11560519935173375 -0.25604602068000659 0.70489472601377656
-0.35434300699722598 -0.81537186891270608 -0.28481966976897866
0.098878778134093182 -0.15808371585786318 0.80583324084955166
-0.53988811368796519 -0.069114648853805249 0.7494324082514936
-0.62575810750809069 -0.32101460071093157 0.67153148360614523
0.39713039608042777 0.72063655973160223 -0.28014567674193813
-0.036724434289965302 -0.35658871126920744 0.52135810529739501
-0.77003688803242198 -0.44627743005354148 -0.036411483357255747
-0.76789549925271672 -0.50619089233271097 -0.16391761038130426
-0.41695313075490503 0.006504679289399462 0.76230947782960357
-0.066381134224229754 0.266178767447947 0.75166376538658142
0.30789235530568249 0.83470918541493688 -0.32619627774198534
0.044757766664844212 0.86212683374531451 0.60227981781832796
-0.48422088833638099 -0.43527068177381523 0.65405732031371144
-0.5845717012207956 -0.98763522104734136 -0.39218635471127072
-0.61836407182951802 0.0090619650222478754 0.76011797194996689
0.0026799294533930151 0.51733483010205461 0.7669712067445289
0.4358308160959723 -0.60105303803359256 0.53347050260822471
0.25132102269594725 -0.0042722331233076005 0.76270297396780506
-0.58263001247615875 -0.22067368450726832 0.70718164086383695
-0.05109815556176045 0.5435589396802385 0.7461618838831896
-0.4666259152281782 -0.77501806045709998 -0.3923061560772112
0.0092845660892919568 0.52980984235827222 0.74931268183001976
-0.27438833060267598 -0.27566663194863494 0.74206131311410672
0.12076550528294661 0.4034758773340883 0.7119701997444281
-0.5926668862452118 -0.19464383836271537 0.72473498340031028
-0.5395134560723136 -0.59074674356213563 -0.13524145145294142
0.17244243858297637 0.27223749194674696 0.70893738094127912
0.034859788042666651 0.62572884925776506 0.67630124672285774
-0.82717096227955267 -0.54419173065471682 -0.18131489396927236
0.10336817941538357 0.53110399901228789 0.68036684444797402
0.39796143128660333 0.60687315092691563 -0.34423332798996853
-0.10457251283079927 0.77189943572221864 0.58915078803624965
0.31059019476589356 -0.51009037660543655 0.53614818928070918
-1.0075885935422662 -0.016623259768920207 -0.044291396359653845
-0.92507056760970841 -0.97293551880925122 -0.50977203745208044
0.26599089529275943 1.1724768265587997 -0.41809866207779578
0.24740899008477868 -0.023061827050046446 0.80100917244089942
-0.39892499674812143 -0.40419913637266802 0.61362184008771692
0.17817909593733816 -0.12612391258146438 0.81131672563088841
-0.63960454357194862 -1.0034977430131846 -0.41310856734855861
0.8260048463265548 -0.37463723550812933 0.43146268546752253
-0.48018878725704894 -0.33974974940909419 0.68379327166127268
0.48338877250319001 -0.18141562452324322 0.73567284664568433
-0.48251065073085897 -0.34748595995662868 0.68638674913631803
-0.41560217922128118 -0.043904845653244706 0.78629610057600985
-0.48731470393514087 -0.36366388376876557 0.68886170821053838
0.30390566148597031 0.1945738890258184 0.47331080068528308
-0.18232964565322618 0.71329856255010071 0.59621240805745401
0.111951320516539 0.84432962617749752 0.54514096924725663
0.19471336769484537 0.76145513636607376 0.4304955619387556
-0.33265047806978032 0.29142038944475956 0.68871303561803643
-0.22375774723408881 -0.48746203325512028 0.55206203476564042
-0.19500191750023532 -0.34098849491984851 0.69162367457096252
-0.55753588947081312 -0.34661689838793563 0.68248669798697392
0.10167503901612918 0.59505037287924978 0.67474041336816981
-0.94002385171614833 -0.84148843591493971 -0.42544117771478795
0.030497261752003624 0.33836986340531539 0.7881635147453494
0.47245002975000716 -0.52107560547487264 0.68676126961997852
0.31660982901021839 0.74747800639386242 -0.30279320495350248
-0.46866812996552198 0.053360290403794863 0.69422584932522113
0.25616151094413908 1.1491977284216901 -0.41470330557262969
0.52142063543524841 1.0712418975635671 -0.40694002052191536
0.10793329918314498 -0.28937761136483431 0.64370738955733486
-0.23596406053266605 0.46473333769267811 0.76001166703832723
-0.62560556084147834 -0.021054937303460974 0.75406334333735003
-0.60680950748445639 -0.11630318632036563 0.73134871535302182
-0.63450671951395066 -0.62229219452692064 -0.28782714984157565
0.59429728089040168 0.8811759732263198 -0.41041975321658697
-0.51704202486615713 -0.18625345319969711 -0.63951018957214956
-0.66643549725159801 -0.51780592271402526 0.469570075203535
-0.89127279169687768 -0.6026898700755936 -0.23742947942287174
-0.9348370590618913 -0.73412793266982135 -0.38349443599184951
-0.35197495820824543 0.24472692878316593 0.73813552052132536
0.024663763242671166 0.30543179429217915 0.76691016372654985
-0.38267183906606306 -0.30725173365902947 -0.63237367282226842
0.36311047280335629 0.76212150473029538 -0.38099326643725817
0.87208026768703917 -0.24447441507340661 0.65389517432299726
-0.20283846760392521 0.73108268753366445 0.69730020151826011
-0.41912513563033826 -0.3576172273371867 -0.58523595717605303
0.75999216222081145 -0.31135674347747666 0.71270620874105362
-0.32836881619545011 0.63671141979929757 0.64140715518260549
-0.16359830468107361 0.48963656218333185 0.73207259214427722
-0.27204265666208016 0.025776223362672823 0.7642821848515382
0.26479440181407199 0.054883292368362646 0.65523152565458531
-0.61606906177613041 -0.15451093057605192 0.72095274524775732
0.69396468080640261 -0.31144727139111206 0.69370211303629503
0.26894813190483546 -0.040473378388986347 0.78338335458391839
-0.8820177189167282 0.29660061979755881 -0.32839918762186926
-0.37870073775849278 -0.068528053462905802 0.80722188501727032
-0.69827317923812871 -0.53467495161952172 -0.13772793203258971
-0.730230365425939 -0.58827302576835905 -0.35074664520811893
-0.394918800816356 -0.74880714766882761 -0.20877806373545127
0.36153817922226494 1.1056560040004371 -0.42660021821757255
0.28886602672844219 0.75150351852416719 -0.28488827988240928
-0.18062273207755197 -0.16600058503066961 0.6921744862165724
-0.26779230711923674 0.52412571315242928 0.76801665135326402
-0.67873417039209016 -0.43594877929507447 0.30734449181096579
-0.056812472507857592 0.5930858950548803 0.71125771626668666
0.56024142653569697 -0.15150885920756707 0.34528738316959107
-0.68911255340299249 -0.28292620978178462 0.69304701115390799
0.42769832008625031 -0.54915745940902561 0.41571974849978233
0.12937563209720793 1.0315258036160344 -0.26123584356315632
0.30612507897151886 0.76139060685036242 -0.31677070157616072
-0.29235137329760619 -0.68422172332708442 -0.21966803467068985
0.50593670223989307 1.0416922985796191 -0.45487139433731727
0.17338609382369441 0.45836064032276269 0.68454125769153507
0.18540133098181855 0.92021908244168316 -0.21904743551175443
-0.56930745166451402 0.26353770193563975 0.72349451229160877
-0.56241139212372104 -0.63852785250325894 -0.31846277472362772
-0.73489059157677161 -0.17363711532072301 0.71644299576706771
-0.039397532510889732 0.24794863514973997 0.75999374128224417
0.23256981901639051 0.0055126356135364318 0.78036534997750095
0.29046188838339049 0.81990035725034716 -0.38190783350290758
-0.65587987385072211 0.6531043546191313 0.13387158690073875
0.13690667436728177 -0.31731495129178455 0.63651059884637107
0.18768508230775183 0.98963542882037814 -0.26237108006876042
0.61365706984980761 -0.69497810066256527 0.58651188711166924
-0.0058726647740172666 -0.3004716298113479 0.6185167612699729
-0.40330126423521051 -0.63163774502502434 -0.16643196053314568
0.86027524315164783 -0.22609859846018265 0.65832359195442791
-0.315742037505089 0.00057094155121717449 0.77097271086688579
-0.35408446075018674 -0.63616441055468442 -0.072181363874562976
-0.49266957093166752 -0.568694024794695 0.44400722323530317
0.74418239592912983 -0.32271551141191734 0.67233008773069969
0.40833659306633763 0.88704404818039961 -0.35618787741020697
-0.18564436285603847 0.55591020528856916 0.6493924998154057
-0.38055455595292642 -0.23187408530141695 0.80336891245377728
0.11547753859460386 0.3504430977398556 0.73182543331301986
-0.40725719742329147 0.18712475427066977 0.79595192716976726
-0.90681097970687574 -0.53577886230787897 -0.20046248611305373
-0.2952448358343247 -0.42116744656880201 -0.50904731771180423
-0.42730779228207894 -0.23796910745581812 0.79711508746447635
-0.45678661279598032 -0.081260710561110727 0.8093952680807206
-0.31862480126005721 0.33620630124722339 0.64115503481542646
-0.80258765780973818 -0.94420615223548054 -0.4535274250735597
-0.32763022855613144 0.21536494041383492 0.79099892315684883
-0.55280569131195989 -0.31758456411007074 0.63015093336639438
0.50916478059912151 -0.65486371725478421 0.52797791196388744
-0.64902533044440247 -0.77677250524094177 -0.36407913072213205
0.15690358927952275 -0.17313456694951412 -0.51003978841725939
0.13683067505030522 0.91625576675485831 -0.3256914172173424
0.17297982614141461 0.79801106959317991 0.18186778449660324
0.18066286799560771 0.94272388591389245 -0.22529778169320025
0.28522186676815409 -0.063361367958531645 0.75710569049880405
0.28682655233157561 0.081163038387032316 0.54998014041962051
-0.64855079628262047 -0.14236275511639462 0.72629057104586536
0.83079657844402277 -0.25120128949904341 0.40610036707954578
0.40856577149054374 0.52095698392317757 -0.16384394739242225
0.1921066985546247 0.47117427666625034 0.61564362245275106
0.69992785334045493 -0.18829627819261852 0.37431181623560406
0.063894822782003757 0.81506156133978891 0.33990672519303189
