# XYZ point cloud file
-0.35006974928296586 0.15597694525791894 0.76666865770205916
-0.77436032829655232 -0.40013666006024096 -0.25766115766325015
-0.66119134757491338 -0.83495365169829938 -0.39421734698389344
-0.53004165815730175 -0.15615710674001093 0.7216049945375218
0.18563017684556371 1.0490902989234314 -0.16830061091123127
0.34639324204721333 0.88671822445866155 -0.3113555389230811
-0.62557361109594467 -0.78810266995856182 -0.33682041367482896
-0.66837980988839263 -0.57029904484755889 -0.17762345275433233
-0.6040408793064671 -0.7734700974738189 -0.27319698575262663
0.091327965403820599 0.32117780010736396 0.74835175207914517
-0.0019629772270945978 -0.32982191623057133 0.63328777795771174
0.25082985573908445 1.1197162042601008 -0.36978653062521261
-0.085016842004506543 0.52800982910758876 0.72958803128680216
0.3035537685974532 -0.17746777075342379 0.72907484591582161
-0.67880621787242035 0.20413726843958102 0.23942198191767261
-0.32498064240360236 0.17908613581050759 0.76763140947137742
-0.36823195692517174 -0.26698750655913273 0.68264368824388555
0.41948676119989159 -0.27238368428771764 0.53207725964294639
0.43382684125566584 -0.31077114820988072 0.66359281235569512
0.51115061295854503 -0.37114524223483158 0.65350325530431608
-0.047384253861537218 -0.50436642942599974 0.19466377751344766
0.36982004648405109 0.51416015058111952 -0.21787018175503192
0.81692893021406121 -0.39320832845714904 0.6030297671061291
-0.68466236601648234 -0.80563446410576489 -0.38660271497519716
-0.4651814330231332 -0.1112761502861872 0.75333608085091441
0.34090087896413479 0.94478150142265349 -0.33434942161452597
0.091157071665975309 0.58269137007164318 0.62643099043953576
0.37140568474598012 0.43507223049920185 -0.1876067189807884
0.10666668891911968 0.61016202611904191 0.55282290391989264
-0.68628296392620314 -0.44886355378417875 0.28712950140771198
-0.47638247959145019 -0.17140971229906654 0.73251468790522267
-0.66410167923135077 -0.69136325467843562 -0.3097623530046576
-0.70985005090079767 -0.3795695840393023 0.49557054588889571
0.30343996457918365 1.0241975016213587 -0.4505763708508681
0.37778398840470118 -0.37201363776318885 0.67589237851777639
0.18053527638193145 -0.11412659629189648 0.74864438847542392
0.2202909636226309 -0.14298149507641256 0.74172233804015253
-0.69495648001668542 -0.59906714806720629 -0.29964000849773242
-0.06941839178665532 -0.11955484554073337 0.7506913117757934
-0.765876821845211 -0.58569756442841481 -0.35981064773896776
0.79136821274190083 -0.38387083525481103 0.58538388292193844
0.25710924575361105 0.88201333331898013 -0.17381307368286514
0.18964132003873146 0.93727063099044017 -0.60077752718763122
-0.054079981823576873 0.46099209857317192 0.74762212947953088
0.020699056684861716 -0.16611789749771333 0.72967573930944862
0.36576368267816406 0.39445258445914533 -0.14480770471143956
0.080064337560088461 0.51834646912749349 0.65619204684329802
0.29752743614716337 1.0782326041405099 -0.39052008640306468
0.046972184460003064 0.53749963488309049 0.67326625367133275
0.15855229050060871 -0.33862559808926562 0.70304277995884945
-0.78078044450126072 0.024650310851029644 0.10887559786421264
0.073950188041408182 1.1856349809061157 -0.38521409534507711
0.23005254168799638 -0.11135890060484144 0.7391618371858506
0.58755446999157357 -0.28642390432929687 0.67213557484952879
0.35159509283238322 0.44916918883217249 -0.1665580209559252
0.38014930117560652 0.53824395012037485 -0.2538279670545549
-0.74050312558614451 -0.40302646784152785 0.34745421991325998
-0.26933836847888415 -0.067402004913617475 0.76629450233493301
0.34588923028553609 0.94369839447625736 -0.3448602442479114
-0.2101840610198451 0.62414246017578989 0.60506462707569142
-0.71262311698251324 -0.85109565229311102 -0.41374135118522304
-0.43600723193793556 0.17887922280004886 0.70291762377546263
-0.64151487268338769 -0.71630732543962949 -0.28579568667298361
-0.21947064009214046 0.43951031659696582 0.72054658151296991
-0.3606001114405899 0.94501252964232663 -0.093940860657838243
0.16409685210373937 0.73170190836270876 0.19190408684041671
0.14231388831768754 0.55514134270543991 0.56447465368426109
-0.0060835069046447643 -0.081741549485627729 0.76230142651904842
-0.74732387137709111 -0.60775412105317628 -0.3657036280594923
-0.25958081090715268 0.33924203599224256 0.75553916248278341
0.81332532881441466 -0.37413234993613287 0.5575030265384413
-0.027979887505352963 0.28296732647413592 0.77532283123800738
0.62672072211731233 -0.34131301987810048 0.60924022723004612
0.12770128243329282 -0.081961230305523713 0.75282354264484219
-0.58047119104986677 -0.81936717855279539 -0.33249237249134467
-0.37511125370355103 0.1471474813862983 0.75677691382954748
-0.68838890606434688 -0.54913221243492671 -0.20456599923645058
-0.692901176180726 -0.52699625931745686 -0.0080032598044397218
-0.1044887106988881 -0.26003564174283156 0.70899418124869129
0.31160342389972584 1.1051080765391248 -0.40442287742599348
0.37761695503832016 0.51948708956780365 -0.22340429200794176
0.25600183716846914 0.037198574864476086 0.65641376561721998
-0.74736728530149321 0.19254726754138574 0.081126691309847843
0.33928512746825845 0.2543181837796169 0.39284543945672112
0.11798741061551254 -0.28686067536642668 -0.25735598771964874
0.039580644628415484 0.39681067570313644 0.75062185994118735
0.090514543537835834 0.59688631936251113 0.6103634053292879
-0.22496641332622858 -0.28148264390728173 0.70706490673589784
-0.72542369763800707 -0.48893932021366027 0.092547376906608747
-0.47262736502625557 -0.14990039647386766 0.73783788693092589
0.3234087677777211 0.81857025565705044 -0.32567371781161825
0.098011692153363583 -0.35015277175574511 0.16160581174926136
-0.64381890219084426 -0.59113953104503025 -0.0027849541054507654
-0.58748982619863455 -0.88585661679610439 -0.41129226529149321
-0.56645858364117885 -0.18200100899196059 0.69606511929713832
-0.083997141773750172 0.53900813513871526 0.69274805392771199
0.34511840907754276 0.83269133435635467 -0.27785953094392823
0.35976948099653328 0.45861032121268863 -0.18633172329126069
0.16218566465988715 -0.16947035945236166 -0.24667644508559761
-0.65669125141073437 -0.78208403318024011 -0.36101588410606666
0.036956095483446916 0.60242376943187992 0.67843339781178713
-0.67321085046739881 -0.65411551851411787 -0.30781469956016849
-0.42014629361563038 -0.33025137729146081 0.57770664459192034
-0.43826147378229052 -0.092094883630181812 0.74969671273878902
0.73906991689474921 -0.36279996457892594 0.60080694571682969
-0.30946161914914683 0.22772896998543501 0.76400518200876633
-0.17574253668078654 0.50432241207710149 0.6967087860406842
-0.37641225622456886 0.0071104823681480411 0.77348660752352316
0.14747635780730661 0.85579724495028131 0.066538501694097363
0.30739451255669792 -0.1562132522013826 0.73081203587500987
0.7156534556563372 -0.500726458710119 0.60444696306927614
-0.64969904027714165 -0.64399196670501624 -0.23019275157747643
0.46004091572530115 -0.39983620156755251 0.66359188834209526
-0.16427926211605381 0.39115776152175386 0.72248473983180972
0.30183373775639666 1.0249248626433314 -0.3747043938110437
-0.085268501717223444 1.0188951390705938 0.04342274653149758
-0.74640402802361905 -0.53895231661363141 -0.29494160193708296
0.34628125166489099 0.17751511741425929 0.035345846550441706
-0.17914424456051847 -0.69931003759535315 -0.28631385733754655
0.12108100351474604 0.53587387409322673 0.62006367016002528
0.8060555208425626 -0.50608382611414982 0.58263649299945186
-0.14890311594490413 -0.13501991839564198 0.7543266239390416
-0.36525888896665037 0.069233309247465513 0.76810838145589599
0.15722632388440161 0.3697392891964455 -0.53931156921001389
-0.3704471750003222 0.030558707093746307 0.77612094158229183
-0.38070166010425055 -0.051009757100530351 0.76068230620931132
-0.37084240594185758 0.47557712789296147 0.51236386698889902
-0.67527097768197564 -0.63362568672260977 -0.4011576061236326
-0.56077408258835248 -0.26046373572103221 0.69665911331019004
0.61376128601017399 -0.32986297042026536 0.59905235398172962
0.30487990797769271 1.0892199775228733 -0.39371745914337453
0.69905818132593822 -0.43729536225072252 0.61925680102699676
0.31765048677311825 -0.26999862564929344 0.5388887497537489
-0.35750575827802322 0.108474608493907 0.769948216291656
-0.45187486016652656 0.091525122100506451 0.72523157095702828
-0.70504544746978581 -0.36209925192144965 -0.39994557350561877
0.61442147189384855 -0.3174688301053834 0.56537438396642159
-0.02779857420728149 0.52316215306342428 0.71791753770846611
0.32685073163173683 1.0548093197174353 -0.3901085274628926
-0.423700940699689 -0.084217292194523452 0.75389526508855909
-0.017543220265906712 0.16015771746612018 0.74037555096382235
0.7350629147960035 -0.35836511430017026 0.58072595134083826
-0.092711694627098495 0.49229142304369589 0.73807747680704594
-0.64038188975752064 -0.91214801106349341 -0.38980922975886756
-0.07013862765330714 -0.14877829262417208 0.73824438790022917
0.84962947609540151 -0.50715241119615939 0.57316501036044709
0.37829445940548112 0.6639990626947565 -0.27856988561013196
0.3272360813282944 0.7937214079727255 -0.22731119105077369
0.82920396542220942 -0.43314719237571353 0.57955394809303229
0.31980427051530569 0.99963801156275167 -0.33596205493855535
0.041161305086006905 -0.3033300603433986 0.62868605389397203
0.012187231574671387 0.79739937558082374 0.5659404211882304
-0.15730368409282391 -0.302795667592477 0.66921354253562537
-0.44819008144764894 -0.18407367776791261 0.73141891246117297
-0.76038490692553751 -0.41514979725184276 0.069822512258596703
-0.64808056367991185 -0.67768699753099781 -0.28185210033679198
-0.079265369655274753 0.48732484137667598 0.73605601924471387
0.028436070221403043 0.25567736834335619 0.76537144145745728
-0.40207358463578657 -0.0097949619438963964 0.77282837989866593
0.08974127660690101 -0.041753725691592081 0.76337482529910883
0.65601711617225078 -0.29460550900921589 0.54211425209856934
0.18986396982029419 -0.20567608467348464 0.72523735033151393
0.068271112105492193 0.7828229485206748 0.65222896485668613
0.13516795269651993 0.6359243995660222 0.42795795456790842
-0.30810563634491928 0.25046250601815245 0.7599445108171281
0.71777870622346995 -0.37263840116781921 0.60822064326405467
0.36241782916090415 0.34167135826993444 -0.1099727118165319
0.089777433354186087 0.47366262245714097 0.66446055872094334
0.34795394002952662 0.64891460247332589 -0.20988144423268551
-0.041125474075784041 0.079735457841081825 -0.61006747738176159
0.15708762891358674 0.50022404949294241 0.60134571424819327
-0.082673181047141497 0.54071636608290419 0.72919075876033546
-0.46459726671605495 -0.046591595544498432 0.7490657874679556
0.027801895006120958 0.32557471054565212 0.76800829908767199
-0.27081592808741561 0.4009318156973336 0.72812779169471753
0.30451212342734379 -0.36564848078461409 0.69061463656016997
-0.16567564762704023 0.54211570065058368 0.69943580426520668
0.13317648850630803 -0.11017945165053789 0.74435015761832712
-0.065567720227761583 0.50271151272482939 0.73020221460603096
0.10229995508132106 0.12129232311497162 0.7534911177369743
0.351328903683509 0.21679643917144631 0.01100740651394716
0.090373792406808207 0.71370865949444351 0.33516710579326059
-0.083094606479505728 -0.28933396982358772 0.63321636299033734
0.40287999813398301 0.26959718791482601 -0.067586497160583292
-0.59255894122185282 -0.11462765065101621 0.64527981496076592
-0.117803392491453 0.23839777856187538 0.75697499232853716
-0.31105389828172747 0.27408976085081349 0.75003283338201143
-0.72508047055708857 -0.53229526735981381 -0.25793526586373616
0.18409123875181876 -0.0096896606739846902 0.65935110014630283
-0.25020639698414016 0.33992869407194348 0.75926184221420812
-0.56145703001425318 -0.87077870366255183 -0.38536061699738866
0.31423967859853974 0.9057735621017855 -0.35474976100439903
-0.14263856549808906 -0.29479781150200779 0.68684040409266789
0.34144240033214146 0.14048720588840524 0.58239313118109592
-0.53852083270908224 0.26030189336319154 0.49416704549464185
-0.10719768664426965 -0.17366559477801502 0.73322144077125273
-0.13695926875914211 0.4956076859207883 0.75081306389379066
0.3521093269551443 0.50581159154165789 -0.2027006165515246
-0.16416617252440346 0.37489638777901746 0.76248685882012879
-0.62588216947239061 -0.69537356162845754 -0.22783542938968537
-0.12996198104900714 0.43486659143263751 0.75063096159330911
-0.51239087412164963 -0.089807894698196833 0.72203141721801245
-0.76545543048575837 -0.46622212954741826 -0.26146722041521286
-0.62923898000246936 -0.7058669098489645 -0.25209938472316651
-0.45462820147815819 -0.0454779919266457 0.75473925808192277
-0.48130725264070406 -0.065969121453690605 0.74374217468835013
0.24832093562116597 0.04778236738366104 0.68601624975830333
0.13027098361209255 1.0143002113712782 -0.62972995130091647
0.55888881720014183 -0.3130059879912892 0.58934740731194779
-0.35021312311965858 0.1119666973302742 0.7676935972254384
0.20563849033192128 0.29596430889006342 0.67605272566032681
-0.10357372925011532 -0.48430315660266388 0.30481539080088993
0.36846642194012702 0.48693644158117877 -0.24622546735471929
0.32709607929837148 0.92602191661501365 -0.35599575127208283
0.14497438499535065 -0.17314450816218141 0.73076323209405025
0.34410223629140546 0.44308630396375293 -0.0349576357765784
-0.07200308685469281 0.49407070653694518 0.73297830605540071
0.66393547980345602 -0.39611583643949189 0.62479577002179632
-0.071512830207780098 0.39869868768329297 0.76424954153646141
0.019039765505283412 -0.4429610922928191 -0.37373756055721685
0.033425426537519343 0.72104493350173016 0.61525712915159048
-0.60247872298691618 -0.88491120734767037 -0.39459829083521925
0.6297273830126926 -0.34153717151690444 0.60664544368166062
-0.066870656964397313 -0.10272834506366735 0.76029546210941046
-0.80899255148392513 -0.65085579759005441 -0.38584302751964117
0.35031820151846205 0.47659337475181474 -0.18908489571671083
0.33177894339934255 1.0328093002702303 -0.38418664667652536
0.017565960094941602 -0.057895356999779324 0.76617130880934603
0.26425651844351705 1.1215098684522218 -0.39577599855053336
0.34458264925319781 0.79545146396492328 -0.31875754348004648
0.3148315107732742 1.0022481294250838 -0.33128552696216218
0.34758170768742502 0.43053534593514087 -0.13724268952714169
0.28952208511412891 1.1160272018922228 -0.39846351122318424
0.03758844728679378 0.71283884470449266 0.68031467968197745
0.17666231167578417 -0.3113309811765248 0.66863713542991832
0.32341198316055397 0.33226738796741984 0.53748902880451332
0.21659292113855599 0.40414104514997007 0.60868668591769648
0.73530359225230768 -0.37595011090678554 0.60348894771410144
0.29536116161494874 0.71637207338608277 -0.075475493379272507
-0.45100860619447758 0.11404621759965039 0.70785886691055566
-0.044541164479994677 0.55584360146565359 0.69162750246343307
-0.44927276364552426 -0.12913728137425551 0.74135610803314833
0.34378643886049076 0.94365391400214094 -0.33993896341915075
-0.75992490597280948 -0.4456953969477695 -0.24498707605604864
0.27851609308328307 -0.15039220913899953 0.69718238008097799
-0.13891685539834953 -0.12289017473125341 0.75706918087230424
-0.8348520371201289 -0.42764503877492643 -0.36497984516037718
0.069397639099463504 0.26138737750994778 0.75636702774241016
0.22418453161134266 0.014544314078477782 0.61734365474980635
-0.43959758816777139 -0.0827813369956516 0.76148247771685718
0.69245157125618562 -0.35188890712242937 0.59280774295047856
-0.036735375068531084 0.61400415910776474 0.73004106259013568
0.7114822447550182 -0.31964422475942911 0.54582488312318134
0.35799376219682699 0.86879890318022035 -0.3344247725884486
0.33907715425107199 0.89139023987729615 -0.2974277571045576
0.30985840538698994 1.0612998424341527 -0.37174539538754914
-0.61417036210968945 -0.7752850317569937 -0.27452683788087739
0.70663483695403784 -0.47243011819853109 0.61359870586844734
-0.80483163604009178 -0.1458935361215481 -0.18294853487337548
0.30413779383505357 -0.20369028201741912 0.5144569977262492
-0.65574309193436875 -0.57177265031168645 -0.0064261390790605333
-0.18963623529458573 0.51939439109543173 0.65389504813765242
0.19392655029474781 0.031606602734996159 0.72287019870477209
0.88999805408323596 -0.43899254642587948 0.57811379600672907
-0.39084617886788919 -0.38966767151430304 -0.56787053547920152
0.34890151813317516 -0.1990169139762088 0.7205648067963546
-0.59945164928569739 -0.69405847309155888 -0.19401511298507046
-0.079561957610394529 0.35350702077562346 0.76771212308960557
0.38290927294639232 0.51557531743719665 -0.22444849466290862
-0.19712368450245776 0.55100272883800017 0.69187991080368505
0.23651884887237884 0.20521782315415749 0.68629932237082159
-0.64144069938947723 -0.67670269654092863 -0.26107445378816863
0.61260352717636124 -0.3119636489034292 0.54319659208918836
0.13345679399981236 0.49835618259891135 0.62521796012589625
-0.32559459265922897 0.082330886666909464 0.77047734941924517
-0.26229117335606134 0.58040071388893466 0.5924124203062533
-0.65318748788246239 0.35081249249418534 0.15675712434001809
0.55896258975857904 -0.31609783611474995 0.5747722359251064
0.32133507525441019 0.97263376427548565 -0.36692940592301682
-0.65881759936576145 -0.59811286620271176 -0.021357853563351625
-0.025963100478975321 0.63776372229403933 0.72107625180164803
0.63511740728122845 -0.33709024201954207 0.58798822012752083
-0.12681139428730148 -0.036307113087332255 -0.61676075429888044
-0.5243298877069833 -0.13720579483600659 0.72070055544284628
-0.029519334724454893 -0.10735916568563653 0.75797522513285642
0.35288074443042206 0.16516346187063391 -0.10842524436936429
-0.10028982074902615 0.44414409411507449 0.74422420670739697
0.039287076769824125 0.4966782830421721 0.68651915512457506
0.045335094940185172 0.67585178804756652 0.60310477404394902
-0.33471078880478444 0.23551944716888329 0.75060613718709135
0.078752637338084241 0.34059274062690292 0.74932442502304042
0.13002441548604793 0.88394483298486648 -0.62942400539382959
0.34340000847453211 0.77849441637999917 -0.24770851038437058
-0.21628220326874725 0.49612999800291391 0.64104965757027799
-0.35575269417222444 0.016702469255449159 0.76823338106875028
0.3799668988939402 -0.25319829774997515 0.6964104604500081
-0.014730011241283592 -0.093550402306050273 0.76086959377720653
0.011574413295420527 0.27327953258463822 0.77377678368970493
-0.006454792367378559 -0.1086001175220872 0.7542275911775711
0.34572876417792031 0.4476818641547311 0.12366682726811007
-0.035470844356041198 -0.19417431902621729 0.72622179120204322
0.40488750638263582 0.32648466546140753 -0.15943190131896756
0.35399024352796005 0.90486362580276136 -0.33956743919941346
0.23044687662653018 -0.25859026198565971 0.67025371791046551
0.31233142940146763 1.142239779121212 -0.41890364370220112
0.36483658356365822 -0.28386256621479333 0.54690954278093074
0.16841142868781844 -0.20973005520050947 0.20589121008589473
0.16261175092563462 -0.06875893555724133 0.73385351399028664
-0.51841364184866734 -0.10069795961044292 0.72022868429643694
-0.64526069752457715 -0.93835501484693395 -0.42966551213702076
0.69327124582281385 -0.36093030188015973 0.60546291173999833
-0.66505834141742071 -0.2627853649924532 -0.48581383093329578
0.25566950238510344 1.1748536353001668 -0.41700095854801589
0.15406708033032146 -0.13683890090828754 0.7376113395335242
0.34776478322999083 0.91737106264747581 -0.35029620583038934
0.33161538590292139 0.38008937540354282 0.32733211418225849
0.4221131094433872 -0.37645710242156838 0.66728698107009166
0.37461814877002553 0.71781539393447247 -0.29141947948550495
0.69478968839939625 -0.32693077697160788 0.58122374207333394
-0.125381696291754 0.32331060927788258 0.76672495672929841
-0.52025462571322123 0.25463531423673658 0.53617235192413659
-0.51662326915766243 -0.089471294735858464 0.72070234009996881
-0.045885794973003158 0.36934639433735583 0.77293851919743517
0.080470789720550329 0.662945004644655 0.49845148054873079
0.34780046884520743 0.93827909241122143 -0.35365364153956591
0.28952816684824256 0.76352970470384207 -0.11644729037926993
-0.69459754462042156 -0.42050667104825834 0.36232719811398795
0.028527885728465208 0.53548752162777191 0.68963712051936099
0.17146569511106691 -0.019173817378089097 0.67330854280471897
0.40638199550386389 -0.19377889871054776 0.70802833233219076
-0.74161001395168569 -0.69639234098661973 -0.39566384912605201
-0.055354929334612279 -0.14043616761017574 0.74100712607991959
-0.2593882718003897 0.11575573788684324 0.77379175846899528
-0.10340356338991796 -0.14094755691127148 0.74386491385029352
0.1799335122165644 -0.021267563349169905 -0.33001921037924831
-0.069437857541686299 -0.46927992265028706 -0.46496723950278351
-0.68966198540749701 -0.57245226127184878 -0.24966924224870013
0.27770913041860013 0.99729519607268458 -0.31665901575679811
0.32505025617479077 1.038122562515241 -0.3851705182097902
0.77285787941238482 -0.37886324854480335 0.59387186677513881
-0.12251577772087785 0.23859458542978018 0.77184844553805121
0.31073030182034245 0.14580608398574668 0.47075141012786759
-0.24431979401555282 0.48789566449715949 0.69713457346161078
0.21254278962794615 -0.12106469252091756 0.69284951223566082
-0.36275449749479094 0.16479380942553234 0.75878212706447101
0.14482663662914774 0.27546092652266907 0.71539124418031008
0.30741828783831693 -0.16979655646372294 0.53893031867778163
-0.11632555308165138 0.33495419315130448 0.7606044215390213
-0.52815820810042169 -0.49271868991024803 0.17300611496955298
-0.39693925022021403 -0.018388580980797542 0.77240222441162132
-0.34209958584557398 0.20662491299640351 0.76490335252349695
-0.034199834768287474 -0.41529857606138876 0.40201884234550533
0.3536695039085771 0.57331314352376239 -0.21502537754695794
0.13222580592162103 0.28208237778284229 0.72524830968057863
0.35681467127830047 0.3450094442180216 0.030422977551410213
-0.78110443352892389 0.14959551512055214 0.015356042216595256
0.49700618141332598 -0.42125280573060309 0.65857481390149264
-0.37506071401907093 -0.0012860610107736647 0.76589284049227757
0.85369561837367769 -0.39586290981134198 0.56120046215328578
0.73971524433034119 -0.37701049382485508 0.60344616922014893
-0.69777999143707348 -0.75149586228786802 -0.37301874248474576
-0.073503192333816969 0.6993444883719917 0.57576538487766982
0.042531795498803149 0.51267597746260662 0.6683446314626309
-0.28616848136630324 0.073441993024800922 0.77265899068731869
0.35191729219411627 0.53472437661787353 -0.20466369446117483
0.37442860523742638 0.36772215911531703 -0.16368758751688262
-0.64345438901369789 -0.66551426649397172 -0.26279654727593993
-0.42782402777430661 -0.11068045874498011 0.74866464028179536
0.10573449460616757 0.039525971641069191 0.76040488862961908
-0.10795971443309327 -0.10612378509745213 0.76029536953044374
0.15058013104936663 0.34073003069653396 0.68869045045579469
-0.76821193867152715 -0.64815096728466415 -0.39702900862793911
0.8396760408703301 -0.40609328042268089 0.56847619324456389
-0.48040519140124616 0.5892233867227219 0.23236077355912244
0.0077986705077250917 0.6727908693449649 0.70699267296036794
0.38530589935163562 0.29232846722675276 -0.082398626755725957
0.34868634103071372 0.36925005039648795 -0.019117425741590921
-0.036266847159652116 -0.24763458317852383 0.64098737980562337
0.33352144697505537 0.81064489131915707 -0.30689328628402279
0.06805088398772341 -0.3494938726614123 0.36987499171377891
-0.35295701263720503 0.26886706138083127 0.71752227312581596
0.32433133566684091 0.71887313718679025 -0.182456483417063
-0.17314327358224091 0.43357290278640903 0.7500590673229901
-0.6004500601193854 -0.84807219862125294 -0.35704422330775287
-0.30394617525723788 -0.30253175302328827 0.66768568408670603
-0.11382593448439593 0.39103566975745707 0.75083086845408786
-0.12977698432558782 -0.1755050613929825 0.74060962614526815
-0.67558736361013416 -0.67530305706372928 -0.31830949558532495
-0.67722341355232629 -0.80101498840667773 -0.38275869518906802
0.18688491146411934 0.35593404968199138 0.6629687488235092
-0.045713175791206595 -0.1038355050076234 0.76032519995083891
-0.24595616484299399 -0.214750191357723 0.73561664490384082
-0.3192127209129012 -0.25392473681620231 0.7084104141147769
-0.36593154229655056 -0.024852502178134728 0.76444356561129112
-0.34432872649756519 0.20237549921932896 0.75642741326513629
0.87406828918858537 -0.41561575593857469 0.57261298185796505
-0.036144989749459455 0.52576051788287259 0.72067877203316044
-0.85142682855592966 -0.45847062718377174 -0.37721454876890448
0.02457751336248748 -0.18738911763654187 0.72582837919819632
-0.75069303952130895 -0.45220904331063139 -0.23430722698854822
-0.68798902517613669 -0.53264031315450211 -0.089024002092415344
0.08987445108027714 0.33754032948178292 0.74503057007695972
-0.53478204621791292 -0.17734454936572774 0.71973650620611807
-0.59818456204743597 -0.83786105790812826 -0.36042662422109117
-0.44572327732231543 -0.53869560921651782 0.1135582757712541
0.26501139706527965 0.37898284196916165 0.57514148388913178
0.20974873545168293 -0.30183266177635915 0.60812815215519223
-0.81552469746293355 -0.88929997290171059 -0.36822349984490188
-0.073706572208095622 0.27352301608647167 0.76858948986118136
0.32846381655679124 0.1973750206789191 0.48023679232462158
-0.56765786473221169 -0.66262830464273748 -0.31590079431238394
-0.67640764706527534 -0.60777068548088664 -0.28617346044207181
-0.72868165346636715 -0.47136258515899954 -0.15502893113539074
-0.14352199010039612 -0.32238335276207408 0.67104488334338797
-0.49232119396953067 -0.070886775069141095 0.73395477993482672
-0.14607637994271272 0.44054685143538563 0.76063454015514864
0.31318904857869256 1.077508278751111 -0.39433258449957975
0.13117883610772196 0.40952378981825177 0.66821886161996957
-0.48873466017909095 -0.14544925792745289 0.741674516600483
-0.32368101368831503 0.13846449096791957 0.77008684677933914
-0.16690119316666596 0.40528028269858396 0.7643447934350931
-0.60100316567633172 -0.26094120590391867 0.66301909285461136
-0.34447451253555528 0.1929661853079665 0.75079436654260689
-0.28191212510057539 0.31492036681856916 0.75134086224181118
-0.31524442736821356 0.26331470311345129 0.75164221556026689
-0.46376833206790025 -0.12747006585527743 0.75133266791387854
0.2293514597668036 1.1741963567689027 -0.52338331964172369
-0.075338809320612654 0.071415763837990198 0.77772391236119098
-0.2021181321844665 -0.26585332744355128 0.71485810601355659
-0.71172325085427701 -0.7118005023638716 -0.37137226493473463
-0.03422620924959574 0.40957611536845207 0.76651940433082899
-0.19615001889837913 0.54121657363896247 0.61354859072069701
0.29680287644833925 1.0982154960119601 -0.38905002094166008
0.68392488927017325 -0.3361320882101495 0.57591315813831656
0.56507223263906781 -0.28217565661924482 0.67862661109071354
-0.086159082019889865 0.32713106198804098 0.76760466690161877
-0.010740429720613065 -0.39868684891808925 -0.45208885918830788
0.18151019044248073 -0.24363745892031829 0.66317537745672528
0.23498959485090154 -0.31579145792318286 0.67429592794038484
-0.49409798944509475 -0.18194924259933032 0.71621548467787832
0.37828807997641434 0.58547052322427362 -0.26812540441574839
0.89845595243409093 -0.44525007911232706 0.57287621414352863
-0.30152828792148512 0.25740300948973527 0.76045837566955754
0.29743059473764788 0.29123494840462172 -0.24036540788618055
0.33853889846500351 0.10590294982142723 -0.062145568609160762
-0.1224104252203233 0.26197820401506533 0.77133573631846453
0.53267657783175082 -0.44018247534847887 0.65235194809426211
-0.72592243085699693 -0.26482889310108249 -0.40588730004219542
0.254730766577552 0.051149006777052364 -0.14218438356606811
0.86403742923204163 -0.44745726918478113 0.57173498554736746
-0.098956105349486734 0.46869902434912092 0.74361982990648201
-0.64988635257361693 -0.62316182651727559 -0.22826683084716137
-0.34225772254728781 0.23357946177844724 0.74155249032691373
0.11872050534748269 0.19113950509807864 0.72755256861523954
0.26087530222508803 1.1491313285374076 -0.40493999067898301
-0.72915713700325568 -0.57626526492117591 -0.43029036424080402
-0.56590791800891793 -0.24183422395344678 0.68249554340312457
0.22944632611063298 -0.19079164588907815 0.72931281223047772
0.0033483208372899753 -0.082148363387773315 0.76098262432338615
-0.59618962266495146 -0.82780101022262897 -0.36056387863605721
0.35739152533648166 0.88171385510889877 -0.33520034298472012
0.69265430684112061 -0.30996787812654247 0.5476701065949019
0.18706776778316225 0.28572473079162819 0.67687665091562721
0.61472424684120597 -0.33858263395774202 0.62255813364362034
0.058478759025263116 0.64345909341619745 0.61627207910296278
-0.11036616998524096 -0.31403982567599087 0.69077152120831897
-0.34141030691847618 -0.24705830142386276 0.70282917393591404
-0.037946178492859417 -0.1957315678396867 0.72783306585924645
-0.28489008176097741 -0.32267524817791582 0.63717180419074992
0.1153185905417331 0.44558080498262598 0.66392697112869925
0.2377009970584254 0.83451266540345159 -0.078988011673523317
0.3604985865667345 0.27441291474144691 0.51698673373057069
-0.35927464538667664 0.055360626307219718 0.77683311196149418
-0.40335244426506733 -0.067871020829954887 0.74315553872019535
-0.64566692790526758 -0.34250821507799856 0.57023641061121566
-0.6414192646126935 -0.68996607306394253 -0.19183155484757464
0.03114730587668646 0.6534818518361476 0.67208951801583794
-0.072511191055014024 0.50282765779297733 0.73332467782704569
-0.48887813862108942 0.18653744155989216 0.64050477268811079
0.35528403430754452 0.54283561856493634 -0.27082915102568705
0.13770041083387241 -0.09580042528540389 0.74824812819303865
-0.045571010455830674 -0.2819955883596208 0.68632109137212538
-0.1209699652814038 -0.15032879615711181 0.742223446249902
0.35815318672081276 0.75985982970854593 -0.31219780581680112
-0.16078436457911494 0.15881662754173931 0.7749947696407915
0.42827979055871879 -0.30797186163778179 0.6334097410953472
0.36098359523901991 0.82033536668120632 -0.30905879591448127
0.089485522986279875 -0.28586647948912969 0.58589708886905978
0.097720440102193606 0.51249205848614565 0.64509620348842134
0.33819856147442806 0.5183829057820617 -0.0018361665753872103
0.30513135445761463 1.1432347938165321 -0.41648084004181385
-0.32276957248643612 -0.30046763590979708 0.66115448753169659
-0.13033767561029208 -0.12661070338583613 0.75252818897703389
0.36080983376683662 0.32331445417366922 0.062740822232825622
-0.52609314553779996 -0.21010852742381303 0.70451435955838804
-0.0035149257874422801 0.29092751167104325 0.77548557468886159
-0.40507370281983412 0.10385246313529706 0.75049214106062578
0.091642542782551573 -0.33218885122488473 0.69057616196583282
0.016839943014986147 -0.21982685188788764 0.59757518840170043
-0.41878343356825098 -0.020692510901142214 0.76910985176432334
0.050569861661415416 0.80891945687494626 -0.65260074310822347
-0.8181100846908862 -0.85321282042463054 -0.35685733111854745
-0.37372868719450025 0.30986355721779546 0.67183071170168063
-0.36031911111564341 -0.22912065621710553 0.70591108615506215
0.28250142923178601 -0.27995429286187345 0.6653257287635661
-0.22054294649268513 0.3818913485771418 0.76100464268682089
0.37181463684055416 0.75270305668163928 -0.30181785546083972
-0.88340515678174825 -0.54145587348909885 -0.3745581224904555
0.57666096888851825 -0.314224374510502 0.5826012199118793
0.37390244732938527 0.36359490755614843 -0.15454624826699614
-0.53481970971688497 -0.21849189114271894 0.69578506944367291
-0.26473734338082977 0.48571937680571864 0.61233899028098193
0.35050064888031329 0.5012510167841242 -0.19561091663312169
0.1657080454200468 -0.21107157320972192 0.7236375048028556
0.38057918146188285 0.62536495730176966 -0.26525025342503028
0.37000529187275788 0.29212973479599214 -0.087303152583487531
0.38408376875543127 0.33932026742706967 -0.14254385592882812
0.74496814313798154 -0.36381693477829913 0.58233553188832943
0.33953187932985429 0.97117621680916955 -0.35891991137582124
0.22783758699836199 0.76944715252591322 0.019797392061263963
-0.035818385269408282 -0.28421184442260028 0.6762606149531285
0.27500677833825193 1.0276135352784195 -0.33423969541428278
0.82909920936992876 -0.39056325363702626 0.57586731401955227
-0.55375666836647497 0.051900923585151304 0.63200668098678392
-0.47664135703394095 0.14370448148207515 0.6656487494979757
-0.44166705427471697 0.024075099184528881 0.74986123644858083
0.082935661350745704 -0.058551061143816696 0.76248596251785017
-0.66121581525123929 -0.36584560617149009 0.60977153214335544
0.17433998990486543 -0.087639168635803344 0.70986344861815986
-0.2023747022122393 0.39256259929874204 0.7538262416510122
-0.22221136695162613 0.42624382037814712 0.723665394564037
0.8010551789775775 -0.37148046966774473 0.56105190863614851
-0.28128550957080733 -0.25914568422348339 0.71710025733922222
0.66039999398202553 -0.34407040725704974 0.60825375017868666
0.39709038034550304 0.45582356993867279 -0.20477711881196825
-0.64182137938291817 -0.3553548443092609 0.63781257224360388
0.2900154191751767 -0.15737525883804437 0.73353296523681522
-0.64371936887056336 -0.93951759501482002 -0.43301407386240953
0.43973937425346321 -0.3577268749085647 0.66220643544766489
0.35443836747748492 0.27711754288213797 -0.047768949418340867
-0.63082826379593371 0.16011996124728967 0.40366384880957895
-0.21433999122604064 -0.68602561691164965 -0.35304467652274241
-0.73179264292167545 -0.42520127605052949 -0.35659247887012668
0.060892388637000749 0.80725504437896234 0.25100110962934252
0.33961492891432954 1.0042429214201434 -0.37308141766325775
-0.42493228107872483 0.37509857397100177 0.55737673256483333
-0.59226470524947672 -0.8475576407176959 -0.35256627952732345
0.31392233581863138 1.0769498052314361 -0.39494087350029616
-0.47311385765760861 0.31969889957383657 0.5471200281612596
0.29412262945851353 1.0403826608257987 -0.37864772576497074
-0.28619644880967599 0.043657804659630983 0.77269811505497188
-0.44058999495399576 0.047543616509244657 0.74248805306788768
-0.11347938196121277 0.40750477674964714 0.75263528179937467
0.12432925440344889 0.59527864718950241 0.5371105339109512
0.084344866094454574 -0.30798432719888069 0.61609377045013147
0.38275436634978632 -0.29849443938860531 0.56552513597975462
0.044504137876060668 0.81512746943684533 0.57484681247725788
0.60121048946476208 -0.32962579230076017 0.58067543230280094
-0.089328682351947464 -0.12865405349583625 0.74779431996037538
0.14108007131648037 -0.087141895743229725 0.75512160998679079
-0.34692361788160042 0.12039981843992109 0.77779377912150949
-0.56447510987152327 -0.62598394869746699 -0.38413650342619121
-0.6902840923166309 -0.61432908923416107 -0.30773684019381164
-0.058798910171731222 0.55266992903341361 0.71831800865698625
-0.084796748758719787 -0.16893666768987714 0.7313363663139576
-0.54282903389298554 -0.27270816949317123 0.69285656439449994
0.27672121834365271 1.127727351258784 -0.49845760857988353
0.38882820532228379 0.46842223383924875 -0.21906822123856529
-0.59442757606922214 -0.86421410354000727 -0.43281130621252828
0.19375326654801484 -0.15949638452048021 0.10161391698641609
0.67557013488828943 -0.3090971749825826 0.53798174572763813
0.31171262379513109 1.0355502002701087 -0.35129471103941512
0.30889100744201414 0.55359597633065505 -0.33580988781643839
0.084518641623787971 -0.051446955494611757 0.76302975324663791
0.00072212823351947009 0.59689006862458882 0.69303324380242515
0.28603582953473961 1.1419385236404196 -0.41034575331231338
-0.020210895781389127 -0.23412115923139254 0.62158120470646594
0.19101394824519957 0.096464284059322836 0.72810922444430304
-0.19930621263438297 0.39625590096221686 0.76401020767911021
-0.46576193175104663 -0.4817840563796949 -0.52263103443287662
0.37679435540962913 0.28847609748589775 -0.08272442375035638
-0.39966226368579783 -0.049831128171945238 0.76405261440716998
0.34917340245630157 0.52651759814392562 -0.18536495346911863
0.040904623952144448 -0.097483237992832983 0.75285792760188119
0.062807429458757724 0.3194188210379707 0.75935659022370317
0.5886588035160969 -0.31685761888712705 0.56243966412812085
-0.30505115298910823 0.24400368803651418 0.76225514749306456
0.29765246342515184 0.95911796873724597 -0.33591379001138932
-0.15002836389828644 -0.31879794361083214 0.68015523852349702
0.35520080750688976 0.77191460331886219 -0.27686581346738137
-0.12778044366734775 0.60403848804503468 0.65408229656399897
0.066811747695339818 0.26620340456395297 0.75912545242253948
0.17094265936611919 0.29072495705975143 0.69235629971012713
-0.60400843470148402 -0.876386589332526 -0.3789582454046041
-0.230403747797709 0.55386492146362798 0.57705610970381827
-0.46193832709428762 0.18485276599579947 0.67325815620991136
0.33804782743942496 0.14895993231203875 0.6131309391496913
0.24913818486402306 0.037832516973480779 0.64555980339064867
-0.67173578089295916 -0.14046614236042387 0.52649785582848097
0.013860247844036166 -0.11655453088917511 0.74849294991508586
0.34729769367856989 0.85891814797662391 -0.29776594189738859
0.1470484051008043 -0.055202389998783019 0.69265207806425622
0.22397206200173514 0.63047623316583667 0.22702951954378037
-0.072946090156619903 0.50811977158207355 0.73284546501575676
0.37922874552697294 0.30571537805644766 -0.10348279097453172
-0.032837688228596562 -0.10427098889249464 0.76020157412204448
0.63163794259986616 -0.47407075721116598 0.63009581486990784
-0.8072567457274431 -0.73653570074333174 -0.39287047220838645
-0.47214948993263306 -0.0054428882107799836 0.73398491272714494
0.34441129997634334 1.0197293891394565 -0.38802374326074585
-0.5853322957239584 -0.58942130724381059 -0.04820308120520167
-0.86056105458231968 -0.51764075111265129 -0.40644420266197301
0.081847067598744161 0.48833944590074907 0.66626281862887637
0.14957428175802079 0.79073541590832974 0.1408740892191247
-0.7272615537309548 -0.49497284565836708 -0.22386501689716454
0.51136664206768501 -0.27873397984978965 0.68060566970102077
-0.326615987615412 -0.67333301039462867 -0.38912202033014864
-0.42927425307891554 -0.10193850820405714 0.75582716621060797
0.38307918890819792 0.45533598345610926 -0.20311293227978666
-0.0080491148222563424 0.64207269523905097 0.70379792078915671
-0.67722945437151338 -0.71994339039844135 -0.34171473309210398
0.1336135434253265 -0.16486257453823328 0.73130128422974661
0.023584479195108088 0.79040530872202908 0.55505499341376918
0.3858783371937875 0.52359886448687121 -0.2418587454203518
-0.67617834509309205 -0.01343390006837808 0.45025621074950095
-0.030681605709389714 0.44034944773085272 0.75969394151525904
0.26464784267560049 -0.1672519695072765 0.57729561984774769
-0.24608732251539323 0.46960340780867682 0.67358248670027621
0.52241018339040579 -0.32132838475183689 0.60299992931042468
0.69386742562431891 -0.3504469058526638 0.61605067595995777
-0.47412015384560391 -0.14530495300283519 0.73796011261362793
-0.57276120409369469 -0.062507020952693892 0.65517218580313141
0.15935177426086966 0.31311497220184492 0.69775195594798589
0.056822495887843161 0.41183479040790871 0.73594355875963302
0.14847844426208212 0.24986729440496447 0.72396546812020013
-0.15076518598357325 0.4383625586210087 0.71139558580862072
0.047015890850047981 0.72694012257414897 0.3764463753680829
0.17645182844023566 0.41144260041954794 0.58513845988942137
-0.015472607518063342 0.75574967791055769 0.60753799258120367
-0.71113070898439901 -0.49536140722392474 0.15134161316997563
-0.033223972339840202 -0.12358581537898772 0.74735516590201012
-0.85579650840958266 -0.67837124655528669 -0.3689428855002177
0.54148939129999007 -0.31216101971386934 0.59434754448196436
0.38395150898878683 0.18692620951088657 -0.11464745212077787
0.28471692839588059 1.1227693473277895 -0.40220231209806201
-0.035470602254861205 -0.32792049846040072 0.6545684703344179
0.35616035596376605 0.86991776762215522 -0.33710670256270703
-0.15231080493009586 0.83514055168319601 0.29046769734944178
0.52797172079380061 -0.31473411755018788 0.64264497452683145
-0.68885932770558611 -0.38827566068323449 0.56603166082218337
0.21763611697213037 -0.24405105609980637 0.70414211719148145
0.2594737684647157 0.98471497058744717 -0.53825115965412351
-0.49070317258917839 -0.16351024159166627 0.73253037003763666
-0.59392595624780142 -0.88211806666663506 -0.41059425938564686
0.75692088162918481 -0.5064469684043047 0.59304939076641361
0.26749163939257414 1.1492444989359001 -0.41199660266119054
0.31857175835949647 0.83207865507228007 -0.33362010848351531
0.21993804307430764 -0.16991846255376686 0.59427251293798022
-0.11152715396099211 0.4082431169525762 0.75043969782036513
-0.73645900610779336 -0.48526035253638611 -0.23372340331306418
-0.86645281951973629 -0.55733557382711751 -0.36273438194132268
0.26730765329358519 1.1660989738546164 -0.41012775527813261
0.0042556635987125446 -0.31840726134419128 0.69915744691142123
-0.13171313047865851 0.48991758233898963 0.7613058638584036
-0.035116043146786069 0.5506737230130625 0.71515462141310593
-0.10148298078308926 0.2943305226249322 0.76190569425283883
0.37545215082718641 0.68320157364348688 -0.29008580191098332
0.35499984742165225 0.61270294102394018 -0.22548479862555126
-0.68501923652979713 -0.58503380714796549 -0.26370878578289592
0.19390622353779463 -0.14025487304786566 0.74282408907020692
-0.64431803623352835 -0.64276380910320086 -0.26354596517943207
0.56845786101882823 -0.32381961680658833 0.58822762602945744
-0.35758346225469495 0.11726434386241635 0.77459666036195784
-0.55331189447701945 -0.19334066110434378 0.70825271092676445
-0.59185620547799545 -0.90905626647469262 -0.42542129750717095
-0.15842262910780391 0.48174488047072828 0.73261022008643906
0.54553750123332634 -0.31852750921166262 0.57134825755735719
0.51770174401571012 -0.23990155764988685 0.5748027476039681
0.27625014538290316 0.08885268409346736 -0.13312497380965027
-0.18721185900329829 0.37101589153201076 0.76753855766542145
-0.17211195881827734 0.435704859189741 0.76207574031016634
-0.4587267656506242 -0.12859665402231713 0.74674648568959512
0.57573787575165625 -0.45385712746218587 0.64011014934188193
-0.49936376440223285 -0.062090411848146232 0.72623376596823164
0.34528168789120173 0.97161178969088269 -0.36251872054064904
0.33418020603309628 -0.19819880577563254 0.5145612349199542
0.35531929238129578 0.57337496954750122 -0.22135936803911704
-0.032227537284086338 -0.19184040936272595 0.72516433827343718
0.5998852351519588 -0.2944054955156048 0.53206766444615639
0.029801810844048759 0.24438675082518557 0.76302420834012707
-0.097140564434596399 -0.17203843838467492 0.73183392771628686
0.68916006600710489 -0.48438995582921507 0.61174332065501646
-0.34671108929603633 -0.21848398367654909 0.72292574948532007
0.33853822386669208 -0.34195286261780211 0.69136669123585737
-0.0091618230613335072 0.6514502052300486 0.72027924849619041
0.20337467557902755 0.50245259118986496 0.52929579125489568
0.3752248968286267 0.6694516521849323 -0.27019040546073114
-0.35890946854766526 0.094407685531791685 0.76591328173648421
0.2953340175043877 0.066458333153150306 -0.066904812565027783
-0.65576778426947158 -0.37192190465674457 0.62144493533939027
-0.66350244939911818 -0.64199210929643868 -0.076453049331149714
-0.24730734825533318 0.46154484912693761 0.64558678154209304
0.39868020634457935 0.42361929485093697 -0.18580728315718176
0.030225975868063415 0.72745810079220519 0.59131393031814738
-0.13442856478360454 -0.16296553705365113 0.74231248538600969
-0.23853252727695917 0.30660923186462696 0.77085164760615399
-0.43834239263372865 -0.09451970931257847 0.75923585920599024
-0.40168375530123512 -0.08254789167170884 0.7549104351160274
-0.33883137936726371 -0.64282964391583164 -0.061059160282134428
0.24354095246616225 0.9700494045061987 -0.22852214340165489
-0.77000062923383439 -0.51972196570517326 -0.30537440403750793
0.86044451843625325 -0.40990976296222925 0.57908803085344474
0.82814416121371437 -0.40940062831839441 0.57365727275001532
-0.67026896630619603 -0.52535373125027718 -0.3954091920334406
-0.65171512333597548 -0.86671118754486542 -0.46150755963478218
0.18467317160246921 1.1738272518382473 -0.55598660364272234
0.22066149470413166 0.52856222748494019 0.45252055728138885
-0.12297324190848258 0.63004992685256411 0.60724266213026823
0.37635370691089065 0.58668889325917917 -0.26611297837666825
-0.71487764651629959 -0.37376410496233348 0.4998911934688266
-0.003829472119662114 0.45145749566233917 0.750708854060397
-0.62733161674793791 -0.94236584064094586 -0.39660261666786312
-0.58519114804835226 -0.25728779631191401 0.68876433391756464
-0.12321181822488825 0.47928345047279208 0.75571458372638389
-0.38813036084786745 -0.024911693729279705 0.7590791575123319
0.29085947244305999 0.52520549145918949 0.23758175492235267
0.86615220723146535 -0.40654922276780781 0.56799256239999707
0.3109339046273476 1.0427004809159826 -0.35736294073173269
0.034384593742458947 0.58919710095796063 0.67809149221056941
0.80334991875096762 -0.38660655388832765 0.57264951193688063
0.7230157986900565 -0.373999190845268 0.6105697639026797
0.22532070916190605 0.66141176280598302 0.17269390884451497
-0.42194138399605663 -0.49136553402723848 0.24298346850985553
-0.63930443028459649 -0.61457247433821749 -0.035029059564941178
-0.1243281453862437 0.46619304014143381 0.75038601841519892
-0.051472983962298713 0.54722968673513606 0.71855279912777448
0.23844592136481424 1.044049485724031 -0.28349694965717731
-0.54591872401630326 -0.16090611240332464 0.70608776647652149
-0.43010919753834287 0.031190922053724535 0.75764194999845813
0.098813629372784817 0.35648502944860638 0.72729960066415344
-0.75119410003475195 -0.69582583354588223 -0.40718702652037564
-0.45836588233157727 -0.092703224765841696 0.75644045885221445
-0.12260051539982442 0.47233088359297426 0.71400585806704697
-0.61076147830743821 -0.90480892708239935 -0.38756147397107554
0.012579949084113196 0.39725128055528103 0.75993411206569306
0.64997767688851127 -0.44450280773224904 0.62589301245078488
-0.55204568095939521 -0.19267418508633227 0.70955238914957874
0.63375350928004082 -0.32301289209749484 0.65519353099464084
-0.62390555090166799 0.067594871444498494 0.50575596620969065
0.088166021285815077 -0.13200751167016733 0.73984736314974064
0.075004375096227704 0.28228617085221686 0.76019816893366077
-0.50608456429017679 -0.53470170744350298 0.075291734292683543
-0.68881575826702601 -0.52939166582029884 0.053393606346887168
-0.33471265578060638 0.18871147469724292 0.76301219071011417
-0.46794139009000446 0.0088230629847316777 0.73825201329994883
0.53751778246999038 -0.35995620895573666 0.6541889804706349
0.24782240915618559 -0.037002510443755909 -0.001378134911988127
-0.71061106904807048 -0.65632418686379879 -0.35079387673314955
-0.093587857980310218 0.57235467010815455 0.65495255463314805
-0.43577302757370262 0.063383682915173267 0.74128431286573715
0.50599321295322852 -0.24840401359244879 0.68325211341164138
0.24179398483772729 0.41714540037241932 0.56935572404382739
0.33621976762196937 1.0110164567415154 -0.37726893529495698
0.30465617895850983 -0.18381715076634464 0.68297327910458883
0.56041997163697488 -0.31811117039632109 0.56577136449158871
0.49239368977444542 -0.29887699789520639 0.66178793392551061
-0.77706450068973254 -0.32365165287626496 -0.19379597308648044
-0.69978482525232266 -0.58595214237607252 -0.28922265670014724
-0.57425027243789373 -0.31139387613211511 0.59430271332078632
-0.66282037155934859 0.51254729551664013 -0.045285646329773499
-0.32329511597271221 0.25184497413272311 0.75121137257136539
0.13282441094060005 0.39083224627268009 0.67326999721446157
0.17801267149488353 -0.20996104983055375 0.63874796143514034
0.13610979405149237 0.80918038279338589 0.13880848185418415
-0.83873744390689353 -0.5993780300675553 -0.36836973417688057
0.3258564230667389 0.3333766901165518 -0.21295255645829059
0.1620592106153822 -0.040166016655064141 0.67304892667983296
-0.52425009768802511 -0.097584267440652184 0.71530925532670864
-0.56804075039747204 -0.23375243228559839 0.70082085200179733
0.37379774519740749 0.34539604937862123 -0.14869322275139041
0.23230715990206363 -0.24040022784481607 0.65652939636894558
0.33356048418090722 1.0324262072453507 -0.38301551027595337
-0.16031691789913793 -0.14815990152783343 0.75061419773164229
