# XYZ point cloud file
0.70408052804512522 -0.21567757191860437 0.69455228043106843
0.060853572583539517 -0.083499619098020617 0.78590541087402244
0.19626392698080508 -0.071350698223966447 0.78510483843805901
-0.35854053261806484 0.025699781557705137 0.8006051617644232
-0.46959335242661382 -0.57071299131951037 -0.39210221442192505
-0.67734005201282343 -0.61607776103971901 -0.3161323668454088
-0.11610637073101771 0.55960539064579962 0.74672175713453726
0.08305302171686435 -0.10026725608818765 0.78051129574507172
-0.40121669577087005 -0.36262206069227432 0.69576355102152831
-0.16936737488322251 0.84247257935794551 -0.39757675687570782
0.50227952167290368 0.69083021021435798 -0.26249849771460276
-0.48961916223106527 -0.84280866573249114 -0.41202970090586177
0.30850797910727579 -0.028630378499315157 0.06737432368311147
0.85024870262685681 -0.22893678842919485 0.59033804076383944
0.15689648340287476 1.0540222883920478 -0.31075746618989797
0.26925295465935051 0.63974268044205473 -0.38477879045962027
0.15103079454598856 -0.041466977660377324 0.78403752948611327
-0.072159180404582912 0.6873863612923401 0.72728045571059852
0.13464982958169003 1.1820493472437192 -0.3868623075444475
0.34780120286319516 -0.20585417962550423 0.38508397955257578
0.20117378024053778 0.096777078929932259 0.73159861907558366
-0.30101163133241471 0.31676519527731273 0.79077703606111527
-0.38808726163154006 -0.38344555462515473 -0.54744281008942153
0.44848038548354907 0.42961239658507111 -0.08027594376272873
-0.30855218224058945 -0.13387241706649888 0.79050242105367374
0.36942018394609022 0.61055694536139526 -0.18249199931744897
0.15357703311892124 -0.03532741712209031 0.79419784372166191
0.097339794186439121 0.42661873705742437 0.74834249190499236
0.74376361117862189 -0.19815305995706467 0.6478423787801546
-0.32496182714623956 0.12893254731922354 0.76362370002772195
0.082304134447099386 0.88469543682720087 -0.27691608707152682
0.0049677303704811493 -0.47481586193555358 0.50672210103827808
0.3268855684771097 0.82620040284450624 -0.27799607837641815
-0.22692271426836896 0.52104649535513659 0.66944007531122907
0.10730950883851165 0.34244927141102721 0.7488556318961912
0.18493038201933132 0.36717253426542129 0.67661857279981064
-0.49313986258778186 -0.84639585416368845 -0.33810800534001828
-0.3049607942826924 0.42948282799653725 0.54855135187017368
-0.64453667788740177 0.2464086121946707 0.61646096208440326
0.30669683145123372 0.14500936977776746 0.62302757192790637
0.22038105140535436 -0.052071108336690486 0.65544094632683425
-0.82216696461165384 -0.095294390371634563 0.47168282188681587
0.13926592442786045 -0.053468854311830682 0.79203552904206731
0.29227425054648393 0.89814920556250399 -0.29166062167411155
0.13888993497306501 -0.18222445036968793 0.68693022817792837
0.20572330604420586 0.71316242836826405 0.25414174065824113
-0.1084210816541713 0.50829315939029129 0.75248549314324009
0.45566859137011306 0.459226764251639 -0.10621185881086603
0.078440081490100511 -0.09654675018089165 0.78247255819468364
0.58146080435744807 -0.67432828649828025 0.45785095287095601
-0.90857918025665185 -0.84037724302942252 -0.43238822683088074
-0.52697052548830925 -0.072375309290549694 0.7326677204375045
0.23152210954663133 1.0359160932200666 -0.40823236255630491
-0.37950739209634321 -0.59372190955792803 -0.10410858316546978
-0.96343522883853439 -0.62356197200756469 -0.46988548917568096
0.072196475178145647 0.6285107214221739 0.65666061328371939
0.038226308580988189 0.8605370924011595 0.21745886569877371
-0.74609682907885144 -0.51135761828868453 -0.25001580589778882
0.48273222813250527 -0.2541263908502458 0.77474536626930046
-0.099984853828686937 -0.4403755048392668 -0.4349748731635259
-0.33553887565489049 -0.17570499760400082 0.79352022003931211
0.46640425483496983 0.63724484352917443 -0.23154770201028896
-0.12706851215006054 0.68307191775565457 0.76666688874431088
-0.65049303719263207 -0.71744879215759738 -0.33628186498259538
0.23597481067704962 -0.086717057775359763 0.79034031502681046
-0.17124099779744029 0.80101611297965292 0.64158612994646091
0.52527545833163458 0.77047812610283017 -0.29855511989774186
-0.81965335182326271 0.0010340589716122395 0.35650523398497569
-0.030701668136259741 0.50401186028587119 0.76905706625899484
0.68874542632268287 -0.11563345392221436 0.31503735185545167
-0.32674799313008407 0.35455874533388965 0.65347281664170964
0.62758890020872116 -0.20196855515510492 0.71108158580851466
0.66215233799564999 -0.31722276279779749 0.74330486554556785
-0.37018841475736508 -0.24279950503706971 0.75019557473571297
-0.76131282974313308 0.04479872726150802 0.62403183049998745
0.17524238966689154 0.40768398281102236 0.67977190153015954
0.06849735058801798 0.537470318906486 0.72515048928411829
0.17106809330778106 0.31897145175759078 0.71118249656569787
-0.16066293760474082 0.36219050571017419 0.70537187360301346
-0.049374284908139998 0.76247931921449208 0.43072046854038604
0.17955203824851651 0.49363904629979061 0.57238469102449585
-0.20149084897332159 0.71434448289147667 0.66998840071713062
-0.61674889954576884 -0.57043849841164729 0.1100415014314251
0.10602181810446609 -0.065138178582117234 0.78960736838993739
-0.97979081717971894 -0.79691169603313483 -0.42376258904397446
0.68642663735320752 -0.25782565650260381 0.61571388572150454
0.51281032121255521 0.445403930308089 -0.14743177599405044
0.22421384180097448 1.1984212090579831 -0.41267347181411651
0.064630264196068765 -0.49798909519131485 0.49307599377371503
0.40264024315149527 0.99728244213213202 -0.39107262893048755
-0.30009246800204892 0.75014551192941781 0.26830482307160253
0.56017175515546569 -0.24263575315274011 0.74987875331351006
-0.67905533835102005 -0.41955465457090213 0.58220323384705353
0.31135663510661971 -0.1776985247005598 0.76800982051815936
-0.087898324242814851 0.74179055362367308 -0.54079706744471423
-0.38958887859780589 -0.25925658659872397 0.7467530966390683
-0.47735411970370478 -0.85812786395740659 -0.37840083556528725
0.61534111474406927 -0.70777762013494794 0.52667585051759147
0.24366043974760032 1.243876618080094 -0.43748566160616065
0.50085582955080099 1.0971565010635231 -0.45687088349171745
0.63857459352063017 -0.14046342633577069 0.30168742105149704
-0.10634225716194123 0.37911652228279991 0.75268014248459281
-0.76596475387270857 -0.50191223271474428 -0.26254577226245601
-0.98578042867495697 -0.65000017000875232 -0.42347227560759393
0.32006736083940268 1.2821869622457598 -0.49444841993187083
0.16610527128537456 -0.45648315079262147 0.48856655597825238
-0.32430591742900106 0.48249401716930151 0.79315653899946881
-0.085297446971708268 0.59167218699289492 0.74007972290004886
-0.060055262116406993 0.26304866508601776 0.7518225058418011
0.45955657055264965 0.8617647249412812 -0.34643079684957456
0.36125291318376185 0.69087879389633144 -0.22741791268754241
-0.65927452002961218 -0.58824397124726602 -0.27481592076799188
0.24618745238865358 -0.11049421590271891 0.78729157243378722
-0.56269100935912775 -0.63097683706314456 -0.26844263326495366
0.68568272550781728 -0.22884626938170527 0.67225292196300757
-0.38763461615849337 0.028268481197059714 0.79475588239958483
-0.51776006354589299 -0.2789367985071749 0.72204943937649091
-0.48613240112899803 -0.89545006197977273 -0.39305051531158597
-0.21846895247836073 0.39749629784512308 0.74941154873422988
0.69622759342854579 -0.17468713852787232 0.6769859017065869
0.80295739716756032 -0.23968840325778729 0.42028652393727839
0.38194952872800059 0.30817230734771783 -0.17371687650228296
-0.19876226984069945 0.29181165757597682 0.78191489356322563
-0.31724727374853501 0.38452241445122581 0.79158056773890451
-0.36477548712434782 -0.21221808229019246 0.77464521554546195
0.49977815912097867 -0.63512606757313961 0.51279214390390848
-0.57662965361771512 -0.092423046992848867 0.73185796737793396
0.28528279035879223 1.020400083639629 -0.38366147211172574
0.7580665302824201 -0.017376639985769771 0.42300585571774718
0.37100751164132362 0.66431019383117018 -0.22746878185199648
0.12627484354405283 -0.12129092000341757 0.77528464335665603
0.81956484233057836 -0.1607631583234479 0.59234519633014315
0.07562269397288901 0.28580059699410754 0.75388617372516364
0.071452355723010896 -0.10994270669831963 0.7784009821236566
0.56198680916372723 -0.67428450347807711 0.53183345638217361
-0.20755795218519779 -0.33948085669300099 0.68266155260170081
0.4677072567401126 -0.50009245164363847 0.41971990349098576
-0.16259915482407905 0.63519980680888466 0.80009329255514672
0.20431406240430761 0.73435942948515276 0.49879876694242853
0.4135155965316244 0.79471898870917812 -0.29940145789606731
-0.30881191441676492 -0.027914023642296115 0.76029371147774327
0.39832358785110955 0.26028149361388841 -0.091888314745119715
-0.58135318680592718 -0.43019384147933692 0.64239617871599819
-0.48958194119239806 -0.63810866645354736 -0.089657152208104662
-0.29181277702082298 0.32906147525346796 0.61857499605252997
0.51250048670033266 0.6370688962232407 -0.21511260792976827
-0.12424278234550457 0.81763956152371975 0.66756431212286316
0.023686801676632285 -0.13850890910180169 0.77319389893000334
-0.24494653604637051 0.20731204225054967 0.78137651026614208
-0.3790079546377001 -0.16754340936670076 0.80264138846952449
-0.28778158320119474 -0.18155632863941662 0.75730053861437341
-0.01166859402587761 -0.4783157532133373 -0.18629216100691792
0.0051907678986253813 0.9333702297644777 -0.11772323422272279
-0.83343949747177248 -0.54225057427271395 -0.3383425351262872
0.7599952030706163 -0.46322018590339553 0.70253696719093739
0.80881805880019897 -0.53858509328657078 0.56910704256989675
-0.66785299965692957 -0.5234317904753425 -0.41535570147829048
-0.63753117195381037 -0.90098039587013545 -0.45859641753048663
-0.20975924352092079 0.82926895240279919 -0.47442659653700048
0.22297127156622309 0.73383008660198357 0.4313101206573009
-0.21587933710770812 0.54773044424209161 0.61896291282403126
0.52530051098756303 0.84018300556601844 -0.33534764786725191
-0.71267087637943405 -0.43219772722801508 0.48664734577116064
-0.0062181264345326781 0.54223928231212426 0.75593501918825723
-0.58428819609355287 -0.95996707063767417 -0.36850895054971033
-0.5558911358461387 -0.31863644043980344 0.71403112584111739
-0.17802243063448486 0.42352154360108329 0.78846228093803461
-0.29451055407218973 -0.14183865806265317 0.7512098749243421
0.29408211027805464 0.57955895556284531 0.2571543374709222
0.79435949459924871 -0.45074809265616977 0.68791410840984213
0.17858358140472319 1.0756203412795458 -0.32710438805344211
-0.02966905946470888 0.74146192635481611 0.70208959484168076
0.82297185248886251 -0.4939682881108638 0.56095918000779932
0.69340875297466198 -0.41809932651173654 0.67520838511944703
0.1987055497423853 0.73277324101769636 0.20803788191216199
-0.15678368044410718 -0.52930739225968182 0.081111129955672823
-0.42517792584345671 -0.62119515168495809 -0.076993576879345937
-0.15832981130614598 0.41879214402396769 0.77128542242775211
-0.10321641729012754 0.56596365999283194 0.74451009157186832
-0.11540690588844882 0.94367780040624893 -0.12999111752176873
-0.62855603798885795 -0.15902635187678982 0.72383168085140426
-0.57517144462946135 0.068674818238818602 0.76827274112011423
0.11948332717213361 0.47262300353753517 0.71023210666859882
-0.8107954958445589 -0.74808381196254459 -0.42925826515636345
-0.44147370113324769 -0.16248977157221134 0.79422968230895208
-0.14316378306079969 0.41897519313013731 0.71664004153504379
-0.52705039006764309 -0.8898248450027495 -0.34830587851570272
0.030181005553231444 0.49623039771243782 0.7573791694386216
0.5151337153872646 -0.62015472182224585 0.57971096962339175
-0.55435556040873735 -0.25088487022662775 0.73170550762426956
0.48741010921668249 -0.43123425757949008 0.71706617502137249
-0.7704656193293431 0.081519729065036017 0.41102026094240784
0.20161598612321541 -0.04857106431200009 0.79423429431091108
0.11425052381684964 0.37936927552166821 0.74947758519886065
-0.27004547486762931 -0.54942753944118294 -0.0237892787116607
-0.5794054533439521 -0.58457041715428204 0.016510710599135336
-0.33704942064127863 0.069255264795458515 0.761561970038656
-0.64835345502694963 0.10037905839129735 0.73571239669087163
0.63849556348117176 -0.53280494348786078 0.4123231933361069
0.35591660387171942 0.13210614253762287 -0.026136829167967335
-0.72565456680331408 -0.66767027026696724 -0.3591631739510035
-0.15014689646994839 0.52702048546470337 0.66842466720086691
-0.54346188340252866 0.039873883161419599 0.73755540500582129
0.40261276026697601 -0.34027272202780523 0.731441237890607
0.24783765230444033 0.58961506041384837 0.53982445499497089
0.30409615228086295 1.0801377752045482 -0.41617368928746146
0.25141256809189372 -0.31897113672937394 0.68404760076589355
0.71514808084398851 -0.17629209479181895 0.66899785223266406
0.51240351648237947 -0.23765596764980046 0.76263159516253154
-0.84682036825870455 -0.34547761991746029 -0.25230902845220271
-0.69492987345017809 -0.59126529539167905 -0.30151559975502096
-0.44099675370432578 -0.4825696236182182 0.51752150851022805
-0.74620573276797586 0.52817191596585644 -0.20436429317831539
-0.41029092961622382 0.17177926602408888 0.74845323145858345
0.14266569177834754 0.50195084725706351 0.65443357808692326
0.52970634035760611 -0.24400371693531042 0.32384727387078271
0.0066855567870334198 0.86697547122912511 0.22383656998627544
-0.94876362098273148 -0.6814676039260803 -0.41874756663088419
0.38743801990199245 0.51086355926895521 -0.25048863138721345
0.14828710366197129 -0.16992092585189766 0.66897391267737305
-0.55571321180286759 -0.16801498793819292 0.71665388649948625
-0.53403898182818921 -0.30158629509634238 0.72571411362419269
0.45369357434481117 0.51671281383516998 -0.1638859803097148
0.20484084170919914 -0.40256551555700071 0.61486478825651147
0.27366932323957371 1.0846800473415215 -0.41203188525418
-0.012767630796076901 -0.15309122881845383 0.76953704245954668
0.23372751503669065 -0.15728612110007134 0.77715958775327465
0.81281798214151024 -0.40136617670890473 0.66326474079725983
-0.18505868196018582 -0.077538732947658673 0.76523850600560195
-0.18913862382373736 0.6176673510420585 0.51335406905766945
-0.81136346085315836 -0.9655532654873582 -0.42265517014101306
-0.48685355628083471 -0.39443599939326646 0.68350927359544755
-0.59205350246145372 -0.81183754842714961 -0.3610413024251784
0.079724643006386486 0.67073319274581422 0.64141778465327093
-0.0031731640892758151 -0.29083672575995934 0.69337376874706536
-0.3137460611007441 -0.14203580206486777 0.78084540962632332
0.81312773066886734 -0.089754425129285664 0.43089554276367892
-0.71920498509734898 -0.30046578727456108 -0.49762428038218331
-0.20178311403083171 0.33965297801816519 0.77793565799532871
-0.4963247849821073 -0.66603458796174664 -0.16659286124743744
0.16746015240659062 -0.19394241201075602 0.74215456433017835
-0.81307027878938243 -0.79134784002621927 -0.43426560711537832
0.32075619996032856 0.0053701474070066979 -0.34878600168957519
0.51116443077202689 -0.38814254551874683 0.37111357687095392
0.13167915995995827 0.54502398579990086 0.6120847057150911
0.69447760869785213 -0.20708284071889693 0.65895183757653797
-0.11682101465231653 0.37378053768475183 0.76028162776739805
-0.45242850306692617 -0.14178256456102645 0.79094509443071104
0.11794967982700655 0.37223559018133301 0.74739136701609254
-0.49530302717846553 -0.29721555601405214 0.72326101720145175
-0.80470366620710365 -0.025405263070524597 0.52704910832874674
0.25502626565673836 0.64642902448179029 0.2711461849557395
-0.040133557933131669 -0.47035043068319737 -0.32344771584394039
-0.11110203469985436 0.59917610481647898 0.6764435621562086
0.053678558320768843 -0.50057804506514003 0.47265576135636422
-0.92144279242120319 -0.14746993778976503 -0.15348545232217248
-0.29370745523851838 0.0849288415988525 0.7646301937240878
0.21828004653815469 -0.33445139602892482 0.42985608596499958
0.12272221788691695 0.87246338515001298 -0.1966578260809797
0.3554126597814502 0.24990231947458597 -0.2060073958437556
0.33270559166396652 1.0972858135296519 -0.42677994053940438
0.68601017188855451 -0.40947679710220086 0.6790277500133044
0.83332102644303063 -0.11714915948442695 0.49879891194305515
0.38976024789474195 0.21322626983624104 0.073554969829785932
0.14056967553653976 -0.12995615171550412 0.77446339906887829
0.19825949823274414 -0.17557532379515806 0.52913660159643428
-0.12373141246757768 0.80733078168509564 -0.45688249649708723
0.09287528922192223 0.40607611802141719 0.75406838295140233
-0.21515607579203788 0.91841365433657529 -0.39611627033281138
0.14506840611039706 0.53811607691332597 0.64732832024273534
-0.55773118541355871 -0.10743479909857001 0.71994186435723861
-0.32666032845133941 0.92754362631603726 -0.01089762197455002
0.095666683523973006 0.64641331098235355 0.6416075600772615
0.14485003824921705 -0.20223005247680703 0.67462043815619666
0.17839945245719946 -0.057112197732237746 0.78588925403863641
0.35606038066771362 1.1708962447850126 -0.45879016766275527
-0.8710248480925884 -0.59812439709736509 -0.38753972688135718
0.12599457341821108 -0.48730281519578966 0.52458455743942523
0.71595558003966175 -0.57724946418875334 0.67969671306107671
0.26822694620980769 -0.51646084310601736 0.53885744167696714
-0.5997272729733254 -0.20709584181629737 0.7228963754922404
-0.86866842362951502 -0.87084239935870755 -0.49851707269141343
0.65690965734052043 -0.13340070275177141 0.6542691336640587
-0.59239204572878634 -0.17675379433038074 0.72696188897705838
-0.57144225825538797 -0.55613026873390936 -0.40644113337856425
0.75226011756126354 -0.25756634358847919 0.61727837394904839
-0.61085149382120107 -0.057069581256769197 0.73621231098174178
-0.78377175532671117 -0.99133159070112242 -0.43622214365717582
0.70856386061151966 -0.22156776616765228 0.69207473626995863
-0.55689503245264405 -0.59132827317546344 -0.04402388663507395
-0.019125461137718958 0.77373933096822611 0.40633180088020993
-0.25339039987750311 0.67786366007567267 0.39568384884324814
0.27263920416726251 1.1147699912158942 -0.42205554702104564
0.32989468360625551 -0.27850954641155568 0.73574590352616553
-0.31841209632614209 -0.034101946848707598 0.78298995079595102
0.1639507722108533 0.42195360220060252 0.68063607995622988
-0.018587832627531498 0.49174822360083681 0.7695551955353892
0.3547901801283615 0.94917561599470446 -0.35863660535665076
-0.076922427678141503 0.57894437709387603 0.74169122474296501
-0.51968138755410109 -0.59846357826450003 -0.025567779897613718
0.26278137425768477 -0.40405075479458219 0.43880510283878493
-0.29857048943057407 -0.28336759190469252 0.73034021205222643
0.6803865217743521 -0.36920202908177657 0.67257640195435897
-0.27262589342785759 -0.41117409984593678 0.61568264212763779
-0.53218572640486173 -0.33372005731266086 0.68547354155235496
-0.45299454046357823 -0.77365647959328498 -0.29728651490074753
0.24702482818020144 -0.28110044317361371 -0.063829160688783304
-0.79567384013091669 -0.78018880636852828 -0.41769783069327104
0.73222807709902327 -0.39841554787557243 0.63275068089782849
-0.079840349118626364 0.43342552599116857 0.75857318814345831
0.21729166564330171 0.30494852173569598 -0.56006410006455098
0.1702943387855953 0.27928107321838525 0.719073436682379
-0.024248404140394086 -0.2275274699587726 0.74329066601922023
-0.37850350504959351 -0.64557457337218693 -0.16124364249341738
0.063268517168182825 -0.093031606071605211 0.78349140237082793
-0.43407943230766932 0.077859848629827866 0.75358981532374969
-0.60263484541115986 -0.11249956818132034 0.7245690618114935
0.44460267783404106 0.51426996968473304 -0.15268447956151476
-0.31841399001291393 -0.40206148773901873 0.63115599399954192
-0.88981460826414605 -0.25481189320595377 -0.20797548850180192
-0.82538944591703967 -0.40549695340916969 -0.29989175230275578
-0.3499510475944021 0.074940777591706365 0.75731567173227177
-0.049790471089522725 0.24955068539620129 0.75625658603303236
0.39066236897326689 0.70295938113758893 -0.25403462476930372
0.082211295953925401 0.87241121857078952 0.55172494188798282
-0.57025689241925193 -0.32658889851629169 0.70839964424784796
-0.41629155310135957 -0.79407488232857304 -0.30895396839721911
-0.41977388621762657 0.25340292688284194 0.75813002226323079
0.06690109192163618 0.53361034542649577 0.72943310445310772
0.28909680373175206 -0.19976106462794974 0.4890386198642318
0.22323209398140875 -0.065271818642543167 0.78926531854745008
-0.53231131829767264 -0.051504964666463593 0.73660148590150243
0.010083720983288913 0.57199968628219722 0.72555069615864909
-0.40073827558580888 -0.69577984022788542 -0.28133345249221975
0.069266127460423377 0.538601436010822 0.71718895743998701
-0.35782787298364838 -0.25034300873161897 0.75161358100761788
0.15245062292893863 0.3254247977550051 0.70887763605426812
-0.51349612032578307 -0.014777980565227722 0.75264376354787998
-0.68968900400784605 -0.53078902220926238 -0.10502486142931389
0.17051816070545556 0.15359313170097266 0.73649466569258948
0.087302862049909891 0.61733700825681126 0.65201698226240978
-0.87626680148855485 -0.44136063210737575 -0.32913193005703079
0.15123327449828139 0.47130571660898113 0.66141267236440626
0.43928652669478652 0.36337782559189691 -0.13568323155391226
-0.064259452177850562 0.82159431593865406 0.60447162104438235
0.083501876261266261 -0.30710084505142277 0.57624005048189986
-0.639150541444792 0.24168327231882358 -0.62334301115976132
-0.72551311981828803 -1.1418198078088722 -0.45482285145737933
0.25969787868427829 1.1404219843800547 -0.4138958082373847
0.25144482261123358 -0.035213592902437085 0.7962313854185652
-0.55010860492944857 -0.35031673608870051 0.66442921406084565
0.16637596623894524 -0.06605031627158553 0.78988104042974783
-0.4546546047904485 -0.84503502249918938 -0.33294878037798981
0.5768882118714771 -0.56537628474455914 0.42516756765040498
-0.53378210556940076 -0.24914488615236507 0.7236225632846498
0.46369084458558518 -0.22634681938154699 0.77227999220046684
-0.53407410157007007 -0.2542236970876246 0.72717262385819481
-0.34640248126294182 0.019596799898025097 0.78259325321616302
-0.536762852784193 -0.26489750727145633 0.73191476538957545
0.1835117666739734 -0.11006564377856876 0.64457624683903703
-0.11790730491202339 0.78500825831233101 0.61057885827531777
0.16900299709419642 0.80658883408767679 0.47453930424819646
0.26374362127990025 0.637365989134139 0.38337972496867678
-0.25406997695603195 0.36651711186792113 0.67214330934925215
-0.4745563083071147 -0.44646714980740398 0.6168248180518674
-0.3491548443244028 -0.31845922827898221 0.71738827350901602
-0.57065351861376712 -0.20167422230235843 0.73238870855395533
0.15811750172645134 0.54760135195957105 0.64043124326380507
-0.83215312565528166 -0.9571423418551035 -0.43646045812010925
0.076764531275898662 0.32769346734787064 0.76165125171988279
0.48411129532536279 -0.11355798708456177 0.61946556664342722
0.39754818440155759 0.57969101103674348 -0.19444079703373518
-0.40199232587491451 0.17111329533841513 0.67372243470339299
0.25922706316453059 1.1120344432148386 -0.4064766932797852
0.5059826257036093 1.0203857753051579 -0.4030461458646073
-0.086608953214636131 -0.28961120556527931 0.71471772021507718
-0.1334231043186378 0.53201677597940034 0.75349358982080616
-0.43884407589820285 0.22538058931269234 0.75637999889960383
-0.48801782916223146 0.090963130077682308 0.7451238804706577
-0.65186354750665032 -0.59716667295123216 -0.28564396143781323
0.55981470619724405 0.73323805226243621 -0.30432461924834797
-0.052690944943833529 -0.3240434529795948 -0.51624771982358197
-0.78728895533816967 -0.24550890232004008 0.5427254257428018
-0.90560910919589332 -0.54251314791537197 -0.37777186429121912
-0.83540615060633172 -0.81555633384380144 -0.4504505824893954
-0.25559260865190936 0.31990720184839461 0.72334062717416714
0.0531592499493172 0.27951742606762764 0.75818521913163295
-0.040402145608254614 -0.43149450142016121 -0.41559466888196539
0.43533114005913376 0.59275831409718194 -0.24776185693610842
0.75400945703445643 -0.61787891624015856 0.63687994506850032
-0.12275017710396696 0.8145221209939848 0.71817724053966003
-0.12519020365323286 -0.4689298772220809 -0.4018657159008967
0.79025998236159012 -0.41205010082543936 0.69481527545602262
-0.18367125154088626 0.7723300128216124 0.62499030929220112
-0.09251281726187699 0.53471396917137781 0.7299080688185029
-0.26468595786252536 0.035296449210079572 0.76381632302602043
0.1719257426226477 -0.12043476974233158 0.75520312204884021
-0.51274716869755821 0.057259300406485636 0.74162294109547133
0.69467323773260148 -0.36418557098477322 0.69900772043634163
0.2576684661983677 -0.067863392783777954 0.79365545237931201
-0.19867662601393477 0.32602158334464093 -0.76029651346595983
-0.31827939907111613 -0.019130276180220562 0.79829552427889894
-0.80312316961249053 -0.43494713266221652 -0.2200521252164549
-0.64897751252897251 -0.60413560476263228 -0.39628529426647674
-0.50280528056225648 -0.63580781303068079 -0.094186735265878951
0.37493210026650559 1.0651477864901153 -0.41693007430632179
0.37696603214794777 0.59316148940115454 -0.18830602774903582
-0.3029566729296107 -0.19610481181410933 0.72874044600951038
-0.14000248137352855 0.61173100808642289 0.76481072765011504
-0.86101345765769111 -0.16420710209951039 0.27877867381407384
-0.00088291217656433219 0.62180117710448712 0.69990098179837901
0.25925096878853537 -0.49939051259690359 0.57818415018104474
-0.59814806406336629 -0.0017355586296048386 0.75308838809756651
0.16887887313203009 -0.33458331856070345 0.45973245656330164
0.18020094284304378 0.98011564760690817 -0.26913351506840399
0.39208557308404579 0.60293784603345557 -0.21301009639978474
-0.42464572957891278 -0.61332991711731211 -0.067104141834647635
0.49516504670782524 0.98333429744570822 -0.40889565394434157
0.21362638384493948 0.34723136378755726 0.67329102939950758
0.27189883016410477 0.84234298532396679 -0.21788015626060542
-0.32612224039075954 0.53914064036109721 0.66334454614266747
-0.56794935535981494 -0.62247168410937093 -0.26915972037539859
-0.55974338169448856 0.18765271214870438 0.76170291695120795
-0.025702430583010027 0.22672653941717158 0.76252217687445523
0.21883741385636313 -0.037155306469855987 0.7921688613643596
0.38447919064958569 0.6897222648819934 -0.28779814769268341
-0.23062477930318437 0.91537787730953823 -0.45779500005482987
-0.062404050198210825 -0.29792296052653455 0.70629943173425147
0.25679457946978346 0.92532909993053636 -0.26917927059633939
0.70175275414761984 -0.0034957696065305299 0.39316946435353373
-0.22538902891824364 -0.32460683957529568 0.69478891320557068
-0.56096220780614203 -0.59028968792756586 -0.059230131938875274
0.74224421243647498 -0.60978689590876911 0.65070410395955491
-0.29374024873283133 0.023533917744202881 0.76771152473176585
-0.5745949731416431 -0.58420135494156966 0.047501527039031544
-0.69988280107685341 -0.43017108213612687 0.52412526102003199
0.72401481731719741 -0.42142501226197737 0.67016447391773681
0.45620802862254095 0.75575935936490168 -0.28921602647517375
-0.11908439617582189 0.61044398806717481 0.65583177804555248
-0.36059885537002856 -0.17467205497263194 0.79951149767634888
0.14179082975158508 0.27819189899267371 0.73053838698885443
-0.26238547622807573 0.28174035189684332 0.77964371162494217
-0.91602502605064728 -0.44541486305968192 -0.38952729926353413
-0.15434371392177582 -0.50863238887166062 -0.28020161529434517
-0.39142184139501524 -0.16742833963533599 0.80269052681774156
-0.35503554273844884 0.0028322774489311087 0.80830900632608405
-0.24905593999181974 0.41513602399783167 0.61955053212656708
-0.64533392403711787 -0.96435637275499175 -0.40256499640696575
-0.22278777888817558 0.27566710803802152 0.77600651803001597
-0.60401280710271976 -0.17577648698497228 0.66907093644110205
0.42723837764097539 -0.12314297091515414 0.41993162041131882
-0.59913719174699054 -0.73576587520108205 -0.32238126440716997
0.18479658158685197 -0.36765874149762112 -0.10183151040473604
0.23538201171174933 0.84582291608319338 -0.30214954366891789
0.24772484600634925 0.68892621002652277 0.16819012319155036
0.26235650668547805 0.87074265912417559 -0.22904009933489533
0.24869700211971235 -0.10982730385219952 0.78840202054513497
0.14811124923141961 -0.17245498165118534 0.70814508682674671
-0.51442333420561681 0.10834127153941608 0.74958910163796588
0.51356127872992374 -0.62626768401588606 0.47225220883251495
0.39864578100514336 0.21641699501617495 0.045224462700844015
0.21721165758054894 0.32127370312031189 0.63153506167236628
0.3886608951739845 -0.56237007491267832 0.54219592979347908
0.11751809466318264 0.77596187222673052 0.32975518218151478
-0.68531836217096043 -0.53411332854648208 -0.18212575229046024
-0.45526599113395605 0.052587499644602076 0.75973836220518365
-0.31717090717398833 0.60157316117218329 0.75722029553354275
0.84536248116418733 -0.38984231726431062 0.53953271908027034
-0.31317468162535533 -0.035925486609869495 0.79387799902616507
-0.38185743362788571 0.13201115711217426 0.75992315649995135
-0.67863214965996121 -0.98834128295277424 -0.42690529982428416
-0.34942108639739899 -0.18829357211284048 0.79263188527409056
0.48214422500268483 0.62084811800389161 -0.21872017097251728
-0.50219628184458998 -0.89280454652021035 -0.3931804346507306
-0.041787773054750232 0.21806590714197682 0.76358895239806657
-0.010529629395307438 0.40809496947233015 0.7761273634932877
0.10855794327807189 0.096503938484715945 0.70400927593081519
-0.79743044504709815 -0.9647686016477337 -0.4447185397910971
0.28100675277278242 1.0524335137596381 -0.39987063061596473
0.27169582360647837 -0.46498411472862244 0.6111076861581779
0.81012605874039423 -0.19171422088604118 0.62624675665368557
-0.094742569748746064 0.42888667589140539 0.75161592975086933
-0.71697451709462712 -0.51631547439160386 -0.20381796090265425
0.39394392392489408 0.27252229103839909 0.074994209487726948
0.044761038791364172 -0.50344505798688033 0.43959012144756571
-0.29806079129184582 0.31025877275121161 0.64107802645685297
-0.4377709989307732 0.50952196053162879 0.52623466038862432
0.011052095228592407 0.38243604323537284 0.77501678600023638
0.045841842654965603 -0.49638115404155769 0.4957690616912771
0.057308781930316854 -0.099349034259120117 0.77988398688901839
0.84694408295320045 -0.24211446284246563 0.60736709686038637
0.82398466665838299 -0.1293040078210197 0.44287802935149045
-0.47942203326385879 -0.74187750955979936 -0.35168715489919578
0.53160230995581514 -0.26862173819654345 0.7678186109227596
-0.63264105644475421 -0.71008579905878833 -0.3254661882422738
0.4798220767378325 0.52490291981257542 -0.14810887182181887
-0.093337876903660799 0.22288658889959834 0.76194872873668373
0.32318106014054138 0.69842720501947042 -0.17028772774006029
-0.031323855637708675 -0.13861443583243727 0.77265639855247059
-0.13547799170635244 0.91289816405242163 -0.25529199004563452
0.43237148476464426 0.82627386697947713 -0.31968670070699545
0.3706318636148751 -0.15909957265307639 0.68266381692905043
0.38642447147014991 0.2262921682479373 0.10447219102110239
-0.42357619050386575 0.10396518020509404 0.73360651417530676
0.44947168042301655 0.69889391571496162 -0.26054449832440696
-0.065590287972440819 -0.10012689753529003 0.77458206548777753
-0.1306662614410925 0.077109521050886087 0.76230006119800464
0.68515516349017958 -0.29549727276122439 0.62326706660044806
-0.11151108090200523 0.48935611683754132 0.75418328796081369
-0.30171604003356833 -0.32336657383302736 0.70628074365298232
0.16947628784328117 -0.37339067206266918 -0.19548076354334398
-0.059574879006959236 0.25985024177259675 0.75576051114902043
-0.098283904217510099 0.82325798686119356 0.65128862902975015
0.44666054900881136 1.1112557411963735 -0.44298356305978359
0.045208991154936484 -0.49672539485601419 0.31006858131365789
-0.4062881309681643 0.054662041186702481 0.76745130456474442
0.10361983584891732 -0.068794156216370084 0.78876293090578997
-0.72678819114992166 -0.88530507238135669 -0.40532732170663621
-0.50581859760723091 -0.62950687166852504 -0.092268865941889544
0.48450712401131568 0.43022468512003798 -0.1534782582450589
-0.59340487399981612 -0.48279528293417684 0.52511256706772258
-0.46835002328111841 -0.46352606064641577 0.56835904935464043
-0.0020846312737035078 0.1943491545915208 0.76263681289589158
-0.53459561114613052 -0.54467536377842407 0.33050720849895754
-0.88331588620769708 -0.2930071006524031 0.028597859654979629
-0.5127069888936262 -0.025916163126595393 0.73923070005081115
-0.41333304366332868 0.10403297874830741 0.75468326682403131
-0.2565463182743315 -0.31774781065797697 0.70314704059191513
-0.10259116710358285 0.92061254004829607 -0.24655596154121895
-0.58061744560478701 -0.26678839711952662 0.72128654149194915
-0.45793642426491488 0.42910202706593736 0.73927127120387581
0.13579008224394329 -0.02373148841078887 0.79180969659037714
-0.48546906509227483 -0.65680288924522756 -0.20199531695192263
-0.59431705082272401 -0.94401332920904224 -0.36296576009408454
0.69394352439424267 -0.34776760350106883 0.6939527130538039
0.012669287938365414 0.50413568678453657 0.76066946720411011
-0.41329960478503835 -0.32157336951320303 0.7230005515153124
-0.10959260755993228 0.57460646803201598 0.74396033582434029
-0.82279693438374579 -0.42141437131925841 -0.38089935250178542
0.2109155488777219 -0.36725064768813809 0.63928671060313036
-0.72664235996319348 -0.49884888600223576 0.23171141546224305
-0.2798895647551376 -0.14795839047818049 0.76343323959787313
0.25945751286883478 -0.14403178960910168 0.78401239250101185
0.48863867185434628 0.58163081528812199 -0.19064124727037779
-0.97879152960365445 -0.72905670039597226 -0.4242200944336787
-0.099013369084104852 0.33727468804477212 0.75393330734786446
-0.47845038938669404 -0.67441422313498833 -0.23139732905084998
0.82731553593747265 -0.36735462937633656 0.64140359749491438
-0.97797711385555885 -0.59497223651146669 -0.45083593316269344
-0.15693893040003104 0.54845069033535765 0.78155423486992959
0.27003325807186229 0.75527818325099361 -0.31791451871282561
-0.58345327731251473 -0.63920571564455031 -0.28523708457174735
-0.50761005144875071 0.17998109323326617 0.77233136684856163
-0.048867650556758235 0.70186450288477431 0.71265816687093775
-0.66051708507836793 0.052925996863791624 -0.61297086069282614
0.65202971138661781 -0.61446642787927885 0.4415996787647174
-0.26672569538806101 -0.018542938930707464 0.76441223221868881
0.10071941939759199 0.50069574648762227 -0.63070252133553595
0.21209489545253746 -0.17785725052107182 0.75758154912189468
-0.288687913445699 -0.39892228252858786 0.62788480084815035
-0.14543516887715668 0.93961136878550633 -0.1359416265651987
-0.50475039775801633 -0.6426844507332703 -0.11535426209673005
-0.24175857472096141 -0.4882185151906242 0.50225761737356578
-0.1178394871664068 0.22243015931771026 0.76172258505411605
-0.17131267214853096 -0.39446562918928407 0.63906469761086271
0.47256207464783984 0.53283512819893986 -0.17023709095531103
-0.43084547921625926 -0.2004664894651853 0.78750388275591376
0.22858881949781562 -0.051178340053894544 0.79491388075697955
-0.11924444015653535 0.34448265988575599 0.76119428649170118
-0.077723666980944017 0.28580361727892978 0.75498917975707514
0.48219665148769764 0.81875333853838583 -0.33127010866741102
0.14473155707253227 0.6465074476931818 0.6080152742198095
0.067397329765299219 0.23065213822795272 0.75528443862964423
0.029474797674538422 0.8317545573637517 0.27533367113051099
0.52823752492793119 0.75582904593045441 -0.28601407010290814
-0.77726727605579526 0.46840645922463864 -0.29542779509358752
-0.11002834995156263 0.80721262757373324 0.35787458163966335
-0.56414240322351361 -0.15218831660979504 0.71827010745140285
0.37041879860737481 1.1717427472476629 -0.44239779484917108
0.26174793459878742 -0.47662518371356555 0.47086837687937333
0.15861389012547988 0.32444601223511427 0.71012871974662062
-0.045397718754600191 0.51368091199238108 0.76598811525894916
0.29206151375399259 -0.177821350394197 0.73789936681006907
0.54903548841905092 -0.060583812411067584 0.35991974097885304
-0.33984802271857006 -0.67742717460293989 -0.24057164122822883
0.25753033812321746 0.003235575533778956 0.64576201920880294
-0.17485513316842116 0.65075826574806683 0.59653143584145596
0.19145445196340916 0.44924397875513478 -0.55974880439083563
-0.45470436702044026 -0.73643538537123732 -0.27370616378667023
-0.33212467472623075 -0.19649028644124655 0.7581786152284451
-0.80670284016446203 -0.43365939994373548 -0.13606785287589673
-0.41824907608145168 0.62308980412248616 0.55559194424895963
-0.4528304577270319 0.57317855516396321 0.5359360891506384
0.084745792321484714 0.85827311698554354 0.56922195612298765
-0.30232746578701608 -0.094264439749210283 0.79263307723681464
-0.054264546277977388 0.12334471858972051 0.76346827471363099
-0.43286033987681094 0.12585756416828531 0.7541015368469175
0.50120072073571009 0.59741808363639848 -0.1921119052457243
0.29586954619799144 -0.16942308323007182 -0.23242541123391902
0.030517146248655536 -0.10618939141784267 0.78119324855336458
0.16328354557765579 1.0203299548600171 -0.34467988883261569
0.24060921788816358 -0.046027564063393811 0.79579805912385382
-0.82809834090903678 -0.77268123672712363 -0.4429524207419604
0.074619262990665902 0.38251748597518542 0.76315372805510151
-0.37979651532407388 -0.28372216107592862 0.73970430707882429
-0.041929789151367913 -0.26385472747162453 0.72605567197848586
0.091527614071253538 0.35215183822052154 0.76026302142162194
0.20644002171604825 0.60377736327507137 -0.47835775066067754
0.28159802990001026 0.81424836276028145 -0.20810209451076389
-0.53400707909383982 -0.41635836767227374 0.66539867036595979
0.24172393734454545 -0.036884346295693149 0.79428654499287177
0.51214887271248699 0.92926937845288649 -0.38686887850764151
-0.14379901525120431 0.42024873504007587 0.76065519060938414
0.19660921733986925 -0.086097804358530539 0.68445874184862987
0.062408602604250518 0.82427761188398563 0.46506486221227306
0.50034693004232622 -0.62764113580578851 0.5459229957033358
-0.27726346265069424 -0.44858410061360132 0.57181874097953767
-0.16994462309048686 0.82618703586834386 0.69686329220863286
-0.44680729120153728 -0.6205164397171643 -0.059615012132951506
0.11690461350366377 -0.061351460272021541 0.78999206052029081
-0.95658372522768786 -0.80699024100687211 -0.42450212804777721
-0.58232848547891081 -0.17631862124632391 0.73056097011276222
-0.94332374954410625 -0.86360607062948702 -0.41973246912141349
0.76340692720582126 -0.40941895800639827 0.64854609699345644
0.15925254750436579 -0.025275818524974625 0.79474403513185621
0.098553174303731339 0.6575875131651685 0.63473914238801399
-0.75757888870384704 -0.83056371464658696 -0.40045085150779869
-0.60504420366169143 -0.23848047467127742 0.71845893625852852
-0.22175126362844821 0.79276308867588341 -0.59401564726454126
0.78092439175801331 -0.087104256977283967 0.54472036211669206
-0.036788869081192388 -0.0048205042112385854 0.77281691281049802
-0.55248926993215264 -0.59218110748048503 -0.02452025920317169
0.10458236499721352 -0.48122977315455273 0.46048136561421416
0.16398100763012735 -0.39595748729868774 0.25611680641290491
-0.33779934352236296 0.17842429633890333 0.76115698785324071
-0.48953633304256527 -0.67525683694572081 -0.24378854702897002
0.15814236045247299 -0.019176815670618907 0.79432155666714266
0.55730559263793111 0.78710742100588504 -0.2971660766804689
-0.43287058928683564 -0.0090797581872266164 0.78662367793609178
0.61617624156760087 -0.25612457567237357 0.33018985398153688
-0.68683681009974862 0.14649809472473407 -0.59786309573934204
0.46495923685677099 0.46693277457518434 -0.10441688164866036
0.0029233336464358217 -0.12293705223112283 0.77686249839669586
-0.26308535440352898 0.25767712627401806 0.78667565777692516
-0.53685307137823202 -0.92542289157478308 -0.40452289854948731
-0.15040305374498075 -0.15538990381637063 0.76760831850634759
0.48882310005535601 1.0399708465288313 -0.42892971362391563
0.54885442664152606 -0.14562033244840222 0.68262657101726631
-0.011450693556298575 0.22418197557493613 0.75537249564553122
-0.73853079829564194 0.2866170377084245 -0.53104066971485508
-0.44472629070355651 0.064730518129223924 0.75482222926254394
-0.76622118021191454 -0.019110476564378587 -0.53479585271924179
0.30413946368170741 -0.44605947531869106 0.44147142148624141
0.10709726268783015 0.35633833606198095 0.75337097655165053
-0.36258452485242287 0.13886499753124326 0.67117074900224338
-0.17257161026952872 0.7776913078417067 0.62310608213405771
-0.50791158677259318 -0.44349057220256327 0.63084593184689197
-0.37166088947236631 0.20596179270813764 0.75397950512291345
-0.46170539292484136 -0.94648740323344782 -0.38665268712782108
-0.20707032466100372 0.86166888165644195 -0.36279037967437944
0.15023744261355887 0.33513983143151904 0.71955695770279249
0.0030195895293445574 0.22216161369794918 0.76283809180625894
0.13953894894447672 -0.47697174870586423 0.50329562466865951
-0.37906769295869935 -0.031063434554809533 0.8112192337301849
-0.57028368345936542 -0.60927025609544216 -0.23773301954071258
-0.27290967492615437 0.3056842784967273 0.7816263024443515
0.44479525297761313 -0.17289266822467653 0.32298924711511745
0.23692996746649442 0.50054182484336707 -0.48611972597086606
0.3258639223111004 0.38825167392815274 0.3963727436283051
-0.11081614439558507 0.40071733301067525 0.75528991582754657
-0.29664050665178365 -0.14500750015430697 0.76634108929732747
0.10177403171223887 -0.065771257493111079 0.789500309367412
-0.90796214680449339 -1.0217145353668684 -0.48596938428670455
-0.88270794018978904 -0.63261664161689168 -0.40288825756908864
-0.06420821786423403 -0.24546596899034512 0.73679738676000284
0.011426883041281144 0.7139280026032111 -0.53960008283928573
0.85562703123824235 -0.2474509729205181 0.57367301764578826
0.81446617596085957 -0.36858596714253622 0.63873685562079174
-0.4608152397855747 0.51895144255732362 0.52033692698232414
-0.570786727471841 -0.14945753623588587 0.73154168893024973
0.753015047924535 -0.53161367305654039 0.46675934846426514
0.36151717547562612 -0.53589421563981432 0.49845337720178406
-0.57059230905497316 -0.96217082448845304 -0.41440365064914886
-0.62715443449894792 -0.12397299985909171 0.72788259132823896
-0.33000743164552659 -0.095658554591977918 -0.67451521937107373
0.63755403189739468 -0.65009765312595391 0.62738787421649533
0.17542247990584769 -0.086379166412967834 0.78562378700777913
0.12523769110862304 0.39092173836763777 0.74121414080056525
-0.14397443824589118 0.75375742062686868 0.60337103114150636
0.70165079177699852 -0.70586151019023191 0.54900677913906293
0.45783666796285161 0.6279004428809003 -0.22961240823445905
0.66689429899886932 -0.26104613900599816 0.62475287882909925
0.16548781551426828 -0.13023995983462555 0.6856875805333118
0.007119457285966746 -0.50790287633299158 0.42777658589619705
-0.30221509720530548 -0.11206100026311105 0.79509939837328147
-0.34558218087624937 0.83658587727302347 0.10873267320083357
-0.31017250933081186 0.36182552909320975 0.68610735071143836
-0.42062863059879874 -0.6042206126942915 -0.058974586318015554
-0.50986905218951506 -0.31240246863063703 0.72660784679293045
-0.30508078679719119 -0.10074143641705291 0.77622859932327515
0.85659546760511773 -0.32484222572196586 0.56935033346080388
0.53089502205824601 -0.49635481791602842 0.40471437051870396
-0.32399708933485272 -0.43549590306713526 -0.50264251431894991
0.2464030068589409 0.66481629669692666 0.48652384766950263
-0.87677646287806965 0.039784049362253882 -0.37972556074913655
0.27396653596520082 0.77515458445020613 -0.31113124878680765
0.17511950706239077 1.1132329534553946 -0.35031655508862514
0.68714552424651743 -0.38892640363670239 0.69135234204273388
-0.099116329596085961 0.61299854195033276 0.73882814842698963
0.710480200980669 -0.36861427226818932 0.7092141222615993
0.64657897036741474 -0.71606941118011491 0.50015740020004529
0.21644436481670937 -0.22350411048071805 0.56019329272903917
0.41817312651789962 0.56625301880626466 -0.17716375978380938
-0.09769926824213826 0.12757680278025418 0.72045952436036487
-0.088272402429652175 0.55189642046207155 -0.71510519090418256
0.12567983424014528 0.78448812212479879 0.39554424824306977
0.22412297213310239 -0.14836977384868533 0.77885626772888372
-0.48352299210273486 -0.36168262132156315 0.67448586061826177
-0.12533213868982784 -0.21864246663733411 0.74801194517695535
-0.58696258051747918 0.32222801247144162 0.49175167597006464
-0.22292378769247989 0.31799665631038465 0.76448705747034751
0.18708273728236691 -0.45357940745498126 0.57608445112268214
-0.31697388766821177 -0.26182765401782149 0.73919034368108782
0.25131421499213502 0.77616063939797186 -0.12198694898285112
-0.8369442553372437 -0.40924665994390352 -0.31805020321900201
0.23056644703638085 -0.077641378533627403 0.79137707232291632
-0.28810776382169934 -0.077025668450062312 0.70342731008815917
0.075747365265272038 -0.065023024483281233 0.78093435140425527
-0.010419464036090176 0.34456677242852152 0.77531058634642136
-0.43331565239867587 -0.15787872037947182 0.79801776516468692
0.25520111011707058 -0.055227765490712954 0.79516877751242987
0.087271846778747886 -0.18486173900598146 0.75756400394135426
-0.32766900281285416 0.12639623128563926 -0.72321207713952163
0.82087846127760145 -0.092036526788604078 0.49631922642078052
0.36095147843673203 0.57053437652848515 -0.12578422512189036
0.6808613413132889 -0.32068393912646798 0.64174870029965803
-0.48580157057517681 -0.65701290576731708 -0.18552378221733079
-0.45680229316508303 -0.85233420301864271 -0.37080467090527236
-0.30001219641559373 0.33125423622038852 0.6908125931564939
-0.45857912599478823 -0.087145421016543878 0.78621542104778541
-0.35945245421828531 0.63153509597657376 0.60598712003834976
0.39361838519016601 0.8206367654489668 -0.30700867665217402
-0.38173129611396917 0.099441595313606967 0.75600202063711208
0.048259319374096776 0.52534462916310076 0.74233018957670538
0.48358846955727586 1.2061982873038914 -0.47935936156198977
-0.14835747405726352 0.73536710766110502 0.79457314370864651
0.6803936414598013 -0.26610540955226725 0.6157954201845115
0.0063404648603864189 -0.11974154179944207 0.77665596325977049
-0.012967231524612544 0.227785113424261 0.76083775192611824
-0.43111231481606183 0.092308895568692151 0.75871849200602526
-0.75932620745993518 0.092372536390911364 0.46865871886412691
0.10194275454870194 0.50023823098590015 0.71893800657593943
-0.84318188052657206 -0.41009920083752149 -0.35483131507521648
-0.46034629533960469 -0.25647482411923761 0.75350714414035735
-0.062053026160299396 0.58022058126115894 0.73617708281443583
-0.62731041939593979 -0.17888054078295568 0.64213029357472351
-0.46617009090039119 -0.83303044470937948 -0.3493318684299993
-0.22289678206897179 0.51929676817727 0.69865343896341869
0.19496019341380588 -0.3502952707127065 0.63897566104037651
0.8315142898282204 -0.32016459988327028 0.62913972873323587
-0.30507024677899608 -0.096476462862440826 0.78836416291471778
0.10552713159648874 0.27318142282382496 0.73461266364176936
-0.89722405671659544 -0.26849129815349215 -0.093681017935836053
0.17183064291378969 0.55762288769969359 0.62642814408755498
-0.32188647103339463 0.64342038347794528 0.6879233847779318
0.47979173932617414 0.55170231014028559 -0.17572383422566418
-0.80097334473430237 -0.71958655684005635 -0.41783768880992511
-0.30784634279899592 -0.21387110258365283 0.75192504198076904
0.74150663034495778 -0.61755300384675138 0.50580812985668899
0.81346940198578466 -0.41337472222801352 0.67396627094798589
0.21107498244157341 0.87998016251322042 -0.23426486216641251
0.1218757259097174 0.82360678146329747 0.16408505401889784
0.21534925450447417 -0.50566440461955153 0.53649693687219724
-0.58988104282343556 -0.62734415187151171 -0.28543936446095586
0.053577694334421722 0.58655123593689495 0.67726203407912067
0.14807970107310098 -0.062491650340049887 0.79020819169437573
-0.41844477652529122 -0.21032325489522918 0.78639263504931023
-0.030538928681437483 0.57241142944104695 0.73086323732047731
-0.56177506392918986 0.39077877566884922 0.61605568957305934
-0.91347841456195056 0.085680734811603543 -0.25358274866763963
-0.067402254689113761 0.46488645028755116 0.76152766778241698
0.38741316655705305 0.60455534461357274 -0.21177275982000765
