# XYZ point cloud file
0.20645467932755679 0.44332243089257872 0.15384416608742413
-0.19076856184974034 0.12790447710733588 -0.19675769917336083
0.12095026645835993 0.27445965735578426 0.37248454144009457
0.053534792782265583 0.34299791606851215 0.40913122270202962
-0.12027400473576222 0.10258840825619586 0.60690596282910647
0.057872079914307761 0.13105724102564409 0.55533534238989546
-0.030856919309444564 0.35407657206232557 0.43029388454312922
0.10095463778582214 -0.19371446938722414 0.62473776176654638
0.028643408738259879 0.40956266481722992 0.37386665351036186
0.045833013872883299 -0.068787115688124345 0.68780609354666566
0.058864903342783492 0.29714341437331626 0.43101229534983077
0.076914290592164036 0.025305430262562822 0.61046784859784253
0.16537064042267779 0.1013551394820098 0.42935764478777116
0.16227599869497844 0.5405390543060733 0.12155092117760091
-0.086987921291875381 -0.088288552750583449 0.59986120604153825
0.21026662680292496 0.10195100797287893 0.43620610172370533
-0.18795069763142891 0.056023383469316457 0.50623726167697569
0.031755905061784162 0.12420317048120921 0.55093920357980863
-0.044114410920261804 0.25893870524106433 0.50034572975092573
-0.53424449065215285 -0.45685661802161093 -0.1128123506586185
0.10448532169172076 -0.019947608344189405 0.59236399979737797
-0.020745177307437856 0.28044971968139976 0.49481436820049396
-0.69344280400734526 -0.72949947774395696 -0.29755502436448467
0.23129265122863707 0.76214791978701157 -0.13373256821222412
-0.067024699091582818 -0.078946474535769084 0.6512123334352502
0.16832755165938806 0.028230749171989089 0.56332264228385753
-0.096544036257144583 0.20803042736533683 0.32945065225539594
-0.028804116506162103 -0.053266545446383873 0.69538339487362322
0.011944122439071947 0.39049176508984118 0.42906018067776586
0.18725747828967165 0.3258333790954282 0.24120701380745402
0.019659448701148108 0.22925656417139351 0.50394745331377777
-0.61206661989276867 -0.5767327451018005 -0.14593818465959174
0.034778199650656205 0.26340098705797033 0.47198856696277858
-0.14448867122842657 0.086976897055563995 0.58255700686157397
-0.51005889543068861 -0.41493841553124611 -0.10483950700857037
-0.6184413883631823 -0.58721750397006645 -0.16323280732726531
-0.11783733130493346 0.10367187420303736 0.61535396947458665
-0.14695230858928809 0.11629450939288688 0.57946042265956521
0.1264160019207381 -0.0096041781119353686 0.60445983601760389
0.24542800721059521 0.96217430406741045 -0.41210629643897079
0.13152036066206918 -0.12671930685726807 0.61452455602130485
-0.055725615500710646 0.12542414753959719 0.58670597915195088
0.12193662214104428 0.10638666091264071 0.52620822912254539
-0.21701507498268491 -0.33296839202316875 0.36583409523961308
0.2724866679349649 0.17066489779155347 0.35294773564084636
0.27571531463417287 0.54459119158881464 0.0086955502240186888
0.043455274234467822 -0.081598934887253449 0.68554635949687537
0.18741179247853168 0.2669447192756067 0.3133711432021542
0.056448653410434702 0.2915527278966934 0.43680462289781019
0.25375072952918476 -0.22831554018699052 0.62570268485881542
0.042392669820655371 0.2103834945441676 0.50806031624864545
-0.31993568021062302 -0.27545347900672823 0.016824170144488448
0.11237121186560906 0.52182162307236979 0.21560671459838687
-0.69383826389674397 -0.7315027579475526 -0.31251225760551193
0.16957081600013968 -0.14627149815818541 0.6292121095876233
-0.0023775207451492975 -0.038044852196037482 0.67524283548786457
-0.60804015930692579 -0.56094237237203259 -0.2550565580933295
0.18283649890100762 0.30324723152364896 0.25883774040170948
0.26062514993194164 0.74792255492656778 -0.16382141683239126
0.028200879734679773 -0.035055420797213799 0.6661939304949982
0.27757701253223299 0.71028957961792116 -0.19278773141115124
0.27954229771397898 0.40592903566506067 0.13644794008322947
0.24544233968489593 0.83234913945966582 -0.2208519750970126
0.17882509360990362 0.26496984691285519 0.29532659268403449
0.25107793720905747 0.90226300122409953 -0.34032986525925679
0.090308943180673396 0.50150862389607909 0.27309203262935
0.05346677525628607 -0.1614739026491776 0.60586037788073099
0.16792598738944164 0.13225219531393151 0.47259649470215948
0.1337008377325688 0.18510124923226101 0.44611232305037873
0.22709628640380863 -0.17671146990979025 0.63173075841585913
0.20561496112013877 0.51818400048803426 0.099855290601766455
-0.095823036240766157 0.17248425182157945 0.50749961630614493
0.077088067771411417 0.34315670942014975 0.37760137426487717
-0.1087074556617722 0.018390664954438307 0.64155341418705447
0.24579403019838075 0.70884559542764691 -0.10224247836281108
-0.49815341130765312 -0.39737468930027831 -0.089168327900740252
0.11893189827059025 -0.087446292693186933 0.63666528552650448
-0.02418979943010946 -0.034322760706125166 0.67478391817133954
-0.52403381850679409 -0.4120880040471846 -0.18462151965870888
0.07192607517727545 0.092128962924405755 0.57133146766294374
0.12104544344831858 -0.011636202020675057 0.58197372685496163
-0.11673517619811591 0.0800655534287813 0.6563722891777104
0.18813516540626907 -0.1537778732292594 0.63451941002275092
0.055962563844037305 0.41808978278209707 0.37494213612471583
0.1835134227589128 -0.14245780140220177 0.59955062017015948
0.25432893897360564 0.56482510655261819 0.019499593411630656
0.23645628523996187 0.67237223203101593 -0.060208282066440688
0.24991644780878808 0.86149709246289774 -0.2745157226814996
-0.64544868626871654 -0.63898165977447974 -0.18451503195274555
0.31112660375382895 -0.28055383357580155 0.66123610643692032
-0.37618772652743004 -0.19234092087301491 -0.01896817578189669
0.0036555989734434746 -0.072489057426579961 0.58489928003374558
-0.51147222054360775 -0.43669428283258327 0.035178714275101441
0.048524773602123261 0.35595561898825423 0.35930364272044102
0.1040185354429255 -0.014334445586513311 0.61742958157534389
0.31363666004155188 -0.22783431495198414 0.6519384942698494
-0.48241526861511907 -0.33063002767435279 -0.25452853516551244
0.11307573177675145 -0.10777954632124676 0.67233917213597394
-0.61878463345693824 -0.58148111520633705 -0.13703719791397262
0.03904776789954667 0.18077956064949063 0.52845194678468488
0.22046824281229682 0.28658194148148652 0.27629605691760162
0.0093392565495307167 0.44236453875667081 0.35998764699488106
0.12678221548744872 0.054114353055993547 0.56627995085028004
-0.6030973968598321 -0.56384912570575096 -0.15739925359596185
0.1321848594656041 -0.1211508939557504 0.6138838930705468
0.1147526629701261 0.27097700187160001 0.38546717627679783
-0.047955180969648126 0.092508689830133051 0.60112317462473897
0.020456237188845705 0.43928947441082045 0.29517263786623005
-0.12815711487457904 0.20040548401009062 0.14337047201552622
0.12315149962894179 -0.12189886888671708 0.62275180246837891
0.27406099754131752 0.59647382796231341 -0.042188961131422786
-0.52970643892883018 -0.45932056631284013 0.020767775534192623
0.061128725136521567 0.44299423802039684 0.35550666389773511
0.15975587354114129 -0.1398071464424433 0.63116015805900361
-0.26584727277387898 0.013664072771312874 -0.21369733349891362
-0.16742877368181475 0.077039686605765212 0.58266151131908828
0.0066453515699240739 -0.044469344030162006 0.67743973173934791
0.15711218938714744 0.059731533963734762 0.42775494143553061
0.045752954529609369 0.25845566605750747 0.46607436252724455
0.090708455742090521 0.27269006313756705 0.41485467856228553
0.11273218271070462 0.47492657304336916 0.23415861239125491
-0.055818757989305468 0.24233916875274986 0.51094451278613207
0.075350868635101875 0.13379655918055278 0.53877522708371117
0.18516148212252581 0.83861667236414661 -0.35346739727795295
0.22263291731811918 0.56152483454842184 0.049197954217078177
0.042245914082391423 0.3413911740398845 0.3599723672548194
-0.06506277300061214 0.06772400420837954 0.62347792218503173
0.10710907655293411 -0.11848556518371112 0.67311522880851626
0.013144227933059582 -0.042229592574372532 0.67454648783083115
0.051703830013172691 0.10448148802026935 0.57780832346255551
0.010197174710819823 -0.048901629680337066 0.68376643347516364
0.1980174001836037 0.25567222493186392 0.34159765112097062
-0.012170414591851753 -0.065937559049373817 0.69133409117296551
0.24514790916393459 0.097534272607816774 0.42962678062338
0.24709084971592254 0.64458663003897243 -0.043765255825498173
0.027976073949581348 -0.14525250118357036 0.56743015403743513
0.26474284751242649 0.93239623821603601 -0.34828578485751649
0.04079187422240782 -0.090157057145567876 0.62147118770076659
0.0085666380172551015 -0.14285338267487901 0.48694685237411051
0.08502950807521259 -0.04670445994927519 0.63211017603273945
-0.14448175003614594 0.078065311330398401 0.58754542043399738
-0.7103844205151546 -0.76194367550942133 -0.3698619576246962
0.20627093457718093 -0.16587938666810942 0.62572454070255645
-0.46002033612056437 -0.2896593524314639 -0.2104622187164793
0.26138636961874528 0.84374552626690758 -0.32598158768176688
0.049202072724341406 -0.076686469896912968 0.68792034884335962
0.26015863721681498 0.59577315829835698 -0.018317539621321544
0.18884204281213179 0.19420530399727198 0.4081602643177078
0.16282653601020414 -0.20633305252834333 0.65384182299900218
0.24146304522633599 0.44122111470215941 0.14131658717576556
0.21070921179916358 -0.16936972786037785 0.59738378618314414
0.028673820645224168 0.17538835139882281 0.53243779942235392
-0.09332445586012561 0.21437835100404357 0.3542263643501613
-0.16233425541453705 0.097739556222819601 0.56102058611453387
0.042128236774354733 0.17887801770738321 0.53325050441196709
0.13535268883151552 0.47366525724415709 0.20013047519934446
0.25588287094458906 0.64151160125100404 -0.055139842428523878
0.20947686631858353 0.57330848384025757 0.048014806638434493
-0.34095339918328982 -0.22216408039761149 0.32688157167241982
0.087617841962426724 0.30746838240474261 0.39183264349514957
0.098960633210390725 -0.023367950423356376 0.59677827409123552
0.149246519337078 -0.11417485300400898 0.66215815213300289
-0.62553486762903354 -0.59429224597843699 -0.26266290875746279
-0.011284506262208893 -0.052134504588664754 0.69611884056187279
-0.023668930267280786 0.089262237428670232 0.59534693009723583
-0.022927687310849265 -0.04547022374979548 0.69378667445198161
-0.069125430544374922 0.035434077066000214 0.16154123125208741
-0.39970661119816775 -0.30894033714714197 -0.10993818505031072
-0.54990056771494444 -0.48255261351568635 -0.11619954005200839
0.25396996126644744 0.90910329519938671 -0.26662110613450096
0.26392081984614002 0.72576823009725899 -0.15264221188908067
0.23328105958584455 -0.17753441809346526 0.63772763622684892
0.024363684521397033 0.12203809327321125 0.56652604256224492
0.16351723348676472 0.0498757351279977 0.53057561891075977
-0.0092981472708473234 0.40153270408894315 0.38364682162915642
0.10011031307384854 -0.069770998583770449 0.62217407643213818
-0.07131380204144655 0.20536553455843176 0.54228215914924505
0.10104853949169978 0.097718999416088081 0.54680352443713787
0.0099424679624098289 -0.080645768353697633 0.56654750383646046
0.034195032189154873 0.1811980653328078 0.52297235903977679
-0.4260856095573704 -0.36035179223321023 0.1507792409645603
-0.098107000129168398 0.099908178687933002 0.64970982004211564
-0.0762334343733162 0.25289703384169826 0.51624335401527688
-0.12669996306211928 -0.26890805817360075 0.4516400000404559
0.19749664328543126 0.37862539047654309 0.20248261145833624
0.095369548437645335 0.10000780799525444 0.54921941450578515
0.18588259246095618 0.186882426610957 0.38205602479448686
-0.236483383474555 0.032788559704123088 0.091179965754459857
0.20274688738087576 -0.23930824252613547 0.66247410588074729
-0.073649777401346483 0.065973210620818179 0.62804902608380786
0.2629015814507909 -0.18912639820601385 0.62577120724503033
0.22841218823367271 -0.17719247230857604 0.633275855251064
-0.64175443869642557 -0.6296604776653183 -0.25605200875687117
0.10375477867118654 0.50304224302982448 0.22977817883039364
0.096199826761672824 0.28987001315402949 0.39551634022738824
-0.035803682439899731 0.074012638300722244 0.60661463823017669
0.19125976833951164 0.34877209005118459 0.22513427479011483
0.19347944573329379 0.19276010202922578 0.34832579830882793
-0.59775355892842796 -0.5553232375947843 -0.15473858644106286
-0.10118873502127812 0.024988233508480562 0.64925473863174687
0.069296577703820361 -0.0094922568222628456 0.63564195764111986
-0.013804449638495697 -0.0334786452293514 0.67463150238942404
0.10867420222705171 0.1397059853955156 0.50736658435198478
-0.6086450414754907 -0.56176057434063154 -0.25367092873516128
0.28485058503726179 -0.20776715961238779 0.62108956144886207
-0.015881058161175687 0.3910585454538591 0.12984549710910898
0.074921253549808497 0.46137580367162911 0.32357683572017493
0.19571879875403653 0.13232220254502636 0.4073176053026657
0.18087979699163803 0.21049148555014341 0.35568859294892974
-0.087252994219245039 -0.10867404464519126 0.55483636832991579
0.21916504209011833 0.62436722787329302 -0.0094115663549771966
-0.052348650886480996 -0.22341271068671631 0.4966060505854486
-0.042421474865022901 0.23896018173825695 0.4768684628012636
0.20937384758825317 0.5176754376179602 0.094043008685325447
0.019099298122704056 0.29124042205516787 0.46534768527696713
-0.67734831667490525 -0.7016281577560548 -0.2671837042385512
-0.13470907219308614 -0.11944590891737761 0.53539923767298347
0.039802339828746369 0.22099832863287361 0.4926498729869806
-0.031333968562229586 -0.050531703692954011 0.68285155972377964
-0.60657623311411868 -0.56926810072224043 -0.19196199573185169
-0.6616191639060407 -0.66599986396354893 -0.27894773267900419
0.12009276827109794 0.14732749038285675 0.49200911373836931
0.0040267008766114998 -0.040846759230142027 0.67341347737345814
-0.066310389653002844 -0.052589503766505175 0.646758374311041
-0.10345076029415168 -0.074030285243743776 0.59130437255333845
-0.07208441988823644 0.048378280585112066 0.63391544128293731
-0.056044139945477411 0.20988176724633689 0.53382632723108259
0.28547052671946282 -0.20591300290163161 0.63869025841731997
0.068038706454901288 0.30904837321467227 0.41452605695614153
-0.53996420161637992 -0.43478943474884346 -0.20561167684553538
0.004719808153584637 -0.071404782028018587 0.69197532664458095
-0.49786770300863736 -0.39885966266307094 -0.08225172922205104
-0.5012075819624755 -0.42046778333954649 -0.0012177208788877181
0.079048231965632709 0.13095051282763137 0.53789605671334328
-0.15013745572315074 0.033791268195479063 0.62885304871726788
-0.68099049516989041 -0.70023589610306658 -0.27338171561867597
-0.45196949797001729 -0.41406556787872972 0.10510435787546513
0.14870071150789244 0.1655916576160692 0.45265342287285648
0.01195499760372698 -0.091260222144526892 0.64930452679530859
-0.6785084638786536 -0.69911322878175497 -0.33787886485443508
0.038782832097519204 0.13010057329898927 0.55799684250979453
0.1732790529839825 0.072074091138915719 0.51901096549475056
-0.60650946172123987 -0.56132918619027805 -0.19188883285541891
-0.57253172042728728 -0.51481632121389254 -0.15060129595878635
-0.48753538250433515 -0.39314610527238614 -0.031154562969991417
-0.097455727516184254 -0.1530487836111547 0.53302959057502264
-0.1454523082912349 0.10744971064477227 0.57828165314720437
0.021459176302139227 0.28600652399648396 0.47626420366711386
0.26280008083419837 0.77487535183259126 -0.2080918023585312
0.10929148843443315 0.19265154349702129 0.46211684704883993
-0.13308895946830823 0.048455355531210387 0.65356766095086627
-0.044281132574822024 0.12926837641189337 0.58196275295739497
0.014534763498550873 0.26377204091399875 0.49262517242284787
-0.20428401365328952 0.0034944827109200105 0.57766708190219518
-0.043484387086042631 0.17346035662043846 0.53740449317557193
-0.033681331699142447 0.28192917188053457 0.48881438288832157
-0.044718978748781169 0.24893989136773342 0.50700957230589694
-0.12626298443151462 0.058369066397681024 0.66456224802448816
0.35045998929301092 1.187778819956371 -0.52267694933676978
0.020393143287837034 0.028448375302708939 0.62822124406591939
-0.069440260870521797 -0.070681872738980189 0.64855371989162336
-0.62683769461350991 -0.60187608771558132 -0.24341597911226742
0.047731221056775297 0.20479094001617426 0.51099101430257576
0.055738639203500639 0.37418366606864595 0.32683981593950762
0.25065395139215774 0.90225912530713259 -0.32889221044512595
0.18368356221854665 -0.14812950061912744 0.61203568364271632
0.18012930793418391 -0.14937446241598451 0.67075296715560384
0.037563872799887932 0.16572318463916247 0.53707770524049181
-0.34012466482784376 -0.24139446445557411 -0.06463802368493532
0.0024865624545267195 -0.13453912280947833 0.56097241454876823
0.07991163498681253 -0.16446808103876975 0.62011999689595143
-0.12875767984717079 -0.0084246465795914105 0.6158794533231351
0.2482110453543438 0.29906217749855557 0.25657210851758805
0.31971225020110872 -0.23153812643750626 0.64918559405431964
-0.035280126010361457 0.22221146731364882 0.52608064749721706
0.10615287425346231 0.20862430828087497 0.25921612290407836
0.13957724622295409 0.027816988732617176 0.44618518611246571
0.025543697725645131 0.13551618626757289 0.55864510782259202
0.22471928848957567 -0.25508002522776962 0.6658976774992027
-0.45457620428029522 -0.29365998323946485 -0.16337328949512653
0.049054291068415523 0.033945769803217729 0.35066385016568091
0.32351046098118807 -0.24017901840961287 0.63745610342907355
0.045710996424350725 0.27938280560173467 0.45453328179647912
-0.57166153477345816 -0.51688095678613877 -0.11864095406063768
-0.042188068647039501 0.20869143976051419 0.51273016580267949
0.091987227356284507 0.061230050558393145 0.57557366684948619
0.27237646104699564 0.76228324061627717 -0.24445614021271922
-0.58758201101330343 -0.51627484391500644 -0.25213525430886463
-0.1637655400208935 -0.027651489497436899 0.59893997194714998
0.071996668055108515 -0.092630169629906334 0.67566164372541593
0.017772678263266783 -0.042217900686367216 0.67743844151831212
-0.68230017211212868 -0.69669487054036949 -0.27537306243097248
0.25062077847488773 0.59565907110683014 -0.0042956971949479339
0.17710156554143897 -0.13977035271697957 0.59619146457018246
0.1190956390267548 0.10615940269551061 0.52793622412772834
0.20710074981454785 -0.19235197108001501 0.60406013251958512
0.1075937453301794 0.43688251087898777 0.26156726750888026
-0.085413121113713686 -0.13752272270043875 0.5545902860286418
-0.10924023160206531 -0.072597770167625697 0.58073449338593619
-0.012184699470628502 -0.065797478657117381 0.6886701440781664
-0.15121964473566152 -0.14972785561720059 0.5006395597569302
0.1070050931103026 0.22247911271767862 0.43856705696835263
0.21191191134964704 0.68309437519047123 -0.051723586535842969
0.18100036429532018 0.096926991715960753 0.50016793874993226
-0.074681290739333051 0.11382345175730535 0.62764863724496678
-0.08304698692052348 0.026100436645847935 0.60442488799105121
-0.23736801470795044 -0.10915584331194594 0.49940926342032199
-0.60136256837162527 -0.56294894623943748 -0.11441389292944848
0.091670123896312461 0.43435707340151453 0.29695623095583557
0.055935547923729345 0.29972686659056791 0.43267488288746847
-0.10457207994448936 0.20476285999141908 0.43184315638619353
0.2685504701683783 0.22068878724905971 0.30715100244905358
0.049849218243609883 -0.065496341011950676 0.68480716328802771
-0.035618231205701179 -0.080118920497127988 0.66801822039766634
-0.028364439574755096 -0.045462768174388657 0.69299473039121651
0.22293095718601208 0.54195382777398038 0.059120799920727052
0.0082318824799365586 0.087597108913406885 0.58996837109054923
0.095564029330190259 -0.11933587059780848 0.65602141012758963
0.23734781098437097 0.5709212898943079 0.031143572711258116
-0.038709829583467581 -0.078289351001295415 0.62632223973531254
0.10691527612008223 0.28485945015885505 0.38477280323866125
0.19749893108992822 0.32193778624905889 0.27578219289856776
0.26163442363767331 0.96175199611119666 -0.37965110121240997
-0.1404664815588319 -0.11923664003160894 0.52911111460197802
-0.025308460007332556 -0.037132589089473811 0.68473214243499925
0.18742404989813544 0.16880602499848862 0.40016842947085962
-0.14386937428032276 -0.014959873555994818 0.61474886209919788
0.048018793731477771 0.11730983817566454 0.57171822272079709
-0.086549137457149428 0.17179510931392628 0.55388669839826221
0.0050245001147342094 -0.16684897081671579 0.58362167905374918
-0.078032553038411834 -0.086671494849269948 0.56711553291347627
-0.10742120526198562 0.1151357632658474 0.62984318627819391
0.13394228212458081 0.7485646040447449 -0.33993034361356678
-0.66395528809703386 -0.67623198026051767 -0.3097509249990793
-0.040089080430766089 0.2622578812986518 0.42834558294084246
-0.10801762106524748 -0.062248496057044633 0.58301352490807545
0.10764554231171708 -0.14898529134575966 0.63163966068842825
-0.020990582598145124 0.33354856399976285 0.4709381744783343
0.24466840056894945 0.46934737171061869 0.11493995619039055
-0.57253274876681459 -0.48814919911034593 -0.23528666995368752
0.13593098917725488 -0.1274159009206528 0.61406882096641979
0.19215531227612992 0.19112438256457409 0.35094010952711585
-0.14888102097323674 -0.022423715622458928 0.60286868543412098
0.029029503222377073 0.34491092861033223 0.34300707686116283
0.18601852129891228 0.32292432250935121 0.24427219099208486
0.046843482680406723 -0.089195084578712169 0.6774678675557908
0.23575433600957041 0.36174481108026413 0.21114052758350965
0.18226441584726594 0.144060825931831 0.39226478423212541
0.20116957571319993 0.16133092591913112 0.37779736037580847
0.2194789228195857 -0.16816988836577451 0.61966812643870739
0.24738084350027556 0.77722975116711979 -0.15675479681491566
0.19971140444897628 0.60047794387389786 0.029238127054945551
-0.074556596802276331 -0.12916284830064484 0.55525173255831817
0.26585376982191811 0.96772961399949509 -0.32111260113084228
0.25169122917411446 -0.18547960394099761 0.63549913646332712
-0.14592110069000164 0.13076497147395827 0.45741128612575466
-0.097494672166501317 0.17896072784441941 0.46535177272928507
-0.11917067977008777 0.15424408444479099 0.56366573429445666
0.048541544969610939 -0.042585410645152422 0.66248330162570568
-0.23343512678722611 -0.061026362316937366 0.57649311744919984
0.090156378908504919 -0.052926530578268682 0.62086728174009664
0.0084519686681439055 0.26986503274898155 0.48221135108907021
0.013086240588549458 0.30376680033309356 0.43987482652330101
0.23419725428694615 -0.17207500516767027 0.61744919565704492
-0.090645497972410283 -0.07072538445605403 0.61807669470715965
0.22057932413203662 -0.19061782188490639 0.60453238276490495
0.24443370537393783 0.19830317068391423 0.34802789534622036
-0.21504597709520645 -0.052079815741407742 0.60971627524943628
0.10305686639216738 -0.091654429748054156 0.66729268633787342
-0.7121341212991652 -0.76381996943100461 -0.37361718740060823
0.17176640617515915 -0.19635182502017301 0.65902976051308926
0.17048778317992763 0.14330351420216658 0.3938786453043619
-0.14899290033026524 0.12648121757975872 0.29771869181782762
-0.53912558575146186 -0.5225218258519817 -0.1396103126043613
-0.51134699171971754 -0.40044666206300406 -0.15937704018259069
0.18095911053426228 0.65973035497145815 0.012870588226782331
0.2553443558502746 0.74694615901759676 -0.15058074160117485
-0.041074217204027264 0.28982714135828758 0.33819325788778798
-0.67594350934147585 -0.70075364922963246 -0.26080678739937824
0.26428857510928871 0.76861704888639792 -0.20175768320589782
-0.066763121345525533 0.25550815539664029 0.34575927807685503
0.26829846270274693 0.65570699846639968 -0.12533339597425197
-0.039219732558819942 0.058775342208427617 0.61687492777449648
-0.10780874960577869 0.15360443031769222 0.55753606051050042
0.03893879237004505 0.23335971856376148 0.48759199360725347
0.12364254132787345 0.39753029390526962 0.2543442437890775
0.0063644875765156428 -0.1671801163731601 0.5699660062926597
0.054037625537890932 -0.097707376365072207 0.63149149096549451
0.12971586773386612 0.62568063533138485 0.15082479524348713
0.1410242313184229 -0.13174112056965015 0.63349178314923194
-0.017140067160788419 -0.044011481796303542 0.69176916059138449
0.061837350821768666 -0.058130936363454566 0.66686928607565932
-0.069854976523350487 0.16496427935744862 0.59303090283874127
-0.59541484866305261 -0.53689704070583844 -0.21848905051838585
-0.57861190841837029 -0.52337293509015836 -0.1671262987565143
0.064102775983023719 0.34308088552344884 0.39654079162519906
-0.023650690645052208 -0.055276603240422162 0.69908815956644332
-0.15995292306531006 -0.032404094601865552 0.64034988263760795
0.32309224583232066 1.1373697383867025 -0.47666798104890518
0.23311373469650221 0.22470525325450552 0.32427056847532754
-0.70820809370465021 -0.73197481615724058 -0.34840859735352581
0.014898550456878823 -0.11320746100034285 0.4585404061053282
0.16045500779929522 -0.13055403134670485 0.60073076911659129
0.24861603008683097 0.86917296826033663 -0.26508227991094913
0.14952580804857618 0.43559607057822802 0.098419062971913718
0.049727734253533384 -0.040689219602434434 0.66163075672245242
0.082748185459410095 0.37204057791602452 0.35423121640247501
0.25388848267093422 0.96980250194458506 -0.40422899958063851
-0.085857383053145497 -0.097752992035722741 0.56020141379925192
0.10451267077728055 0.0076708335097919189 0.60928293580676041
-0.0086416316863875409 0.31692323824982083 0.48028391744728793
-0.53284952454231949 -0.4171900524641643 -0.25412127162245213
0.18784313538398578 0.13634086644903221 0.40103415420440314
-0.093459891733267852 0.062009726625795736 0.65771128370373688
0.1898614079168901 0.34228910347972885 0.23314089198403565
0.022630380119052163 -0.05318914052390511 0.68636083341364795
0.06827016442479561 0.12175454223931581 0.55385725583134615
0.13005058505773004 -0.12310550405388909 0.61993964510554278
-0.036092223746807761 0.21000587719426278 0.53368452416822265
0.24315170527083829 0.83596737886347228 -0.19860722392405705
-0.097796190847917686 -0.14500652822195548 0.54047198578223998
0.22588382381223582 0.54500893312867049 0.060641334936320845
0.066326300460664456 0.42220494302635103 0.32276522537091523
0.069924956778432801 0.093645783840884178 0.57222718756119662
0.11213477911293168 0.10722093469886573 0.53179564713338578
-0.6857278733444474 -0.72099785950036477 -0.29314309729134536
0.049980078324191268 0.3925422127626419 0.29897705269901564
-0.10060085335023672 0.21412558048066899 0.45324458149108793
0.1636648593874277 0.02680725004197626 0.56884660530644027
0.13039027484049548 -0.007522313657482016 0.59119660274002683
-0.21832771917919125 -0.0010034136715688646 0.42724599781461947
0.012243885828953083 -0.054690943913790591 0.68961583156762885
0.23485691701943345 0.63159101804960471 -0.020908749277722904
0.086181243947224928 -0.036529351760719919 0.60504754337470956
0.17953179568748112 0.43406294054113204 0.19259377920577236
0.05589185806913477 0.3048753258715422 0.42959968161997608
0.19163664125066582 0.14569629648312343 0.392451466879713
0.0078325409721706762 -0.042494303409675638 0.67270289795359872
0.28479556501920378 -0.28495726530297816 0.66983130609548169
-0.63869433169432099 -0.61587074627415461 -0.29121858881481089
-0.11764642711249351 0.11995916309789578 0.57061314158066878
0.25771823639475855 0.78814203851544562 -0.18001428501290917
-0.53324857786039104 -0.47080181056987414 -0.011566148206394899
-0.56942960984376079 -0.47664931065622085 -0.24914290864584032
0.10120939163515352 0.26202461852188463 0.41150269822709618
0.19091246905459336 0.65021301927874475 -0.0028177169815037928
-0.51193519131906129 -0.42425576778917673 -0.081799604595254038
0.15230295978310071 -0.13864052770986035 0.67003077157978197
-0.57850724136271303 -0.53872710159956938 -0.19825598983480219
-0.1098443729771752 0.050593213395806913 0.67174024104695818
0.21361753323473387 0.24291658931600324 0.31133088187732483
0.076198183324077462 0.4243678888174216 0.33646462019270018
-0.62744927511654858 -0.60464928095596093 -0.22179703283736174
0.039819144212620117 -0.079398064768213317 0.68840713613530369
0.13183588365795984 0.60204985384481091 0.14943060174382339
0.25318150065430522 0.23722651238097114 0.30957797740870063
-0.19854782466783227 0.038709331565677019 0.35285481240680383
0.051767001349139363 0.22830003760461182 0.49068489008708127
0.0049832997415997227 -0.093533692500606946 0.55807307222420732
0.018378091198247404 0.34333018388493741 0.3846883802281198
0.11853324003714683 -0.12558925122074527 0.64382014916126096
0.19828402476683493 -0.16217606197436396 0.65059864955606272
-0.1206768024951046 0.023811459916281308 0.64917646342097868
-0.17334202227523221 0.083547508336096143 0.50007986603364074
0.10807592046780989 0.11937536643917923 0.5247359830187861
0.076726581180755815 0.1895560099850826 0.49392033251648115
0.098990710187322861 0.081228414119195236 0.56134079950825111
0.044831044694982225 0.27212808747292172 0.43744849280117393
0.15572871736247329 0.55125177735211395 0.12355710764160222
0.13365803878390814 0.20644159535537909 0.43202023714084703
0.10659846765099878 0.56013717880599501 0.21542943156513417
-0.43037093007633409 -0.32935639251112292 0.17252838447809538
-0.0018732317084353411 -0.050422688119475367 0.69176812191304293
-0.61566476853291974 -0.57352939179890683 -0.26452684890347555
0.12625072268988546 -0.12539536789032013 0.61574465260478206
0.19929011543074182 0.040506186605469452 0.46111244754514047
0.25173288279134276 0.88137434493816613 -0.32925189250091336
-0.053759866523678923 -0.1689291370727517 0.54465832338079423
0.25751771104638976 0.55399843570755536 0.025687792796972531
0.13196033982045208 0.63216705993339417 0.046731718694097424
0.13766380330064987 -0.13599608497553817 0.65787757292089566
-0.25384441058903739 -0.089534592416512737 0.53900394244321603
0.053804126317253065 -0.09891139853619535 0.67611995188739371
0.25110149027854511 0.94484235710611841 -0.34146890512155892
-0.12847277569652427 0.020104237559159799 0.64934457689042802
-0.70328069803021087 -0.73823716326622701 -0.33096821309361957
0.3441719878133247 -0.29938102065194983 0.68714219734531312
0.25207248124311565 0.88286628366452646 -0.34978944964335312
0.28693418266338178 0.42489366427577835 0.11198655661502244
-0.0078238008795752378 -0.098585331097332585 0.55430516851177813
0.040494240488293087 0.23333380154657135 0.48554437306810172
-0.51033095777626336 -0.42018785090866118 -0.087030758496553062
-0.57351952287821462 -0.49690974312358094 -0.22380294647372168
0.27323577019660927 0.8000455364849941 -0.27183730114911242
-0.044111475880374229 -0.151043905279721 0.56416021581010156
0.0044304200220768308 0.40534467461250046 0.43261612675733829
0.070006147313019795 0.33275605698780453 0.39683237815907546
0.036240542347348637 0.15123451026163082 0.54029426072073505
0.24769373539564654 0.39128217020055445 0.18001108224575546
0.2036689654959325 0.4097222910606888 0.17805132921440503
-0.55816202402343862 -0.4942415114096832 -0.12901356970214195
0.06899428309656308 -0.078455024032471954 0.6744582604632825
-0.58692038656501566 -0.53794671068884981 -0.14799701361909712
0.13220555587396987 -0.12768326140498232 0.62888072116767191
-0.074258367688317506 0.17147254362759412 0.58507494416588202
-0.15771576242730845 0.024200750763156975 0.61919519836715153
-0.71100374031781755 -0.75631143073505314 -0.35171415822280139
0.03044003667739581 0.32653642759017742 0.43089430580118204
0.11532428586213594 -0.12017918646252923 0.63123969744467345
0.11479744995246399 -0.12288625384525176 0.57725847854402801
0.07417658097052815 0.05175579129475949 0.36445807234834149
0.0073175855725633454 0.24393396458278715 0.50759195319737671
-0.0041386759394086425 0.35711969758048667 0.45854055357335
-0.11824911563644314 0.039264985339812597 0.66230197530506274
0.24977193373572604 -0.26513982938275404 0.67543410779543933
-0.13759352856498097 0.10043062788300716 0.57682926988936956
0.25243076466944103 0.7163262064619289 -0.11610697054660335
0.014157222784096035 -0.074865394807318353 0.58116599196134544
0.19815552493936117 0.3778044617904186 0.20217164622544459
-0.011708806297416885 -0.06601600805836938 0.69356996686871497
0.12384493961377974 -0.11476735181833675 0.60395992480004068
0.061624680427543765 0.091020396480409715 0.57668814232909682
-0.026738826404979932 -0.054302006976691075 0.6976385566186174
0.30888643000140981 -0.28514636655390291 0.68779942212832168
-0.096507050772306258 -0.050697401893998517 0.61318719321149118
0.10105389442417234 -0.19361095524642025 0.60028078876692348
0.064623491427475699 0.45038043145692797 0.34804220390131491
0.13877727758871039 0.28319082629227665 0.34470300451275904
0.22976011288088749 0.41872734014151547 0.16575253191776795
-0.058834982078685982 0.11587646486547953 0.58983188526246266
0.096852919784572222 0.021975278167502665 0.41732145675085519
-0.22478243018631971 -0.06472245784106434 0.59758885724658128
-0.55881478036241461 -0.49950544615875714 -0.017581058843482822
0.029321810513108559 0.32148898775737678 0.3736995173714206
0.23504110131260703 0.18699688374093881 0.35977926269168847
0.11907874770130533 0.53243091470179138 0.19841305687685917
-0.031716579291911629 -0.046746245366655614 0.68687893398733735
-0.012776340754093951 0.22163026629198157 0.52957260540924267
-0.11580600966898125 0.068605908637628943 0.66516754428130653
-0.089396635170876593 0.030104227609996315 0.64442054586346842
-0.51387221707072861 -0.51201588370864926 -0.0042664035201838146
0.24589854526760213 0.89131145799817091 -0.24961851112981037
-0.5404460863463818 -0.45988280313618191 -0.14775503083852115
0.27841154448016248 -0.20252461286145262 0.6418901503317791
0.28868340679254345 -0.21371744986315377 0.62236015209751372
-0.55654188840294161 -0.47121126321253115 -0.20329263068370906
-0.70406519146839841 -0.72473074899986045 -0.37213695636212663
0.34086062174710641 1.157019041667894 -0.50587572256944924
0.15295343024540031 0.31574355163023426 0.30551903297256899
0.081656937910119964 0.44117689488471257 0.28410688795303685
0.26163466334786278 0.27328844596611646 0.27403095807378008
-0.27424947814374967 -0.11830888495873637 0.46580268275008763
0.060616029856889853 0.23035335046604644 0.48008474045949612
-0.69514738106326668 -0.75359720509309369 -0.33183164695317302
-0.17997051226591587 0.0015302072808864864 0.6224829207042788
0.028794038436080527 0.31249628746923008 0.45672871374267032
-0.076892052001529265 0.052339539034853999 0.62161381253186931
0.18771772917497032 0.31947038355689017 0.29347938465487289
0.27441592453127939 -0.19773436828151603 0.63346277674830276
0.24810977088388597 0.85983420052303217 -0.26431791826946238
0.090323759950059923 0.36145661486771274 0.34710808315646347
0.26723977936108234 -0.1984257238015914 0.61442902314637493
0.22269192061464782 -0.17505207686822644 0.63627706283730134
0.18426796435966963 0.46963331854998103 0.1575454557999123
-0.39076878923396308 -0.35974696210396218 0.19675388516992598
-0.5489650390948988 -0.48295473797190169 -0.0013443149366274554
0.034529256094693039 0.29183909480884296 0.45833098672851236
0.065679868104290051 0.33476585306603113 0.40016907836002957
0.28237042257324774 1.039165100352399 -0.38439417555667177
-0.16768769951158724 0.056419653450987539 0.58774585056813677
-0.11815739284488558 0.16236779121524592 0.56577663634309516
0.087665553240313443 0.14722651929436381 0.51766073362514931
-0.62791454053928675 -0.59528194779783661 -0.27427922609101429
-0.1237751209792517 0.08113996299233861 0.64523062502410511
0.051947993936174441 0.29123728560456641 0.42741062436782329
-0.68877528791009546 -0.73499104488442413 -0.30748384663206352
0.05925541990717953 0.1833487972172918 0.51576430893262426
0.27611177787057084 -0.25515207682555996 0.68481315922802111
-0.16299653559044813 0.034647727673544182 0.6163237909285364
0.23327457630493065 -0.18152963836510594 0.67546289744014487
-0.16207783554106214 0.099239031017468449 0.37342942698036552
0.029528197016231772 -0.068295292019911358 0.69168513826444666
0.070158934175490018 0.098477461422668 0.56969396656689497
-0.46756078302079551 -0.41124832669457589 0.080863113968401734
-0.47200387045640468 -0.38432834769722035 0.093221524371308817
-0.047993463493030575 0.17965354808574574 0.55252019583939926
-0.13446899165147208 0.14821786495680556 0.54775006343961863
0.19347331184277294 -0.21112877093715809 0.61379287477336675
0.055266510854046658 -0.037724657016099172 0.43211077234673922
-0.60252772457261372 -0.56040721275280703 -0.21079129077195091
0.077532058542098881 0.37518762058498822 0.34322381182629158
-0.10660961755435849 0.16384152286072862 0.54886735999952307
0.18608103257833442 -0.14323009926020802 0.66750569150867278
0.14370418492650927 0.19756489198158533 0.42544334044959697
0.25909315867871463 0.72591622008429368 -0.13960178740004636
0.12648311171887983 -0.10390409141593437 0.63813165641962399
0.1191265873497187 -0.12056844015155121 0.62775930179915918
0.13259544610492213 -0.13357430386402314 0.66444770711993328
-0.44111454225188496 -0.30732679920203765 -0.038643318121948766
-0.56291773511343024 -0.49983958662335937 -0.14671059091793737
-0.21272461116403107 -0.10704063261714936 0.49621578371511887
-0.10039548951553989 0.28416114282604354 0.029290449787474415
-0.048760857891831932 0.24516397579075999 0.50915085386259307
0.10889850573876458 0.17879017720254353 0.47434507723426123
-0.0092424655828819979 -0.11922518940958327 0.55512021264420497
0.19370903386222693 0.67712590407420237 -0.024893157232462215
-0.58740979840623098 -0.52478602193257018 -0.23240176998440631
0.14003296099241069 0.21651961774656314 0.28821252110399342
0.093406210369332499 -0.031110456660080388 0.59770691499650042
-0.14215509209597066 0.072853784259891086 0.58343933585994989
-0.16996247547088927 0.012208408384331904 0.62824358613855225
0.19055066095406659 0.17747058114965597 0.36088042939204712
0.09166985654706572 -0.12803984748377673 0.61956639240085565
0.25851167698608357 0.7656970127408087 -0.17585422258275685
-0.033892643734793282 -0.039107007119419279 0.67702750499736908
0.041804213332941487 -0.084910388886370924 0.6780337328329118
0.24586075720248068 -0.17948018177889935 0.62268610686056647
-0.044040528507963472 0.044605698782248737 0.62835293307905005
0.11345231176394321 0.50056685104242149 0.19762564982997333
-0.68111738227853991 -0.70321555504329325 -0.33541667551851617
-0.18800792361084895 -0.038854869027424854 0.63128501932268577
-0.67131794953288804 -0.68160407570072579 -0.28246933401634067
0.10538885710154666 0.27785040874281464 0.39277160579019466
-0.069221935780987565 -0.073631203982635895 0.64998020538464729
-0.092601921544561705 0.058980603613605354 0.65023440934294996
0.060797815240736242 -0.090867408838924746 0.57722577771065176
-0.46469817390712009 -0.30397927594516716 -0.19088454121536458
0.015792465144787826 0.27641073716348075 0.48169450423075233
-0.59330239222168757 -0.55223061172990384 -0.092634125995950001
-0.012664234620576309 -0.080011705123936849 0.67660067435140192
-0.64099944578872226 -0.61841303407899062 -0.29092537200007129
-0.23149497403424135 -0.27382457767339474 0.19096721713371778
0.053265631637035682 -0.15692795575176177 0.5746273607496164
0.11835341200563221 0.22607973809443394 0.42670814636925058
0.12148735719215331 -0.12211820515729954 0.62564555443195147
0.035936597071184906 0.23541444841182368 0.48937325584212488
-0.12086465087634579 0.091912338368928204 0.6342956865310434
0.07191790978343704 0.096156052565703476 0.56995301811925003
-0.15744636291121772 0.014941601629750778 0.62812324040373824
-0.19756271170842332 0.037859509969500493 0.45345984694762365
0.18167013777243568 0.3651370763547348 0.25418353534953297
-0.56987061729883948 -0.55544246864344871 -0.1248650937147886
0.088326918375404517 0.38675720720905815 0.33141177802881572
-0.066286151026496043 -0.17627745945085138 0.53300051994713371
-0.35068727037640635 -0.16654172094936115 0.055988440694033415
-0.037008865173932648 0.17244203970815875 0.5555247629866642
-0.086926566892426393 -0.12141164422445883 0.55519280465926357
0.23041619983651174 0.76424731378614297 -0.13113715770327161
0.02015970098074682 0.006012626042739555 0.3383159594904086
0.26174153044925674 0.69870839906233329 -0.12106773902649337
0.21756848461445966 -0.17241163313835983 0.63686689030745924
0.09077684829928323 -0.099626708261574493 0.5872245852899951
0.14889599234831508 0.049655843576942971 0.46093837587898889
-0.0043962260131333863 -0.068812272279217268 0.6897672723965691
0.10762156960850433 -0.038152165374050639 0.56684137486318775
0.29300529838772782 1.0529395969650039 -0.40897646758033801
0.064765532594689645 0.11487095923381929 0.56175810006752158
0.33052691112886556 1.1162691030041998 -0.4602700052277342
0.11024748784361194 0.19044060215127701 0.46297838801925195
-0.13187230468884614 0.099183802585002923 0.57134610874565084
0.16985248785405993 0.75625747368811602 -0.1037879695947197
0.1061189836749854 0.25809275962983946 0.40858689493843059
0.08847075860411735 -0.042463610745429037 0.60334732218714038
0.055129480834253286 -0.051928994710252141 0.66656347904722679
0.26893056686004435 0.70344762631084734 -0.14763825713139767
-0.5657223450099309 -0.49455448940290125 -0.19452032138532616
0.00049580247577374337 -0.16551980829807889 0.57475745037270798
0.32655120597970555 -0.23936304980311007 0.65987291147029836
0.066410023289606102 -0.18141885163415594 0.61147005506227714
-0.16684315405747085 0.045149705403339624 0.59752750209527505
-0.65750203894826242 -0.62866559830708724 -0.3494978299110123
0.078726420908137307 -0.10608919612838008 0.63116148332227695
-0.15830400243929965 0.060349477361064885 0.59321165678017351
-0.57926418819091197 -0.50897950561274286 -0.21529063563590967
0.1483149982317773 -0.13131541290793081 0.61245497795032833
-0.14447324287918306 0.10359850722701225 0.57401399599791603
-0.69297007999266569 -0.72200264746076925 -0.35688220522377279
0.14387651268890345 -0.1326851340280939 0.63238335107812205
-0.49789699472145976 -0.41872183775314653 0.041729448336457864
0.15968860465442525 0.54768341808168941 0.1202901364174096
0.12484155479595138 0.58025882068002943 0.11195503254396044
0.26017053442806137 0.78293277224201319 -0.20060019575566912
0.15103056693279804 -0.11339840160664494 0.65815510553660772
-0.069013427319923437 0.1175079210131571 0.60947227462764886
0.10560952185019268 0.12865377627962005 0.51879503785407621
0.05104875879950832 0.21283352809162892 0.50235187105331391
0.24677065772682028 0.5906569732701854 0.0050567660311244822
0.068122436139466558 0.31750090296205968 0.4092301997389356
-0.49833832378580389 -0.41950131585928574 0.054028287871688008
-0.03859738055487405 -0.1441115904134378 0.56198512132709411
-0.11810170080094196 -0.015263279443367139 0.65534492762095553
0.1930958305265289 -0.15914906724197664 0.63243615548553223
-0.12982729277897143 -0.071786832563311975 0.56363452993591068
-0.17285401256870969 -0.0047601380164934426 0.6045207957962937
-0.66910016678272477 -0.68215155809821937 -0.24488714908989451
-0.24962785523347186 -0.37610003729857766 0.30144357001982769
-0.63856774833952379 -0.61769847508762155 -0.27889408262934268
0.20985831280094125 -0.16658097291165319 0.62292984567222476
0.046955713886818629 0.23979778476127933 0.4811322032025771
-0.10068587450638944 0.089317279295947571 0.044614994249457141
0.096876347275546948 0.067680560951629332 0.57268605883967183
-0.049185991387563632 -0.054552689920917885 0.66766509434349786
-0.60486585707041307 -0.55933105329613397 -0.090862250890424434
-0.022681222121311961 -0.048181574850190145 0.69579544564531659
-0.069772463172864008 0.19811878531474036 0.54109215390814569
-0.14927946232721823 0.084759725461864832 0.57746193596971196
0.18982630198672545 0.18988788623979502 0.35327645965156051
-0.14228145510231904 -0.062827707512539632 0.57937196610519237
-0.39812691844578474 -0.24098993989966999 0.0072906358721063214
-0.47624779555662045 -0.35826727676237624 -0.084429227730105083
-0.048977897221368139 0.18642666857660117 0.54617169249415554
0.035059217096755191 0.13818722069177625 0.55126899124633866
0.2086596887707266 0.38330030200688725 0.19769117231663103
0.11894704414840085 0.38030923002123274 0.2735899582621073
-0.18632283271709582 -0.0045123148613797071 0.6194131087338306
-0.67898657650838778 -0.70609178547086771 -0.26619865714205204
-0.04336760633773018 0.28224883104018517 0.49448763532103612
0.074780590884211406 0.18654148999080178 0.49816335406030277
-0.081888856168095714 -0.085663776919062684 0.59381838244683394
0.064912499625712883 -0.066095151848173828 0.67300799128083355
-0.11657233352997132 0.12803067352091801 0.56843959296562829
0.074829998628377581 0.24696266996136274 0.45192336752116091
-0.64991667301907441 -0.629946789341993 -0.20697294472200412
0.080094776708707016 0.19513004798302802 0.48630130090867851
-0.12197774508265624 0.016750005938071411 0.65625824528700605
0.09620220111449207 0.093833209969638176 0.5524884777529806
-0.10743844966091487 0.14686938259686144 0.56932519539243032
-0.48144795840049781 -0.39157086117550222 0.015378732084396773
0.092534072900228637 0.028558376190574108 0.6012698477060141
0.10326511748447231 0.25008930368922933 0.41912875667698302
-0.49736758341588327 -0.38813711283082597 -0.11192209302651435
0.10858950473128637 0.16109656166050712 0.48950371295943995
0.13754872734658008 0.061236086859466354 0.41437953645246495
0.12554215792611778 0.49536705174914886 0.20396551249897499
-0.096875033628188945 -0.091374061850629573 0.60800603139147569
-0.21831174065468595 0.13884904769188466 -0.19618588530218517
-0.7276547796255084 -0.79351967476344498 -0.42031573292493007
0.25723242555089065 0.81244163934744762 -0.23917859462145685
0.059220888750122214 -0.073972006560524051 0.68484930948280009
-0.18102565603702914 -0.014973638979761006 0.59055347049870122
0.0099716453196876387 -0.065206243746288806 0.69558447780453747
-0.68722948441822318 -0.72794247291510317 -0.29434531000600828
0.19127654565535668 -0.22462535875344969 0.62450559243049497
-0.15463105525034493 0.037889925905069788 0.61054515795478537
0.12552233108645616 -0.1287235967801692 0.66965898152650638
-0.1566693731648936 0.035443947152238309 0.61478952844467116
-0.063933779342077557 0.1565953419861188 0.58426973349849476
-0.16120657011004269 0.030059862130073611 0.62153375297547342
0.11406255774252649 -0.014334465791876028 0.58737719555373502
0.12817090239302509 0.53414094524754319 0.18269615878720913
0.13797242677533283 0.34380204106558665 0.28753860192452407
0.16964158885405389 0.29524245919508729 0.32117855508921878
0.035509711328158389 0.32862829085123479 0.39231008749410279
-0.20577274853980931 -0.073675835078077512 0.58855740551467406
-0.13682881155870064 -0.020035877791457324 0.6500601957740102
-0.15685790407302314 0.054402010606807494 0.60316673108381025
0.11310971469492159 0.18795559906156001 0.46222959297895017
-0.67864163508051334 -0.69274724952826006 -0.33911462805483339
0.057933578552663789 0.09696878150122501 0.5780000750524863
0.0011468331647916941 -0.085577161055304884 0.63721182298734291
0.18487289428156828 0.28523232106905994 0.27381348190800026
-0.032641726937237436 0.24542936574177787 0.46065061580752342
0.25714888158927707 0.79806737269206707 -0.21559221297526676
0.27793437102505258 0.41055792557620663 0.13458581702480643
-0.067891453567932913 -0.057377012813041972 0.64569521433111987
0.057993535226446014 0.34196618190692618 0.40409623641620129
-0.052319401745302585 0.26605519235634745 0.50378086587185322
-0.082770741255712821 0.19802455821051268 0.5363019185680713
-0.5655286210226631 -0.50467593703801583 -0.14049665814771828
0.25462912750111144 0.12921289508781797 0.38898193742027587
-0.52858864643941672 -0.46103936454466776 -0.19663178391844838
-0.24211729535533522 -0.052016071190898572 0.48407019657128458
-0.54190736732316225 -0.45490992607502534 -0.16995434948938382
-0.64580388364999486 -0.62328110746873477 -0.30592079257284155
0.017761421945637679 0.29688908620880738 0.44214340993255519
0.055010827179152955 0.097268061303878994 0.57572607709541046
-0.57536217479816898 -0.54886246168372566 -0.17695086680243577
0.18512628968474409 0.23645822282677642 0.30222326901292718
0.34127556217315647 -0.24975657636741744 0.65198588887138698
0.10468789105585685 0.50408513463525395 0.23852728054882988
