# XYZ point cloud file
0.25068534198715042 1.1203044236550568 -0.39019729686378923
-0.45414934331984114 -0.74513729073527202 -0.25753960288102462
0.66742415508440445 -0.66523846016769994 0.50566269303817535
-0.88970039672221901 -0.15611840398838694 -0.26223591088012199
0.60219927151410957 -0.058887759035371801 0.3579839246838219
-0.52221822846570376 -0.59706128741731845 -0.026571208807126823
-0.24117257330465236 0.45786072678475875 0.64651240212037919
0.1891210899032103 0.0027898880848624685 0.74416509197385494
0.81927260345059949 -0.48513341112413855 0.68519296585600387
-0.35560496030018385 -0.28152918512552105 -0.61263822221962982
0.36523510235633694 -0.17328679271963665 0.78978686405525877
-0.40822159942047165 -0.66800597657595517 -0.20990365924626531
-0.06005315979155057 0.35997306866045164 0.76708461714042642
0.46142224268646714 0.61882414974024869 -0.23698949028607785
-0.38591522005685874 0.61953511368182035 0.65514842321726974
0.23834337786092874 0.23653303140531534 0.6824459670485794
-0.55705911293932786 -0.65244395626302776 -0.25734015324417214
0.75211927294640191 -0.16111994345521907 0.57081924314957178
0.15677091833060786 0.63766619308614736 0.58613010067165305
-0.2899012174722202 0.0034814194831369605 0.76879797528908966
-0.41568582384832098 0.59856311505842541 0.537637084409198
-0.76600073122290269 0.35522630633766994 0.026843484676078333
0.68265537063382453 -0.19151405911873098 0.60288521471488821
0.4341313994674465 1.0906673484103635 -0.43341800176494871
-0.50707214108797416 -0.61898093906182794 -0.040533961391020057
-0.10366134540572602 0.6499845174525376 0.78243738056676193
0.71061260189185305 -0.23402631898500204 0.651690145411294
-0.11192328725070411 0.04792783087719954 -0.70743197726915241
-0.65888395301772107 -0.084279407761130187 0.72018036320173451
0.054260343225905672 -0.088166075271942645 0.78548411147198749
0.44997199217118578 0.29220355614330629 -0.1149634162370603
-0.10372755728724314 0.43806721749524513 0.74887759404668941
0.048491877587821364 0.57352348483095739 0.67190773149059169
0.023837672278432365 0.80796814241523407 0.62680012770260873
-0.43316047593498297 0.20439197276039067 0.74473951695927099
0.10913232142286233 0.41999898119695445 0.7354191787912896
-0.025746941622458053 0.64283578133262154 -0.60734638741712388
0.32136797222085534 0.8094275322799831 -0.24957890646101077
-0.26680356736255817 0.42408544550960414 0.62636771177653827
-0.30637028800776989 -0.059848377954040188 0.77055510861418952
0.42122383492403515 -0.19242868268679558 0.7740337342879684
0.062482540997962133 -0.076513450584684506 0.78792106214882551
0.047895768438252162 0.31653495559930889 0.77031369893211377
0.081746665691866838 -0.072571327124819618 0.78686178098632809
0.34220537973089904 0.47717706475992827 0.13073093246498502
0.084872390354234994 -0.14031148567573837 0.76245983006560891
0.53998521606968097 0.48844948959975909 -0.1613915378004549
0.35306958499501206 0.95285329048033418 -0.36293933215767993
0.408708459725176 -0.3879450362169905 0.39067137997631107
0.24132549890595101 1.1697142148187822 -0.43767761541823802
0.58257616229411724 -0.10400809232169195 0.53032675670374374
0.23797794043582599 -0.17528390812577754 0.19005549295502533
0.1622535233796043 -0.12251768042619915 0.76002932080837127
-0.57697445683800197 -0.13549838678284232 0.72309655172102794
-0.64251121865720506 -0.97849923694286645 -0.42223085156444995
0.72355202977905719 -0.36060465280525023 0.62484599292315579
-0.69355546658641742 -0.26128007660855701 -0.5304135177847229
0.31447011189862906 1.3056708114459639 -0.4954955992008081
0.2275751970029205 -0.066667564324461637 0.79073142125253071
0.40852032831963925 1.0081839376077824 -0.39553019185314042
0.32253159953643262 0.40500937741921916 0.32170942461880259
0.40093360054925142 -0.52063479173614269 0.63082694189824906
0.43792564285149638 0.80578539133574623 -0.31728881299386558
0.77342093000572731 -0.38020552812071173 0.47045782636723743
-0.10872901474760965 0.30223283025657111 0.76432444480974482
-0.65760124214375537 0.25246034209430945 0.45333447153211637
-0.68308833792366386 -0.0082612750862836037 0.70503693299633596
-0.021007579871593407 0.40399582765303421 0.77550863415626736
0.070681912941836345 0.79000680318301875 0.48941637506914049
0.3782266901275193 1.0111720354757381 -0.39164619233940812
0.24785231262262641 0.79042166175742068 -0.11398016892667329
-0.60237109868569405 -0.52771104231339905 0.33145764441997017
0.033706496741729097 0.62528219414434716 0.68416664932396998
0.1513786034416853 -0.10231128963187075 0.69384300373349106
0.37894915997117096 -0.22953303133647296 0.77315769001143053
-0.79168029186882904 -0.72144850471852351 -0.41105134532676857
0.05833280163813015 -0.087923828550174221 0.77683534251400488
-0.22170514739718783 0.047158027744671926 0.76949559146032698
0.01238278622827238 -0.10348487597843814 0.77435895654798514
0.28245933856703687 0.14296800075959482 -0.4309706786341394
0.064031535378376248 -0.21048844838594505 -0.5904296423013875
-0.67257548539510026 -0.56160788446936749 -0.25449478192035713
0.12364950651101481 0.93227570409896998 -0.25772408387297219
0.3579724872032557 1.114911761928397 -0.43516744203543567
0.77172872510209345 -0.34775567185363343 0.68223799945712926
-0.095109765666506974 0.2104150365893247 0.76658109882987446
0.28154036927196557 0.10265423338921664 0.49636832983810564
-0.43053334412206823 0.5535206954067462 0.653965859317168
0.19218161170704207 -0.2123382616065328 0.71959590228811976
-0.44548831952533874 0.12673713706567469 0.75847154032749131
0.16076305969716032 0.32230527146180066 0.70100440841565614
0.60287493149826332 -0.10336196836266254 0.29756102822102548
-0.1020484334557068 0.31458182169126303 0.75622846396504428
-0.3508488665988807 -0.54659081180255953 0.098109967561413214
-0.3795223499499798 -0.075011911277215404 0.79926526606118387
-0.5066821866008695 0.25567706858652173 0.7475450605656988
0.089474498939011937 -0.45412196944710104 0.29177433865470448
0.37267551610591454 0.62211221766062863 -0.21555550913626575
0.15199520615431084 0.33567035195028438 0.71069740696270856
0.37061209426917685 0.38052605751749979 0.054029510080454202
-0.89407460610743783 0.15953206718035062 -0.11261784347811954
0.47404715611207848 -0.58266024866446742 0.58856502923367771
-0.32539040729204771 -0.078323986760551634 0.77020619023119252
0.85219070982213907 -0.37108367578650814 0.64265496642519793
0.74431097117155787 -0.37883610835899617 0.65365081921459023
-0.70739109189048577 -0.75587380873815846 -0.37143002897028055
-0.14541718978568952 0.68117290454171098 0.59647921320060959
0.048909771725334394 0.58905011409558483 0.65267674215806437
-0.2420218484758152 0.00097678916120003123 0.76934032953818132
0.37611587877620423 0.58716791247951505 -0.20455385176614982
0.4494681085841421 0.470316788524201 -0.16576951825345532
-0.56634035865977239 -0.64145917346496617 -0.25984255103708165
-0.35377894373095842 -0.18528076686436634 0.75579670056936266
0.1316640197507013 0.04066905277556998 0.77752674626094631
-0.017254855936243985 -0.10393687753639824 0.78059773742234029
0.16671369823359328 0.4065470551506678 0.66495952079685594
-0.83410553887699734 -0.68273645168943631 -0.42290178089456276
0.8333433112424018 -0.46421599605145047 0.5715168334761529
-0.59093595338890736 0.58341322862276002 0.11461253093034429
-0.058750305543298964 0.71877349952183067 0.77681892111672823
0.4492038857525813 0.38530070075938738 -0.067802529744085405
0.36636753553887047 0.40989117131852026 0.0013367020521855011
0.21553066855449288 -0.31494397988063838 0.40362024972228028
0.28274892733668366 0.80118577881455622 -0.30204126274838927
0.15328309092592463 -0.37369139511855565 0.30783343755501846
-0.42718918164825936 0.20464859071495312 0.69979644962313614
0.29732890974094062 0.74110865325161512 -0.17747017960914491
-0.20665365921286138 0.39071832655281469 0.76491704799673244
-0.48207703734203733 -0.82311672932559077 -0.3331556336426047
-0.18811692091219356 -0.44492892251912508 0.59082650074037701
-0.1091417397154828 0.37423695600580231 0.74931801554862432
-0.014904986498891049 -0.16049840042160213 0.76336186690286922
-0.64893039975424927 -0.65869038380401435 -0.31498993218099258
-0.67096874701360321 -0.80492715976907903 -0.37531347544927485
0.20372492938315645 0.43855311266941044 0.63318564740461625
0.035467865938244358 -0.094630045802659879 0.78456585866706519
-0.13767330702285108 -0.26681447053658758 0.7317621393999616
-0.21768616023518916 -0.36463429279672255 0.67439760858042064
-0.30550011435104807 -0.099787960138428389 0.76737871557838844
-0.40500332881333634 0.14389771135665796 0.7564398127003642
0.83701635386330508 -0.41922211069345394 0.67455119182022827
-0.0430445953392109 0.56583142767362915 0.73027580647476498
-0.94568782054301437 -0.51562079227574031 -0.43911319209962585
0.13596952852003596 -0.12204796547064234 0.76892988518920902
-0.79157076837975637 -0.45432286052005111 -0.26056354803574777
-0.63746610149064509 -0.54405543393534117 -0.096519736148593438
0.11948065385763584 0.41800628936982775 0.72970859859128723
-0.51950132655440484 -0.24311514125395206 0.73358757325650004
-0.47315493039116063 -0.81024624247788779 -0.33925114646490329
-0.23161887735068376 -0.54213988335055774 0.013700928611342533
0.28199760077541214 0.48140499232454204 0.53280941004095439
0.39793928205051543 -0.15973965784519351 0.62039343974902295
-0.93679844111187549 -1.0367185272019981 -0.41270774829251877
-0.047544337138333503 0.26663854866762904 0.76289178570277727
0.30251026174448725 0.17442106023895576 0.4972704428707857
-0.46373657289393577 -0.60347229020288751 -0.32245280258985076
-0.65197977452567102 -0.59099549493191716 -0.28816322928912541
-0.7417853471035869 -0.47619839896708527 -0.17144724321178728
-0.031876309636800215 -0.47592875633199583 0.55398020495363198
-0.6133084695462685 -0.044433474863922129 0.73188381529416802
-0.1715008882716802 0.41193580472156555 0.78262607831288733
0.33435785811622054 1.157571148506463 -0.4451551555939659
0.14847390084298695 0.49329912971211343 0.63856676550130942
-0.45807086495960903 -0.20714220434405206 0.76353698034131412
-0.30660207513687965 0.059492490573688883 0.77007092941016708
-0.18615456847510359 0.36906259675049569 0.78158633812790868
-0.691988868773592 -0.2362981015954233 0.67180543948325067
-0.36131362177172832 0.10691941373204372 0.74414258191086446
-0.38113726434517048 0.28284547502869373 0.75081176513958781
-0.39920653590274924 0.21897559158264812 0.74958748243807349
-0.43133988580746063 -0.18305363694804555 0.77888968130946523
-0.01605147496218251 0.88781225032209932 -0.36788125805639993
-0.028459416776854596 0.050860491235766858 0.78237925997518687
-0.067504547060366349 -0.29393487895447379 0.70515198618113573
-0.73300863568977093 -0.71740613013992061 -0.37519510001152412
-0.014267394105786479 0.45508002281928839 0.77056474617688764
-0.25146138327454537 0.47407840999841255 0.60052552702927642
0.23867090981855199 1.1704055393682893 -0.4133829194321379
0.76103642202917854 -0.28858818874016379 0.57881450531112932
0.54325996537238552 -0.26527018075887554 0.77895041757778927
-0.065002776893038572 0.32495359759309395 0.76453070282764202
0.12083724076387625 -0.14321913955063792 -0.59050897157817417
0.38317949602378576 -0.35923637376538409 0.37806780998471368
0.23995883604493429 -0.45456670585951997 0.63729353074836581
-0.41921092175880403 -0.28208297393257453 0.70967490242446729
0.50415766096307379 0.72132753317305287 -0.30064079990620485
0.82910040115098127 -0.49943481752160324 0.67031545516806545
-0.34361627857106214 0.19075603017989806 0.76438586241170015
0.35884721079401061 0.37935135651571272 -0.27163052115975006
0.42512931188775838 0.2202914274615182 -0.062503524675094013
-0.097158203574963409 0.23691589895770448 0.76661528185991301
0.50854569114937931 -0.61176469102264264 0.56374464586360773
-0.77072648560215384 -0.27287767573807287 -0.45540365542467498
0.34735380403947147 0.1759541369173121 -0.17452173631818368
0.81821577957009595 -0.55359708901454496 0.57970298445275148
-0.10851707697520396 0.46505855148188857 0.75417237366650625
-0.57988883262964919 -0.60476156886790022 -0.22884541506391542
-0.38603034000379921 0.15651964131848217 0.73361543047963096
0.12912529129823724 0.19602273524378688 0.72436925094621074
0.3677035221519418 1.2842435429919874 -0.4915547954711883
-0.77364823264315419 -0.58792125233719617 -0.45453733481758718
-0.49443442107997271 -0.34469015748595666 0.67594633718772457
0.2798330737307424 -0.15146124727550614 0.78556401341165838
0.080672820924291955 -0.054655213571550121 0.79052555832072358
-0.46620793957708884 -0.79722935170360643 -0.34204271311591583
0.38707015128443345 0.95112897751795344 -0.36674691139057813
0.80714574325270405 -0.25177647202565367 0.50793314404131706
0.19498262783145037 0.32861237396934939 0.65990451583593313
0.68202696990942968 -0.47276625199270939 0.43823094185540867
0.053109887997834448 0.80238838049831429 0.62512895127565571
0.029195045414553533 -0.44918701924893867 0.55374364600902481
-0.24661720693052303 -0.36748067741780233 0.66806738816103461
0.07995280523891779 -0.14811478136732603 0.76208251005436978
-0.16296226601036778 -0.47686003083970263 0.53588225426983627
0.13333358497300196 0.5411547737486444 0.63378137458244055
0.17198948524173829 0.86694214704800743 -0.069079613784197136
0.35264966606223425 0.31628765169671169 0.50572168577082266
-0.33754554919028124 -0.0097223895746765265 0.79476031466560926
-0.34880408669391727 -0.1703586910678041 0.73299522209345014
-0.55682190852746771 -0.4656581055697302 0.54463916133067869
-0.50480658112792298 -0.67425033814623703 -0.19008054397181695
0.0076793530093937079 0.77457598260389204 0.70974024353813547
-0.083684380782756307 0.51582592237855351 0.74557145402491187
-0.65625158310695042 0.23081790357963428 0.57322668016490752
0.55585628050113201 0.72994861519168808 -0.32392266002921133
0.20534898988637451 -0.032198088789982648 0.79478412936646237
0.11055544693090269 -0.23107583788078045 0.69732708808351163
-0.0025374623336347213 -0.11752549236871346 0.77107414895340298
0.35529626024577965 0.78742396688107874 -0.3249867092772547
-0.12564426161873143 0.11343029088141066 0.77033433449241784
0.52588488399362632 -0.18847369671539127 0.70203437245868372
0.36625458008143141 0.86797374258270565 -0.32601056730959499
0.33730959951014938 -0.1654160557349087 0.5240899406051085
0.11492885011057297 0.6349235063969445 0.61655622222906459
0.33598038241632366 0.55162044432603352 0.0072270795628810447
0.21754782155795738 1.1765055739784884 -0.42763745298088907
-0.21038316279282299 -0.44556657915370579 0.58764467498826889
-0.024178159481493822 -0.11142404902182079 0.77624403685854304
0.37202514987882296 0.35468922896188815 0.088365783766903405
-0.45059930719355634 -0.30905557585185761 0.69969807693655639
0.032399761851593212 0.33357987058604976 0.77285147801330822
-0.4766043779688971 0.058069787737849765 0.7478655963213896
0.15224265460244624 -0.48452834066324613 0.5893171526486185
0.30783473029111974 -0.21668004628941162 0.36702777460232028
-0.44010927222757346 -0.069468206838450897 0.79164111820068683
-0.070880302669536377 0.59371572609660461 -0.6497405282799491
-0.93654228051434529 -0.9791445980505955 -0.39928938371679124
-0.46874601277056627 0.25523237301257495 0.63703075111311591
-0.27185281537674655 -0.34956804492310312 0.67642470939313171
0.26521309043403107 -0.40643872852933782 0.66385037090276455
-0.35089409298041119 0.38131927489848749 0.76696759139463211
0.43203198131931231 0.83854537099085746 -0.33004592483939632
-0.99473245417493672 -0.63287435417163351 -0.44127434398058085
0.69086226140905183 -0.23434656554366029 0.57682232088086494
0.44478186298454148 0.46238185551578681 -0.15409666227014895
-0.45973179900761352 -0.3238614622221121 0.6869895887293751
-0.32982515835089998 0.40699564169278801 0.58668805326419715
0.37950921562605799 0.55751618396016056 -0.195131590794972
0.24132271915505044 -0.16271050294653833 0.77341774760975568
0.45995238083418144 0.72656280163374731 -0.28732004769108244
0.42831384871658429 0.37784406282383998 -0.074782887247692997
0.46520184792825603 0.449249006998798 -0.14021216857736363
0.78040053399729459 -0.34724597665569945 0.60795914890809399
0.26494661806503927 0.96498341785769526 -0.35691200143128299
0.18496940963552788 0.82040046830849178 0.015199858951064016
0.15972404372178062 -0.39568029193378607 0.4687750043167398
0.097807145815295371 0.94377443407398687 -0.25809066040528705
0.8208202602959318 -0.35059539870132994 0.68075031686134935
-0.72380772103667823 0.1078784659385974 0.57086439407203216
-0.58908077863952713 0.11604684107277308 0.62398788358427737
-0.56872072004318852 0.044768769487802729 0.74350778925486338
0.13024437246485832 -0.047738540756540715 0.79146273930382449
-0.66091435295913925 -0.39773225731096318 0.62778384035664203
0.16191593892995115 -0.16782249811626571 0.73403816426002777
-0.23315191488939035 0.34013550917120483 0.76424832440602586
-0.2740999863824527 0.36542331192237043 0.72474027815633235
0.83371163916808655 -0.33218537162605344 0.61123432933072763
-0.1656230396764613 -0.33976711537809479 0.69179751965566538
0.72045217778827464 -0.45969001999276315 0.4540509576365821
0.51852153029187775 0.60014255135092753 -0.21619451712740556
-0.58960985808937494 -0.41412904585604338 0.65535353486302483
0.30378411233664337 -0.14945336440450774 0.79012010339988592
-0.6402131252448271 -0.97960742935327971 -0.4255377866153367
0.40558946469309376 -0.49163231804914176 0.65544905799106346
0.39678020025235128 0.34299358758266862 -0.029824539395576721
-0.76082172128303682 0.15639013628322118 0.30742086918348832
-0.015395397219208462 -0.43004220505497415 -0.45304742770906614
-0.77321787284415677 -0.42586271096826067 -0.38862951702890314
-0.0073344001668829151 0.8230232454213251 0.28071431069497521
0.32107670211837558 1.0476551734048485 -0.40028807364933527
-0.54230119014482625 0.34091076332060766 0.48934146616284124
-0.4582628757598286 -0.81884778368794287 -0.32747135008696659
0.33988951383588528 1.1558895345610836 -0.44707020455541624
-0.60295843734581922 0.3046920471086878 0.46955095792145585
0.4067180143571818 1.1884261032049608 -0.45581058859295354
-0.23481993857740235 -0.026243899836458695 0.77058565066431584
-0.53507476588367808 0.027365525745722152 0.73661903432571307
-0.11135709161169416 0.39415267340120863 0.75483504394924239
0.15012032871413794 0.80057493018659898 0.49442044849320155
0.11863380723787031 -0.44288030263942346 0.55991412916023364
0.57137860415286923 -0.12460871643941118 0.57903367966287078
-0.064768670703074349 0.85057969679775169 0.65195459271353684
0.69751136354784649 -0.19535759273037456 0.64958640651934729
0.020659625128814696 -0.092450449570037563 0.77809735550590631
0.18309264564811656 -0.069021195754544351 0.79263986766045491
-0.37215739740486242 0.060817260286512465 0.79442485163963283
-0.49795529794175764 -0.56054452256012155 -0.3910015718216755
-0.68196520513743053 -0.6008894284273083 -0.31111916257634675
-0.081094240724041811 0.57331180583219066 0.73853696160040272
0.041838014996415041 -0.11398781662171587 0.76699088292730266
-0.43916821240622994 -0.3521264053960067 0.69670262254430781
0.019135006637725382 0.87599423754539885 -0.36454894784787939
0.50175037291921853 0.60232913443519465 -0.23557144470737512
-0.51202299047008637 -0.84043239711991191 -0.41732955973077424
0.27520468383636398 -0.085461162716967465 0.085916306965373224
0.80344256374553424 -0.20361907811803803 0.5302319270085718
0.22507738201414895 1.0702992762421673 -0.35083100093913799
0.305085243811277 0.5658561887132123 -0.36081734366484852
0.13085571513386185 -0.040052125750435152 0.79149601079711829
-0.014129967163739821 0.67523101565939214 0.71307531967977411
0.20894827185105669 1.209750819854662 -0.42955176198745448
0.25169097704360865 -0.27039565427264733 0.38551754752279521
0.19455540643093627 0.096481453399974271 0.74114834299075483
-0.28472100208193751 0.36264426207520728 0.78484214795480511
-0.42749130845766103 -0.38527085238814607 -0.55176196586626247
0.43751010414314351 0.37727363461044661 -0.069003540457742929
-0.34311894486654637 -0.11256662023299668 0.78268190674748439
0.36943618730470007 0.57567470111268904 -0.18183021115873998
0.12491191622950737 -0.046330937088669089 0.79066877492095955
0.095489045285262364 0.39045461318983143 0.74926942355023129
0.71489526238315193 -0.18172877783854346 0.59456093913286168
-0.33783881075521549 0.17400959521262394 0.76598020656479093
0.16610512930174082 0.89399306765358233 -0.29543436678773105
-0.029513827125015268 -0.46714208839080129 0.56098732220880265
0.34738574229243113 0.8083143466948286 -0.28389171069193253
-0.19611981502930576 0.56805778653682637 0.66605470053036697
0.097277185536540856 0.3156842209862134 0.75127429577082694
0.18305554610731178 0.34043563637442276 0.67471363021036268
-0.51202915457042764 -0.86154735492152668 -0.35540648991593571
-0.30079609230745064 0.48221637638607717 0.55471580841435753
-0.63563785860105781 0.23974320343211275 0.61388265545633658
0.31641863250388269 0.14850566605650783 0.62704226235337046
0.22148605511711139 -0.022497022770266994 0.67074397543319719
-0.81488085489547757 -0.1061856285949716 0.47517455834349676
0.10756720924564434 -0.064451502081283252 0.78633243780086559
0.32128588424302507 0.89219673313539261 -0.30611334751779395
0.13257124270887743 -0.14336899473255471 0.71171357578077732
0.21419621023062518 0.70315136131671352 0.19870193351130183
-0.08586283027079844 0.52084697793020496 0.74657677807635991
0.44583068773215473 0.40109585179516216 -0.093231382308658794
0.045776847346587601 -0.094796087021791209 0.78514155724565171
0.59883845512013067 -0.66905425941286012 0.51030804151628217
-0.90396940892168232 -0.81995536193977614 -0.42931801425163485
-0.53739267762580312 -0.048496001078035533 0.73108730264380029
0.29715321029340203 1.0297777186852386 -0.40543642959050885
-0.41372474539946325 -0.5901174810769021 -0.0858276673986893
-0.95923373325933881 -0.60101804081403998 -0.46862610147582018
0.096771060965465949 0.58712129498894683 0.64182362458518583
0.09687898240542836 0.85057557322511457 0.14978940865876211
-0.74597512526406717 -0.49367072373274823 -0.24013960527679501
0.51876303560754877 -0.232445143036216 0.77558705040291898
-0.16655255755699727 -0.48009436202949018 -0.44657777610234461
-0.36808266770719911 -0.15956290169924614 0.78056712308239184
0.46564382607596144 0.56351054995610639 -0.21223851303489027
-0.051632827845082829 0.69682675251908677 0.75376259294125703
-0.65565855868567269 -0.70749869934104481 -0.3358062729419089
0.21678335330216214 -0.095305504407519948 0.78405493073182697
-0.063509516941053334 0.82944541039285014 0.61828282753708663
0.52444450518373742 0.67603870789918119 -0.2666075487982198
-0.81651235432582325 0.0015037057301015011 0.37172126882683187
-0.015950597683172418 0.49005032721561292 0.76546699283812814
0.54552161664298637 -0.17322641310664721 0.28323656381394358
-0.32217892467895126 0.40740319407797188 0.66014919123381333
0.62192619147526784 -0.18880586620105078 0.67272309750774184
0.70433850948779764 -0.28130522672859115 0.72542314561519561
-0.407303948226172 -0.22185733915341643 0.74822379375405035
-0.7497972096958847 0.017734177433737841 0.61132311645019399
0.17552243327475026 0.37497692546003236 0.67713409440466421
0.081411807767153732 0.49799841606966311 0.72126885711873001
0.16527137644595769 0.2941775376826854 0.7131528616525884
-0.16658125936203305 0.39412961939399338 0.70548313398148821
0.0033542698781729996 0.7614095765547404 0.38563233635272809
0.1821117809209909 0.46924430182298238 0.55428936873249768
-0.11859563089615222 0.76100622366760717 0.65752415970382572
-0.62904726190140536 -0.55483182018639354 0.13455173953934718
0.069920394443329315 -0.075973579951892134 0.78225573752456512
-0.97094821886776117 -0.77709590890106028 -0.42170098727558525
0.65615941290025148 -0.24264232938423902 0.581262631232903
0.50381286373783496 0.33788878923985521 -0.11808644284997172
0.26643859627796473 1.2214617971268353 -0.44849109747644889
0.040874656956361832 -0.48063213774776159 0.55385910044287812
0.42091141677468613 0.96155091109869772 -0.37832718162917445
-0.25559978998046518 0.78507706397016364 0.26921339789691956
0.57886619576402154 -0.22345283845743324 0.73126908195968099
-0.68535665212471031 -0.42541432709026594 0.57835874507804874
0.30128560064235899 -0.17632081013596235 0.76016034852273151
0.057046255154716619 0.75184434518780563 -0.48129332834344041
-0.42516498613690601 -0.2396649654230032 0.74389714981748511
-0.49909153506337134 -0.86556535161815873 -0.39004058376178818
0.67549587470546157 -0.68211768618715496 0.57072200984475785
0.27537414121718484 1.2690228800126988 -0.47304444043822969
0.51474692047497683 0.99248766286973478 -0.40922746245030339
0.49893811673291566 -0.20289172664189437 0.28187118081109475
-0.1094412612258111 0.39479447281098601 0.75155042852452425
-0.76434073628490751 -0.48488939363096506 -0.25320942403732261
-0.9750601885772312 -0.63335709273104612 -0.42272444709021784
0.34862725620627089 1.278105999435013 -0.48984863117641453
0.12931393099427169 -0.46264135632452508 0.54143616045871568
-0.28689928375308682 0.515142290405322 0.77894830102718515
-0.048302404426976864 0.5925046977324655 0.73052761713529435
-0.081753873739785377 0.27355927869348307 0.75474846350130065
0.47005545746532107 0.79317303101367997 -0.32223390879880753
0.36865568644930136 0.65821078944543387 -0.2268273119971127
-0.66550380454805236 -0.57198526339902855 -0.26751057746753304
0.23924186270710379 -0.10775583636075226 0.79233775894476821
-0.57679217062309363 -0.61866115528567889 -0.26252375945932727
0.67160472980992836 -0.21061111236042507 0.6313859087028959
-0.39835789362905416 0.062494486492084889 0.78858654982605003
-0.53962109916221834 -0.26135692885020489 0.71908608235344218
-0.50891809528718568 -0.90227404282256884 -0.40499207431798823
-0.20373123881506672 0.44147130340741114 0.74797921366462106
0.67351045767929918 -0.16344525050396896 0.62463703323555819
0.69871471867679702 -0.24657058397349374 0.38337279510960798
0.36437215083014962 0.20714993095805312 -0.15768221683606498
-0.20135519450275297 0.32776168438829245 0.78121253299605087
-0.29092737842427141 0.42601226892219302 0.78220336513481925
-0.39825128110908281 -0.19438591829748475 0.76581355958910535
0.53652076222908818 -0.62385228179255137 0.57140365165287221
-0.58181716914555182 -0.080709688325896423 0.72505364174003262
0.32882100817306537 1.0127054223361824 -0.38702598396832855
0.62738252620783896 -0.062370524420202855 0.34911970190137254
0.37704241416201967 0.62433168222440827 -0.22337587356400945
0.089707171723262036 -0.13271308717821739 0.7631679252547201
0.76213848474696988 -0.14854280242821005 0.52483117504539223
0.05909078047886851 0.27054614945757294 0.75706309660517945
0.029751227586189088 -0.12240805309056668 0.76559805603073983
0.61911356039274779 -0.65352792366724088 0.58317882670962717
-0.24979784103072689 -0.3146324787571757 0.70458727439654467
0.42538761200751196 -0.51383045326952015 0.46980382323181402
-0.085040098356785165 0.67492188119575758 0.78818026971975996
0.23503301802531951 0.66709402113281158 0.46803874856300354
0.42453312117260111 0.74675023410304675 -0.28758039563376769
-0.34118943426312853 0.01054176094783088 0.76576563992807678
0.37842395166205733 0.17508277053792654 -0.075675819778325604
-0.5989007326634237 -0.43275660651789849 0.63696329569233967
-0.50645017245983581 -0.6483865934405344 -0.08424809447978987
-0.29893939090857202 0.38222409806780888 0.62623925125240021
0.50720413415899657 0.55829297381774268 -0.19169853247558422
-0.020510125087184861 0.81605912462526931 0.63989858109266606
-0.018279677527971216 -0.14294610836202537 0.76696425961222303
-0.25473563040884528 0.24812687074074802 0.78171267649122456
-0.40402596655167144 -0.15030533937078872 0.78739281358662083
-0.3304762351243653 -0.15743634592104172 0.7598116730230231
-0.088312560570329879 -0.52243256901601853 -0.17610495631424783
0.10575454284179386 0.94349965383298695 -0.170892769644297
-0.82666174549729021 -0.5284391390234191 -0.33348941900726459
0.82301107533805862 -0.40615578005406405 0.68834463788789435
0.81964218111090759 -0.48845935155014786 0.55700023995837
-0.67897418888264838 -0.50547206451130933 -0.41118556208868995
-0.65232346980792499 -0.88535712391808374 -0.45749103797550106
-0.035049073286586463 0.87382954680003877 -0.41706394718937645
0.2470199220157383 0.6792401455320487 0.39103957996280769
-0.18652270500274426 0.5914985896981193 0.61337222588599616
0.52664986571994632 0.74320892905376468 -0.30040534259387641
-0.71925354974098354 -0.42632819098741948 0.49648800030399798
0.012742970239855822 0.51874450088655522 0.75156097528906685
-0.60182673598592373 -0.96835135855656063 -0.38292816321973078
-0.57286390109459262 -0.31111984338099319 0.70588271091423849
-0.15652516553620899 0.45912351497872805 0.78395663310698183
-0.33606029320219477 -0.11018566971631572 0.75822044626238494
0.28734125981873149 0.57956111313484371 0.21489319040279042
0.84441432878475098 -0.39308575091183684 0.66566998251119003
0.23934673734976286 1.0925226945100235 -0.36701986506807316
0.032940052765411565 0.70686974113573342 0.68510046658411738
0.81862420745221698 -0.44715272277653639 0.54214677998334082
0.7260584768677063 -0.37455083841439318 0.66503110929738796
0.20864639685032671 0.72685514557809938 0.15023814846495043
-0.21320273359231123 -0.53856275155220601 0.12205554217621284
-0.45114858334886776 -0.63005214782305075 -0.06411578752818059
-0.14461384642697794 0.44776646687591892 0.76817752785291304
-0.069095773689127782 0.57469031301718587 0.73604762017407666
0.043368661833824262 0.95847820076733115 -0.17195344914148336
-0.63026996459393558 -0.16053387357686688 0.71121085184654476
-0.56847560998164681 0.065959371725170968 0.75167678924594838
0.12342049278288414 0.43358195715825332 0.70786594000446712
-0.80976379558705958 -0.7300125134563018 -0.42681292643055713
-0.45936601480786976 -0.14448215678203269 0.78060366808540493
-0.13942159493194595 0.44543841332927059 0.71403213100870744
-0.54526205533773009 -0.90364458931236413 -0.36594973470016612
0.038806581557423669 0.46654739499274456 0.75548385859906375
0.58014751685027477 -0.59193941695582453 0.63069269749712475
-0.56857210298608152 -0.2396661672648861 0.72363043828204354
0.5630963153820403 -0.38866200929680872 0.74682684967888235
-0.76900593912125714 0.083737270002131936 0.42533762689618015
0.17667078675071934 -0.061849973880157449 0.78735208313537441
0.10793985289910779 0.34585567434805853 0.75156157185210759
-0.31716252634032571 -0.54829414484140671 0.0038061526743149443
-0.59369991430276059 -0.56999202599297405 0.038073349106070964
-0.35588056492451869 0.11283854116936709 0.76489860187552949
-0.63736509790032869 0.081063914794356151 0.71656471622532081
0.59379759586852288 -0.53357606338693131 0.44331813284497912
0.32854933829082711 0.059218685083010314 -0.011229466814484113
-0.72652593968064139 -0.6534151211674839 -0.35646593632236545
-0.12826666539535836 0.55476215366115866 0.65980321894267036
-0.5443422881440938 0.055321283361081441 0.73168316034866621
0.45599758924277012 -0.30361170896571821 0.75939494474346247
0.26398613768049017 0.5369425024936163 0.52034311365969188
0.34433566751283706 1.0710027707916083 -0.41552234766163565
0.2730495279807883 -0.27876171967807295 0.71845828821756186
0.69003204823184205 -0.16378733609542451 0.61479814925132814
0.5339365298212897 -0.2201339379341789 0.75096074377643163
-0.84145574684259827 -0.3311329411370707 -0.24079949884651342
-0.69819885020001493 -0.57535962083670711 -0.29538635369260646
-0.4766558908091838 -0.45188231236301135 0.55454302157136226
-0.74480233502401916 0.51196929616969555 -0.19070611897836898
-0.41074651274652751 0.21047753561862237 0.74791914406364413
0.14899935017047028 0.4655951083149148 0.64542859315542955
0.41622788758684237 -0.29854052466146186 0.33218003098613735
0.074520669615935731 0.85907688696107698 0.15742554571625078
-0.93911662199298007 -0.66483112989874371 -0.41728574124681472
0.38843668696802069 0.42120811165318628 -0.23213146168927778
0.14272122448539903 -0.13006177400257002 0.69293851175802956
-0.56915896804798649 -0.14761192128139555 0.71562862986365872
-0.55291033000833067 -0.29124163505628076 0.71779085270395626
0.44719753947333629 0.44681194140633806 -0.14792415770625666
0.21689641971431683 -0.3637401249549157 0.6602728017426216
0.32117703838213174 1.0819990211046502 -0.41578566494160896
-0.054856977948816166 -0.15088583852684678 0.76857661736335103
0.21836690847192131 -0.15576165984714407 0.77560384686330508
0.83591768887129092 -0.34975470117899476 0.63148927532643029
-0.2287651028500477 -0.052752518101897294 0.77228199371779738
-0.15533636780833149 0.65416478755406615 0.49916392623595129
-0.81387696032663825 -0.94878014468730498 -0.42031601897679138
-0.51569814852871332 -0.38933035956489448 0.67986359945916774
-0.60243483951614962 -0.8086200204427314 -0.36590544937473624
0.11110157893290307 0.62226838411606877 0.62394562061967918
-0.043826798938880529 -0.29318206890218335 0.69700868139693739
-0.34973391231233109 -0.11849519338363734 0.77628388227935829
0.69051197787575802 -0.11420921157844077 0.36512971257798199
-0.7312502338907052 -0.28260056249325771 -0.49325258048440901
-0.19589576866701464 0.37811316921772686 0.77632927525519335
-0.51167832489807097 -0.67411971847036511 -0.16611396045459514
0.13444903935021557 -0.20141011329940284 0.73123480087701864
-0.81264716217083333 -0.77273541051084749 -0.43173655303257874
0.2591112892006322 -0.15923651119567239 -0.3491734307083334
0.43201518066678091 -0.41796917199002337 0.40275183490462041
0.14042194395494789 0.51291138680096537 0.59564827451299607
0.6708495411506874 -0.19290949092203391 0.61295765651675538
-0.11893097434267474 0.39157056092039966 0.75922260760285099
-0.46832572415792129 -0.12213616894945289 0.7788419969754159
0.11120305726603874 0.33954826295985185 0.74956278054742143
-0.52053604659158736 -0.28014725558603004 0.72019575769240873
-0.79566482057794019 -0.043432046190218898 0.52475546168511755
0.25472141577449747 0.63879127263862756 0.22258155828649251
-0.11406155127474449 -0.51432067987610708 -0.32832528641029057
-0.076127649839918377 0.61209861288637057 0.66266313765504492
0.027548035254426395 -0.48456238787440498 0.53412705074015321
-0.91171037651031384 -0.14402849502391746 -0.139813000845038
-0.3161580075461643 0.12712418948524373 0.76866739435376985
0.15036949276066025 -0.37475618565520108 0.45896387278139628
0.18212430573652227 0.88175934486201868 -0.23163483458210976
0.33212273477636245 0.13644916163832477 -0.19175605549776265
0.36553010554143839 1.0833480007782441 -0.42263614941839478
0.7180674384538861 -0.36697937573558193 0.66869983520632559
0.73526214935429834 -0.12355572733412146 0.42861222640954111
0.37369009136739351 0.18372954872302216 0.082803282291706637
0.10681777558920658 -0.13886418151014368 0.76454300170757961
0.19369432216797122 -0.13562937641677308 0.55280998555235783
0.042642347369621802 0.83214250705179893 -0.41341968774929683
0.088479925174397067 0.37231880881392954 0.75542449417616808
-0.068867338529116751 0.95081886272794236 -0.35789376754962632
0.15571729509701981 0.49614550096941912 0.63690883350045624
-0.56761839188789054 -0.087583220507667647 0.71823905569704038
-0.27163952012608661 0.9377759058327797 -0.002545309507240745
0.12209477560531923 0.59801360201606713 0.62565503085465934
0.14044283904763688 -0.16139103456646353 0.70099675043229581
0.16169912015914178 -0.056270863453505626 0.79272141783621919
0.38111694666281437 1.1547614809516631 -0.45079060199998366
-0.8632500155275693 -0.58371182887725581 -0.38473680813160627
0.11439326140725825 -0.46435930536449632 0.58330340953648374
0.80546282482271181 -0.51723865757594467 0.68695552605004195
0.26638325091278148 -0.50287702710045323 0.59829824289545286
-0.60705128209178838 -0.20127753190962494 0.71351167162470119
-0.87518953014642875 -0.83999113454297003 -0.49217416612873421
0.6165944047040739 -0.13570665832332907 0.59706268497006931
-0.59941963352798666 -0.16886979574729821 0.71840314637438496
-0.59058780940949873 -0.54074665699056368 -0.40365651699198679
0.72286163241301438 -0.23562233969914814 0.57437409651515736
-0.60984289853695373 -0.057085051773754003 0.7239289728552194
-0.78985182656776942 -0.97324963939962572 -0.43298757105458208
0.70229116860275553 -0.20017880690545553 0.6475710527490719
-0.57265629506605364 -0.5773213580998231 -0.025120689424056764
0.031048609913227665 0.76727618029173073 0.35675203715163661
-0.2113353795753028 0.71991924157339326 0.38917134479811466
0.31899240603769385 1.1150983935125396 -0.42746445757666152
0.36402863649607298 -0.24552360783059157 0.76198146893352714
-0.34644967742087829 0.00012015867082482146 0.78218621952510148
0.16449275759896409 0.38885097800050517 0.67738543015980213
-0.0071265512614218096 0.47492417171110901 0.76666837631955786
0.38017028931079722 0.92566756115223825 -0.35524396364212407
-0.044019286262596324 0.57752355861464366 0.73289683510688519
-0.53894234618655901 -0.58808709286688554 -0.0054834080365253612
0.20738483421712317 -0.42894437402338781 0.48282683322804587
-0.34287164944271353 -0.26898394687782456 0.73164213123322952
0.69838845576646236 -0.33252810008548295 0.65673307211409337
-0.31267553896077516 -0.37834568552250403 0.65014187353358466
-0.55678643417229523 -0.31523216433367907 0.68828786166091049
-0.47251966769113096 -0.79254348560471044 -0.31356771771868353
0.17010928515696833 -0.38039282068024249 -0.044134611026720449
-0.79474040716024774 -0.76361596003118848 -0.41583111296029074
0.73986142383353126 -0.35921097801372071 0.61433965656351575
-0.075132539143737631 0.43962825200253519 0.75574228338291505
0.21994629339383209 0.16038254033577459 -0.54200072751348216
0.16236728837623104 0.2588955068595169 0.72244461920604408
-0.065422014689374919 -0.22352500103102102 0.74518804980721143
-0.40611757294527706 -0.66870428756647016 -0.16179972880308924
0.02195898317540923 -0.10410432796106761 0.77294493867202618
-0.4410458189943256 0.1138603762016146 0.75297570843827089
-0.60618112177735384 -0.1060529979819762 0.71617188907248419
0.43758296347505166 0.45199375001391218 -0.13949664553206276
-0.35981566045495583 -0.37443441779328168 0.65856493227033752
-0.88178723380917745 -0.24498667256597173 -0.19517722877708366
-0.82129322410196437 -0.39012993167227705 -0.29073068139848601
-0.36707077068797389 0.11912993835562702 0.76082555871994373
-0.072855783577892907 0.25809215650201622 0.75955298836515794
0.39872986134753319 0.65716109141845891 -0.24606656950618344
0.15114203750351862 0.7924840970929381 0.51751066823476322
-0.58555343949808503 -0.32149263395405114 0.69943796398433733
-0.44035696271191682 -0.82128465601039125 -0.3324552299646939
-0.41007152565805427 0.28410861012071109 0.7525145473732664
0.079411088898154958 0.49425374444456338 0.72602207200543489
0.21241925667902706 -0.25176710940695557 0.47491233687560452
0.21207691849019739 -0.066702075192324628 0.79439375473975815
-0.54027420592387898 -0.030058334198656667 0.73342596633619905
0.031250364856532542 0.54473180634556684 0.71824288345715104
-0.42788010098547602 -0.7028188052475457 -0.28303679523412484
0.081956517970525056 0.50043732479355185 0.71235380597317999
-0.39606048602468036 -0.23226200098645222 0.74808071665097486
0.14515018740632968 0.3034289771666181 0.71001661957006945
-0.51930535974145187 0.0066250159210881066 0.7472599709547012
-0.69429247072901035 -0.51039661670938585 -0.088737084414447054
0.15893388856034107 0.14723758440084111 0.743977592552028
0.10929304154296915 0.57466773064288645 0.63758694125522197
-0.86751679086762579 -0.42922783050920543 -0.3231020308440975
0.15493135166968841 0.43685954851196129 0.65430913204772878
0.42602882670485087 0.26871962214636369 -0.11566769790397302
0.019010619631671943 0.797884635422065 0.56926001249644287
0.032742079947979619 -0.3328160944257661 0.58190601827936916
-0.65575169741805439 0.26181815527434082 -0.61208263583580447
-0.74432138651724244 -1.1224620598188437 -0.44834026763760448
0.302450537911227 1.1503537153677712 -0.43107200350436869
0.23824512488329219 -0.046387349819156043 0.79474793875078831
-0.57421598758332948 -0.33090118071947927 0.67032311737443706
0.13475235111616257 -0.080142104448100326 0.77951793277361503
-0.4775119221260411 -0.86723162852246105 -0.3553208364035072
0.54796556621192849 -0.56803157713579822 0.46913756297362852
-0.55238380634534678 -0.23114070592413327 0.72049948760582083
0.48522573182435735 -0.21088169154882053 0.76666092294226473
-0.55222560618142325 -0.23789298665013803 0.72261697301428285
-0.36561595105695233 0.057940795628837805 0.78136973415485045
-0.55398426483202456 -0.25178752924654191 0.72482955751911504
0.18026942500000587 -0.072960531477747281 0.6637523572351256
-0.033480984087304932 0.7876428726000313 0.58040235428734377
0.21066931702807778 0.73597661510041235 0.43545829379536372
0.27112022292703841 0.6085543105114084 0.34290712301435633
-0.25256751072754469 0.41562250714866877 0.6756477856940819
-0.50699918731891103 -0.43855607354447557 0.62685390008778086
-0.39073677787450833 -0.30501728139495299 0.71828170958087867
-0.58099406321287006 -0.19072372263076431 0.72444158634993983
0.17027849968258124 0.50215996498650384 0.62971633428537643
-0.8344192456941073 -0.93710343476851676 -0.43258056516356191
0.063585425517317162 0.30519354111834218 0.76406059939745319
0.42470648822654766 -0.14211868135885197 0.56863360439706412
0.39642724616339819 0.52775587888953623 -0.18614964488756414
-0.41319534185697648 0.22118110099171417 0.68445113610869157
0.3050491880694608 1.1184344353586653 -0.42015240610476212
0.50478343760579492 0.95177278336041127 -0.37394339356160344
-0.12746967590908298 -0.27783280398796251 0.72606390956502764
-0.10114127051224386 0.55278515004022211 0.74656810833084819
-0.43109930436366994 0.25344035880851834 0.7506639956093295
-0.48960685656538772 0.1166660809331006 0.74169738757632331
-0.65874073336726724 -0.58128259039312979 -0.27898634118866994
0.55957424161397284 0.5900259558311518 -0.25853478651265505
-0.11857997412323584 -0.3825176394753953 -0.53104440574213641
-0.7813624961821688 -0.25862324232627998 0.53816265252680751
-0.89538480121939301 -0.52988841226249406 -0.37495728072167367
-0.83568658274475638 -0.7944267267498617 -0.44709624449046714
-0.25511022766227143 0.36779835551237738 0.72630798580530609
0.034892069076477128 0.26762187399413051 0.76127954484945803
-0.11340098741015936 -0.4818811717369158 -0.42775232620806491
0.43777346475849299 0.50706280204866516 -0.22681643518058081
0.82730823891802174 -0.55736280283315409 0.64047182105855427
-0.013757360376757788 0.81102234048410082 0.69540068081573736
-0.18949154535346224 -0.5013904683759165 -0.41089450280855999
0.8335110980291347 -0.35814053203978347 0.66847316063649487
-0.087657800420856802 0.8080185891195697 0.60542998070536669
-0.069188368645654919 0.54215841567975076 0.7221075129300516
-0.29608352849834318 0.073021617613221679 0.76943716958385266
0.16478154068192907 -0.10021061840689072 0.77254043397533678
-0.51497766925558608 0.079087188659684671 0.7375184805250683
0.72514736996254214 -0.32384513703823359 0.6808032284473029
0.24745041163498627 -0.073852132566003093 0.79376825506847126
-0.18501747284670955 0.3271394232511966 -0.71949857670654183
-0.34216408861823311 0.013308695423461359 0.79344848220944186
-0.79944012811290577 -0.41794428464493194 -0.20807272540059785
-0.65966910815313895 -0.58731346077496482 -0.3928095094524906
-0.51920891856343587 -0.64053138567959422 -0.086275244294938602
0.39816850660179171 1.0404037282780791 -0.40788240738527293
0.37666384381327589 0.55123263895580976 -0.18437695769853235
-0.34688611833098548 -0.16213161391442554 0.74114469438904962
-0.083076557271624552 0.63452548672819375 0.75472015341779297
-0.85582057862882266 -0.16047214491010209 0.29550718285554467
0.029188196974473612 0.59546058825628734 0.68768282249720869
0.27150439908245971 -0.47433224128064921 0.63447703611291217
-0.5943293365212412 -0.0041548814217549079 0.73812809251171529
0.10620716182268097 -0.37150383593507286 0.48528208991388055
0.23676384804002737 0.99113614105829129 -0.30629183117389402
0.39362903754454237 0.55014368187318041 -0.20409923641886962
-0.45208630063723376 -0.61624707313137606 -0.050326136796684295
0.50613637276859436 0.8916461307791792 -0.37049372153933291
0.21376070743394848 0.31952683206679922 0.67252754679134341
0.29469025099490409 0.84272128981490368 -0.24366157782560549
-0.29196462522418187 0.58329897444673406 0.66224172390070635
-0.58191590272224403 -0.60925368052937756 -0.26281835013492127
-0.54826939239364947 0.18309384222152403 0.74537795803166773
-0.050736725561364437 0.23114981940568669 0.76640289291617592
0.20482034705617025 -0.043364524813910066 0.79533425577733396
0.39803219555824398 0.62717097247576703 -0.27218199159915457
-0.11742762442594312 0.94588054740478356 -0.41429180543491384
-0.10263109697859818 -0.29014888379685999 0.71632532132684901
0.29061736300792518 0.9287281808778971 -0.2958184623323632
0.5649755605613791 -0.063731575849772071 0.3248017149289808
-0.2693683629337329 -0.30379220022757636 0.71116182287755692
-0.57628445772013492 -0.57568692223100015 -0.041078991101585416
0.82232859548685155 -0.54897572624270197 0.65580731775162349
-0.32226501381762773 0.062507561278721369 0.77179467032124194
-0.58977134310759993 -0.57018879319213056 0.070668987679255224
-0.70648273861661437 -0.4288212375005287 0.52904109896689988
0.75550337527431566 -0.37552294631620953 0.65569551574049001
0.46164638057450702 0.68980554265550609 -0.27003352675978931
-0.082307515164870892 0.62624444912250965 0.64051141346112672
-0.38889051942499009 -0.15833937968614009 0.7846650623835103
0.1305881844657506 0.25946745114003988 0.734058248528072
-0.25779344871921239 0.32776909464780601 0.77803605252483976
-0.90690557264667859 -0.43332558383679043 -0.38617213584075216
-0.21492074533273353 -0.53001300592279676 -0.27913276019467048
-0.41478615409403119 -0.15007809390505145 0.78734655347716398
-0.36990887258082239 0.035379804449917174 0.79999033145622889
-0.24516045298958034 0.46405941543616791 0.62162009766916526
-0.65789888227232041 -0.95991542355739057 -0.40782986996839554
-0.22573022729682179 0.31597962835462567 0.77597196136844104
-0.61617385585589091 -0.15532037237704799 0.67350663439106029
0.32485276311308553 -0.18956755970629047 0.39203094610525113
-0.60768646236385848 -0.72993490599378674 -0.32383341263027887
0.097423968025964314 -0.45458396918144217 -0.08314964454029905
0.27914661968833343 0.83561218433266049 -0.30867291473555269
0.24770426512304766 0.68947682956923018 0.11547061085070709
0.28920102116165936 0.87294070281438962 -0.25683511139254733
0.24006621935882322 -0.10893272217219874 0.79130780157970548
0.1426798142848611 -0.13738105978939075 0.73174686063157424
-0.51197712367354598 0.12529322686805244 0.74244696358618967
0.52541067845891121 -0.62320138722509455 0.53008923326297008
0.38207756028214135 0.1757573190830044 0.057050636162557566
0.21476635604608418 0.30721583024910615 0.62705858145409366
0.41024782442787 -0.54747516879143632 0.60166852390193526
0.14693932751083594 0.75548721922427831 0.27160960866717687
-0.69013728016307141 -0.51452564716760207 -0.16919599741174807
-0.4613902452953198 0.08380060693912128 0.7567900294395713
-0.26956893114254399 0.63029296296269877 0.74295892093755356
0.80846764541036009 -0.35370605811289124 0.50619392666294516
-0.34006848219155472 -0.004304834522145029 0.79000584008940677
-0.38789184322263282 0.17414486661630235 0.76014577246701265
-0.690814493388757 -0.97749458198933326 -0.42792032364582155
-0.38087578305783154 -0.17298933638835479 0.77884680554029728
0.47925592205001522 0.5440439737189422 -0.19797233464100827
-0.52337810087124126 -0.89764093190228778 -0.40384416372478427
-0.067706685903203834 0.22531923462690884 0.76759329962146694
-0.013327881350505777 0.39444309281066126 0.77538679822328049
0.089348734630561921 0.11126887042144062 0.71263192831906963
-0.80250339423514561 -0.94465310968325866 -0.44073645291848607
0.32684523798042164 1.046356277735299 -0.40245333219172608
0.29495190676732363 -0.43188098582209022 0.66205865926417573
