# XYZ point cloud file
0.094521942530050751 -0.33048260679678165 0.51824214301220195
-0.2146959275518725 -0.11077279152250341 0.75857595958432
-0.49234135639116516 0.01897523108885224 0.7623574194635836
0.79358858392488685 -0.27291996082246683 0.69949751629303591
-0.11286664785370704 0.5327123254201247 0.74206167825445846
-0.97642566245012574 -0.57798496956404222 -0.2395516856679194
0.19244653221646502 -0.18117882252451345 0.78436075013232198
-0.72797715891931603 -0.55834579007052554 -0.17783491131606866
-0.50820551334859942 -0.60753514993760405 -0.17047254296790015
0.061327366554316143 0.45109685605053151 0.76356815273217649
-0.46103887619730699 -0.31648982630579425 0.70776176061094986
-0.60031545954187493 -0.92400763090854099 -0.41182507771304699
-0.068422204000526676 -0.45706092762120676 -0.30865614268836339
0.2092482792218604 0.61484953145651922 0.60253252047510841
0.44208071909125124 -0.45720359839356917 0.70683299203554384
-0.98087276054822325 -0.89958562890606686 -0.42882302055608079
-0.042977535638058839 0.27835373401504171 0.76083476274841644
0.32953968466857475 0.43559832164683776 0.41640593785260194
-0.53649923849998515 -0.5834199619655962 -0.41124079816324866
-0.64641203019692739 -0.63169914209008482 -0.29673995530203001
-0.63687320393725599 -0.57155044097520857 -0.15310542786136239
0.34228260101089347 -0.35535144766607152 0.26971980832887255
-0.6905075773835847 -0.2888221756189786 0.67783272149011964
-0.28233321533984679 0.34428791549185789 0.80015202015844977
0.31394430268595741 1.1741817067341209 -0.45006737290837862
0.099619329087765607 0.55358391276630314 0.6716069813558363
-0.4370364218078322 -0.26892344334611806 0.75680862375868685
-0.28398023872422584 0.030067175959144876 0.76957806131436257
-0.28044029746500598 0.30687825691221349 0.79862434324367371
-0.67372313812228413 -0.46187926586907224 0.59520458825863898
-0.35808522952792998 0.047126903648479157 0.74477343595597745
-0.54215090931768373 0.099213915522813778 0.76718539207416825
-0.52436717892143747 0.059321380911562471 0.76141045736908097
-0.44106906800101342 -0.24520555470560268 0.78122771167684846
-0.3689287417435736 0.88580112717996684 -0.10407384102509809
0.034523225892357345 0.08643243327706962 0.75467035941400695
0.1570489475959107 -0.34696192836138051 0.64232303459765205
-0.78059869556823003 -0.73625256631211755 -0.35274172834394335
-0.081469527598407865 0.43603582496810311 0.79399149965223614
-0.2822413504100183 0.37037974244045202 0.6454866390865277
0.2148763065321404 1.1791113423916926 -0.37811369719995014
0.73389614069493803 -0.43081966421234519 0.6677283874199702
0.5463340106931156 -0.092565865622917798 0.70347480720029409
-0.082386586294603603 0.31995591062015016 0.77130007680855783
-0.41345617178674843 0.12904150484430943 -0.73660134039337777
0.64206404952221874 -0.56371456621941007 0.40751419965070568
0.52824400129657079 -0.13265870821380821 0.33186280985542282
-0.21988498522765099 -0.2908165430422045 0.65871609729840941
0.47181494899413678 0.91582715023951167 -0.3957379535409018
0.83325644005158495 -0.23604630580828179 0.67491409311512029
-0.42348412043278927 0.095321986321309282 0.77615971599794875
0.19889842452057849 0.62847784044866017 -0.46140935113734827
0.41636877750726597 0.55655827551524339 -0.30023085908304381
-0.083604285835946257 0.24056081598391188 0.76233468052836884
0.8033717138187626 -0.2073071894457339 0.39138342741991039
-0.86480369324226558 -0.37697085471148029 -0.19754940794919662
0.24505911861385954 0.4849486409906838 -0.43717093903219961
0.88692198699465052 -0.32021208858238026 0.62664990858655756
-0.1749486393571118 0.42237055672214652 0.76592331020830784
-0.54969829793760994 -0.64441373025918125 -0.29650295021642137
-0.42246383861024128 0.060078620397955973 0.74231817209660278
0.14492608314933619 0.29779707176179482 0.69147690759292857
0.4034038870847283 1.2586976928291804 -0.49733363342397752
-0.87177566867296719 -0.59043572110466158 -0.32910991830900116
-0.27793467060486421 -0.36869990459118007 0.61722022457806247
0.32810539846144593 -0.11284870921504764 0.73814361912177162
0.13359990945015454 -0.050479934617338795 0.7832795278830389
-0.58945854536348463 -0.89735051448216296 -0.41820210156453186
0.32254240246459887 1.030399711196452 -0.3802593021354852
0.76010847663698655 -0.49788563276899112 0.66086081621588733
0.16762480448809924 0.44103424492825738 0.66404104511204309
0.83689269039541614 -0.46480034873899356 0.5223762916813115
-0.021327621309801259 0.79310311372119102 0.64336707697879092
0.38533182432590252 -0.42511096234621926 0.34700713229898383
0.072894434694802612 -0.32172034834384888 0.50213612408080621
0.1655932830138056 -0.20809320654322194 0.76903334942804236
0.22354955193893034 -0.38046426104101094 0.25585033077297226
0.080078994092474431 0.58759138604414218 0.67074097985528169
0.09704442325714524 0.88979429485805639 0.016750830544737028
0.30647974244869403 0.53816215009351254 0.53006337029007966
-0.37183944556350923 -0.057385550095277793 0.80900133416785991
-0.17535144634960886 -0.15970431016395104 0.67925761821280162
-0.23832472932289761 -0.49079966045935208 0.42365664901282685
-0.47879017613797714 -0.77312391158504568 -0.29703168921383849
-0.09636267125706155 0.73906973620464811 0.71003830417954816
-0.15553180849771309 0.47394065551923248 0.75707886660615031
-0.71353692415792125 -0.13319938452326596 0.60774294295518416
0.56773731321636944 0.94708530785733203 -0.45287462775800691
0.20966432204677687 -0.022422439264196292 0.8015172730976019
0.25503514278561568 -0.3666289420470985 0.69842266997027025
0.07344955870718195 -0.16769296956328494 0.79332068436576719
0.23702855046958149 0.90572647810930818 -0.38220757792679194
-0.067294701238878929 0.13115790707333375 0.74873966143788095
0.51153106123939551 -0.32646183286527375 0.73415780667400554
0.2780876900175997 0.962631052952446 -0.3456304922918747
0.4413930452861905 -0.56244967785207933 0.64409734167961119
0.053691488474186144 0.6623957078096101 0.65866537944593517
0.28954107831179954 0.71514286243538905 -0.0053602762108795332
0.19157355556163225 1.1934070638916978 -0.44383112423275861
0.16287734880864946 -0.37587051994982268 0.35075301828413785
0.061308876924556444 -0.14161930173281734 0.78308246208680998
0.36649042424830469 0.60812382060265691 -0.00945206118174724
-0.25078099544509769 -0.32661126277793606 0.65057824262243003
-0.0086868625516700604 0.34008902482312564 0.7976256280840488
-0.54956533965891197 -0.089195291931659426 0.7397381735525812
0.49037891539653344 -0.2637915236777415 0.29375117865168932
0.51347474370381008 -0.65209559079906931 0.49112393996193759
-0.5128979592927152 -0.1652182118207044 0.78305618672040112
-0.72242973508394215 0.58279552315688932 -0.29951605029776829
-0.96327049948413901 -0.88373510895294771 -0.40432264230372539
-0.51824972149481141 0.062622510340105464 0.67808737537171737
0.036849256054907187 -0.30356792448759862 0.52169646028283978
0.51542835764945494 -0.061409285610714015 0.37068945327953884
-0.58990001209788545 0.14659317113797599 0.78260908396221396
0.3671520729839628 0.96441767025826408 -0.37329437012770939
-1.0208400095580572 -0.64438801982986149 -0.27511377120373481
0.67492675891702447 -0.45355450525847552 0.66877468001028717
0.39795532166012038 0.71691669544340186 -0.29429746211116026
-0.23873055555436906 -0.33710560061723527 0.62600557503324694
-0.35255263399429282 0.27587066670973215 0.64299485512125898
0.28932791358624854 0.74643038927431959 -0.29359315463140945
0.30525763210174262 -0.17139758657314985 0.7406946522609843
0.40055587397934289 0.89854803831236651 -0.36061490201147706
0.40305660642110297 0.65395455571092143 -0.226285434175864
0.43550774170988404 0.71896426056283502 -0.28135547112087522
0.7608478507786316 -0.38238196363025523 0.66826819281844507
0.16203178208890989 1.0184655677462686 -0.36431440945848692
0.12040996580370944 0.85446341360050226 0.10317629166779341
0.48071766380887482 -0.52525032030183905 0.37955547745656304
-0.032937487832825241 0.9698911816190332 -0.20285807320280469
0.75028607327973873 -0.29291172239820007 0.71615167111183098
-0.73856999714433869 -0.25221303797897576 0.57047020710098195
-0.60415515703516576 -0.11358267809053757 0.63941847832367671
-0.68097798876411275 -0.20266260149448811 0.70506580051940659
0.18719887439876004 0.0083920512595256902 0.74960041028290902
-0.53719936251557954 -0.53546441258306032 0.55999795377860551
0.31322907925820687 0.051779944208848239 0.54937208267776327
-0.31826922023633131 0.26610519871752203 0.7810609900276404
-0.3565173462062603 0.26436460024830666 0.74878558354807012
0.77299314524432816 -0.38263082277699567 0.69314499531415663
0.11468279980321938 -0.34015385980660762 0.57432171554359002
0.84161490439646514 -0.46168533803789558 0.55055195632003517
0.50958324747362127 0.84075128286949763 -0.31002291147311212
-0.43945887348500889 -0.50370031618737343 0.60652097297207774
0.35443965540267186 -0.026967978740745746 0.70757725539378669
-0.79305532879538987 -0.94881782217132837 -0.47691513564390675
0.65244834828220633 -0.099568867803221828 0.40104662569439142
0.37555520848162871 0.61516466685500504 -0.18330636372103015
-0.67004251482632071 -0.17692863312115747 0.43064881612676231
-0.36062608269544683 -0.22320024784893633 -0.6941970058215361
-0.8063597688537385 -0.49748685492649969 -0.23608186828795397
-0.066076495808907509 0.77713596594224654 0.35965199143272741
0.25860193699894296 1.0924039748293524 -0.40935631491424829
-0.56901758974608185 0.062335166374445805 0.59528426415513991
-0.5976599210564757 -0.97210361702479986 -0.3971592833689499
0.31964181171949946 1.1744154262044262 -0.45944129248493937
-0.61655584262128116 -0.0071703112171235261 0.57432502235104721
0.42122633686334154 1.1928237429425224 -0.41248130361097424
-0.14152020612347371 -0.021538557712158735 0.74979480459136028
-0.61150609152787183 -0.16149297153613063 0.71497775409972064
-0.14949383067187227 0.36600048146825515 0.7631010698778482
0.08092418853381389 0.83865749339909534 0.56863868241677551
0.43605455409701221 -0.12258972516035715 0.19492906121899978
0.54561813823882233 -0.48847746023277772 0.71102555726291428
-0.26750935235314444 0.72440561164924233 0.68669466092045184
0.62643246470526037 -0.38562863191644325 0.72881478082912565
0.082919904775394571 -0.13363742773695453 0.79961866409236393
0.23249574470200685 -0.0034301468366075838 0.7461161042508877
-0.46111081551063648 -0.02551177825710127 0.79968627547592064
-0.62405757011524088 -0.52261867435037601 -0.41781045672155415
-0.68607059182140517 -0.64340334376532837 -0.30011575575312577
-0.16968584083694793 0.52170806738869402 0.74969301442403946
0.10276315062009189 -0.18271156461503768 0.80261694198382827
-0.24765112810013079 -0.39005703677379699 0.66731241808497543
-0.26774786162037856 0.91915117644661848 -0.23493676710165801
0.47252109029649603 0.83592483559500153 -0.34616229207252047
-0.67748706539963166 -0.84982230679236892 -0.47600517341416548
0.33629657804769408 0.28021164262912279 -0.26185585275959511
0.72681790674018032 -0.49398820765269846 0.68599699741074005
0.16411409931161103 1.095735764103992 -0.31226250766516728
0.085085876957435858 0.73905405529912827 -0.47390939940351018
0.1847941946890046 0.017182419144022187 0.75107391740975515
-0.10124615985544239 0.63918297098905441 0.7226295943358565
0.20063544780687437 1.2155186992106444 -0.41587777307820772
0.49935957609834247 -0.62925792640013078 0.4544868355494458
0.21623831297129925 0.23518657176999014 0.68891746384760211
-0.4840648216840151 0.21194780879854136 0.80335828381809904
-0.75702123807592159 -0.3080060941842504 -0.45635062562698181
0.41834982430953005 0.65843088714424525 -0.2177051015633964
-0.32432727127081762 -0.14785674152432016 0.79923116041446463
0.28248406321709041 0.75224306769142046 -0.26323119249370563
0.15413532059595525 -0.057888156431588289 0.80157075733593786
0.040248455320245569 0.41294802315954904 0.78121367462382807
0.64999413484481749 -0.44815819643000765 0.70805395323344555
-0.40306971003666092 0.090488796268655136 0.77654707931078804
0.025713086150474851 0.93185674877108227 -0.26652625187800538
0.34140206259640138 -0.38057359166578086 0.3029766612408622
0.24993845138402548 0.90921509553743363 -0.29981914708454838
-0.30438030166391172 0.45034578418616178 0.70741633562020922
0.063530005202281359 0.35399231864303538 0.76899970749600755
0.15108937886883922 0.43878554227807953 0.68439234548800698
-0.65421303694903088 -0.96750551614984914 -0.42100367218901624
-0.34130082921824112 0.33901485637790074 0.62803206212635132
-0.72484095621813083 -0.12892028101307318 0.63244416572754858
0.31261122095889959 0.38250145323178852 0.58036333746933622
0.31126650989284599 0.22532273920301549 0.52436430140923562
-0.71509076513720515 -0.41587603241627846 0.45334750936561363
0.1452050048548017 -0.089986810108702908 0.8016145560773964
0.22980760936822264 0.96375566671697754 -0.29542685215744768
0.29062531972618899 0.081649367556114072 0.51913908883462057
0.16308247831510414 0.77530551905174505 0.27867849625498309
-0.16121411154165344 0.47681400842584054 0.75822596838558809
0.42194465470331721 0.67787466154232945 -0.23899815457258455
0.13061532834515788 -0.0866788119952 0.75989043284883451
0.89269647063966318 -0.26055739102285003 0.43718547425312693
-0.95357680859454774 -0.76802460850773713 -0.36539475928503862
-0.56529974032092412 -0.19421237957287829 0.70802138764025813
0.21577943172558989 1.0829413830518995 -0.44214881462633571
-0.30311360606359017 -0.60137445650558519 -0.28172328904278743
-1.0230914420012169 -0.60767302130101086 -0.27952509767843026
0.042803896438996958 0.6119839462469745 0.67448460225872964
0.042257398183636496 0.8529900120035343 0.23240615728475689
-0.68104916965893381 -0.57868340409308416 -0.19833280855138469
0.51360856449261405 -0.1388967456651109 0.72440223190012887
-0.46381942641130536 -0.32874258290356551 -0.61292534602907267
-0.35586453599286472 -0.20221365807724112 0.79938963910480254
0.4145127710991261 0.79298950947423208 -0.32774605966579884
-0.1913421496729697 0.63205471451229656 0.75655372285265798
-0.69578141606477573 -0.74479523838078165 -0.35333593260131124
0.24305597632121589 -0.11619312775336121 0.78707933945287323
-0.21016366954117416 0.73137040869910663 0.64956086472288632
0.51431227946356728 0.89302973059326618 -0.35690372379659152
-0.69942784799364688 -0.3194991059265746 0.41940925014827712
-0.088232660612312941 0.4675606417468039 0.78698237702255369
0.66749490130951017 -0.6708964751896449 0.50750627788687552
-0.40478040801745863 0.26068804924433309 0.70708065247791296
0.57517115373089212 -0.36279462293370557 0.73179987051568673
0.64703562459274622 -0.24906825223815332 0.72852375930169444
-0.30839902014278664 -0.25273364485656025 0.74060651461589089
-0.76858277851088985 -0.34683344381208769 0.56508620676572718
0.13484338324762746 0.45963702814280083 0.69667329834250324
0.019529602608251651 0.5118543734098413 0.75289647898209466
0.13826170685359784 0.38069739749060538 0.71788081651257585
-0.17820054469406443 0.35665502597116472 0.70896373688076153
-0.037740105843496963 0.73243233826664422 0.43707697799604261
0.14914773664409609 0.56672532601882253 0.57884389904580758
-0.31334794106449237 0.61403665808597907 0.70695562622930197
-0.38773836540994466 -0.63317380324759043 0.0039904159505397274
0.11724464911847576 -0.1124370683798559 0.80298943954004187
-0.99124689832645174 -0.74143266876372138 -0.33058311304236554
0.66128433415607901 -0.44982867551239991 0.65883681742845113
0.51445996571177943 0.67348976970659535 -0.31430984437132281
0.26323259873706917 1.215665521206116 -0.41084335011919393
0.39898255458852816 -0.25837052202923427 0.21711252924021096
0.37335087345854134 1.0470270489967533 -0.39975634272374805
-0.40030673736518452 0.51493192904642626 0.51936207363860376
0.55151681343558323 -0.26258828920494359 0.73283620746940414
-0.52503420578617011 -0.5663536785058767 0.50278883286475207
0.35219908346896034 -0.21583211181083861 0.73999427628199044
-0.3358592603903503 0.81612443716248606 -0.37643143206668128
-0.32533996117847153 -0.27451804307850125 0.73458540310350884
-0.65944677998282941 -0.92803901324914762 -0.45553152165754796
0.91616245100956206 -0.19386465103086081 0.509470100065613
0.29111201999921832 1.2485735798782862 -0.43291262761962912
0.53101791578256297 1.0982624922992912 -0.49307534715141799
0.65677481784933889 -0.66554840162946682 0.47962931405368181
-0.14433695736444463 0.368168691477754 0.75888815074064553
-0.70317568815168841 -0.57550374525398951 -0.19548001192328002
-0.98670728029932775 -0.6584938999194847 -0.27430983270488696
0.3770728900442748 1.2590704444672554 -0.52200752676733941
0.47561092726306242 -0.4059617007692542 0.33255361571278286
-0.60292419936592978 0.24247444606053747 0.79790120110818918
-0.1278159534456762 0.55271865046130841 0.74147197401454434
-0.070316426063357085 0.28014946486974424 0.748199045804256
0.42004391231570537 0.94862913349668432 -0.38966404407037203
0.27245332244384457 0.80945046022352329 -0.28678388106160924
-0.64079684355300515 -0.62121817516739242 -0.27340965852332033
0.28193065187845434 -0.053067177781346064 0.74804225006273839
-0.57272602925625904 -0.65206543905061665 -0.3216924222708144
0.63058589073274618 -0.40611560224402155 0.70552988930532479
-0.49512202895157031 -0.041963141766654388 0.78872374673503032
-0.46160047680963601 -0.33672092846486024 0.68697352112462795
-0.68480272286514321 -0.95285577494284723 -0.46921030881387082
-0.31118243721826389 0.35356996873398217 0.76875063119325659
0.60630771736322231 -0.42323477304852553 0.72699365333302524
0.75101326580617922 -0.58433967911979678 0.57217295264844381
0.27818238039983356 0.51458328206160431 -0.41051553298132148
-0.28143416004310495 0.27009378942910089 0.79740729904929708
-0.54500967606860229 0.22131073060787543 0.80075594793046889
-0.35091975654722773 -0.23491298710246689 0.77238278319086362
0.82377225425678091 -0.18575158039732642 0.40807539245250268
-0.61586365076229299 -0.25946776949822237 0.68787245336179126
0.25784794682503787 1.0663287261340706 -0.3968387650869829
0.63186016715846449 -0.66521463400540171 0.61458609610730264
0.28100654696724092 0.7907560456030609 -0.30030886726446226
0.15945153036382465 -0.20162957595054731 0.78388994070577667
0.68191069088200607 -0.51449990911356736 0.69445150332977335
0.047681359544043289 0.30815225542695757 0.76081194789077244
0.098562797400532531 -0.18953006727682009 0.79735583706786883
0.87571968329078942 -0.17054241367964451 0.47021312400589466
0.020094798522322321 -0.29423294620017604 0.59281278131159354
0.72388090454830945 -0.40787602867108141 0.3736965116517581
-0.30064597915830404 0.57395279772401864 0.79453264703305138
0.15535272966658198 0.75244555775318922 0.56817631659751555
0.34773113325777416 0.89708577041573534 -0.34579956351429075
-0.30795242192546368 -0.021092690828677263 0.7622940992587246
0.34669827974014567 0.501956180587662 -0.33441382259400143
-0.43081282841004054 -0.52435955632502029 0.58294487487245306
-0.41035020898350183 -0.77333064567786991 -0.20818970559187733
-0.31152300750197526 0.28265155715744683 0.66097203200385479
0.49313610616609083 0.80865626916191857 -0.29462455394929066
-0.12147103695499339 0.76491586038260451 0.64601425029648851
0.080803678719533423 -0.18637278660620638 0.7731403205539209
-0.32799915584705275 0.185510442479913 0.79682645632786375
-0.42733277470513542 -0.20807639370296727 0.79669129462222088
-0.2233507506216057 -0.17238275812592185 0.75066912897145244
-0.11086193190055837 -0.38953587198216155 -0.51975225381289647
0.006938444867017779 0.95536471613298346 -0.094318915013246851
-0.80414320995562605 -0.61144978254834825 -0.23374435613578726
0.77651330074370151 -0.25801871271290722 0.70365483864924272
0.86217872318955102 -0.37368141121905296 0.62958202704186306
-0.76300678857703019 -0.5211890900306031 -0.3178093267788995
-0.81303017936417632 -0.82213833369471701 -0.47069272459347644
-0.44747609795484777 0.83540277058782664 -0.077572446649782023
0.17317928182576026 0.77278039394848186 0.49859321528640521
-0.26470659483820214 0.48175448530253462 0.66159350367556158
0.5194810950700699 0.93738540759352063 -0.38181561835179423
-0.50898138051148578 -0.56190730733900551 0.41438527072469356
-0.05841235119544308 0.50332404014054077 0.77507441007574585
-0.74936748065744041 -1.0144628478841042 -0.45002391786391627
-0.49306183239269785 -0.40448364039457374 0.66552472288950071
-0.28673771654062818 0.38480536173148039 0.80133783491072563
-0.23263655874328037 -0.11987811455459685 0.74045728589807425
0.24127588002128419 0.71405106356652226 0.2737312050331866
0.78654355412253807 -0.29674217735409414 0.70535854249470731
0.18759799561300028 1.1144429181769766 -0.32467139227479436
-0.045652614170684558 0.68892450133403926 0.7020394664998264
0.84655536693129818 -0.40400292668489612 0.63115354251050348
0.73163791803817446 -0.30760273151862272 0.66548088935141436
0.15569746515989635 0.7902911331797462 0.23085919961781087
0.028614885109305987 -0.43759632546401406 -0.2251482745088822
-0.33121852516798356 -0.72335178379628218 -0.22283714117139652
-0.23561366475034617 0.38933744793750691 0.78310009645143452
-0.15182312134658105 0.52867797356186941 0.7469551696261334
-0.084077076408142659 0.97494575122098581 -0.080397804762384339
-0.64418613513051071 -0.35598076087635633 0.65512789158381679
-0.70101469618008139 -0.20126793064156345 0.70827037461427267
0.07163290653517862 0.47560482779585733 0.73737838632285957
-0.87798771145600085 -0.71466561866793654 -0.35788567737307631
-0.49466057052023871 -0.22784494804161781 0.7705347206660349
-0.17322916264254218 0.40375491306923195 0.72156764058503597
-0.69328215067169197 -0.9937848676063723 -0.43072440663550537
-0.026451488288145697 0.46243683077052644 0.78473766431848446
0.80900302809365598 -0.1266513904886768 0.46966544290410184
-0.53154092205822678 -0.34905584190079253 0.68495931449447767
0.64322209130855867 -0.035388388817796823 0.60323641481812729
-0.69438465312713049 -0.24769861760791656 0.47996270257496576
0.19438641444384075 -0.087043502174407372 0.80514786269927185
0.060489412389955532 0.37842503241008529 0.77916817074152789
-0.15338040948645926 -0.49263347222849774 -0.27274589249444148
-0.39591705958062562 -0.63761609390485319 -0.094172236447690238
-0.39306794947935941 0.041828957213475348 0.7708158893882171
-0.75310424654770713 -0.25270537119308401 0.66290009315761722
0.82847104096504154 -0.42461760034022689 0.4574794136036644
0.32709595566788607 0.40143908623780433 -0.30808657682538865
-0.7560095256163919 -0.68614425778461907 -0.32456398892691141
-0.1765488630842782 0.4952331598853732 0.6775223935841268
-0.6336878655226883 -0.15747353135051156 0.70973746384672154
0.54088565138071942 -0.001356208092484934 0.60361479563192688
0.18818283911978995 0.65185767664893213 0.5995315485780992
0.2954154579345456 1.1134317365427577 -0.42921290846865645
0.44271017085951314 0.023801378868660183 0.49080639214234623
0.61898878269133206 -0.43274473566271077 0.72385822367758124
0.51962922707568282 -0.22201715791031162 0.73368026109038453
-0.75555082220854786 -0.48649358918218866 -0.099319602671698703
-0.68517348409484669 -0.62728624099938202 -0.27669476685684913
-0.12485169030269105 -0.43705856909330265 0.39407191196656299
-0.78519619362009507 0.025144279158958227 0.28465247394879611
-0.53616780172552581 0.044286103204633775 0.75819409018525619
0.10475320459077864 0.53076228308341555 0.67339188443645526
0.64324696549581972 -0.61223476917581365 0.43034156700566939
0.018088919473797205 0.85181558839379079 0.2392178227187145
-0.95678594225385893 -0.68075811270373521 -0.29356679042635392
0.2706085976985122 0.66768303598093226 -0.4100062923732537
0.29754077149382852 0.11005872888855617 0.49499800388194615
-0.54706048663263118 -0.27371668975534291 0.6821439887211227
-0.48201714040163779 -0.37689207057857743 0.6832902113067405
0.40392106632663882 0.70840514428630286 -0.29428924181881655
0.46160627312670499 -0.031203729314982276 0.3625537416511122
0.26966275624309688 1.1193246851106906 -0.42797553643657693
0.063749082139437974 -0.17412739880540729 0.75534475414495716
0.28566796517112891 -0.16198738820375658 0.74317064131452071
0.77491737906470348 -0.35496112306778826 0.69829651011536953
-0.12953154253241905 -0.048841081355739391 0.75285466526386813
-0.20913187747395057 0.55180327586711186 0.56758390546801252
-0.8957493517607702 -0.87622479640126727 -0.42832574211240626
-0.34520115895170989 -0.44716440435717075 0.6465401152078698
-0.69677797529449492 -0.84562670701689768 -0.40933671350424561
0.051305106129717615 0.64916880346628325 0.66378236350033148
0.17637586649235004 -0.36520186391913256 0.64375625598981401
-0.31100466739356136 -0.14979011189344682 0.78593646117208493
0.68732471986515975 -0.63550571444360315 0.61064983144940754
-0.8768704713202311 -0.35971489282658808 -0.23239962654182023
-0.29487183282516582 0.30939636369438617 0.79356625892924626
-0.4729220515511372 -0.79109362280389206 -0.27211014044908666
0.24861168803977307 -0.29653569893503295 0.72611582693849641
-0.88784777739583376 -0.74184183213469623 -0.37426694256575388
0.0021337499349840527 0.1800755222688224 -0.69118426070158989
0.69545281757224586 -0.51412729751778308 0.40392843002344136
0.10184275077905625 0.57656197879329696 0.62419565844517422
0.62750722514144286 -0.43044965627074561 0.70417151767142627
-0.16214911448578562 0.36003459393328718 0.76873800498051992
-0.51094051148164965 -0.21517648428939751 0.76498468556691535
0.066216528593855628 0.37574726026778471 0.77516805079228845
-0.42650148916493436 -0.3425006182648751 0.69176764292761561
-0.74087717287736155 -0.38290656518393718 0.49849146678525358
0.20422918704804971 0.74340750379973386 0.29707579558500186
-0.29079081594787226 -0.37463424230041653 -0.59670704283010423
-0.1330394708246132 0.56486214878879792 0.67653386582558994
0.3882314142752108 -0.25493407835537862 0.18460578987676968
-0.77907480013601571 -0.41049811106753964 0.053301466380446527
-0.33610172340017641 0.075375218460877136 0.77469645075063909
0.46370419510131455 -0.54906220988935317 0.39577108220262858
0.06927737924934263 0.91292366345544451 -0.18279830330445179
0.21423862894248202 0.45021966331455943 -0.4667333198387098
0.32768480550893031 1.1245009383919253 -0.4354759425855832
0.7229220468815214 -0.3062933023483918 0.66719783525316245
0.69198250589438715 -0.59170246307923691 0.64884573604332729
0.39945931752431107 0.50629386657878683 -0.12507235460189747
0.18098139627450394 -0.19901113621863109 0.77411153386032083
0.35907234024590196 0.18800529975903402 0.29555453811653365
-0.27336374818493425 0.8838777941224194 -0.31122519838490348
0.03610340961541425 0.39309031049505094 0.78606665893781269
-0.46207093128448662 0.79577391430765942 0.11675926073331766
0.10399158124107544 0.55831239607551808 0.67278947619774954
-0.57668761163780857 -0.23910698505758532 0.68816022383995801
-0.50488932861784974 0.54572127896465616 0.44861192993298005
0.063021493912060578 0.63201162410405587 0.6666779394608966
0.30708859035880209 0.080292428137964222 0.49365361105837735
0.21079878713274525 0.00091409819707566342 0.75249544279910197
0.37284828936683567 1.1759204429948724 -0.46463240399741323
-0.87082329723541818 -0.63922527391707007 -0.26861068517081321
0.44607574353003088 -0.1841676404887207 0.24134381515511905
0.82879665141228287 -0.19100438089725102 0.6654921933834288
0.58192789195749128 -0.24331056715952171 0.32889560261783402
-0.59402394395596048 -0.35452161010963223 0.66478918191523917
-1.0071842704205096 -0.72352815420378391 -0.40136528455971643
0.5708725444374636 -0.46344247066698685 0.71896971080863636
-0.59940991451756531 -0.32724967594003829 0.67281031097806476
-0.69761547610794139 -0.5267708351326803 -0.36932768013340933
0.69129987295488604 -0.45304215077408116 0.67501287693309564
-0.66916750112349632 -0.28294704388322245 0.67587160431136795
-0.8932702694808512 -0.88514933251505568 -0.44749963440625606
0.63238455531907789 -0.38676199277950474 0.72621112983492253
-0.41032131516247716 -0.63616597517422946 -0.15437381956351715
-0.0090540183931011597 0.75118812267105639 0.41027227569951208
-0.31213487635272941 0.53613041296843988 0.54236248623192296
0.27906393595960211 1.1434709446481932 -0.4369581665637412
0.46103719811945609 0.017331011589497791 0.60196157481971113
-0.35410067709563009 -0.043612701867349557 0.78890944691093523
0.12392753404090229 0.46658156374658155 0.69778039261834124
-0.076822001955385133 0.45603761378994179 0.79020769121720491
0.30716010919426395 1.0100672394077321 -0.37149343848884087
-0.11938636190619434 0.54153252255291662 0.74455590176644648
-0.36723737206941109 -0.64517520131424533 -0.15492297341410222
0.5315458918405227 -0.48051664590623488 0.36008842389853157
-0.17547183890140161 -0.29340272099575238 0.71307178651433389
0.70070233815761185 -0.33689150808280921 0.66883797682829993
0.016529622364714669 -0.33240887631605531 0.48390898873537935
-0.42069641474321884 -0.37869335367571111 0.6454154734799431
-0.58300107437081294 -0.92812510346965382 -0.38750550180520804
0.2144359992091438 -0.049171334340666562 -0.49636139419078518
-0.86038468023760117 -0.74803084344934234 -0.36931573032211418
0.74814265338382313 -0.37265236021259796 0.65262103836437291
-0.12557843520335155 0.41327554322101712 0.76729970902059108
-0.24384104545845275 0.42342001031718723 -0.67426312808871103
0.14389511135732391 0.34944525744534793 0.71888534124627768
0.1033345353905446 -0.25637217803332657 0.7078987599657296
-0.37920928198960269 -0.81184214691976564 -0.29116827391308675
0.08469611268394317 -0.15816408929728842 0.80193896196159642
-0.53156875523613678 -0.030068215809894383 0.7528670217200073
-0.63154449088722231 -0.29614103140281145 0.67176115713985496
0.39225260075762947 0.70609724837954957 -0.27788757311240886
-0.051350422252198769 -0.35730185642963264 0.53251931374737183
-0.76833613617375818 -0.4525477272989491 -0.026512059959515
-0.76905731808011524 -0.51268800730606046 -0.15705806379438059
-0.41028446242131622 0.039423220070766263 0.76682725137735019
-0.060257735617085473 0.26765862909977578 0.75329889155867136
0.30780831329508374 0.82396409569128792 -0.32187944845297523
0.078712977750811319 0.82998894354286357 0.59016810976814327
-0.50418031879422642 -0.42191167967587262 0.65535607985341926
-0.5919053735919988 -0.98337826492829095 -0.40171173129277804
-0.59500760577749645 0.061945357187472183 0.76260611344913798
0.016370210808936747 0.5064046652737435 0.75807051156118632
0.42749650902061376 -0.59446083252288417 0.53691468669047993
0.24510163479331482 -0.012235980406176239 0.76078239680256843
-0.58415020388078176 -0.19062127712501464 0.70953933047150031
-0.028564270269932024 0.54003889487404066 0.73970675239363004
-0.4855545366981886 -0.7729455988776337 -0.39697001624801942
0.024010412037362983 0.51744458148895234 0.74200927198867817
-0.29337913942055138 -0.26343898692801737 0.74412715841016563
0.12432308796505254 0.38443744500787069 0.711214586405859
-0.59195224692746251 -0.16107643669532834 0.72599108180514804
-0.55301549670483041 -0.59439679689852909 -0.13073081118187702
0.17157674194013595 0.25575894901558271 0.71012115103860651
0.055482822070594295 0.60645354268563878 0.67228769536824018
-0.82473294512480777 -0.55209357888778499 -0.17594197311240123
0.11310260655543658 0.50816297466531424 0.67877309038624389
0.38927583500294816 0.58721388190296153 -0.34487379287240572
-0.044831824750538374 0.77492543960547877 0.58928775856583115
0.30142098100438375 -0.50651106621240505 0.54045496246115476
-0.98576057332060429 -0.0071401625870635144 -0.036065843799747199
-0.89526842221761171 -0.97926912180634673 -0.5099384345256226
0.27453187510042909 1.1652108784772395 -0.41733501905051185
0.23942685514576567 -0.030087791746753023 0.79625011695297587
-0.41795129276063392 -0.39506023386620015 0.62015496600770348
0.16656326361784579 -0.12854638134911367 0.80643096899348166
-0.64078909391349725 -1.0002707958024502 -0.42224070971064975
0.81897784670104556 -0.37807882072631926 0.42422552153470861
-0.49537900654890166 -0.32207708277135083 0.68648313876346378
0.48400160008924331 -0.18209174021901831 0.73378263350490158
-0.49825320174949184 -0.32980142836387216 0.6885627659917759
-0.41515467774766535 -0.011780531092632884 0.78709480650562114
-0.50407578763072536 -0.34613255534037535 0.69018570244921307
0.30690642012434921 0.18147511064592869 0.48168759276163087
-0.11264433978900712 0.73420996319487841 0.60247475505642001
0.13556979780305767 0.80531223525406048 0.53787056937581212
0.20921470917903662 0.72751181931225339 0.4326819279498153
-0.2982499237267433 0.32439820822724386 0.70283248921941777
-0.24662350669844102 -0.48530813918207549 0.56018798728797492
-0.21553018166224547 -0.3347240147196171 0.69648190620280559
-0.56968478694555813 -0.32546581551294196 0.68307038297621148
0.11375085200327106 0.56918170482891739 0.67103452068502634
-0.91896857174315016 -0.85029797373299942 -0.42499649225641178
0.032675325937539412 0.32947530431958505 0.78237757409259245
0.46863417401702634 -0.51327463216903269 0.68855561081450389
0.31506846118872289 0.73505506269926002 -0.29927043901832917
-0.44982587694480003 0.088683839228568928 0.70727422287401964
0.26531171635333806 1.1424726052382468 -0.4135638301173401
0.51074438450679338 1.0605107486008301 -0.39681367566615222
0.096274991033610036 -0.2900108036672826 0.64961550212248653
-0.19714230676240163 0.49442462674461751 0.75893185853142597
-0.60500872320967858 0.029454797900140051 0.75639404618752337
-0.59751593399020919 -0.07641280765421854 0.73407335344614921
-0.64429628967756969 -0.62589766926404877 -0.28571847061306244
0.57913269628080855 0.85987823592777346 -0.40338737315600781
-0.5331728824586861 -0.1988962263877383 -0.64315310656388647
-0.67592591187157325 -0.51045293250577473 0.47002880507719169
-0.88410387508183419 -0.61205332002865021 -0.23390267041912693
-0.92070150938545225 -0.7428717201969306 -0.38148811174113462
-0.32366954066830544 0.28111466829907528 0.74670637629478165
0.026994804577412879 0.29767171251454272 0.76448912448452688
-0.40356108632811072 -0.31852146586880536 -0.63809256048560314
0.35681653044667172 0.74626535367192659 -0.37775277265905061
0.87288622136638594 -0.24452618425747019 0.65177449556122724
-0.13245901049857167 0.76104328970916058 0.69071219542722417
-0.43866642449631854 -0.36585001639124926 -0.58934610911055074
0.76384737668611535 -0.30681199680468829 0.71244734535859777
-0.24132575100217935 0.69060091552372782 0.65279607809446816
-0.13018411266736507 0.50526578729753169 0.73231765457650511
-0.27226873529433249 0.045516297569600184 0.7683862490349469
0.2628389094788588 0.044721108203706006 0.65931970912225779
-0.60954936970264839 -0.11729848342191218 0.72328833133218495
0.69799234577411085 -0.30686320969189751 0.69313243293898097
0.26207006570238889 -0.04718734932314339 0.77990550329447217
-0.8661634969235763 0.31330233356646175 -0.33589215253684301
-0.38367528293836983 -0.03938293898015921 0.80521801646486324
-0.70320176104098664 -0.54047503224742144 -0.13126636417226223
-0.73535320946943727 -0.59264204081347316 -0.3478115246108473
-0.4169974265002736 -0.7480645909254946 -0.21170274890977225
0.36030638225078349 1.097844372995219 -0.42051208973020948
0.2894661185035261 0.74022385950733494 -0.28093386885981886
-0.19255253355548518 -0.15912330042871403 0.70019121911134619
-0.21754852416809456 0.56366143140056479 0.76409948515748738
-0.67996116188463418 -0.4340574204190446 0.31704992311770752
-0.027939105102248618 0.58927906692948717 0.70696723911812853
0.56139782899495572 -0.15479822914152352 0.34173340173877875
-0.68821731581789436 -0.25109539729189478 0.69053058017124158
0.41923915501214992 -0.54474061484003045 0.41731400190633394
0.1546774010257721 1.0250743527878043 -0.26156359349559466
0.30488890606670083 0.74926629192318472 -0.31304607346044122
-0.31670263802658383 -0.68345665833722791 -0.22197311328753244
0.49487344697314484 1.0286914574800008 -0.44393743882669412
0.17662189530337713 0.43377764315592415 0.68368208318341317
0.20081875603176513 0.91229300691699322 -0.2155187503809799
-0.51257610063065329 0.33025241934072369 0.73578986207118646
-0.57604493119404765 -0.6407466426913615 -0.31776971297904311
-0.72046744262307527 -0.13016037351561494 0.7141063010076607
-0.036183072267334637 0.24709911135701645 0.7604792145097008
0.22536444271216283 -0.0024786340293858622 0.77726897619604074
0.28892494073133435 0.80815257000952556 -0.37752655390316647
-0.54481576989886804 0.72150596848242543 0.14709881553150694
0.12558171972536059 -0.31762865292070064 0.64205876666080997
0.20390936324618281 0.98208847052196901 -0.26050334703612066
0.6053569695261416 -0.68548880001939416 0.59176445721467985
-0.020071617283178966 -0.30038486479040394 0.62693581811248578
-0.42284769899137586 -0.63323320830985352 -0.16470536751066334
0.86186820199681335 -0.22594269138869372 0.6560440478417604
-0.31614075852144197 0.02402182878314818 0.77430473433571478
-0.37505542494712074 -0.63773077441246784 -0.069331309816277553
-0.51263973425244558 -0.5659243378219756 0.44849960389925059
0.74760843305315916 -0.31849876893852525 0.67183306108303498
0.40277324971817308 0.87437611395503367 -0.35114036431646412
-0.13731070433716752 0.57436145579427134 0.65788017033811741
-0.39764818694165172 -0.20891157342905586 0.79926962899018861
0.11697928198510965 0.33380888443542212 0.73059139678241536
-0.38377529839945623 0.23218466958770634 0.79702693897972665
-0.89932831120972878 -0.54507105342603523 -0.19525101743002438
-0.31747757062304061 -0.4270487064082289 -0.51423731119010085
-0.4428674304232203 -0.21244302253652236 0.79295735612613782
-0.45867333669397681 -0.045303260268063639 0.80626758940019272
-0.27821538205684249 0.36678763976179596 0.6598009883240934
-0.78946046979584139 -0.94693984078558202 -0.45736149110041424
-0.3081544315172664 0.25052681723142811 0.79207664127095256
-0.56087139006803 -0.29894471516418619 0.63588119807351973
0.50016405577564171 -0.64700888980036808 0.53159389279245772
-0.6565553907724393 -0.77831671831082616 -0.36638649745509611
0.13212009676973935 -0.19279969656162166 -0.52616213254890454
0.15244558747261294 0.91235242244378156 -0.32214636990674705
0.19364746004127653 0.77616186342982374 0.18900601870259948
0.19718474353773985 0.93485589503263711 -0.22233400223238675
0.2795429220219745 -0.069469461801357379 0.75535913391530585
0.28768368268848121 0.07064162990059053 0.55725801926375595
-0.63850012925846045 -0.10155082142870953 0.72747492666223934
0.82605074571914372 -0.25676235799153524 0.39641699072448944
0.40484318114179274 0.50594235643162477 -0.16422215410401009
0.19732556944241253 0.4465743683892498 0.61903938532636005
0.69981765148638431 -0.19159819702364445 0.3668110109740752
0.1002124940147695 0.79228850728557987 0.34654929899051012
-0.59402699761109545 -0.58739098559517799 -0.18607648846989377
-0.55513935918131097 -0.068793640962219627 0.75026534979465964
-0.61359621803489972 0.30560133268679834 0.78280560375050356
0.80981894084683859 -0.46691948099508096 0.63304650892361281
-0.3636776396174497 -0.0502277037323271 0.80137171890483216
-0.48905057279787911 0.046936554353933957 0.76883361040727038
-0.82570553560418603 -0.92497553736274796 -0.46794998184773817
-0.36897676384587896 -0.21821928005688207 0.79558568781818906
0.44126332598513329 0.78673201274167326 -0.31639727684942898
-0.69121830146215757 -0.94085554985712605 -0.46594775108459885
-0.051074378533570552 0.23770557292830752 0.76155022937078343
-0.067816713004788198 0.38226409179695509 0.79937576495143503
0.15611289530407646 0.23852123727924734 0.63350975670311982
-0.90557780646953745 -0.8540149194999529 -0.43881017404478939
0.2649312794392884 1.0927356024637618 -0.41495698791631241
0.54882215139353718 -0.079797614719430587 0.37400632217915586
0.68317803004455868 -0.47508257008884058 0.70778187237688428
-0.13694128615115631 0.41088315596257985 0.75824439055337223
-0.63059255349108412 -0.57895672206876014 -0.18181622210633464
0.39205578153616472 0.55112010987362225 -0.087043318351675225
0.37664986782158394 -0.25216921829098027 0.13540790299870764
-0.32656986491844009 0.26316002654363402 0.68030303308663065
-0.56672905992772371 0.22228923389666733 0.65973242277152622
-0.044242428569702952 0.36065983684980907 0.80011913343660979
0.38402873990376918 -0.29802087165137925 0.23906910643262336
0.11813034394272393 -0.077586377825366704 0.75096094385689582
0.72724527019103391 -0.47571828489799373 0.69359459446188509
0.70651300577222287 -0.61604948709289076 0.61135277956704215
-0.601373131155853 -0.76961656225715558 -0.42677958747864864
0.54871465430206001 -0.18013109949552053 0.7279249522841269
-0.6750340557831862 -0.74188918541661053 -0.35088171353160647
0.44946900781581434 0.72769837874361087 -0.2609969555329883
-0.10543250880577659 0.23733136305137137 0.76188652387361344
0.23709619502449186 0.80804110821121355 -0.20413559222382105
0.038798880521071055 -0.15194974126188354 0.76087689607496145
-0.13436021871375203 0.97364023113957643 -0.18637127682845289
0.3771018472518648 0.9223399084603976 -0.36225736105215844
0.3975856708817247 -0.42708311029240598 0.70962759639722606
0.39740572838780253 0.52061439428063494 -0.072248443316240696
-0.50751599313552731 0.0055360569673155169 0.74343521671062263
0.38936985099189059 0.83281564354647841 -0.33721414378574366
-0.0010610204763423781 -0.083928492913599939 0.7572043495259777
-0.1075207855200091 0.11026953216162738 0.75128305585420208
0.67763284594312267 -0.42595176130777368 0.65382316941806096
-0.16495758038328745 0.45991936227617813 0.76074587317044973
-0.1361673753423247 -0.33213124121044668 0.67340854783107318
0.016256310872506674 -0.2345369714815817 -0.60103489933146648
-0.072290070505559356 0.2750604212329808 0.75395625354775575
-0.084972087975543786 0.77193031113033683 0.6301087232269964
0.45362836007718954 1.1239656914213967 -0.43923813514345511
0.33690398950795952 -0.24535278231669366 -0.042439317290160261
-0.49829779717002509 -0.024539536224789771 0.76681127595453802
0.11353326320252677 -0.12486575594767135 0.80567020853210636
-0.82083209874801355 -0.85164833623350944 -0.41726552723659438
-0.41159328373231574 -0.72140252295159968 -0.21171437909012525
0.45987930248691811 0.65043791912471605 -0.33564035541304804
-0.34168925206786582 -0.53127860419857598 0.44843671798966511
-0.18971133800444306 -0.45772066661309374 0.48185683715686878
-0.0051560928152412089 0.22434244919148227 0.75574500316832882
-0.22047145284112446 -0.53513902884376563 0.19393363935643038
-0.68287398565848889 -0.50495493791667911 0.10186993473345751
-0.57328718678250823 -0.15739941760972798 0.7187759630637629
-0.5158904899800234 0.0039566164522923941 0.75890250819269056
-0.073306201218912292 -0.31282313979400378 0.65593523613011939
-0.099617524622033216 0.97593706352534326 -0.19865111065843166
-0.54913690490845113 -0.38159481681072549 0.66646557441177379
-0.69138305198504213 0.082168512219890744 0.74373300143744814
0.1476394092670148 -0.013278439606625447 0.78540485424647954
-0.47456174258373096 -0.72580085575412312 -0.30881349359344767
-0.74678724521017159 -1.0011801749244711 -0.44120798347213963
0.690317079236209 -0.32301489952548579 0.6926804855773554
-0.043743853836012647 0.46825193691890377 0.78534781051456548
-0.30834859114982294 -0.34615105586962613 0.70254074322348004
-0.15968490832615601 0.53587100047882785 0.74582777621922958
-0.82840021991341928 -0.50350220868634921 -0.20414277081664522
0.44472386529884034 -0.0044980308787820888 0.40475463550896507
-0.47712187608878764 -0.59945097805287872 0.16389395560076991
-0.23193215884779761 -0.13717992140750113 0.76017455116337374
0.30478307329143206 -0.10065943156111201 0.74108852789143498
0.45591457106465327 0.76432255422363937 -0.29400340068896469
-0.98655337203666704 -0.70305196471815634 -0.30602103558240401
-0.12957818343899419 0.33414975505348465 0.75862197667676412
-0.49604761513596429 -0.7478104418334155 -0.33378358276917197
0.76940736702471213 -0.39467423570416926 0.69187159020403044
-1.0091771086184309 -0.60708920677165423 -0.26109751542284698
-0.26006746719745877 0.50083493877452057 0.78654763056306365
0.15485902437103505 0.83948535380009304 -0.36740032232762587
-0.60090178647958226 -0.66139904880535738 -0.32571317863397553
-0.67669608248665725 -0.078889905194472476 0.73921624234111505
-0.070993493990854972 0.65361974544554968 0.7103228540799762
-0.98315399356751243 -0.11391263431495702 -0.1204357439807211
0.87673441560716014 -0.3610286840357908 0.476574024589695
-0.2564607982147038 -0.0030111725587076421 0.76554343426815308
-0.34965531902442137 0.59062413966712768 -0.59045439894347851
0.27504289647386315 -0.25192388127590259 0.73720349142409702
-0.012672862344828673 -0.32938941047012982 0.51063810011700639
-0.11477374365424708 0.9732786041324033 -0.065734045739816338
-0.43471906536977656 -0.75564246997431184 -0.2287647376876123
0.10332508820840758 -0.38539122182194063 0.3031269240428287
-0.13316341609862548 0.23409007544390015 0.76340234215652458
0.10614993295429542 -0.34149183080016599 0.51216144849475143
0.43317413731548982 0.72567138834566691 -0.293905148734666
-0.45992396386009204 -0.25308833940756514 0.76851639629310853
0.22034173108025357 -0.077838317797373158 0.80098399298870504
-0.16085798060285583 0.33501533574077769 0.76934098429427422
-0.09657497236273116 0.29425827772227819 0.7558783852034594
0.44760397530313867 0.91901620789938931 -0.38870939347312117
0.10410761687904113 0.64854170371559405 0.64569804792188279
0.053701072075568845 0.26713791490931715 0.75133729470019261
0.033732147446052352 0.82119719019241444 0.28677286150335135
0.51873589209883875 0.88573781731801304 -0.34147788489488562
-0.828545667464752 -0.013546045406648943 0.22174010752607387
-0.099735981939666374 0.75490235807177086 0.39766679326783105
-0.56549591380871789 -0.27300686809438091 0.68152730950629348
0.37895397939252717 1.1782192263193707 -0.41700520297574428
0.56389610540743718 -0.38590969228495631 0.32633990530979418
0.1284694942519593 0.38350758292321352 0.71442745237412453
-0.10048789103591105 0.47802650931592794 0.78000004798761324
0.33776874572740212 -0.31596319899607117 0.73227537835104783
0.5584084724050058 -0.68617112723821805 0.5287392206569308
-0.42672835857058544 -0.85518797652549239 -0.36195969117679283
0.32114733858148981 0.27730881769304272 0.54008996801601938
-0.20565324236855531 0.5890546972732551 0.62684220253979106
-0.21131014280663152 0.55266747968803287 -0.62227517544866373
-0.54600604506413219 -0.87456012718354259 -0.36818518890871132
-0.28118050678105533 -0.19611820204013064 0.75306050031284144
-0.66262542001011582 -0.5530664101626499 -0.077841907326131832
-0.61015245151442343 0.2637756320598541 0.68659867541668973
-0.61759283497204365 0.21571567004196623 0.67014075716716093
0.076564644359677914 0.81412693768553801 0.60943374454812727
-0.32950970551269165 -0.10481546361122263 0.80174742592235759
-0.037938911001944575 0.16021067795008648 0.74938696142825734
-0.55195688956438005 -0.0051076849898770149 0.75504462454178167
0.47668780679922662 0.78034548797791814 -0.2834029409398795
0.084884873246778625 0.022845748417807954 -0.64225908429366996
0.066412092002565259 -0.15490541566620264 0.79105274513811707
0.15476655145852192 1.0692382501439077 -0.36093930107739425
0.23023044147738858 -0.061539027524458945 0.7996884726507858
-0.90469312587441664 -0.7209435985906083 -0.36627741604331732
0.018853702560065244 0.36783550386628505 0.79328975412377645
-0.29642570469349039 -0.30141182058541816 0.72689338412607185
0.1162456059438739 -0.28759041462137791 0.67576916245832308
0.040284969429436046 0.34829206741587093 0.78719935429045051
-0.059189605787452138 0.69728084979440297 -0.54080613275775136
0.20555870057086167 0.89064949256293957 -0.21115641114917594
-0.38808780729139869 -0.48914627741767269 0.61790255394473093
0.23886913261681286 -0.011926940025677624 0.7855952525025458
0.51107590075606169 0.99156302395071094 -0.43205363972832345
-0.20508807246493177 0.39549288851289788 0.77058885910000186
0.29851459152351367 0.17381429332517762 0.55132055842911143
0.065429992890869926 0.80624628862546288 0.47726844203008056
0.81378320294034268 -0.15234687945998893 0.43229576154499227
0.040713625575108381 -0.36348282120953712 0.41621558349837073
-0.22384558825076084 0.76057999721239611 0.68587783075048492
