# XYZ point cloud file
-0.60889974018511461 -0.583639239299516 -0.23113055257890758
0.069027817909664169 0.22280572941538512 0.50696862235218354
0.051020696923750108 0.3504468959213054 0.36532986577441506
0.30793895699706963 0.89025714576920389 -0.26734467045161153
0.18780028196082177 -0.16518612865040661 0.64359729841539459
0.15860649902173685 -0.13566538773115866 0.68204648427911663
0.049604808277623924 0.17786249560171985 0.53369317295171204
-0.26827075014764379 -0.19875900473907926 -0.040760766124912196
0.02003428223409176 -0.18898308980644662 0.53226392522428501
0.054102681076042547 -0.16905467790214512 0.58823056483467773
-0.12553026837811299 -0.0098551783684683869 0.59803339638882624
0.2338232998269798 0.36409621269384296 0.16884609410173312
0.29002118614430694 -0.21171206560292433 0.68088218589154248
-0.034363286639316204 0.21503078699868183 0.54724809929741391
0.077084248224294161 0.24369105764926591 0.1859772173545246
0.10362239045565591 0.098645192499292378 0.35105178444789181
0.034245938728452163 0.14535587298212116 0.55510479999650397
0.18762511097993673 -0.24226433367376643 0.62819407196504651
-0.40167812580363904 -0.26639871764450795 -0.18429259408086351
0.028253475543436046 0.086598077730390521 0.27562945070474781
0.29843579250425067 -0.22827229390612258 0.6589109248840459
0.058868359332913123 0.28069559853235981 0.47066378471934911
-0.51929303582761932 -0.49217775744907843 -0.054450302659708294
-0.042910236099201082 0.19917578442017314 0.53044684900610162
0.087455568856913635 0.081704636204053216 0.55080784586868803
0.3591102638458854 0.77032406188294367 -0.20847613201225967
-0.54409355438627616 -0.48752691249942881 -0.2567032806952505
-0.1636277656850007 -0.03042265209819206 0.57431037650218297
0.067586881082274619 -0.0851155193465436 0.6767837931621975
0.023429322056628177 -0.027777847234389696 0.67089262965492591
-0.69175014177288041 -0.69718219779821755 -0.21232122741504389
0.25917359900199188 0.61647589826920512 -0.025046103478568393
0.19013968700543971 -0.16291176509758953 0.62765400853533571
0.11805005033090965 0.13564076501006816 0.49453792970287191
0.20429914620099887 -0.21495078436321746 0.59899415527099198
0.1423736375285205 0.45010701780006412 0.25848534437196902
-0.077374686333026688 -0.17784555242479172 0.53308697072803879
-0.1043643802928873 -0.092528672669278222 0.5653394618751526
-0.0038764934448405342 -0.059199402082173336 0.68487565942175788
-0.13809403512356822 -0.18023967083204173 0.48853659940281524
0.12370565179816251 0.25022514653519279 0.40887764055395248
0.20672261546067716 0.68387028994310706 -0.035080050657203543
0.16649066846710991 0.14299022675715189 0.45459415356148225
-0.069724992864312885 0.12287781459920355 0.62905675000195438
-0.078812928797687754 0.024605798802846301 0.59539849307302928
-0.23288931692589676 -0.12165115185834452 0.47679806663466806
-0.57473241484919146 -0.55466833109863867 -0.050192247886126307
0.122397668386659 0.43901974272430966 0.31182960480113164
0.070629319447163885 0.3015945258239312 0.44765327480426653
-0.13188876261831428 0.17463142329246173 0.40616225577755427
0.25872139196287125 0.30516797517438832 0.19307881927989246
0.054433130573606103 -0.045287268981613948 0.68169432242003791
-0.025969001242838186 -0.09130815488732491 0.66176136819017028
-0.017641782332723288 -0.033062099332133776 0.6865504956831745
0.20302625641813199 0.55475904131014886 0.022909425348983992
0.013982036824317756 0.095523166449922314 0.5843245949648479
0.10036012705066866 -0.12564739566946237 0.67992938104597578
0.23077260198964655 0.5891867076709536 0.0052478479037137427
-0.015914960636835618 -0.11158813769481091 0.61883372041941198
0.13108598290468887 0.31078977212046954 0.35873037868391577
0.16942497799660661 0.36043949690302579 0.23228979259657501
0.31368477381707471 0.93523228887924015 -0.31177199065719718
-0.13075064951637527 -0.14805904905431699 0.51521840021864618
-0.016050370512931789 -0.025860435037229124 0.67732719527601815
0.1489564910297827 0.22049212998711276 0.33705411323831747
-0.14203901859432744 -0.016107867334431702 0.59348585665143683
0.064767997701335567 0.1413416444426816 0.55788487287031474
-0.096893004868412014 0.16367674811597999 0.55260890417663466
-0.0042189283900611052 -0.18874853882327081 0.55683057752784071
-0.050306827713033853 -0.14429577869713528 0.53681413978352432
-0.11518087069913818 0.12019304916691542 0.61799779562981527
0.072542271156263549 0.6823759715511688 -0.39694691957072981
-0.72753729948911383 -0.69474845798769014 -0.40632305561050952
-0.04832494884896521 0.23917976781848793 0.44963972146680442
-0.10343322861526261 -0.079553008424683824 0.56815008504034292
0.075387029958455365 -0.14620308519381986 0.59922774476024787
-0.033509081763288151 0.30779868855274595 0.504002954756824
0.23895235379987989 0.50626654475484578 0.065902796942216735
-0.57595939291873499 -0.48417836186471952 -0.33992315697278719
0.14573999419582639 -0.14970037681103543 0.64044798745300535
0.15824173207850567 0.25265068930774603 0.26517771783333483
-0.14673747517946278 -0.02570674861698663 0.5818362032679627
0.02364352433753103 0.31922124602718682 0.38145165832816186
0.15420669272928489 0.36075289647275888 0.18228328696288143
0.046878337325690911 -0.085430940498960162 0.67933297671680992
0.21911441662793907 0.41217793141417758 0.14134228719350223
0.14509314361997916 0.2074230479263619 0.30849770286131761
0.16690717676607392 0.23063962318540465 0.28612845878819987
0.21498925102436051 -0.17761052775322206 0.65275220289897506
0.24610767883601836 0.76484221506877859 -0.14297625468710029
0.19634552393839799 0.60936672718219942 0.034188579141235298
-0.059761571257195722 -0.18074309074573502 0.52821997377630825
0.24309981470588449 0.93132058699598108 -0.267283947546891
0.23911807104866467 -0.17952992251674038 0.67911533019295844
-0.17956535815307761 0.10518182525455311 0.40858262133136408
-0.11241324878948511 0.15954036936673965 0.45850599032015099
-0.14717525231492079 0.14089796930791421 0.53344592803053437
0.047250171522508655 -0.029300987118409338 0.6529643084935457
-0.2626690099400002 -0.063173237906458013 0.51390174347581741
0.066249170812939351 -0.048791604977115988 0.59856314210002037
0.015013223110075025 0.26282966426604482 0.51129406572732783
0.014674931952761483 0.28836512323228547 0.47505920595510509
0.23104293506010509 -0.17773409276931185 0.65924110092586674
-0.085759196549155092 -0.08893513079936799 0.60129094902819813
0.2177594834106007 -0.21082842359171661 0.60700164481244012
0.22121320491742358 0.27966481353205896 0.25058774128576067
-0.23258690885981137 -0.051051738944982716 0.55872171456882935
0.090074950214312333 -0.080520658658020494 0.66227046754726837
-0.76311410260048529 -0.77514873044110555 -0.37017498102932334
0.13310686190092902 -0.18660663482516959 0.62588361416470861
0.13238803022676304 0.20081530606054798 0.31735763863408839
-0.1582842528465167 0.10391543374041934 0.2756599394488351
-0.42168897197881972 -0.45839708310680294 -0.032461003791461385
-0.46115802129334726 -0.37165807893763692 -0.15997834542279821
0.1698684217937636 0.63998150099597417 0.050890333454561731
0.2771261373543723 0.74580999140406723 -0.13832276381934117
-0.05223725435811355 0.25839697714395005 0.35725468055725856
-0.72488814083776809 -0.71838679348494194 -0.22387560805710649
0.31378392358780971 0.76940226897492314 -0.17785663969017018
-0.080110376582309684 0.22469149796013532 0.35156525940232664
0.33562779610725801 0.68517997068268777 -0.11415615494212639
-0.032533239626070021 0.064300041824089327 0.61248761396576124
-0.12592870314203575 0.14364756584667759 0.54179266613714727
0.050566704475488944 0.23766836777207212 0.49634454209118384
0.16672989829180973 0.42921769805766896 0.22701728726126957
-0.0088969262388358672 -0.17045790964086383 0.53836456518485432
0.074503238428929697 -0.11873430292376463 0.65269312813133362
0.12994711006407389 0.58673301277833545 0.2337724280549357
0.14847949099320723 -0.14130894334526856 0.67064251864104807
-0.0066703279242514846 -0.029789808649970162 0.68607648915951303
0.058381884708984089 -0.044681061486354423 0.6589196817776386
-0.070461290805194032 0.16653686708667648 0.60027094511841073
-0.51032413093945772 -0.4925717138623229 -0.13367662874850722
-0.53496715055024513 -0.49704104633211443 -0.12984690275420552
0.079084064110306329 0.34112848043234001 0.41829601629837487
-0.011886568538270303 -0.041756594526455082 0.6946009577931872
-0.15934500086489845 -0.031064459679910783 0.61155563241651167
0.25538049914967242 1.0683639796693494 -0.42451027923170298
0.20864239694383979 0.29678522241264371 0.22965552201565259
-0.69787533959459536 -0.71908945151397052 -0.27915503021941701
-0.0021306247759325103 -0.057864671120514188 0.39611307243719307
0.17615598807246124 -0.15202345272955275 0.636871968289765
0.27573703923015014 0.85689232700505524 -0.21943192062752326
0.11520770398465707 0.43866136406945433 0.047075187292004092
0.048519352214837497 -0.026804938578536053 0.65179151131705626
0.10565953938044981 0.37703638114335503 0.36475821053173352
0.32165324395426365 0.94831384638161431 -0.325770503971411
-0.061219920855663412 -0.15590621501689395 0.52881959749784191
0.094244964525638464 0.029599021612626508 0.5850402693496809
-0.01035847994671224 0.3004813876678698 0.5201516629152253
-0.43719208125533626 -0.36744092300290809 -0.19574767816791994
0.15043349206516421 0.20251093079272042 0.31541975008487944
-0.087987278531042712 0.074472126689342222 0.64950754014127221
0.1587095083914587 0.37828787849463108 0.17627881885910268
0.029976687846395622 -0.035694092972101465 0.6821299969995015
0.086383093481709583 0.1510098276317926 0.53196021578275277
0.14322256826921831 -0.140409764987663 0.65433428353777567
-0.034008883973006832 0.2046095550507645 0.55303631504195072
0.21981155157971299 0.81008023205806801 -0.17308091285002886
-0.090497102127878204 -0.1799881338873055 0.5214926912393083
0.211084950379822 0.56328801269720863 0.032947591221081929
0.065432426630133822 0.39706346847468765 0.37282013987372653
0.081645006624351479 0.12029448004540333 0.55075079801325488
0.1143379632120074 0.13685057016559732 0.49953514662827314
-0.7363456616947861 -0.73644182701019023 -0.26412234165426529
0.042514663006485431 0.36322223056135572 0.34348284406053875
-0.13060351037797169 0.18364976778117637 0.42649421827638134
0.14107747296223261 0.061835715436304284 0.53031713557911464
0.10074243566204455 0.010175773842332703 0.55882467150541215
-0.25185383282319851 -0.018746664565564508 0.36202240829828847
0.02061181657969291 -0.038537505807526351 0.68591214696569358
0.23030812733819683 0.64206479869905975 -0.030332828916925236
0.061455612106593893 -0.032294018344684261 0.58040978837785495
0.17860632960731104 0.45694672333934339 0.17442192706730797
0.070633943153664447 0.30611824755446326 0.44599130676645693
0.15516649667183691 0.21265850901407646 0.30513292074873843
0.012010505208420952 -0.033026822950253276 0.66536058992356817
0.24756870580280088 -0.26567200672859537 0.63585349780213873
-0.65445746024947749 -0.61278276932547149 -0.35669892563307815
-0.13188228164361959 0.11440353034300355 0.55360448380719351
0.27034895659488956 0.77510079010170641 -0.16578816095725346
-0.46715812100345389 -0.4550192678146443 0.071272916917942575
-0.56031016539240674 -0.4669971019854291 -0.34198126276720608
0.12090071053124429 0.28532799336594383 0.38784074081171993
0.1906805335437789 0.64769000213221339 0.01639353368479135
-0.47127688927517264 -0.40143581119049454 -0.063317866762087782
0.13847672277085898 -0.12937547796943427 0.68535635646901127
-0.46147691644839695 -0.47882644940933083 -0.081383292594473911
-0.10685581386142085 0.064678713307130042 0.6578738292317996
0.18487143042241483 0.30425990374425282 0.22591086661222626
0.096449649161407081 0.41793881215122752 0.3724915356990196
-0.60284463652090592 -0.58543918745161516 -0.1837425167800576
0.044322027959275312 -0.065986915664924872 0.68955238587128276
0.13457031072768566 0.57103640593618676 0.21604070687689236
0.23661741724061414 0.31574918057654777 0.21315460044391282
-0.21752386231664822 0.019638080584095441 0.30749984912354378
0.073701545812009606 0.24467961802232807 0.48852785878121241
0.038526173175236877 -0.15241879830087868 0.53495842589458165
0.014378869117378734 0.3184831552135523 0.42609246452253446
0.12514788451710324 -0.13409303635564607 0.67520560275612851
0.18782142544520841 -0.15725974511314345 0.68574773866285854
-0.1186173995634312 0.031264637114798433 0.63162659578659663
-0.21848585110897289 0.060441013536874699 0.42866578052462634
0.11437112773329172 0.14999163925309178 0.49256572835873302
0.098415232041266565 0.21614630197824924 0.47232876828877612
0.10224410821734931 0.10959136601110497 0.53281943532574805
0.048940560618461415 0.26600174902991292 0.45338956925738916
0.15202339965841283 0.54074937675554891 0.14385796124092665
0.13436422097072409 0.23376616081476342 0.39803014104291179
0.1039751987583184 0.52251268387414385 0.29172948184138159
-0.40758234700040852 -0.33028973630168679 0.19050063564697267
0.0078666217508089886 -0.034963671293503751 0.68743393685262211
-0.63586377787543436 -0.57431632004241973 -0.3582134920543949
0.135197111147912 -0.14905579045772077 0.6382781626682914
0.16228551072542707 0.12952176788118219 0.34668281571849224
0.32526994776175533 0.87405151377073453 -0.26631716907322278
-0.055165197896976714 -0.18954293292639512 0.522075587065711
0.27043956931841739 0.58390366901641144 -0.0046467733315275761
0.10635906487959224 0.58001034746723645 0.11877858077608955
0.13410038268405033 -0.13622627680628296 0.68442217396354732
-0.28223622697629569 -0.094277369593259053 0.47747901044378788
0.054885839911203771 -0.09774430361779185 0.68273421455489092
0.18378682244282762 0.87581288861254336 -0.33940871187740401
-0.127796051021003 0.027433589805823999 0.62933309959159434
-0.72883005373562693 -0.74228290641526495 -0.28023087364168875
0.2964999688339256 -0.26305953265691873 0.66493277296478848
0.34096504430163899 0.8770191183896543 -0.28047492885584258
0.31023436755485445 0.48094723508460158 0.042602758527637841
0.02414192734220455 -0.15942444102699538 0.5266062007964758
0.051720585857987444 0.23751726041494692 0.49363222588037348
-0.47141183129131692 -0.39773220235298457 -0.07473340381639576
-0.57614077927753327 -0.49147187280179239 -0.31457039480597315
0.35527324568035579 0.79806962150590044 -0.2318210627712578
-0.039771468343380967 -0.19042543526786915 0.54014511997310843
-0.0099850617061281177 0.37057733095355694 0.48150616810115199
0.087869874742484866 0.33587595715860452 0.40968130860139917
0.044019076664106205 0.1604270033509998 0.53568278436672245
0.23879242218328334 0.44125049200383692 0.11250852790841936
0.1766379943876708 0.44000781011901591 0.12829861354514888
-0.51059708079396504 -0.46807816658727752 -0.086175458145628048
0.065009032473554385 -0.066554572440154836 0.6712208960505166
-0.53371005792895554 -0.51146404194237416 -0.081634214290705942
0.13996092925191861 -0.14230477111647577 0.66043936153977678
-0.078082368012743153 0.17034921071065146 0.59062118785770756
-0.16819067178726144 0.027381113007875157 0.58814178775814774
-0.74985107433741938 -0.76529125269031484 -0.31004725284423607
0.036299911100280635 0.31412601175235499 0.46825393466602594
0.12812866231609887 -0.13363368925237484 0.66550420770392893
0.13680997045148202 -0.16475443094293052 0.57987528131380306
0.048768722454005875 0.10619973270346073 0.28489431923073494
0.017384947072250245 0.24295186753667775 0.5311143685921268
-0.011708963096675351 0.33248735942801799 0.50308815058318579
-0.11687939693243621 0.050381817502383797 0.64534222773111805
0.20840278092669995 -0.24532546391347587 0.63788432810821782
-0.15949274376990141 0.094079364472617666 0.5455593233517505
0.2671997779632862 0.71822242161444061 -0.1116545517584408
0.051352061075596422 -0.12159428643794667 0.57774935219376577
0.16923778400079748 0.41099774728131244 0.14652251484480461
-0.002072979483076498 -0.056714762225338333 0.69069930808051228
0.14470983647704871 -0.13858442647941738 0.63711663360551185
0.070177611476544222 0.11274656391806293 0.55859101891452156
-0.015300595675077133 -0.041843254690767218 0.69251957419401011
0.26143116736952865 -0.25326787472393519 0.65792038635673711
-0.092060644947699721 -0.063255790885127894 0.59742631173088645
0.09529136109587677 -0.22323092211173012 0.57028825500563396
0.078255670273108979 0.43308762153275815 0.4076020081436208
0.16796567540237595 0.32532540942440091 0.30445832318973243
0.2128026190747998 0.45760875606173634 0.10922627245324212
-0.053850164502152076 0.11852403800125089 0.59322110025916208
0.066525000766139097 0.08362499638142662 0.33305304099815941
-0.24254137057547709 -0.065207573394455487 0.54562686962187379
-0.53916135469814197 -0.50001447209199501 0.031096195155176254
0.026159328151240224 0.30042159960986003 0.407238769134184
0.20807008586076892 0.26599389700569454 0.26357388954908367
0.13648215094666116 0.52075137249955672 0.23408952702918573
-0.022533746330294591 -0.038131334196174649 0.67934324087609532
-0.005328496373873115 0.22001951367734796 0.55169782245075072
-0.11754804316335621 0.08115930656539172 0.64952534950638141
-0.083283147712796879 0.036984397232890487 0.63396689687157259
-0.41257173505677613 -0.47245741065527458 0.099544580494451196
0.23348652413573978 0.86798227419355456 -0.20048029841157156
-0.51255939561069885 -0.43995053940337137 -0.16147734825295901
0.25822093604804341 -0.19067893699565142 0.68155239618450458
0.27380885799654275 -0.21371091822484045 0.64720478140072657
-0.4931162845990138 -0.43499033291923705 -0.17168227558655302
-0.69883005263600317 -0.71037756199705182 -0.34373054376516254
0.25089259534814756 1.0828785869422388 -0.47180647151947913
0.17685748579390137 0.35609914460748548 0.26878571592992584
0.078097788646819044 0.41511585841069687 0.33128210761349441
0.25205389413245949 0.3491365560755062 0.18142266558897779
-0.29419651773439792 -0.12556706281038554 0.41683579091694378
0.083948283579410088 0.2494083073329989 0.47244747648348828
-0.78235417971359444 -0.78236469059836367 -0.34379032165486134
-0.19666610117163419 0.0047432310254142962 0.5798506729060029
0.040752364013747933 0.30731290156825919 0.49106702067873942
-0.071338697632314485 0.056690242866420881 0.61521959891053313
0.17634640494229847 0.35455644103418926 0.25967318413212981
0.25890223194360695 -0.18986036846671706 0.67659688729306811
0.28290235913001305 0.85060132025420243 -0.21815073272434715
0.11931678039000837 0.37512176395441132 0.34340964913157168
0.25834464656835254 -0.20478024977815545 0.6404946238367959
0.20911697466206536 -0.17802242203429763 0.66416482911391916
0.18152002482636931 0.48946516162945342 0.14409551599669657
-0.32672203625807494 -0.35700593246225765 0.24982612569867918
-0.51075563393121737 -0.48129747163106096 0.062098795104189919
0.046644354107128194 0.28936361777713548 0.4839240221830543
0.081632239630596182 0.3350638552556342 0.41782502830783497
0.25500468330073511 0.99827007136803969 -0.30980352362920371
-0.19798951787937469 0.051024496143800668 0.53754375192566506
-0.14897681038071431 0.1474923254105085 0.53286387158208193
0.10318306928727039 0.17647756875329446 0.49042497605177038
-0.61397478953608919 -0.57827703503305106 -0.29302375901157118
-0.13216945749501896 0.088715665389024867 0.6253362075350517
0.058550940118769823 0.28640618492772285 0.44454164915152561
-0.75797454928990105 -0.75718845835108661 -0.29661103150481649
0.081778879966405427 0.20729195939485923 0.50189363463834846
0.22870482884955212 -0.22811348759108085 0.65673158098599971
-0.18039318548148575 0.036672413000736093 0.578579841595811
0.19325882582513443 -0.15971705828159077 0.66921396052974391
-0.1817990900965496 0.076641431380125802 0.33657348736114123
0.036827939054567382 -0.05090578334192486 0.69070904455257831
0.085138895176954277 0.12779505184121298 0.54723521038971068
-0.39446905989753533 -0.39745928461499958 0.15720479990626474
-0.43808763733199108 -0.37927537016491986 0.12996678298159103
-0.045775498418203941 0.1767505103922753 0.56603252488126499
-0.17494525255103399 0.12747695953023097 0.49625540225567888
0.18405801371863295 -0.23076880654216758 0.59357156655228915
0.03098668229914292 0.020999266750555634 0.3585041670402298
-0.57192544512942778 -0.53761545415054002 -0.19139773243900282
0.08077387091487731 0.36268264178243159 0.36977982147583999
-0.12711462959947939 0.15134237123529415 0.53170436781629493
0.15145353424261132 -0.12673350439118103 0.65596077649552897
0.15867049317604964 0.24061943930976648 0.38245585562336271
0.28761127315398305 0.72944256869529722 -0.13093654976044095
0.093307650075590498 -0.096315925304377714 0.61198753204568856
0.13255233274162515 -0.13499938051988769 0.66275669869377063
0.12661795656793684 -0.13095588487347998 0.686238304640715
-0.40820251806973129 -0.29017177820058837 -0.054907638570074524
-0.51949512986847601 -0.4740506594908318 -0.11401798739793106
-0.20209880418127435 -0.12413167204278608 0.48237536215507926
-0.10679686319789328 0.25369956996693066 -0.015075379702277736
-0.056657098256241323 0.23030338802779671 0.52714658583157714
0.11935545165573025 0.2071021733252012 0.4430422658795099
0.014744856961048214 -0.17806819183555245 0.52540619473888084
0.19078446043667041 0.66968255920154984 0.00093501010753460623
-0.58795281256085863 -0.51693379432506514 -0.3054864953797598
0.10780718690305324 0.25880492289103341 0.2101568039949307
0.066351217009304797 -0.024868814932129446 0.57056475832087605
-0.15724980485143325 0.070238853685049119 0.55649117981258933
-0.18421974505883787 0.01632640303291133 0.58992105813992757
0.15616117152315478 0.24063363067123422 0.2732947717491363
0.060783468117561412 -0.12533473916496085 0.58735028777831211
0.28805605818980107 0.76305180548982765 -0.15823014153425291
-0.026356178112370454 -0.032821145137873486 0.66806116191720089
0.042267483595425759 -0.080369625563058378 0.67855919029749323
0.23888876066423359 -0.18103264745277503 0.6653731568143072
-0.036998047698618031 0.050948970327533871 0.62251030080044412
0.10356609957866603 0.47252236490150779 0.24304335525039522
-0.72167938786897157 -0.70955695648325756 -0.37855117659433379
-0.19501476841516441 -0.036557504168907684 0.59241347998955518
-0.67303265951267743 -0.67345941139204069 -0.24316422510798508
0.12845202197457617 0.30326741506613564 0.36717129719027419
-0.062082676834818162 -0.088871799627545656 0.63553834109829543
-0.08733092300220191 0.069583800826308551 0.64193198200705526
0.093856274075531099 -0.13551284824209642 0.58125765583291078
-0.40589954536315709 -0.27356773196908879 -0.20646289116326766
0.025209895812578598 0.27192149929859832 0.51083651785403805
-0.57489024799175859 -0.54822355857665972 -0.036656793026439427
-0.0051214550100699974 -0.084345034207855996 0.6739682525294679
-0.63440993677872148 -0.60433562956436937 -0.31364988162878549
-0.18333678721098101 -0.21110699307626923 0.17790133008222747
0.062984602170643278 -0.20317289737163113 0.54740984809816762
0.12678450741137448 0.25103073105787699 0.39679195718563198
0.13247275504483658 -0.1391143503058232 0.6564512265202711
0.04786732796283788 0.23932638697980746 0.49992290708832943
-0.13037012338392318 0.097361497085831417 0.615671935775427
0.085930447579445568 0.1252441437963574 0.54712697842090552
-0.16550790640227087 0.019238613614300348 0.59784299597305535
-0.23609551451592203 0.017095105626517615 0.38484073049919387
0.17738608883116247 0.39559350388285353 0.22643424510476151
-0.4554893775246418 -0.50165645483332799 -0.0019784471542285686
0.096353715246341842 0.37950777400178159 0.35161854988346863
-0.065579312041653459 -0.19520538684031141 0.5112884130072276
-0.33633786351857475 -0.1639904515093189 0.010187543545133682
-0.03201891878372054 0.17170719556443803 0.56878389320573397
-0.070088292081967651 -0.17445514696119524 0.52734479847438098
0.21337862500571791 0.75127306578690112 -0.11096232341024348
0.0052413150568129119 0.058215773822356986 0.26801512011995909
0.29482864929565111 0.70811663857947948 -0.11704473285486583
0.20446936259666249 -0.17579019081700809 0.66458618494879362
0.11962306418272073 -0.13575990703904894 0.60505284991941122
0.10852445038005376 0.10916064513742629 0.38354628447800021
0.0037652823219191944 -0.06120814018978038 0.68730772537505702
0.071048743055062591 -0.020030062571523288 0.52555854317711048
0.22691759686113588 0.98434549081562839 -0.37839106047788224
0.082327820092889858 0.14354809881002151 0.54109390204807029
0.24510218912903969 1.0464014470121477 -0.41217038780680626
0.12372771011158967 0.22040340896274069 0.43061269816969983
-0.14858789798326555 0.093786888275064317 0.54713708057582844
0.12850587552086346 0.69156380503732473 -0.040236403749447702
0.12766789608050688 0.28506613994842223 0.38079465790560663
0.061951246943533711 -0.038081624393012881 0.57728793482733076
0.053262151963173521 -0.037982121013005354 0.65820482110486622
0.32016937933021272 0.71577052547803 -0.1380646189602639
-0.54632079306274139 -0.47741880038266782 -0.22772857058645513
-0.011832076602244612 -0.17762997244749901 0.54639259075553159
0.29091038882476505 -0.21377345977040774 0.68524433608531909
0.048799508778902823 -0.19728203452732718 0.58128817958196799
-0.19097318332142388 0.0431710235695415 0.55365574684862806
-0.65518719982540174 -0.61782160303408595 -0.4095137910724429
0.096598604843849634 -0.12418799046555895 0.658257354273311
-0.18155497017126576 0.05744180497075968 0.55302452949297121
-0.50482334024128894 -0.46814121482530435 -0.15547754125916646
0.15801007527455013 -0.15208161364779027 0.64215591519045123
-0.17411018538630785 0.094016708838846164 0.53226558249461664
-0.7331151765284174 -0.72794660178545278 -0.39254299793485758
0.15100528787346312 -0.14255415702835972 0.66956316151945883
-0.4566119922245675 -0.408842572106626 0.090246526869726729
0.15766428598760163 0.54154491006992878 0.13486067843842808
0.10620561576533039 0.5378500337765999 0.17767698333611515
0.29818010309338616 0.77958483457581229 -0.17655498639543221
0.12105792696244322 -0.10100280260353678 0.64296402507731654
-0.064345249615426425 0.12329957351362175 0.61209888212525854
0.11300998127034068 0.15848448324154329 0.48730542679537836
0.073098374228295349 0.23111081303713377 0.49765596007503232
0.25020741246868639 0.61016302451448201 -0.017221167739165377
0.086275301369085122 0.32248261623202357 0.41909544709439084
-0.45646594010313768 -0.4125172825115051 0.10518577054951034
-0.028679346922944049 -0.19166593668253551 0.5354574114200269
-0.1127723337209825 -0.011623866764987056 0.63628684464037644
0.18547441441269474 -0.16775076193619842 0.65999148944157404
-0.12352626650215637 -0.090640774966423088 0.54898970596499308
-0.18162132634507877 -0.0036976563037525167 0.57182231193551813
-0.69628247928768561 -0.69090736908443162 -0.19724857833749943
-0.19847141798220624 -0.31994181204588301 0.30381892749717015
-0.6315017513685488 -0.60339746023743146 -0.29350897456116865
0.20352888567003613 -0.17749486190330588 0.6503416914948249
0.061555655133439302 0.24740322492390687 0.48670595750670387
-0.090792518541468858 0.10252671394287294 0.0066116050993719755
0.098183524342373207 0.094674589751157612 0.54549686916531392
-0.042911566849999083 -0.057162058360963108 0.6564947600279003
-0.5825148792578938 -0.56152494024690824 -0.02071772189398674
-0.011414896269551278 -0.034123119705356864 0.69040977681261406
-0.077667323857764092 0.18860055524905883 0.54859872108692131
-0.17460287192901491 0.078171714403619585 0.53872338342836956
0.15535725753582863 0.25044162486207178 0.26958331261593638
-0.13613083677416205 -0.077738628528003062 0.56182077130046992
-0.37420094172425777 -0.23055424746411202 -0.024678471921102063
-0.43876447732529789 -0.33712405402040257 -0.09448136099882487
-0.047864875442352073 0.18207873759453985 0.56035159185024019
0.043083197590832789 0.14875352326525704 0.54529247183681595
0.18256208258442541 0.41944624613459602 0.13920011910887967
0.16352017027463428 0.41364382249171339 0.24406989791628353
-0.20507890358635761 -0.001806382743111179 0.57355515691999637
-0.73226566557996753 -0.72605779687311811 -0.22865892410589916
-0.056701060732390118 0.26102166058499421 0.51399613828162194
0.096836335121632588 0.21331092665832374 0.47701106247572456
-0.060833243347323318 -0.13245526348031378 0.56998191378811236
0.062708966303866021 -0.050775054474794246 0.66724992068123334
-0.13259727505576846 0.12132258492903114 0.55054523509482489
0.095890077836460419 0.26532424152782497 0.44002738940426978
-0.60939447751089881 -0.61448312289987594 -0.11463285778727317
0.10045454825270617 0.22080884921442712 0.4643727040566481
-0.11934437954665222 0.024977337836719293 0.63771420800649714
0.099280097060030714 0.12005118936154258 0.52487351393885051
-0.12346786861618986 0.13949075737362504 0.55506606138197379
-0.44452118754497549 -0.37578355041834222 0.044353309686265163
0.087631383570271559 0.050772447842815538 0.57773601779862649
0.12221459151775638 0.27499754463672099 0.39321147893243014
-0.46962534558941549 -0.37032134702170882 -0.14122907186264588
0.11736924209197697 0.18980765118755771 0.4578846154166285
0.10327272084565964 0.12813486642977079 0.31986125732536397
0.1453512617615178 0.49518969964615378 0.21643682240854811
-0.084250521394167777 -0.1273372708925482 0.58632801623101771
-0.20085796410797307 0.13405601244634013 -0.28841815623104328
-0.80629789967445786 -0.81714567243759495 -0.4624204976127757
0.30666286457215763 0.80907766483288635 -0.20224141128516088
0.062074087418269031 -0.054366630241979408 0.6831652454507271
-0.18985435857742505 -0.015488773967628156 0.55721174565387321
0.019463570465113822 -0.049496013910626857 0.69429477331327338
-0.75342230437997237 -0.75107835744768803 -0.26925260796123307
0.17557407949008086 -0.23854482818045541 0.59754239476110227
-0.16724830903905596 0.039754065590934751 0.57965709247674146
0.11780153867950793 -0.12356242058236955 0.68618202707554921
-0.16993881731419869 0.037807377002754272 0.5824313713704582
-0.062209894372599717 0.15782251298974259 0.59233359265269636
-0.17586254673985691 0.033199378218256026 0.58614793821024125
0.08364531230154304 -0.0019294545699013455 0.55582796838067061
0.13725261450175141 0.51982378025229758 0.21668043183994323
0.17328707685645917 0.38261922011461635 0.252299194117801
0.17632397241347353 0.33371973437963742 0.28490833635947954
0.035307285859102588 0.31048947224575008 0.42698821114681473
-0.20720955492027615 -0.080397036366649743 0.55422374275655995
-0.13350088986098463 -0.01705338304407622 0.62694902602717106
-0.17686015674093536 0.053744021654488883 0.56595339637368558
0.12757181978496002 0.21999811648457035 0.42808977488594058
-0.71113681574903431 -0.69565226525894186 -0.38628223181526
0.071098168093489233 0.12176427084944619 0.56032289181839212
0.022389654655883273 -0.11060750635163963 0.6433306405385405
0.15240768902743884 0.32889383076093015 0.20516618776394155
-0.03631107272535461 0.22838329736196217 0.48376669460710553
0.29712982448081693 0.79447728302466114 -0.18553334992162396
0.29754357373930218 0.47364664226048969 0.074341568699892752
-0.063064251107698421 -0.067210174526299404 0.63141037029426639
0.071641274050613601 0.33788292469628711 0.43036701517113707
-0.066839798323199862 0.24594887270857768 0.5178144527673223
-0.097616475564469507 0.18478011765534808 0.53455377047139918
-0.51722200840922827 -0.47787239547346427 -0.095627376625280869
0.23267747997400812 0.22541029283895497 0.26460404227574325
-0.41648955787507314 -0.40169967516428606 -0.10365844115828154
-0.28199875982144063 -0.064142577705359471 0.41061890764825043
-0.52415632987676641 -0.43975638706097708 -0.21551881461176514
-0.6426610938123023 -0.61087736483109456 -0.3403618526512
0.020641177040318315 0.28354574808169986 0.47473307031633027
0.064150969769855459 0.11736817675343847 0.55983559271386674
-0.45655137102984034 -0.48806467883401172 -0.056863079879892031
0.15321969508050559 0.28865603075046575 0.21730514676653737
0.30798459313430193 -0.22655649501365671 0.67721943156116371
0.12852499708933784 0.49658059355599882 0.27242416180606954
-0.46873554780403692 -0.48982777908288888 -0.068634228656193119
0.24438733167212079 -0.18203093897643674 0.67640775834310274
0.12746128953124791 0.56258483451504659 0.22643504350577282
0.080320112889469275 0.31492530422387688 0.42193982843498568
-0.032948601357018159 0.13479946721278857 0.58463122612729002
0.065877514532388659 -0.038287749527026627 0.62457447834475943
-0.11158306965337772 0.16631643151145425 0.53575430611876595
0.19679972544776625 -0.16728007780536691 0.67066091109523573
0.064096311047614263 -0.061924436855275822 0.68078661998864465
-0.098034210578153314 0.31616875663999533 -0.32849141954014371
-0.066351264879978888 0.13431597240420556 0.61962253741679429
-0.43581272682173999 -0.3420641244622411 -0.037674637510299092
-0.53316603916636085 -0.49712667040618364 -0.17793209015335831
-0.52842810754947989 -0.49115485482992227 0.032503468706503558
0.28816485849701645 0.64816778017820509 -0.064206832789727941
0.15324499113292367 0.35726083876940073 0.18729013656660681
-0.079271413247883338 0.030509462011799826 0.60474546329132273
0.082866080162987021 0.38978214087320362 0.40117051752838895
-0.27776168741093343 -0.081053556405655591 0.26589708395202183
0.1057951891102058 0.30610046694520854 0.39669974971414157
0.06475583666605722 -0.1791453118475097 0.59366176186229846
-0.16473899338720877 0.11663143469943771 0.53333575458527316
-0.082018234761401576 -0.16560753501404335 0.53483706467718184
0.25069272056483172 0.78839491359807123 -0.15083235600693334
0.15498350952224627 0.3473313002913665 0.18886875443608075
-0.48943724459324667 -0.46252123204703821 0.077820113027583293
0.27836759396156663 0.44913371067231811 0.087909974931530632
0.11987776830032448 0.12167191975366087 0.5083416446330411
0.21348282030678822 0.62000838110848022 -0.0019358294559629341
0.026953788490476693 0.40842344781516227 0.39249866504038788
-0.5273801501245905 -0.50306620844984451 -0.079066646168571342
-0.12809622272914911 0.19112510455389931 0.51175697468048087
0.043049331374187982 0.12710359903868529 0.56142815672888424
0.060411975595583423 -0.044611703234223476 0.67025877053184346
0.16906204480734788 0.4038810592624662 0.13500588542455152
0.21537170433774255 0.97873951282003535 -0.39526288601068982
-0.064025069582432259 -0.076836250901583192 0.63140776511216978
0.23685970022587322 0.6897456380545921 -0.06602090335755606
0.022163413985348601 -0.1206821152201174 0.56495915550045051
-0.097002928457138982 -0.052944266884862756 0.60895806449720669
-0.45962999558070372 -0.41287998136037452 0.079757586731609542
0.30457568196064466 -0.22358451432822157 0.68039980544526113
-0.042998046411584667 0.14047550301267453 0.58775818790024814
-0.4288441562644385 -0.3670174330610303 0.15191559827424655
-0.29001525528662508 -0.11444521213135062 0.44067921250361808
0.21914567462745915 -0.18045995346239474 0.66438625920029803
0.21111287198994022 0.38796007359713425 0.16138922297352992
0.099895840203474862 0.3978501750592911 0.33124591066788256
-0.11405643302019941 0.07330209399299159 0.65484763301715676
0.089315486741452954 0.098288082413265698 0.54988243838525686
0.0015879561672438314 0.26972694176974965 0.5250030644324255
-0.48316076049369716 -0.37589876860133664 -0.20426124581327421
-0.45876360241982672 -0.48565946752788669 0.0038170643092660383
-0.12079292192025548 0.083337124353464631 0.64586745002033097
-0.075661650074496212 0.15649455595843076 0.61209687452426387
0.04931965308543873 0.34141253990587339 0.37983220124012118
-0.75406447984079872 -0.75979183614906809 -0.35286683473810843
0.011404581244568668 0.24655235811931542 0.52849834455620914
-0.17082915628837902 0.053802727327004085 0.52262355863320442
-0.043578575267195108 -0.13303898227261701 0.55444190088478995
-0.61941964285605566 -0.60934249403826612 -0.1778601149775062
-0.28195443213699445 -0.39611418527639408 0.23976895657894665
0.20630128329783304 0.65248490423328143 -0.046532907540895674
0.18233966762973797 0.45811101100770202 0.16745551677115089
0.22098859242371116 0.64715260196737523 -0.025305819447773936
0.061908871394594778 -0.06845956384317553 0.67542206203816779
0.063952378182130953 -0.035331174733367554 0.59272789781244883
-0.10956277530831571 0.18349690460966084 0.5293195439063404
0.19345923473495308 -0.24980614602821927 0.62157100501333451
0.10387697989804545 0.098288613746754905 0.38128818822974225
0.12440113418713383 0.13608249155789842 0.48330319914563347
0.12746397154587141 -0.21466391676202434 0.61334792524960913
0.17404212137694719 0.49877165464083539 0.14804728629310815
-0.46219615414663018 -0.40052788762150371 -0.0081092215629832709
-0.091245714835686442 0.17611998283313079 0.55466478249955953
0.0081968646580232729 0.4213084039472017 0.43502666512988997
0.22191247217250587 -0.18507374273674193 0.62633039369661581
-0.067005303434759078 0.12334039973318323 0.62221975079481584
-0.052408679158146398 0.21422852018441585 0.54504167178377216
-0.75153474539977916 -0.75909145873593076 -0.37570214713716066
-0.11320547624144384 0.062479275641812215 0.65699233718349948
0.18825712743473488 0.28070857693978546 0.24620372346794156
-0.74290216454647551 -0.75781372926223822 -0.30700685177574738
0.03875467581298464 0.12963638312805426 0.56213035421451341
0.061837841783485059 0.18880640609619892 0.53313331509075867
0.074178244920336311 0.06523721997018761 0.54843299242181121
-0.71609910580511293 -0.7073700894857784 -0.38782488514684821
0.27751102963166852 0.73903120840019421 -0.13369816476672258
0.085167620693139323 -0.15845689530253626 0.60509347137206848
0.1581260145859622 -0.14289230556252352 0.64866237081442479
0.06055893280086444 0.25607694771255796 0.47830963584275321
-0.46081604984886493 -0.39314180799415066 -0.025071280832731691
0.12664097030757615 0.15358957958362396 0.3667142400279671
-0.080354376395121108 -0.20568625400204432 0.49529600098638649
0.019578784901122415 0.29020871912622326 0.42615498783101369
-0.00098420207537630588 0.36912085510307202 0.34430180274575195
0.061914246439596088 0.16689892865500289 0.54574194432418066
-0.066704466660453487 -0.18912019656906764 0.52024254397484837
0.0094859876820865274 -0.027770967032996197 0.65879401539773119
0.18256364086122523 -0.15380099498609701 0.64276204546864157
0.11171620125269022 -0.14197800652122261 0.58568213498349964
-0.63060499550467464 -0.63963646236465443 -0.18543012839529527
0.14826614675681915 -0.1377133618685229 0.68716058180509032
-0.59818907406190069 -0.58148379784143689 -0.17025912717314762
0.17492030996751629 0.23247921426799145 0.2909320424945519
0.03046745136622464 0.1539483453835464 0.55144944264007867
0.17964353135122835 0.48020609314054497 0.11062677928123127
-0.026640244135438085 -0.022647595439901025 0.66575480354682737
0.26250118072319983 1.0481015553189894 -0.37048251581562208
0.22483662460188425 0.45579813206303399 0.10771173485363453
0.017014714216077698 -0.10645294198609001 0.66337166758770449
0.12000262259158667 0.1292739035177588 0.3839043473512791
-0.065142741891893063 0.19966591043896553 0.53263194981093764
0.19485064461074231 0.36025762348604129 0.18369999466789555
-0.020372218277399323 0.0030063885717535044 0.64919305577877995
0.0031394990367630271 0.10247391136573114 0.58431551088513167
0.14880644125018327 -0.15571459933915133 0.64089392658436817
0.067053568361391536 0.29781048492201379 0.45393757953914071
-0.12214157173829232 -0.033734361606692076 0.6222396444677174
-0.34227104539992403 -0.4422252441557939 0.16292073550915703
0.042718737971510823 0.15753939239346559 0.54057075446763847
0.13936007870103495 0.50341442047401408 0.23231386165138779
0.31098098391013562 0.58472931876159828 -0.025274363129217492
-0.13327261287913394 -0.25100399237743609 0.43609160736404423
-0.073226534122133202 0.18029000512521565 0.56522149043391379
0.0044308825767758186 -0.036021616316455507 0.69004658067559288
-0.694350314051984 -0.68774968954517535 -0.31957637849426523
-0.51484472658711589 -0.47880593925469128 0.040489852543131144
0.14021605958087147 0.14054298475914972 0.32824717169579398
-0.25698650620493391 -0.11795007562531801 0.47297733318657875
-0.20271280350954157 -0.099781386000569405 0.51708240661409621
0.044086881689799462 0.10524924001255709 0.57221794893628608
-0.29760878801442292 -0.21513156185985949 0.35468067947753268
-0.35425835413258744 -0.20764526192267319 0.11926543504469408
-0.12063597250886549 0.13534870506294672 0.55076219458529507
-0.06653024610420788 0.20117646935047961 0.54561783134416464
-0.10707864604707007 -0.042544812371500207 0.61824389732721274
0.25641204023377373 1.013275343862365 -0.33970524361313048
-0.19512198757913923 0.023755601868751253 0.56795253567020376
-0.059174726839251068 0.30834590394079786 0.46767738155524086
0.03539958735058879 -0.024647152431157338 0.66730861484512138
-0.55476879774930721 -0.53828443256926306 -0.043814606882159657
-0.7715039132472139 -0.77019141439084748 -0.3319554397536324
0.18889951507231784 -0.16416563238631143 0.66824209334958729
0.079964603775186216 0.21965270776574597 0.49646322500409057
-0.15027646969855146 -0.0024212637791345415 0.62137584980114036
0.082574869940834628 0.34488750885007002 0.41177951577222993
-0.45675080395773904 -0.35663559939859546 -0.15934347888925671
0.070088015903480017 -0.10938818539082629 0.59326277192961663
-0.36024174531589104 -0.24207470762091265 0.25907501509076691
-0.074537879512914795 0.051121897198626698 0.63180310534028084
0.062058636820343738 -0.078287615665993293 0.67512250312309763
0.18526661431411018 0.25395419733946056 0.27010222636086278
-0.60805259971436332 -0.53726356325782731 -0.33623196666748223
0.04671064638536615 0.21252315818103185 0.50970003027340183
-0.57620305208109768 -0.5649409735096862 -0.073620578186788466
0.2260336561027747 -0.17541995389912746 0.65674776444249283
-0.55148607562352669 -0.45386701511084127 -0.3217002036613863
0.066677140960152315 0.36673311323582869 0.43771433729262599
0.1734375407504456 0.55086320897868823 0.018480026722375864
-0.54256086150661931 -0.51987323670513863 -0.10027299718233385
-0.10658833721827099 0.2080767166675983 0.5267218876237918
0.11125548561637677 0.36998198338695731 0.35767160067315762
-0.27271211389385153 -0.0083057556123442566 -0.2767224661084518
0.23411181893907718 -0.24755548899198088 0.6179748603750751
-0.043202038865784331 0.10867487501212114 0.59914506011808921
0.011063295377542914 0.39965180426770175 -0.13294655905235203
0.01695303725343833 -0.08543522217042554 0.67897791299013988
-0.12368202107609516 -0.080519187056085961 0.55637825334993551
0.2609459187240688 1.0306863357833538 -0.33636729157637535
-0.53936496599401185 -0.50500328289987895 0.013701604627028741
-0.15915909394308159 -0.15650211546526638 0.48590759680291362
0.026106519185983057 0.16472362854399236 0.5478392764858584
-0.10033892599898708 -0.099175838842954001 0.57395986298144419
0.16739600989901682 0.23561027341377017 0.27987668376773545
-0.13587000357392309 0.070260713557569687 0.63357495527089691
0.046645168838526541 -0.056161271253722944 0.68966077932434644
0.04308294235122867 0.22557479277187786 0.51005976925032059
0.043051492570657324 0.17750023245566737 0.52976510879500549
0.23166392597213692 0.38845863571605488 0.15268359162957126
0.13859670448940209 0.2747320222829992 0.37549617022825865
0.063763109939777296 0.096784365553300056 0.56822141757287736
0.18045243493968988 0.60885783655155246 0.056244266140594967
0.23629265952511358 0.3082196265018764 0.22223225476686345
-0.13683691044703572 0.21089831179474139 -0.068448223747891029
0.16407784925261382 0.6352585387023697 0.064856426155311175
-0.15900571971443211 0.07477510942186516 0.55256022233276603
0.32318186899431467 0.71300986706255909 -0.13106389653223305
0.0032055411770128828 -0.20381727492504442 0.5503800743205205
0.10021850894062778 0.11661756487185571 0.52776527511792426
0.074470780422941862 0.26023134517583513 0.47663438042595474
0.024501430642306143 -0.098360690179412735 0.67861451433451581
-0.025112757643430683 -0.1328288964468447 0.54147049181571105
-0.63393666765773071 -0.62734683467417263 -0.096489423980959776
0.11704972083197873 0.02408528283292366 0.55286530101618392
0.10654418334249049 0.47210662426493144 0.2715318262498484
-0.011908739372949118 0.2772796310662633 -0.025959080170479876
-0.65760256352194002 -0.65068101624253938 -0.15231201750510337
-0.097876355699619833 0.044180289128327388 0.63270038855160859
-0.42138017634928682 -0.3229241110001233 0.018238164149612712
0.0074069783518284638 0.41284873092766938 0.33837401711132831
-0.0069497240527591764 0.38212723099511292 0.34133207800933774
0.15954199019425186 0.39588334859307572 0.26342287099693817
-0.077203486054679971 0.091371274206214714 0.64078746441446977
0.025121530141221093 0.095114262357609114 0.58178627733551613
-0.072208104132942541 0.20862626947936214 0.538492708251887
0.19604027208475427 0.25501886367420479 0.27302227155621162
-0.22760963004881862 -0.3198985781490391 0.22287930408725276
-0.016839011965299466 -0.029353040918013384 0.68337102795336702
0.26583156914487827 0.83499844941448798 -0.20301313782069053
0.053105274175427652 -0.056510062998490262 0.68787977736726402
-0.62407530506227271 -0.58814214375594176 -0.31692071963919632
0.074704526500528612 0.13993558664209171 0.5508759655364206
-0.13248507331369108 0.012087626805364238 0.63217055742887729
-0.052684351560931653 -0.067060224504484012 0.64465503020951997
0.075886181258686403 0.12371251104161152 0.55816322007365304
0.081300742634453194 0.4409879686534719 -0.017999224412262885
0.20629698315195188 0.59294956284727984 0.020726098053041042
-0.21925855488382062 -0.050024872877077797 0.57203072328435811
0.064074937064101611 -0.05067292778212007 0.6763196920327309
0.26725830116735727 0.3999053004227946 0.12956701945951554
0.051059136414655981 0.2809098500450764 0.47797231522143846
0.089315996883742255 -0.0055819965565033769 0.57461063266883994
0.1665970020198011 0.47779530804196346 0.18268579301871046
0.21581317534009137 -0.23642794563083847 0.64681681895389764
-0.1415191303249137 -0.11600588017595914 0.52326078277646604
0.13400032018415775 0.57864448290466353 0.23325432634620591
-0.50592754020041841 -0.47091411234851055 0.071975861985777823
0.019746975853852433 -0.033766955920012443 0.67696978354609294
-0.64034163824715895 -0.58513927328191384 -0.35411812977744905
-0.17709486583132605 0.060651765866502227 0.55754053876606091
-0.66566871887051571 -0.62036734678251015 -0.36645637970157041
0.22201493359261071 -0.18055506669698662 0.65819858773821149
0.03496872455652511 -0.033370099233366091 0.67893874721478387
0.13014115127899717 0.29085833490745072 0.37359691892150537
-0.6624505225497086 -0.6462287761030181 -0.29614083088179699
-0.20028354539218896 0.028683940281265752 0.55454244355485915
0.19197901675373163 0.95283087322215732 -0.45501624721021416
0.10045373389484658 -0.12584340282996687 0.6207286660594078
0.00842431935012522 0.034977241070106579 0.6213809034830784
-0.45235090412984791 -0.40302761962084688 0.10374483226673398
-0.037805875125563659 -0.18886873136269688 0.51700778817497395
-0.081670222006049897 -0.22246899574319556 0.44758632406879284
-0.031145726689148834 0.23251944587837947 0.53741837201201259
-0.57495927926077472 -0.5644811491375501 -0.081867588848149486
0.038029798915745205 -0.030321395635498405 0.67465828278384055
0.25696428996332377 0.28910230249532543 0.23478987689091027
-0.098034805084993071 0.15385638497423537 0.58675640225258818
0.05635728073893409 -0.17926281127229649 0.53759453469935037
-0.24154524544282951 0.052906270886730056 -0.27015853995253863
0.16246562969763723 0.2130551433618999 0.30868001740530887
-0.017226655634651866 -0.026069929518083512 0.66976610617830445
-0.0037447816643410015 0.2574713626668359 0.53735493332705042
-0.75238303889373714 -0.76741613642661566 -0.32993942100666496
-0.053791756321443174 0.0049549456409900827 0.65523847607080599
0.2939267905826084 0.48526130606598317 0.054430906494963655
0.072878975442900007 -0.11869224763317909 0.66679552981863299
0.047590213516798041 0.12337469460267858 0.55633792629855172
-0.19913534337933037 0.12732540666995718 -0.22518544322600798
-0.083963167185848508 0.18217126342603862 0.55083591335829518
-0.30786316753564913 -0.079335176573571253 -0.23019353653688041
