# XYZ point cloud file
0.412112520276537 -0.1680795825625232 0.33564311499523569
-0.25181225981402378 0.59803097957143336 0.74473082549365444
0.2631862951304953 0.79376205132501099 -0.18202878384123977
-0.5046116539929244 -0.15354675988734812 0.02349940897126146
-0.60123461690002955 -0.62426623950642224 -0.18550416854303364
-0.45847045216265769 -0.14699875778925886 0.77884543728547584
0.21707717893150402 0.86013691894964595 -0.23523590987770149
0.29020469780121516 0.66787600146259862 -0.14652605200841862
-0.56515690318158818 -0.23769354654060493 0.6876962027841671
-0.53802470871529806 0.009057066982546047 0.023328213553618582
-0.21906307607635256 0.71577528929790901 0.68682305619872608
-0.46663967701436349 -0.007118119337267359 0.80566106704224438
0.42297264580697203 1.1474358472126838 -0.42916417648959992
-0.10275235980711273 0.46933501602394401 0.73069532035997042
-0.56808045606717883 -0.61233891535470875 -0.046717552518884986
-0.1330325410515627 0.37648259307171728 0.72479489567587052
-0.65432167172133404 -0.70822404346844792 -0.25703117980346946
0.18608251345615656 0.0625259553483275 0.69936536192147258
-0.4076284537254935 0.18278962300641766 0.12856810387847162
0.32036501566382469 0.67789555138983459 -0.31082742481692804
0.65508646515650071 -0.52803440542101754 0.58778520109480326
0.40498898467978961 1.059656430752085 -0.38558163971669757
0.064995358334613229 -0.41654467843089549 0.1325538995005715
0.66465464777456162 -0.40948527921347377 0.68518269088136918
-0.049084937513832472 0.67729179104010129 0.68794065028573925
0.18428457221041583 -0.13833088831036022 0.76876775049781543
0.3275636612506645 0.65774191100688029 -0.307900364330429
0.0037903869282871483 -0.095400379995375317 0.77763258689548564
0.30072839056798273 1.0146025881415532 -0.3444297197987396
-0.016883639844479603 0.12020558867391884 -0.50367599846219946
-0.062087903027531866 0.55501306052530097 0.71442236389506775
-0.022249767208890603 0.55376221971538087 0.69919528923936269
-0.48202347093223352 -0.30185360060550792 0.64488825516509252
-0.60470815624391605 -0.64857048847686372 -0.17593589826488198
0.87017482261856571 -0.36850097333779885 0.61689933403295782
-0.059297938998810196 0.32371273085225027 0.78526620424344884
0.040258175120470696 0.57264962312169843 0.66328380628034012
-0.029664987267395304 0.30538418325827266 0.78469031673094491
0.27377894846134154 -0.40436799838624182 0.34021404667407751
0.28148604181468784 0.037342791038945222 0.52741315303314451
0.019185486465048029 0.23291760335698442 0.74748915884026701
-0.085317973977282691 0.42822578900888786 0.77612847334316371
-0.70720809079691804 -0.91507046077413179 -0.45820246829534739
0.73102036764260703 -0.4018872195690939 0.65592718333598299
-0.44182758328535954 -0.30836711495854985 0.63120792493744915
-0.6229272300991866 -0.35352169932662036 0.62477436677327347
-0.35633226526196893 0.12962757180360285 0.77077531548678735
0.43218228925036328 -0.43878272762242787 0.35394279370472503
-0.43554835998038754 -0.28277003756362262 0.69881580635826879
-0.45938383457458087 -0.39078913638117996 -0.53007295104765006
-0.39743783351171658 0.14212386722263659 0.76645032919817169
0.63273740225509556 -0.54728317702862128 0.5443921221765109
0.22031985677480748 -0.086067812505095986 0.76449844221604479
-0.53520108897693319 -0.46399456370521364 0.46358185087903792
0.23745021925597598 0.49207505361367865 0.57085352670844713
0.54219644853637305 -0.51440102698710177 0.63459617321028361
0.36449070684294327 0.45722860524900355 -0.071591983673428672
0.011720199290934374 -0.16595914362054032 0.76290209787936902
0.054668660573042871 0.56076101833147263 0.65862344782195237
0.15812092067874062 -0.076246932631200082 0.78935475161585344
0.039021766742365571 -0.40748289746014521 0.27893910223871643
0.72401504275826767 -0.31834773865822896 0.6631720419893341
0.054713190891959584 -0.35242591616140473 0.62848652579547348
0.28485092314197402 0.49563297638774273 0.49692677566665822
-0.26187816024837218 -0.12083744712787947 0.75655976098055788
0.50705455919135289 -0.42176687173053296 0.68932219946219675
0.33034348207309705 1.2057894879177837 -0.44355672271350954
-0.040290321702087795 0.33202769255270681 0.78683159828290883
-0.085694051626632017 0.20042976918693967 0.75127844175800362
0.62060278710298178 -0.40301689849246358 0.66736915251452444
-0.64609421274298029 -0.6972728932262271 -0.24375983783552613
0.40202185273836477 -0.49815891678843016 0.6336975167375769
0.38841375300435743 -0.54482137815428544 0.43534326832462966
0.6840943175440799 -0.411085176131607 0.68124246082724227
-0.40608326008336348 0.096663718863357673 0.75638391293266238
-0.4244670202028118 0.071182786576024171 0.77108958996556964
-0.58051789735483794 -0.55845261612864761 -0.13119639722740573
-0.70280244582176721 -0.83522156561756944 -0.40128713223154477
-0.54102527896503716 -0.21040956126913812 0.70734444400609675
0.038556227463828918 1.050782122327913 -0.0048565870983310333
0.28959052968284027 0.93714782730606672 -0.30579763999951126
-0.71484313151610479 -0.80207659391606612 -0.36487096872578206
-0.61316039988022908 -0.61473164101753852 -0.18989850988652535
-0.73467960915642294 -0.8512097232746143 -0.33044150618766821
0.064284026088841983 0.37405938023182017 0.75353170012253656
0.30819950344043434 -0.30480062179837475 0.21303150145145366
0.019808073652313851 1.1099985580469571 -0.18334102578271683
-0.16411453644741414 0.49108877211604351 0.73982208295961271
0.33276696129861705 -0.1048347339054807 0.71011950905219123
-0.42144007964736829 -0.18274889595097221 0.31366409273828566
-0.35223676242220847 0.10662074376153896 0.7724497144626028
-0.058668378600131632 -0.33415514714238981 0.48885557182885719
0.54235453166567993 -0.46192347480053542 0.66992912368576896
0.56888467874499327 -0.17097837841093977 0.4345558611803213
0.65537596130120335 -0.21268970406893217 0.42192572176875842
0.056016335717984589 -0.21256643094995198 -0.3570469463493211
0.3133884609429316 0.69810568204373524 -0.31138389929740384
0.72662570110281877 -0.25044853855238358 0.67709695731151953
-0.68881502688395813 -0.81524006583009268 -0.37919492874685545
-0.52999051747958248 -0.14096604621544984 0.7693270979879685
0.29491771270942024 0.98702223543801892 -0.32594508225607655
0.063285370587259138 0.71283388285145577 0.62235747211593662
0.32756861500139678 0.64684145022703277 -0.30045279047143225
0.095969856734370751 0.75126222089598116 0.55037752373621629
-0.46978177495277862 -0.55354202428710764 0.14186830851200227
-0.37993605425329235 -0.18939289094512191 0.74433160785833508
-0.67590715170463511 -0.70887901911518014 -0.29781380409400526
-0.52986782618967254 -0.47743477323800931 0.41690702495437648
0.0090554238405644583 1.0171936484031541 -0.37587238169605541
0.6058784646345714 -0.27902597303049959 0.35954609184343411
0.22901867252350883 -0.060078595955463499 0.7344853884267053
0.26737850358192361 -0.084315314407810149 0.722617218627434
-0.64665992199397238 -0.64312146374891555 -0.24396537532729923
0.024597485729486834 -0.096422285733904545 0.78975096770598441
-0.63278737934929552 -0.66998652205255382 -0.25494768638066034
0.75114635642436411 -0.33024376626324781 0.66677148854164159
0.20098773503325162 0.89202284704356671 -0.11575944454448006
-0.37643984981048106 0.90419825894816697 -0.33137900669379405
-0.092783699304035849 0.45681721415932586 0.74981888050194101
0.10103557964468735 -0.1341660061688188 0.78964925061923452
0.32936716856137593 0.59744802706210365 -0.25421341963222233
0.061352749371252457 0.58584683748870248 0.64672381761427999
0.38555229729627882 1.1321397296102766 -0.47043017712194057
0.023621727687597627 0.59056992843758849 0.66308358087570696
0.4911647783069526 -0.41173994328350716 0.33848529594009591
-0.45022992082238034 -0.34915151420998569 0.18902995342348561
-0.15701106361757411 0.94139797984036733 0.039204468087596922
0.29201835778739849 -0.047956560815880067 0.66630833811487378
0.56934874990318463 -0.13191988355459117 0.62151122633125055
0.29317089398988116 0.62320061981412778 -0.26135033253528661
0.41629472720811123 0.78244454142422271 -0.36413134570808126
-0.55426098848522543 -0.53354846214342544 0.26990930525601442
-0.14728158359386612 -0.076290877304920457 0.76741568803166871
0.2976927282907269 0.99138549477919113 -0.34970629481582449
-0.37316290255155593 0.32140927733930269 0.63166689467191617
-0.67511612104381413 -0.84810075171979094 -0.4140476202397636
-0.52860901090061674 -0.087849881004611774 0.61606145517010447
-0.68465217934918599 -0.7326560723735227 -0.30859309370638499
-0.31854988572143839 0.31331611033492379 0.73097336950458924
-0.26677370772853237 0.42101451469630646 0.28256379124119491
0.17400603908679102 0.76693804727483084 0.22125859160896511
0.1238432381154837 0.69837027907291471 0.57279203388093691
0.078032500490138546 -0.05551404529426307 0.76955137936455742
-0.64498032360641844 -0.67337986943953965 -0.26782209109800448
-0.46602027972496529 0.17173113039377697 0.74470216522955468
0.78188506791337886 -0.37206837160616502 0.66917768859379123
-0.027639341161005859 0.29546151849588043 0.77825114856637612
0.67782093223179629 -0.37303097231126259 0.64026587711872196
0.15892827818935018 -0.029620818199973087 0.78276435040642411
-0.75263459489654849 -0.88581782580461166 -0.38545174440970698
-0.50958071207568167 0.012713974836977116 0.73333364383092459
-0.61504795923877964 -0.60829713488053017 -0.18324034383088872
-0.57235075223124454 -0.61139765348150021 -0.07228668476435729
0.09143657342784195 -0.28320690046434649 0.700567022869933
0.34800569963019967 1.1424602702486801 -0.47346081075869506
0.33609557145391022 0.71342043935442589 -0.31782507265595683
0.30842439014682554 0.1137178504674381 0.54730809558958526
-0.41606427634886245 -0.23530813835545317 0.21715660649958579
0.3526408151954854 0.35515559797088159 0.33948863507697524
-0.22764547200804941 0.21682237617104505 -0.59652679599620484
0.0083160098830177276 0.43997873112123642 0.75588661797271328
0.066218760437330104 0.7313325210836723 0.60513747257632389
0.036695090087178528 -0.33611465417871855 0.62789308430745194
-0.56494683944485757 -0.60393372725466676 0.027425149116709235
-0.39861920287424368 -0.16959707854019612 0.75214459374885934
0.46458236909696637 0.9749202521778173 -0.37481452842543916
0.17941368215156217 -0.027729958658053278 -0.29581573068781353
-0.57411476328218214 -0.6633302772944738 -0.14156339482893543
-0.74565696863921005 -0.88481302744779811 -0.45377269509278761
-0.54632966490783019 -0.25114576258441446 0.6663002945727996
-0.11756441494360104 0.49393760886734839 0.68798683822927842
0.28542182214114575 0.88676793004231058 -0.26847860626055819
0.30066561383111434 0.6449489447866803 -0.28699032679686809
-0.13919320118183975 0.29313945298079247 -0.56225941612009933
-0.70088322753673538 -0.79098715121917706 -0.36150540412732823
-0.016498213626071845 0.67650483018772434 0.67486299735472244
-0.66477233865170149 -0.67635021884767355 -0.27793900956122286
-0.082715077209329024 -0.41204310038299141 0.28186399036397347
-0.36365269929912358 -0.11984880348036597 0.75688560426696938
0.66939194694040793 -0.28703913751146359 0.70070764894754944
-0.36846102984524975 0.14096040207425986 0.76968247275848967
-0.24528168594223132 0.39376036867212605 0.70569832553198353
-0.41632527914620709 -0.017050338021263656 0.81026114015428874
0.12906914209604281 0.88158656933884672 0.12250656934656234
0.3419343340912917 -0.07746103900520751 0.68282036247863687
0.90251412145040177 -0.33720133004488417 0.44681913947115248
-0.64834555272118166 -0.66644894233794005 -0.25328380838963938
0.67403375785066544 -0.27927990217742504 0.36832693875435041
-0.14062959361581306 0.32388307633338798 0.70059431672559924
0.41239458198572976 1.0809443001881434 -0.37273064041918502
-0.17723566425127046 0.70081340503064737 0.32090142083261952
-0.62044167519421478 -0.63465925843861726 -0.20642517289667239
0.36352276837197905 0.39759517492538166 -0.12389221889866064
-0.56440577203977682 -0.25537400170222568 -0.61653242838321631
0.095896779459799575 0.65326155036802191 0.62104355472294515
0.92272268492551746 -0.32920520432476152 0.50982848284380111
-0.011812676224479901 -0.12980567633053397 0.75645531127832299
-0.34405943853816723 0.018753566435940172 0.77258625498316746
-0.4985870421438392 0.62505373257526387 -0.47943268040424414
-0.43092334324323645 -0.0011055608912435844 0.8092013268921221
-0.28782985493496938 -0.077357828893841685 0.76304375256327006
-0.34397054216807987 0.19724543195484401 0.55101582682822681
-0.68640000557668657 -0.63093312063329066 -0.3047406594793145
-0.46675514797615847 -0.28256215585770761 0.69866979980815813
0.68502037853762232 -0.39935963486861681 0.63364821274902994
0.34946546135940793 1.1204960311290826 -0.39670456215231553
0.77960399917994039 -0.22867713213994634 0.48813307355721491
0.47575371997933757 -0.46869944910029204 0.66514718590636335
-0.38172998516223799 0.047702569419268315 0.77883011418998649
-0.56256884083146019 -0.14432021946156581 0.62251397042175682
-0.63502585296468794 -0.45353676574992363 -0.18630437083399443
0.65885944639279614 -0.40789653747640386 0.66926515995137947
-0.068078822870035083 0.52830036349253717 0.71468244633018685
0.3324134488039121 1.0935775240259424 -0.41893154039872371
-0.35778941878031389 -0.10712224309412832 0.76888605297688173
0.067974046661078091 0.15558508619615097 0.67098588765390588
0.75401464726373035 -0.38339278046051106 0.64532065206540068
-0.15172317854671746 0.45834758249072038 0.74419891378111203
-0.69769840391752069 -0.92876729636440913 -0.44931720645164575
0.025026344371994469 -0.12381074428269301 0.79606026037713207
0.90925376332711494 -0.29713963442878821 0.54134998165015702
0.36082042516699175 0.82820758597951993 -0.34874762067925502
0.26538291528368063 0.83677710350165313 -0.20672953545561512
0.89028687091027336 -0.37948918044097013 0.58117449512452168
0.28771096526435258 1.0327773988526054 -0.30734467222738715
0.25070722397769885 -0.40452652592447791 0.67023762160921763
-0.16681229336880676 0.72472125503196594 0.61473070786806971
0.18826666214222598 -0.47113438555566134 0.48239816983075201
-0.30788932434509775 -0.20195591381013855 0.73377666983714107
-0.56048375595156585 -0.57664692447699295 0.051880356261257532
-0.66978081380341337 -0.68941235412602708 -0.28861623445152418
-0.12452615857550597 0.46243894570932298 0.73761615557222626
0.033519769133391719 0.28066423067597057 0.75957585575290665
-0.50163351453964111 -0.0494217387523328 0.7945628236998985
0.14912104617404509 -0.0025321685294876772 0.74464816567066805
0.72955159601536224 -0.45504527260818151 0.64401570631184057
0.26375856885110238 -0.16690354581323774 0.73028183890639298
-0.21217822779293272 0.74643533813757657 0.69919182150289316
0.14321181566026553 0.72616662859613967 0.43376220318379666
-0.40867247130903195 0.14375331118154833 0.76377824645113179
0.7382973395037169 -0.34828635829826737 0.63171547030186304
0.33595217424358736 0.55256415591189878 -0.23009343539016669
0.076613496091425759 0.52996958451427645 0.65236462300386933
0.28253939628503133 0.74420494950012284 -0.23626946066332977
-0.76064764337861845 0.35872342955026326 -0.41171251965612043
0.13073829477360732 0.61300249555259967 0.60796630963923093
-0.1769965844173953 0.501633759917123 0.74318020345916125
-0.54063560925023779 -0.12225804790542938 0.73346401504247893
0.0042382115101275986 0.36069505595537166 0.77850263334697445
-0.48113740274003192 0.12445042419353314 0.67589180546133321
0.57229986060704618 -0.32661258517758895 0.34743645783084531
-0.36481485573044381 0.36537060581409975 0.71914678543702593
0.16415515047015106 -0.057034971647635047 0.78957554338324343
-0.11111134932859557 0.4843571526664654 0.73070268413331974
0.13257708816865943 0.15846740836495599 0.72110309709417919
0.36038777901383412 0.42959968014194061 -0.13318439440398322
0.10307610696274594 0.73004874021113508 0.34607046646799944
0.23063586703786143 -0.4859872073535918 0.55654754839252263
0.42401483674596818 0.52437826939531718 -0.1855930256488918
-0.59364446665036752 -0.34134442186898539 0.51638593142854461
-0.052136966126710149 0.20949470833885542 0.71824178807816708
-0.46307817967546328 0.1220134668222741 0.73890993630562463
-0.61834035526952391 -0.61796991979110061 -0.18948365554759761
0.29001888753801097 0.048848089108297188 0.50273049399405068
-0.41165741741163231 0.21757016232521309 0.76827545354907301
-0.76084338936929896 -0.91917146774734348 -0.43983573745046556
0.13963771961900306 0.92694811043598335 -0.33673877325287549
0.099460785289991804 -0.35532849188276927 0.65608095955060008
0.33525880826320531 0.2448315129751073 0.5279833469660602
-0.43472721389152014 -0.0599385319002117 0.49403113357378459
0.010703774043932412 -0.15675373372501156 0.7832003223405124
-0.41336596726149111 0.34081623790140014 0.76495550256703382
0.27818994567994082 0.66890687370132795 -0.28920077459398641
-0.1982532072792651 0.32496384900498043 0.76804553250017449
-0.66996611787790528 -0.71832319472692419 -0.28865595514463394
-0.17552517300244119 0.38935855262648289 0.7557555443151287
-0.58314130702101608 -0.20020021560007351 0.67293699165206533
-0.59563775999026802 -0.59901494129974253 -0.15928931856677764
-0.67793378216984479 -0.72475964800167603 -0.29920352253841287
-0.53868491973849331 -0.11301018317110589 0.74558411931161572
-0.61914724200924098 -0.22493525636952683 0.64435005274567203
0.28414626283826294 0.12023915296476062 0.60162211642900587
-0.40708997562720128 0.89920532200569525 -0.24582512214225716
0.64216804636586744 -0.4122829047438934 0.64545387416436739
-0.33891606334195501 0.05240214423518097 0.76928071756114491
0.17830447487230572 0.36981944414885604 0.66684058460982953
0.085629793895833473 -0.29209255563348435 -0.25115758761972984
0.46342932117053692 0.77973597294727881 -0.37416567196321893
0.40466647403081168 1.0305321728059376 -0.41944330442202471
0.20500952949194584 -0.13018876491010545 0.76305054442701703
0.32767873777574152 0.56371326171193559 -0.086414994753212682
-0.11615630887708051 0.47260129093442771 0.73358091997935304
0.86111104111555647 -0.42698525561008438 0.49261548924046394
-0.098673487308957419 0.39145243022704079 0.76877578188850038
-0.52235733847716403 0.10759476361596754 -0.6384642896529158
-0.063929309709529036 0.7694710683432433 0.62212964752456656
-0.73271092879262056 -0.9001969956361684 -0.44065332410717417
0.65902602461455473 -0.35827229014040185 0.6588191911675878
0.040912053645413948 -0.086237952554196085 0.76483858782094671
-0.62174000738141899 -0.73322056095526733 -0.29916337157659001
0.28032940713681853 0.64679889648974154 -0.28196315981644915
0.3339145780710524 1.0771988185158179 -0.41437735084954852
0.096441311858725953 -0.03017202352838666 0.75860218684301373
0.41671818794109328 1.1585704449985919 -0.44394632907193454
0.4453113302521885 0.94691493292814499 -0.35933860705031861
0.26786597799372203 1.0324907106845664 -0.30013161468907157
0.29883715772214714 0.59705799892137534 -0.22803839844478802
0.33023991894611981 1.1486266464222012 -0.38938526306250054
-0.14197717020481093 0.7426310874117803 0.70500692081112248
0.43162415948286537 -0.24792749752322152 0.31532420378204051
0.27243960708950965 0.44748282826146024 0.55757767479951781
0.18053744090147461 0.50185927469642522 0.61686903192842379
0.74385433932189216 -0.34478937868247428 0.63795559563663318
0.2699278577495221 0.75135318500744575 -0.040268559049998487
-0.50718600884853515 -0.057757764554342117 0.66738033193148993
-0.081341117409294839 0.54000725975725672 0.68588579737659927
-0.33935918441325441 -0.15584805700417448 0.73957742286119554
0.29639997617374547 0.98873516305873466 -0.3384717031655029
-0.59061853902417738 -0.58126848866423586 -0.14354889268749105
0.38076921733662061 -0.065373521412197988 0.53509192793596583
-0.0085105545979047292 -0.11596367791925744 0.75985310527908467
-0.58906022805298619 -0.59760802185380157 -0.1918547418904879
0.065038243223142445 0.29812628948093334 0.75093043505518864
0.31625808575941505 0.087955996292439664 0.46228648145881834
-0.51266410756704772 -0.10774773189798736 0.78723476523773428
0.66609780761296378 -0.33202805332906848 0.68859685864983078
-0.24156421194821576 0.56982215924926649 0.76516916468860785
0.75173030047511702 -0.4325920496443949 0.65249581474365925
0.35622255554150684 0.96062588406528349 -0.36550993739955118
0.28560356442365276 0.93442360446247008 -0.2788460987831769
0.30702476069707529 1.0949359243087002 -0.35327470742033285
-0.72695802347332972 -0.84460954651483888 -0.32791940447873458
0.89968740479674381 -0.37215219395609012 0.46203795695488736
-0.50921314767292358 -0.43003774497017488 -0.0061237008064054521
0.52458060479787605 -0.53422084987096241 0.61588666244742996
-0.56951671714102758 -0.63813632940972553 -0.12210851222525321
-0.21722853756226357 0.39261350173503828 0.65836378599287571
0.24021709365260335 0.088431681169879539 0.64823687870281788
0.81737303666654526 -0.27910633469526402 0.64851857097836785
-0.79682044848503608 -0.18409705507042062 -0.36082494272785226
0.36640287672261707 -0.11955657583541779 0.70820332985019974
-0.66244606673228645 -0.72261687202086478 -0.3009907094250508
-0.087157769631915016 0.34337487038204983 0.76693041381847848
0.35648912627038953 0.72029531234648303 -0.32019592154006205
-0.43245266010494277 0.24484955008628617 0.66768365710669997
0.2161133120819585 0.28010133915531554 0.6646456985086644
-0.66607098346426596 -0.68974985373790076 -0.28383994942461754
0.64219245652632395 -0.41201897846621094 0.6884182399416261
0.11052244534690203 0.59320642543447377 0.62442416722222305
-0.26424807198134204 0.037153585670044009 0.76348904235191384
-0.38206645994517885 0.26475491812968954 0.61487077691215575
-0.38751602995139933 -0.089863138644489027 0.29875910856953425
0.60676879185710675 -0.39398021174903519 0.68052941685311907
0.39741534601591866 1.0564873365982201 -0.42184390694936269
-0.59336950002827393 -0.67402939173657472 -0.13578854571235865
-0.24941753726854188 0.58558082373307485 0.75802919597217056
0.63519551172813493 -0.35316109418668162 0.68976806515013322
-0.79913593943852845 0.23384786398696988 -0.39014702832067627
-0.6326692116084871 -0.28276573026041518 0.62044662095220815
0.068938826404917108 -0.085447266278407596 0.76613527228511202
0.33513853678311989 0.48218938818763135 -0.3227147589864785
-0.12922139280948386 0.41198224181057697 0.74245852033842397
0.025144784552168176 0.53283934147476586 0.67300764200471264
-0.00097797896182072463 0.75697242787298791 0.59634884960436807
-0.48291844043358623 0.080809094467586107 0.73187817738062222
0.050671619637512322 0.39180907740761484 0.75500712815912863
-0.47479220440830261 0.8407742110694727 -0.29659522871495625
0.28141469513820994 0.83825983393092685 -0.2414435900150238
-0.22061908122945795 0.35793568592441005 0.64197336804338079
-0.28733806012721175 -0.018157011560937519 0.76949596173964352
0.39924759659739095 -0.19051961031185272 0.71954156919342438
0.07779084882147913 -0.069799775474876924 0.76443495091793778
0.0036767978434966153 0.29959680955390766 0.78114850961897986
0.076515682563794485 -0.080118328031442587 0.77985973962876187
0.34742853450505606 0.53879174097075477 0.11494388492218377
0.081989696284949787 -0.17722135369206526 0.76839073892708853
0.46168364580294963 0.62963644689378029 -0.28134902175324328
0.31260248063067309 0.969534897961978 -0.35796307099239044
0.57943388380726191 -0.5149656607597386 0.41834709307611462
0.30335634139132139 1.1658995744424949 -0.45386145313278803
0.49192625590035277 -0.44531292039206249 0.67858106961102038
0.26867006604962285 0.054728138171107332 -0.16458101359030053
0.25741803802816321 -0.020893028200095642 0.62409701108828131
-0.57190847805139811 -0.19847913270735162 0.68003055343046981
-0.70339425617097362 -0.91578191342408033 -0.47877310993863631
0.72959699842702008 -0.36635466954915685 0.6307627359736685
-0.67250483936177829 -0.34356886085460658 -0.18676426990856498
0.38778793291319857 1.192659724142942 -0.43711946654478595
0.18946824086856395 -0.083911179754775134 0.78093427819145944
0.36625832246343037 0.99999737322349347 -0.38208294484988414
0.32913338853082053 0.46865711965114443 0.31986579808283722
0.62847803429878013 -0.2586528575831224 0.37080610051964413
0.35099801346731851 0.85725221553889241 -0.34738878907796078
0.81672097591505377 -0.45506970914616218 0.58310360581420895
-0.11530657843536574 0.29510272699956275 0.75894615902139151
-0.44747141677234481 -0.057894088733718263 0.52081248321864848
-0.61822602759018963 -0.27727498236546566 0.59669505146661095
-0.074376487298309257 0.37852005247339449 0.78405802038979999
0.078966019660541065 0.73972595917481598 0.49210689561294885
0.34552197941378182 1.006125379256865 -0.3769151575711831
0.2543758101546274 0.79062452110760262 -0.076633875264754181
-0.46367282826325606 -0.52806983706775412 0.22835452187193539
-4.6773195521154776e-05 0.57818971866164759 0.68100085417929535
0.28137006770135997 0.034874544421622744 0.51792727254908044
0.4333134241423835 -0.08558821318872134 0.62919908649146095
-0.66145948423509537 -0.73261869395028256 -0.32224065320642836
0.03476659559967743 -0.11385074682165808 0.79609501847911446
-0.1812517772667519 0.076759266555672667 0.75503084530897979
0.00077595600015456512 -0.12067102246348327 0.79136997362864747
-0.21317355516988812 0.40246054729351144 -0.56072648035845418
-0.69144874142212132 0.03587849347191252 -0.5914416190311016
-0.63069491038598358 -0.62383306850160025 -0.21268120946094626
0.14600521736309702 0.99836074162494981 -0.250528173720312
0.35378396073203078 1.0859893422803601 -0.42016519165616018
0.7253267351018664 -0.31377736551905855 0.67382651944897987
-0.078841479331600794 0.21698492897676758 0.75301070861752351
0.35308619360368709 0.24587656546462711 0.36636860092956169
-0.44926186973140858 0.18375986120997823 0.66138782404168239
0.3373150435756429 -0.052694238288044204 0.5148313463142955
-0.49854085000097825 0.034128534934936283 0.74057655442586423
0.13462840032201484 0.32830339314826062 0.69895596914063418
0.57334219566153166 -0.5583796615072778 0.56719482355941864
-0.10179776064559576 0.30614627121153504 0.74797302692939382
-0.36117181359260542 -0.51836280049892736 -0.10879353627442612
-0.47705775087049318 -0.04531450488381239 0.80581192007003466
-0.54449269565371594 -0.005892865681843773 0.69302245405878438
0.20492570564843504 -0.25275415682252245 -0.12035339192281214
0.28057156183122345 0.70880270081972441 -0.2772985987346317
0.11871140164902272 0.33448946094035037 0.71396760032113349
0.35993852187966979 0.49211592774762991 -0.044206521814956545
-0.42326349482944181 -0.27751265190854113 0.17050383004279723
0.71955495398097469 -0.29916609914256043 0.36786655301036575
-0.31474607897902729 -0.03497207800695179 0.77188332460286802
0.79247450789029017 -0.34277795991222959 0.67467545015776409
0.74053461681640442 -0.33864655080716233 0.64228681782713437
-0.67958515370313677 -0.77149043921626514 -0.34376980210682007
-0.155826560630274 0.59974201322077292 0.60509821934856944
0.032649020978183785 0.54796377248697681 0.65262248541836954
-0.19804422591269599 0.036334553866851138 0.75515573354893206
0.27896352107990197 0.68327490265305002 -0.27871467913187331
0.34508191367811492 0.60748013674398749 -0.29579276137612709
-0.6621680742612881 -0.67717948671450046 -0.27889185408444916
-0.33381140458187986 -0.13215830777763315 0.75770621865159171
0.15001693750761547 0.079524037356662802 0.72717330172538652
0.0097791625147749528 -0.094840483464519565 0.76454906481225748
0.1337630799542211 0.40035298352958293 0.67622842579657316
-0.64731730634855467 -0.7065852916832327 -0.29901575642455214
0.85844507085951705 -0.38289900382006081 0.61931757387468167
-0.33619118986393914 0.14792347195187716 0.3905409783084437
-0.18762542398971505 0.66576833895412335 0.73839322552529296
0.38751493033163342 0.53120222521087612 -0.20672191954022878
0.33930808422174152 0.5182508026856425 -0.098634910132879838
0.3347774030598174 -0.53695613487299099 0.44946178580578078
0.21034509550521818 0.86532786565122066 -0.31778560559482116
0.26954448162791778 -0.14203284254439907 -0.098376594122399297
-0.4182462561157223 0.11242066032184539 0.70621244524474491
0.26748154141327518 0.77075217742859081 -0.17153440675382825
-0.26783753726260784 0.35622337448537778 0.76558026644409694
-0.73638244796929797 -0.88871209736761259 -0.4039939399619783
0.035200309908574923 -0.38405077746336502 0.40116682818580074
-0.11775383659222882 0.35703661513156959 0.74211184183458556
0.012820758766892482 -0.16893794890091485 0.75634743408273408
-0.67084399489073121 -0.69734847731513128 -0.29036621025200304
-0.69284176742511505 -0.80965089026013004 -0.37600805001891047
0.15834593097058303 0.43237302088207841 0.65867699468010699
0.061048139436309157 -0.085874954982646301 0.75888252187237271
-0.025364099654680672 -0.2409407163167927 0.67271414120652651
-0.029813206905217271 -0.31095562703672286 0.55009672669231691
-0.27857165461526279 -0.053819357495150655 0.7650562383280004
-0.45036865280820848 0.084608522538939468 0.75091183179389276
0.79685095065207889 -0.30685651058516683 0.66947249282716825
-0.08179789346414168 0.52570127807025457 0.71948498602962019
-0.58957763442465705 -0.62304694949283146 -0.21112317775715894
0.12081209534491677 -0.16192520956801815 0.77302613501149153
-0.59227525641026091 -0.57961992097983384 -0.14182252495671577
-0.58716099952600587 -0.60560251944243149 -0.12075229123385611
0.061726687331059793 0.3914378544766457 0.74961420948737612
-0.52882457162060348 -0.22005057662787664 0.71269431358616231
-0.73798172554065644 -0.86625811311132139 -0.40436724875635122
-0.34000963774450099 -0.499669018961864 -0.23648717942912612
0.22044001805750213 0.48678391511698749 0.59175364673676967
0.35629714910903232 -0.38908893753469442 0.69365400016204148
-0.59251938427271966 -0.91103215200769583 -0.43230595677332673
-0.046196225036680971 0.2643068517841094 0.75335872095185863
0.34428125884799954 0.29568294020847219 0.41311458255567857
-0.67053944764857931 -0.59227100955134659 -0.34275936307583521
-0.64854261494092214 -0.63847492907656545 -0.24837878369194755
-0.58692177558941694 -0.58288655081051033 -0.11307645657505816
0.20629629011193629 -0.39383483890805948 0.30808400994946084
-0.60856408839868692 -0.21256962218201991 0.65560380252781414
-0.25142740930407115 0.38294610940351959 0.78230835204034577
0.35425321313824298 1.1136850775878955 -0.42018381826839146
0.11521955129462924 0.47096078183450985 0.65743960844878302
-0.50820615318090745 -0.16958546962498033 0.75866171353170131
-0.3041944697143748 0.081115147427215817 0.7701044207996901
-0.25508661907413455 0.34598363007509647 0.7832963180987349
-0.64663603419124627 -0.37220696145540089 0.58033806780888142
-0.35083160605486796 0.10031794604187283 0.74293776117050925
-0.45436481319450905 0.15981168631255116 0.74437937024945455
-0.45504751137310961 0.12174677010356305 0.74379168225645031
-0.50923778706903278 -0.14373279835884745 0.7802974180874287
-0.13906236331773414 1.073157978014212 -0.21182447570686946
0.0035018000856439357 0.074619258138472588 0.75309038299500486
0.037171588431476721 -0.30589223062635895 0.65599261303508882
-0.67062541227842587 -0.74055984749778858 -0.32185694323814573
-0.073099515280560468 0.42356676243691638 0.77741520989006574
-0.20509268559661109 0.39902977946680096 0.62143441975995728
0.31661902264916364 1.132638892881495 -0.37567402468496169
0.72431252978726945 -0.4032236052494973 0.64747669011678965
0.52641993432651191 -0.16076544702288231 0.68553334581533676
-0.079587187580116847 0.31372334526980339 0.76116169865308336
-0.64086212519232788 0.12401411487493519 -0.60549248587113169
0.53917739100745621 -0.52665202528347876 0.42356538872289917
0.4717966133198388 -0.24049792416658633 0.34124399436257846
-0.32610661095355908 -0.22311921176260796 0.67888127544894417
0.39399900285322076 0.8053617731656999 -0.37251319953894324
0.83506489382806137 -0.2922389009941071 0.64350574263189486
-0.39290343141584572 0.15565956864983832 0.7659288182708579
0.12650064697403707 0.56290401919645916 -0.42217326298897717
0.33101558469404324 0.41851967356355857 -0.29031503335764342
-0.08855929071751234 0.23933087669473352 0.7564551848600658
0.76368274972651307 -0.31786056622761905 0.37053632687374716
-0.61690369680091806 -0.40696507634093138 -0.14850722351813062
0.13926243264036486 0.38504079752618381 -0.40241415707882311
0.89218155284157774 -0.35925625856111409 0.59661832265459225
-0.14774228922333066 0.43524739733199524 0.74790879357199458
-0.64006996147378459 -0.64383763535447613 -0.24406770140303991
-0.3901715488341182 0.11640681624191629 0.73520336542616604
0.14322871341940413 0.2275748989333124 0.68654568523587045
0.40618905148202344 1.1750986773613619 -0.44601041968398647
-0.67352517821625213 -0.61349643880699389 -0.27977989719925489
-0.39926377982244787 -0.28997149321860505 0.64063791053077779
0.28452303531007317 -0.13950687073031887 0.72766790871344966
0.080730653283225706 -0.053044963123650035 0.77567042525752328
-0.73787400296767203 -0.84586781644415154 -0.40331009362177639
0.33911070936956378 0.96191479505784017 -0.35981342833178331
0.75315630901537389 -0.44457557231494249 0.64229763584992838
0.17507379887962315 0.34709632470502427 0.65556968985299591
0.82257793517548805 -0.46244112396451342 0.50941472067624716
0.021826009217136288 0.7474389632377445 0.60738169209031412
0.24483423288484119 -0.43390480760128014 0.38046314290206595
-0.049775837996037353 -0.30500633429755908 0.53624316270080641
0.085298450168380668 -0.18111964044021533 0.76175548349802824
0.06632383626585181 -0.40283225964668645 0.3033266868132074
0.098750452022855484 0.50918665759613191 0.65439980729497904
0.21093057070898169 0.85367906516164638 -0.023092364765929574
0.31580946410093702 0.39140101837537955 0.5232750500060277
-0.40605231572433809 0.0191678902814445 0.80605645595768749
-0.24583086403931986 -0.11509234572772442 0.69574777730897353
-0.40322774414643447 -0.42533225948124809 0.46486683796188544
-0.66883607727704941 -0.74013376794553309 -0.25731721356601156
-0.052340926517516095 0.72377641643830515 0.67369426673223387
-0.12483404487747407 0.48064123508894596 0.73645748136975442
-0.50283006410786157 -0.10507031800551303 0.57126642466771216
0.4321638064244695 0.82508755640743914 -0.42408375988097902
0.16530971729237365 -0.041365327663498874 0.78728372546201086
0.14757056595435358 -0.31767069486753741 0.69766613972147695
-0.0079113352531976489 -0.13314483443156533 0.7866083640658772
0.25586405614718899 0.8609899951566895 -0.36339041670099448
-0.087488528072640293 0.13428075342985579 0.748450753360558
0.46818630114812976 -0.30796039051649871 0.71325926557152286
0.30587562403152901 0.90234023479733594 -0.33194097730047645
0.32019229007139671 -0.46480003434025718 0.64238399406300317
0.078942327262751633 0.58874723824645159 0.63750083185610862
0.32673528797002405 0.60374183253659552 -0.012474099275024741
0.29947928274330593 1.1702365919488251 -0.4368302546597107
0.014906524378105246 -0.37943281690549924 0.39530745006435097
-0.014551812854250556 -0.11313889693682455 0.77890955711286836
0.37032479722853395 0.47132194361037705 -0.012495156922589956
-0.36484610442359156 -0.25115326268621985 0.67122270849129251
-0.014983599566463113 0.3140206966368595 0.78505418426362894
-0.50590620489909099 -0.018189560020989148 0.72853530022969437
0.40031784645317714 -0.33948281650621581 0.31446618059878517
0.36070163023339319 -0.55080236983542363 0.51045302859497355
-0.52902698629963396 -0.073608712965466339 0.77619227030668014
-0.56506819736308955 0.75217710001626159 -0.25475141789091538
-0.58831213344486599 -0.89696524934656807 -0.40822434124041251
-0.41693038667237659 0.10796336902518533 0.65999454136588298
-0.079977431086987849 -0.28395346098180596 0.5546565840894786
0.47360401207775737 -0.1784480273976925 0.37684512900948164
-0.46800538348616527 0.2055473527182059 0.74961623642535358
0.3511143716136047 0.88084334247998086 -0.35180053121916899
-0.57880347064131854 -0.69222857465830501 -0.25190771992236449
0.64944599476878295 -0.41175602386362797 0.65143140250367537
0.3459080357560822 0.59853689376978281 -0.28332279396703086
-0.35562541539120218 -0.26555439755731669 0.64958855527322612
-0.26635941760228832 0.309652793474676 0.62222233522472692
0.27858362024352346 0.66168508857148822 -0.28026438274470422
0.24999859399430591 -0.17857927815905228 0.73093195332517524
0.36051944940351177 0.80072941683467391 -0.34114717064446154
0.35885578662220041 0.52392711669609682 -0.22052841227068143
0.37483335974967247 0.58996388069298433 -0.2730978483771338
0.75813537365107919 -0.37694856539464894 0.64546191386619256
0.24623391321374299 1.0045176585280657 -0.36220902570877911
0.22036310814061721 0.79656714115184002 0.067364206853163466
0.33441806137210506 -0.49872033639534052 0.40751927271215038
0.12685608402959758 1.0292812479092035 -0.25759966305115967
0.75066859382298645 -0.31190608600410741 0.68689372682788985
-0.53745901286090003 -0.22022710264389289 0.53718993142344829
-0.49288960978238094 -0.066732039188352132 0.62303432435624018
-0.58280796920683997 -0.1323571250182134 0.68087764307598775
0.14892064665899341 -0.02100253646403516 0.74417677487689815
-0.62621844174899621 -0.42879989177836819 0.56581816980011013
0.29235110888654958 -0.034111852529704834 0.55680133833451606
-0.28532739343850722 0.3100752778066429 0.76661583029682134
-0.3026148163591813 0.30912082011275288 0.73154262333326159
0.77557900997831553 -0.37259783810737446 0.66701101020174747
-0.0098013555693796661 -0.30986137570317496 0.5991259720414206
0.83389499802161282 -0.45517083215187171 0.53551798523206884
0.42977306567196649 0.70552151090143767 -0.29945419228911163
-0.57215986521839568 -0.39142264387814407 0.61976383904805488
0.3241484195746267 -0.084066210311384282 0.69963639738232786
-0.70565155274929481 -0.91372429812894396 -0.48058367081817721
0.61460532958459169 -0.22208548608739775 0.39371200916314564
0.34487285931315625 0.48674708302807446 -0.17850469910860056
-0.44755173038714702 -0.17496061620744996 0.40947638488885474
-0.64044941113505161 -0.26354519773084562 -0.58952333143728453
-0.6228767993867308 -0.52514340580259855 -0.18915513565849551
0.047729453038513725 0.78597424276097527 0.29603887548184105
0.31296834009692986 1.0480768897019033 -0.39184077542140017
-0.40136287438613749 0.089613253658601622 0.56690878407916045
-0.74228223689419792 -0.89863523400036982 -0.40263080854031585
0.35515800921987051 1.1145739103660333 -0.42739329886045141
-0.42719380222600023 0.01490216456071991 0.54477250089914975
0.4156702875966829 1.0924504308208007 -0.37426037201618101
-0.18769922292085539 0.011844836353844812 0.75511979444794974
-0.54846536499645993 -0.089792447991975166 0.69970898685070892
-0.13182233364150875 0.37395649183997293 0.74960181538531856
0.11532948708477164 0.74147904863893643 0.5404003180903203
0.35666121178384458 -0.23555579708139618 0.21659273438972804
0.48439400353226603 -0.41349002578798988 0.69216831046588823
-0.16255020255881902 0.76769725937533906 0.62340659846082502
0.60213867760831619 -0.35496880648289419 0.70348165763427772
0.0094727010662438715 -0.10705989623148682 0.79150807852844451
0.19539084300568277 -0.039185811141052795 0.73915567089176903
-0.45795883602669107 0.0514205248352404 0.79170052401939728
-0.69239062956563657 -0.53669604715236474 -0.3433621137739209
-0.65255687331179502 -0.65149992253838462 -0.25530402662288054
-0.13043251884992912 0.53179260876731149 0.72476620251160284
0.020305056594281723 -0.14690474005768905 0.79253246383589016
-0.38935912027727682 -0.29715260895228823 0.6856245372948635
-0.071709723867684261 1.0821801117375358 -0.30624240527356505
0.3964226835251452 0.71341036240186995 -0.3312567842155687
-0.74915271267850869 -0.81911987215557502 -0.45012293912612478
0.23707858563811612 0.13828235915906362 -0.24213334116402052
0.71505592910622084 -0.43419749037481736 0.66501993022125561
0.27682782956505037 1.0680963769068335 -0.3250078354433299
0.06764910614894859 0.72752849499578076 -0.43202523923136482
0.14753903202202423 -0.013279452334607811 0.74547369901985405
-0.062277749275580163 0.62675716567772 0.6931439316432062
0.31374118104822202 1.1769366582370324 -0.41268124647699977
0.34075072625732616 -0.54519609981685235 0.47799571531522389
0.20767519706244286 0.15463887492609274 0.68462442912593247
-0.41119995018351574 0.27368228785531201 0.77942261798180112
-0.76362893871812787 -0.31423420631073995 -0.3553517757929896
0.37229965199679782 0.52420141859611746 -0.21326817749536531
-0.39160830753169762 -0.065533463841301653 0.8000661398765132
0.28342762042630909 0.667753548471822 -0.25319566740977706
0.10035249742585961 -0.05928666104779623 0.78992018057352453
0.037739553055459396 0.36443901254132172 0.76735137882096183
0.62378920230040791 -0.39797581709670382 0.68555462578488857
-0.38073418472700382 0.14988188143629699 0.7681058652135988
0.15002767511225557 0.96225606278607145 -0.29064853723197359
0.2021305232628805 -0.40665955305937374 0.34063458740471475
0.28690402798272885 0.85032481341916721 -0.29214407673444498
-0.22432687909677895 0.48740253268756817 0.67490478536792153
0.058422092461313468 0.30425832711571132 0.75773280035785717
0.15680913948254727 0.35047288160043522 0.67512158738947647
-0.73082070613994432 -0.90565429730881775 -0.42791314460838237
-0.24289774745348325 0.37258275035611987 0.60003560916585741
-0.51545677718010552 -0.09641043985836717 0.59365372759454971
0.31587627110590688 0.25269817075896484 0.57582522875026143
0.31002913410557653 0.11298172446502619 0.52691002937680764
-0.56045676020243462 -0.3810120723744852 0.4340818874004384
0.085254276705200027 -0.082709828390427731 0.79027538725868141
0.28786593890227152 0.91278156041381209 -0.29235850720446876
0.27372152926822935 -0.0077086589013681817 0.52859123814945974
0.23205424897599869 0.679808942917564 0.25352334283189037
-0.12949881402788321 0.48503333594726072 0.73714453568850757
0.37179675703987414 0.54572659609731389 -0.23336946570113071
0.072351732097587274 -0.085067440743614497 0.75625269775766668
0.86353784071465611 -0.35592583026444657 0.4065839126091646
-0.62385445040408882 -0.79120072409896025 -0.34640401694200307
-0.5386333221556896 -0.11796219819345666 0.70047578202410676
0.27864872212171576 1.0606309826303324 -0.42387155107059016
-0.54307336739927337 -0.60317965018656139 -0.21527906965627608
-0.60527035378509453 -0.65258568805122508 -0.24733102570958465
0.066518662128189021 0.54621851082112727 0.65506692264259669
0.15063992020016315 0.82091753422141878 0.17978502394182527
-0.60368379492813062 -0.59385417375423799 -0.15766166585633101
0.48836624893208125 -0.18558087528149159 0.70569574354137643
-0.68922517740375611 -0.35663222871887967 -0.51144219919256528
-0.43440316013798963 -0.10865235786213745 0.79972366368139092
0.35940101222035992 0.67986700095381281 -0.31371084578210429
-0.14094571746755946 0.64831037125141577 0.72220987060255482
-0.68195369347590429 -0.73890842142276014 -0.31921191273696792
0.18880079072212652 -0.12062401919808963 0.77309328341547001
-0.11632435619807779 0.76376970152698576 0.59023628661098115
0.42617920519910513 0.76587676049727094 -0.33984958181311953
-0.50258381939893582 -0.30733708809174232 0.40162156870432142
-0.075341113672919846 0.45524173872248141 0.76898833929812582
0.57551690296077851 -0.56538241202312989 0.51876655229186497
-0.31928883343037739 0.30422181590623509 0.68404740405793518
0.54143717736539543 -0.33649228523236374 0.70813785600125811
0.63403625531864805 -0.27260103037604821 0.70223135159115913
-0.40036606537725561 -0.16749234396446511 0.74944747354970787
-0.58039799504639689 -0.30337535802524229 0.52977788286978011
0.14052937034553281 0.37425812614959142 0.68612309589568099
0.028327659977747999 0.46064262089824481 0.73642743048405634
0.13781827013086456 0.30375865015456682 0.70879965707530346
-0.14488708578194576 0.36872280178253902 0.69567347193563478
0.052704686815133073 0.71759791114843452 0.38903792192918729
0.17465214846967569 0.46798347281206532 0.566534964509394
-0.20742223358010392 0.65875664871975559 0.65316582806092072
-0.54564747587797058 -0.60245907803461662 0.052469538260794479
0.050708697941331593 -0.095334487067230356 0.79268692790569162
-0.58945988043030439 -0.77678493090416012 -0.31445674781819122
0.63108704323290965 -0.4108567544339401 0.64344233207373236
0.40953559644525228 0.52419630317874066 -0.3097927841477528
0.34526358686402148 1.1529713624807876 -0.39462950014524267
0.28877922802003297 -0.33538295010287555 0.24864385531920874
0.3656777998569325 0.96700193614396213 -0.37327963807043574
-0.20652710560113974 0.56258640566619178 0.44198436050568546
0.52260688899666974 -0.27116673419952164 0.71050233913165073
-0.62029234619350859 -0.46560727301894289 0.51270788428830372
0.29622828608862051 -0.21634598302980024 0.72747999202745461
-0.20039142655286923 0.96850643000478343 -0.37428996063372466
-0.42073515728930033 -0.18544983974727813 0.74371234918211115
-0.74227910772462735 -0.87768686970971999 -0.44957881565532176
0.89477474950376745 -0.30153288107488052 0.47221485310006273
0.36282239342623512 1.1757471887946664 -0.40796457435415334
0.42911537822676848 0.99819950346307351 -0.44607253526490354
0.55450813016687306 -0.5679661518385295 0.49407751324319804
-0.12626415445114958 0.37456889998411569 0.74550483390985534
-0.60187136645627959 -0.59291724198179807 -0.15671050033348877
-0.58107866308346701 -0.7020060476338621 -0.25326749706790963
0.39020649413355102 1.1883987222021268 -0.47049720847881815
0.35467517558731743 -0.43111544970701132 0.35928575421151265
-0.45301534537119181 0.29807020896017988 0.75457649618345357
-0.092618253312508614 0.55010572443337935 0.7167026732265569
-0.068899814177768803 0.2718458414430529 0.74138652981743292
0.37307366899459282 0.85232982598461149 -0.36554535034699143
0.28244025688096031 0.73516937005248906 -0.27613794655935919
-0.63715680272778741 -0.62894645403915561 -0.22588859762615243
0.241774302660545 -0.085873258788630835 0.73854388601968424
-0.6543665402666079 -0.65185351572268857 -0.26945022782742001
0.6029304336749135 -0.37265866030135086 0.68391026504516361
-0.48024150113091935 0.03535859042696643 0.77924843128455734
-0.53150544210672024 -0.24162391533467797 0.69366481983584549
-0.74146263776299293 -0.89958914647614208 -0.47002777153423381
-0.26208245154730037 0.39402087230354965 0.74802192120373689
0.57332462197192768 -0.37609002172423445 0.70277746192134316
0.71851110051623124 -0.51122985196602144 0.56801355765692563
0.18144587820545155 0.40971983946548463 -0.38106586523179686
-0.26132037747291292 0.31037006324275751 0.78432843441346733
-0.43797570206741199 0.28190113424927432 0.76849180543581497
-0.43526253835412376 -0.14246482716244557 0.77622451560461769
0.78739161218372544 -0.30231986459957128 0.38321544023832388
-0.57745615731205646 -0.1803396541040172 0.67640490948685539
0.30834680932278502 1.0210683395145388 -0.38052787234109076
0.55132379337817383 -0.53647661995151097 0.61225947985401774
0.28045233879640818 0.71338530707605585 -0.28744610928517744
0.079591807533219594 -0.17257807015367987 0.77421748500511001
0.65681523034260181 -0.44054749431811757 0.67392488647624305
0.041670675405740099 0.26739139320796568 0.75170629988444659
0.014350933022384993 -0.15251004508537136 0.78843065263615131
0.84841808108484429 -0.28765493538134379 0.43733893716172645
-0.094057265934722523 -0.26209053530588733 0.61837417265446248
0.65978701322217148 -0.44648865679677385 0.37473285030612402
-0.23466903592102994 0.61497953512763814 0.75788149959947759
0.17701704232707982 0.62949200512739623 0.55097612132851737
0.33293134193741025 0.81226231033933516 -0.32846769719176905
-0.33462070542017841 0.036238875867994125 0.76461098837601327
0.25927146692210101 0.37654983587645319 -0.31630031167859585
-0.57175688726449891 -0.41253867332575567 0.59834825797370428
-0.6407841800682661 -0.72840961965776785 -0.16690232876683098
-0.24414473418964633 0.31396766309210378 0.6443819433100586
0.42004289898906677 0.67345384299143163 -0.28588515347063037
-0.053565386089303502 0.76720265961342804 0.59779738922304659
-0.0033768910884219849 -0.15243423523724431 0.76961227580602554
-0.31208803688117825 0.23569162810278854 0.78663434106275787
-0.49073871417459003 -0.10961652275837253 0.79472281817477608
