# XYZ point cloud file
-0.48137049156128031 -0.28816856280874936 0.74979875514147309
-0.49612931846191721 -0.27326908874468775 0.75266518160510287
-0.50958898804934116 -0.25824669693758662 0.75102015445541892
-0.5158948368930798 -0.26136975966910908 0.73687361042016253
-0.48360908590824947 -0.29088834646459533 0.74222938480186729
-0.47899370152819765 -0.2852716832048906 0.75598801300156548
-0.1318377001476248 0.48197070152223015 0.80010936586178527
-0.13345581632819151 0.48453752161090963 0.79329805198793935
-0.14871539664218003 0.4655498776177121 0.80405532661270929
-0.13006895608446387 0.47951390118069709 0.80554127823235988
-0.11186285585539002 0.49552430621765214 0.79573420985622945
-0.11303101293683976 0.4985924104105684 0.78898666595513944
-0.15083238698479587 0.4676504287324233 0.79713403847097664
-0.14625529128880285 0.46353921190759512 0.80956507555134594
-0.11051297832335757 0.49236916297229966 0.80117479095474242
-0.52821875916795213 -0.20211004032455906 0.74899084578355657
-0.52380087317031365 -0.18179649440146234 0.75338114429350389
-0.53102963685440652 -0.20160897221993729 0.74110100828295766
-0.5279380531563197 -0.22251661843706691 0.74591702562094264
-0.52517535167264195 -0.20236138808987933 0.75542177104823094
-0.52075308327343328 -0.1827856190774817 0.75992250023551455
-0.52646405847487132 -0.18064550474282748 0.74544898131394222
-0.53097931947543653 -0.22268713588766867 0.73802717259317308
-0.52447431030383806 -0.22201735930009114 0.75243936308515136
-0.17478450506644352 0.40798363189586523 0.81209095884677351
-0.1777106553511752 0.40829399427979984 0.80504657194391216
-0.1740785365168373 0.38834363289803209 0.81325853110641622
-0.17175458518524833 0.40770317127727107 0.81757691015933731
-0.17063036343584642 0.42779699920907949 0.81013671396590525
-0.17339729726003816 0.42877407753690444 0.8030829319988726
-0.17722492898006939 0.3879981759362725 0.80623783812720551
-0.17067330524736324 0.38873323279583244 0.81868176608768062
-0.16757177869020726 0.42681775373020897 0.81569112814716171
-0.48662702320632467 -0.13020821448960945 0.77070051558297559
-0.46759818126462349 -0.11820777513186176 0.77677831715269319
-0.48815517228603167 -0.12749219505753318 0.76311788783939871
-0.50259611899101009 -0.145135698484326 0.76457701539883849
-0.48483591668205206 -0.13262003402294403 0.77687593933609933
-0.46616860540987559 -0.12122056846105064 0.78280690778812656
-0.46869873112098082 -0.11502732853507647 0.76936726206379791
-0.50462022610041335 -0.14288407486691046 0.75679474455498008
-0.50014219754102951 -0.14715175145422815 0.77101258616146406
-0.14431929180721789 0.33658350428448691 0.81173192776835079
-0.1467556319145506 0.33478521828732449 0.80474570440824666
-0.12673678919258968 0.32397445313172385 0.81005816265154107
-0.14192550087353137 0.33816210154793147 0.81712209895492394
-0.15848447381046282 0.35198774604648492 0.81298653082115302
-0.16139932793447442 0.35060245203673218 0.80600297532936716
-0.12870753219369122 0.32172073763918158 0.80305292932386485
-0.12478517769784869 0.32613158485725563 0.81551429561370536
-0.15536669762907013 0.35323865921798175 0.81835380059046403
-0.3988157554768591 -0.1025389710988399 0.79140677373830437
-0.37519956416632183 -0.10469903789233274 0.79507507745516692
-0.39828173348112916 -0.099213221554256797 0.78439051567427831
-0.42282891361481978 -0.10416015434086209 0.78724339693658951
-0.39905213573903364 -0.10549186950914789 0.79698316257216661
-0.37622683607643514 -0.10768037828803396 0.80055204623029397
-0.37400752709484153 -0.10149654110038528 0.78812764560963555
-0.42292270772679275 -0.10068076959367182 0.78011832591713959
-0.42232475841138128 -0.10741330524157852 0.79298428324803849
-0.06214287594134979 0.30756646220913492 0.80435893945000192
-0.062247606039788184 0.30458163537193728 0.79728200753140688
-0.039254571334306987 0.30982631415987338 0.80193155729512511
-0.062067884489325181 0.31018228870779646 0.80995524989401546
-0.08484185543800174 0.30919285877659403 0.80637167608357552
-0.085643482831342793 0.30634227455344876 0.7993257742685409
-0.038687477350957539 0.3066827422122585 0.79478104488315804
-0.039885235288561222 0.31271793460893965 0.80763986659086506
-0.083995180316603496 0.31185094322995149 0.81192362393153528
-0.31706315715764122 -0.13213602426826088 0.8040353268885656
-0.30422802357095136 -0.14718163108685833 0.80592252589794433
-0.31420298584392559 -0.13000285252578042 0.79724844983463172
-0.3335170768003175 -0.11977165772338935 0.80144131608550673
-0.31960601384591625 -0.13403656601615388 0.80926200969049011
-0.30745219986209493 -0.14876835055312781 0.81108861237123153
-0.30084953834041916 -0.14547411415623035 0.79917160310365953
-0.33115845436587465 -0.11717015930368904 0.79460341820454983
-0.3356449238555963 -0.12224444813151758 0.80675452623300026
0.022940417847307382 0.33747764155933785 0.79013185037706934
0.025047237632418173 0.33508866067906545 0.78260765651698194
0.039031518216712663 0.352763573678472 0.7852460338961309
0.021027038163745154 0.33949563253773357 0.79618179589788429
0.0040375300021275595 0.32504191087832207 0.7947737758414688
0.0056919322569949915 0.32218671599708198 0.78739543078387819
0.041640995987243773 0.35084861168730591 0.77755537050806645
0.036462169420547613 0.35436590632727 0.79150665074311077
0.0024997687833712701 0.32766623177764415 0.80070479510698589
-0.29009713510791246 -0.20235116509233991 0.80529174631137046
-0.294269212401705 -0.22199786665488264 0.80285540306406644
-0.28661584559062925 -0.20236356195920752 0.79848403920473965
-0.29050438141275836 -0.182909092394825 0.80664483029959277
-0.29322032576832502 -0.20242486375625099 0.8105980946020086
-0.29740733885044812 -0.22138328589281778 0.80823746735604152
-0.29094644666814096 -0.22267657914771785 0.79602692509175776
-0.28682246259000976 -0.182261493695381 0.79987502438568248
-0.29399083629522205 -0.18365177314805425 0.81186069528976379
0.065374694444920334 0.41053283929300216 0.77194011810221297
0.068772736557423914 0.41036935169878103 0.76419386834674796
0.065570171739701394 0.4309824526685328 0.76898333984944278
0.062200858820315813 0.41037864564507837 0.77814696826366769
0.060671975578456883 0.39001918170414396 0.77585042094554968
0.063923508563241083 0.38921116104553993 0.76805152067637672
0.069178971483409596 0.4314960205972061 0.76125822608014193
0.061981552654875288 0.43007173470912641 0.77524669654957856
0.057504697792689241 0.3905919520079823 0.78217120836171783
-0.33246263236358375 -0.27554248678605231 0.78973693023976255
-0.35187547737547686 -0.28893358386809792 0.78397852764503506
-0.33029863615947863 -0.27782530223817986 0.78307554672193835
-0.31588760945657368 -0.25934627278736844 0.79494572011919962
-0.33432518672855305 -0.27344020170183225 0.79508892546557353
-0.35330917957049912 -0.28613645101771179 0.78937209799720542
-0.35018157453769183 -0.29171515692570615 0.77734705192138787
-0.31322126816010543 -0.26115541974223744 0.78820564840731655
-0.31842740145731796 -0.25769797556764495 0.80032787109073555
0.039593629865700419 0.48276981882238229 0.76753820546053908
0.042640633635094932 0.48522005195574341 0.76006828673877047
0.023019264177497611 0.49495919681694084 0.76959375911801886
0.036682378203312854 0.48023845833553441 0.77349830297269029
0.052476719465890803 0.46778414542350316 0.76671367982786975
0.05592581861286236 0.46960746293205607 0.7591327316043095
0.025665749555111972 0.49805306910829134 0.76218073104712669
0.02043661433218591 0.49170738883802295 0.77559223094085539
0.04898107434236898 0.46573647520840084 0.77284393173579824
-0.41788188551330663 -0.30632449977980208 0.76527582759620616
-0.44010143132137558 -0.30393028918367437 0.75945091146802413
-0.41818980696610386 -0.30965748110284802 0.75832180007164185
-0.39536766094598041 -0.3046425092321336 0.77150863035863249
-0.41744778443654784 -0.30308709692479985 0.77088985683201328
-0.43882024879198367 -0.3005172068234605 0.76537062593185756
-0.4411917196866304 -0.30727874366298896 0.75223000068643686
-0.3949001910999328 -0.30795696010940038 0.76473900461301225
-0.39572956952174509 -0.30129049388475893 0.77700351725783046
0.011147586201720933 0.45877840492953287 0.79318503241272054
0.01256585247645009 0.44727047094398731 0.79578135395833494
0.021576113452908247 0.46741005300702926 0.78689185182239485
-0.0021893525244397471 0.46050264430989957 0.7971621245566054
-0.010262461326373012 0.44121683313849058 0.80445411624253182
0.030289502062515378 0.45500258557760037 0.78703408068027914
0.0074560514151701951 0.47550983302094979 0.78919203454437925
-0.41400075849722584 -0.27458104950155326 0.78742429187327345
-0.41532469384765913 -0.28621050233690348 0.78250664295843619
-0.40220384070510706 -0.2681670780452301 0.79289683870747218
-0.4243393720219395 -0.2677200433797724 0.78689134913034642
-0.43216904057308092 -0.28285423473905769 0.77859099394615416
-0.39789831159159705 -0.28355074790102114 0.78788423418951781
-0.41140129482459586 -0.25075116502290395 0.7958897095044033
0.030031117596511891 0.40892612008177714 0.79689255150035088
0.043433170087884054 0.40942250299585442 0.79117396803816464
0.023390067440132917 0.41875496533269579 0.79793912584226745
0.021322716187073681 0.39858273446151377 0.80171643536902959
0.038336286039875517 0.39367505203923553 0.79509000640572092
0.041599023039131183 0.42498005091149488 0.78927985002933565
0.0023714437879540085 0.40804709810012135 0.80691797403307963
-0.3541523979595611 -0.25366842465141942 0.8052638739940714
-0.36795141488528016 -0.25621053651702635 0.80313917443519789
-0.34579196176581828 -0.26184244626198649 0.80319020885394043
-0.3499626640068938 -0.2417751438299296 0.80903405439179688
-0.37152820526347041 -0.23686636751827944 0.80778564842811251
-0.36190085857410825 -0.27092684564635799 0.79861225487916898
-0.33402610082679407 -0.24849858358078183 0.80768259259750574
0.00057122529192096816 0.35821336098140238 0.81014566494271056
-0.013155769789522459 0.35584124091464359 0.81411614825651624
0.0091583600806607879 0.35042016704688511 0.80665097494153026
0.0044550159298852587 0.36954489893961434 0.80940141493982809
-0.0172108207111831 0.37433627583888912 0.81560848909707584
-0.0066742925554673094 0.34187517440190957 0.81053535270849686
0.02057135507318078 0.36309369449167778 0.80322056899830918
-0.3247458248663545 -0.20286097632878294 0.81673082377143347
-0.31156708884986217 -0.20270868274254888 0.81646343829989299
-0.33150147651973849 -0.19323197455846958 0.81741712270456035
-0.33311655841714127 -0.21266885445896253 0.81560718139788846
-0.31627536234407361 -0.21783022337530517 0.81455186165846794
-0.31375306622943322 -0.18773885117941233 0.81736167686921823
-0.35199782706826122 -0.20312188829723196 0.81545803171365039
-0.05962799807815769 0.33690408556561818 0.82005658619234079
-0.070401954415781676 0.34303318206746936 0.82195812319819583
-0.060717820600265787 0.32570052980374459 0.81807164140784061
-0.047617992812373083 0.34364137037465936 0.81971885945257128
-0.05736147661674873 0.36011211599392018 0.82233986766570388
-0.078099970619334352 0.32816876419646968 0.8197904521420738
-0.04284067611240655 0.3290841485921176 0.81635732912257519
-0.3438981409191092 -0.153452888985456 0.81570516730015341
-0.33379431827294581 -0.14533754897749529 0.81518790045936829
-0.35692878973008291 -0.15123815487059861 0.81456696259989259
-0.34246817986044642 -0.16495209192433433 0.81675895345281546
-0.32525991908209528 -0.15804467032658551 0.81661233127042765
-0.34765178701429433 -0.13681513673273346 0.81319623653048279
-0.36477192343075315 -0.17018057683441459 0.81489807997199715
-0.11691064946768126 0.3568160615332428 0.82520065699823153
-0.11877553242090946 0.36839362567280654 0.8262727596546755
-0.12730685154517377 0.34886213336232424 0.823988141919751
-0.10318256419736202 0.35441368399271272 0.82485490705553954
-0.095499831247192274 0.37336801923982382 0.82585161599765233
-0.13677946799729371 0.36180998869261027 0.82501281838558249
-0.11258321342048139 0.3401539469327301 0.82279217368642854
-0.40088572157012226 -0.13313571548693426 0.8068930648408259
-0.40004275269892287 -0.12170817072725158 0.80500784999285102
-0.41325229553053433 -0.13968904739934868 0.80564954410319878
-0.38954266335534782 -0.13962847863749317 0.80957081317260182
-0.38196115676443709 -0.12459339831546377 0.80798659313592669
-0.41870581822158748 -0.12464283720539325 0.80194336842579261
-0.40270979355363989 -0.15664999998068357 0.80894367281776502
-0.13840234308787383 0.40699353945792688 0.82556746402337344
-0.1296988000449619 0.41674488421481898 0.82506312168409512
-0.15234779864132583 0.40715489473018168 0.82450671910479145
-0.13113183023808384 0.39712491477551043 0.82655673009956576
-0.10971704895622625 0.40678855240789119 0.825964948239444
-0.14756281133018467 0.42237260951770622 0.82305608588007129
-0.14981631620639541 0.3920009759364993 0.82537475148878636
-0.46287768145735486 -0.15292867511151362 0.79241930666479665
-0.47209855456257754 -0.14463841901622937 0.78827682065335236
-0.46642566201563818 -0.16431098186054591 0.79136613949791657
-0.4487911071989612 -0.15100755859321538 0.7974279199861527
-0.45607397520381276 -0.13648699225472477 0.7933623541744268
-0.48334224566945516 -0.15708977300575996 0.78396537150764423
-0.44393995447262713 -0.16989774895426296 0.7991844706158735
-0.10856410149734572 0.45839164454646592 0.81657980732710223
-0.094144527015131152 0.46083724556033229 0.81533757004420782
-0.11762322596220276 0.46697248674855091 0.8141254841022838
-0.11260438332190051 0.44619095879927712 0.81991469810034912
-0.089898342155916661 0.4409278745097282 0.8199316833468262
-0.1009648405139727 0.47615237224169588 0.81066803818979394
-0.12955328070499267 0.45339653831247023 0.81769260632929419
-0.49172681971435761 -0.20280542888845254 0.7767263732171632
-0.50565931167024047 -0.20266345063263391 0.76995422339969166
-0.48459140385180477 -0.21290250095407459 0.77823783698172955
-0.4829399893394356 -0.19286347582582772 0.78228013077544278
-0.50073215721757947 -0.1871561624967123 0.77435552033303146
-0.50336830278791223 -0.21825149235991737 0.76812522110534309
-0.46312237890867924 -0.20306043998061518 0.78887985597634858
-0.045756715901865447 0.47937572688532154 0.80259455996469953
-0.034743963229988378 0.47229201702121432 0.80259582113405981
-0.044563154820099815 0.49138691263500905 0.79790412423516321
-0.058150843491213827 0.47281916407484531 0.80729201709792009
-0.048163491086941179 0.45490166150595862 0.8106217565180438
-0.026783093367855504 0.48793672239941038 0.79496092539934682
-0.063071466186061742 0.48877513787317056 0.80223744409750042
-0.47043018692219396 -0.25333381318084675 0.77438584901061658
-0.48090846025436296 -0.26147408091161173 0.76727786944590948
-0.45662046410049772 -0.25555484253096944 0.77938214544906992
-0.47233831466249698 -0.24182041392254694 0.77687529462279503
-0.49049024433013766 -0.24872455581306957 0.76672747399704666
-0.46611670081992473 -0.2700301003263037 0.77063941021013282
-0.44898965569659421 -0.23663875949245031 0.78730354322027951
0.91502162546179544 -0.35023683975543241 0.51132615359359157
0.9285352447852625 -0.31970325719869308 0.4898621803011769
0.9089277504656389 -0.34149634497876452 0.52969400786517884
0.89943404226299828 -0.38207362956609209 0.53304547796874013
0.91793015651012266 -0.3602299684318821 0.49242037591908194
0.93171537866374798 -0.32881695720552079 0.46943160080854651
0.9217822738594379 -0.31231022986785056 0.51021650375059813
0.893974449059589 -0.37207461403232461 0.54981789072983478
0.90211406069114408 -0.39273969996352548 0.51524471399622684
0.8403543207985239 -0.47841928739368805 0.59197347733902128
0.83755452775253636 -0.4640290325453536 0.60618513289155418
0.8185974353031128 -0.50843769757660318 0.60840506796431626
0.8415273320824318 -0.49138910708285138 0.57545897334351137
0.86168801434897524 -0.44687316369141411 0.57385481703818408
0.85781717574654981 -0.43414908553393428 0.58860362113280473
0.81707847352356866 -0.49206579592964578 0.62225165003298399
0.81875170194276425 -0.52274062948147604 0.59196776015046404
0.86358417833078061 -0.45888326737881874 0.55716837498957705
0.95672902637136603 -0.2417728578627657 0.43539588657546779
0.96043711498505968 -0.22004144259378849 0.4231423291034942
0.94699555055827134 -0.23973986121339216 0.46384484644376484
0.94970157945669398 -0.26533913270612752 0.45109833417148781
0.96183296077334279 -0.24594257980358533 0.40775522148130666
0.96633939336937302 -0.22238784312736884 0.39278271247091712
0.94937994561304995 -0.21975581362782257 0.45449644041400827
0.94115565964965342 -0.26136921764183663 0.47660195971935398
0.95399229648358774 -0.27145777441713997 0.4261912915887241
0.75847807838428449 -0.58213551594729096 0.64683971897045955
0.76195734506531732 -0.55743083035091479 0.65973697307596346
0.73981321439740166 -0.59882782230580878 0.65673606482719404
0.75355779076951923 -0.60350917650795166 0.630982773902653
0.7774718140092155 -0.56102002896088221 0.63572247254581749
0.77921304208756004 -0.53939932788182343 0.64891613988053365
0.74475400221917221 -0.57108841055273718 0.66949024759356668
0.73308971255334343 -0.62284318397246752 0.6409148308469852
0.7744748947556187 -0.57964466322293307 0.61963732638110436
0.94502036987425042 -0.16165261120999982 0.41332945880355149
0.92982608596110872 -0.14330558752395162 0.41869898574144326
0.9299249803871541 -0.16355524638252086 0.45110905987936428
0.9550449901956688 -0.18035072967032539 0.41196846941599952
0.9518257897557646 -0.16179830510838353 0.3772787213946513
0.93597334040987945 -0.14324142038923796 0.38188011095512098
0.91422875759139988 -0.14555016824117584 0.45740889809095664
0.94110897143664018 -0.18197222000393865 0.44814698987750073
0.96193690811470967 -0.18071543867876547 0.37726441725890247
0.68035317486810165 -0.616142638662591 0.68215225499330656
0.68620364610138196 -0.58209494997040023 0.69613788646195784
0.65746226570802979 -0.61105781005533499 0.68924476305052229
0.67094443274478466 -0.64411907565454873 0.66398083950709519
0.70131432512783587 -0.61602551636166969 0.67428138904916457
0.70731568987557758 -0.58342923564600446 0.68760587740959322
0.66339463350005667 -0.57634819603446363 0.70393914130643953
0.64741725569692099 -0.63879258876633815 0.66980442596839307
0.69241111774304753 -0.64350151289327617 0.65727943182053483
0.85099006968358959 -0.087454862523391269 0.45396438130415695
0.81265952143368336 -0.067914783935238449 0.4699958814431488
0.84038837834839197 -0.094143947397911071 0.49091390378977023
0.8830788734894327 -0.1064350005234713 0.43960184193440061
0.8510202004430466 -0.083727636606345052 0.41819122220088151
0.81035973830357222 -0.062346194530652516 0.43500528891552176
0.80479274683451252 -0.076788250293159638 0.50563265097999299
0.86986340914905302 -0.11105748400104387 0.47775542929051829
0.88564452380632419 -0.10445940990842378 0.40306219517346059
0.57129786364604829 -0.56799862855080718 0.70448859154422716
0.58289135185278595 -0.53656257417795117 0.72039038934773214
0.53473097187844887 -0.54551903446034955 0.70702407861903094
0.5555372711397174 -0.5914051453189888 0.68242890624559971
0.60353528543454737 -0.58664414293917178 0.70056524612888116
0.61237177022917499 -0.55339761726025616 0.71620682524731594
0.54917489926337859 -0.51605273375024141 0.72327868276285012
0.51661643330406182 -0.56713358830319005 0.68435111138982108
0.59025042015077112 -0.61189473015020335 0.67914859753819079
0.66074836166853179 -0.0059099320305514014 0.52094843483581532
0.60548343229417434 0.012996813349278824 0.53626297310610638
0.6565005282114087 -0.018940400285956144 0.55523344412675901
0.71598617533496922 -0.026564716744617828 0.50425059772549785
0.65705371380770183 0.002835141321969159 0.48589049741133322
0.60287991752509562 0.021878681734665784 0.50054714567253789
0.60098940996966643 -0.00035832138411340253 0.57087871491151865
0.71145719535433216 -0.038766488766095647 0.53846349835435059
0.71173982449978157 -0.018363881685917377 0.46966775933603555
0.39682512407746418 -0.45975499396140951 0.70502137536072729
0.41535366242805605 -0.43361200613352163 0.72431450191109015
0.34845874634095286 -0.4290884301493656 0.70159891187453671
0.3767856137839023 -0.47913012470594468 0.67944191953962951
0.44616739977406328 -0.49043570834139255 0.70724378423136414
0.46427875200843816 -0.46370783155395368 0.7251778896107981
0.36670788842285462 -0.40331893858108864 0.72240283906674119
0.32939010102202593 -0.44853812134030718 0.67480524807671749
0.4257870137389016 -0.50998553868244034 0.68283017233200871
0.25627666918417791 0.21094517388431699 0.60383427832605996
0.27536742355566401 0.20875469123532342 0.56150724761147952
0.26959561902906704 0.26505613509008458 0.58295864251071183
0.2320810800617982 0.21460149273109008 0.64518754140062451
0.24602918398719156 0.16227316202128977 0.62302866172856075
0.26607718521012114 0.16201022185778388 0.57646672354741813
0.28784600708607988 0.26191079223610869 0.54455771442721979
0.24720220896683201 0.26971912150688232 0.6199256734328018
0.21859585209350876 0.16200288312247391 0.67112629609138685
-0.037873165636715722 -0.29582893955739853 0.68221216802556595
-0.081729388051601515 -0.34026030066604557 0.67145606517855883
-0.029576302613375183 -0.31658175143101491 0.64728263167618394
0.0027453964248256857 -0.25683840972639016 0.69173492564441985
-0.050889047773052865 -0.2729559655744449 0.71494299250104221
-0.095238925937175367 -0.32034032397298384 0.69978229677025627
-0.072411224130900453 -0.3587560034146946 0.64059921247216334
0.0091346581498044366 -0.28060385039462182 0.65268850785487809
-0.0076319974639674215 -0.22775874021460907 0.73038953806045903
0.29538351387052086 0.43306951228614493 0.54222856509260264
0.31183727646180215 0.4287705647196387 0.51181489455756601
0.29490176599365669 0.48775523900528278 0.53641459198166941
0.27519306162484036 0.435907995398505 0.57163622983695239
0.29110582795123496 0.37765961073736642 0.5509974429053337
0.30802282094115641 0.37355567444204119 0.51868749352745036
0.31107297862906336 0.48385272270338037 0.5070475985313101
0.27503271219406022 0.48928168717387727 0.56460979874209571
0.27040445523292778 0.38130877423142806 0.58238772335277078
-0.22405135644114993 -0.46210643644126587 0.64469767560089442
-0.27458981586101872 -0.49378974151023586 0.63509814696308076
-0.21318729491947641 -0.47598183481393758 0.62266775382192718
-0.17520535779348878 -0.42589058206415015 0.65277218603971821
-0.23592613828347969 -0.44499851818683872 0.6643643910744832
-0.28548062125441476 -0.47685122113717626 0.6534428177357392
-0.26383180656185268 -0.50696445075937824 0.61425782486468572
-0.16470635553616342 -0.4410039310466532 0.62859416171380023
-0.18769881640924529 -0.40815539769168052 0.67470879653304405
0.2613586884903395 0.64533236447300357 0.52702779031943825
0.27772311648549908 0.64849869539252913 0.49591913230242718
0.23781129299530893 0.69268956272878146 0.53185140480002469
0.24188576526091402 0.63823955367015639 0.55691175781726776
0.27834082157405915 0.59455948097157041 0.52808274234720587
0.29462613933580017 0.59442824848760001 0.4980238831684472
0.2538031263495758 0.69958673738940091 0.50022040869876361
0.21912336511555647 0.68165609714888342 0.56219800053637536
0.25864277313468464 0.59107751049621804 0.55686850868180171
-0.43756320372380708 -0.55977191957346628 0.58418783210434011
-0.49419042495334564 -0.56965334107991294 0.56516960687498896
-0.43197450935413262 -0.5751352947858992 0.56062451957380555
-0.38160236157576488 -0.54317030918535902 0.60421051402164982
-0.44143292582839 -0.54001467776180623 0.60579464996337795
-0.4943478041310202 -0.54877258023185149 0.58887494751769998
-0.49182451006408534 -0.58621014877408872 0.5398271130944734
-0.37343775666196377 -0.55724511868285975 0.58237646647643326
-0.38855684168615001 -0.52474097836271472 0.62375398910442814
0.12613859287082876 0.80161195719119704 0.6025275590258754
0.13552903348072592 0.81859242829599177 0.5782475074197313
0.082861648830056561 0.8223231535504345 0.63658839286383606
0.11584756972006091 0.77992353951933446 0.62366336744036199
0.16873067387861004 0.77216007148936905 0.57055039581493205
0.18121460611072301 0.78630496120895943 0.54245387219441255
0.088791741691734649 0.84121013939417932 0.61617115392297706
0.076639100565264434 0.79861199441809227 0.65289796534973843
0.15469316480610892 0.75349641942733858 0.59639311941125328
-0.6582407468901742 -0.55178983932573011 0.54023486964768841
-0.7025995531237289 -0.5331842876221482 0.54265469903062713
-0.66757444691542711 -0.56712262399155655 0.51400054662480144
-0.60653264400695572 -0.56526445029617167 0.54231809375478846
-0.64485714129685268 -0.53262053294298517 0.56461101113294432
-0.68534609815876324 -0.51635257303241888 0.56588832738937644
-0.71523975190863009 -0.54636698962597685 0.51712236069576578
-0.61194436204801317 -0.58197615671299507 0.51557880765268438
-0.59772912079668128 -0.5445354698230922 0.56750016848291285
-0.023259347616990667 0.82075309075624037 0.71043523714445689
-0.026247041731339488 0.83773387046482384 0.69354898484372929
-0.056098795333071994 0.80102107780005949 0.72535033867430698
-0.019580555106068764 0.79950161575053524 0.7211896947276224
0.0083094200598918533 0.83186313426422065 0.69195436725451209
0.0077847956019415354 0.85057250026530884 0.67544037275428814
-0.060856138851978381 0.81605844572256725 0.70731194355074045
-0.050400123405991148 0.78215556819174803 0.73692546294621897
0.0093162500407599214 0.80854266084441062 0.7028134622891955
-0.76568254020594462 -0.46090764341935769 0.56504631963790786
-0.76852307909839912 -0.42892852775089302 0.57569735169467351
-0.78073122720791688 -0.46479908446487261 0.5389697793281143
-0.75615615404480419 -0.48774569840681198 0.55582806709254329
-0.74568851642470213 -0.45392978383021709 0.58730971125305564
-0.74971878725756347 -0.4251030435723317 0.59845660890002339
-0.78255677904662879 -0.42995833411599577 0.54869425161625029
-0.77164234860878012 -0.49491150302672948 0.53047455221157058
-0.73561228338900797 -0.47728591313151908 0.57785675701258543
-0.19360077678483889 0.70593445327639492 0.76545228763029649
-0.19884181490798652 0.71938250896947875 0.74440791761331848
-0.2494891191915927 0.66976034348615165 0.77782111451861402
-0.18545433109546999 0.69017660729892194 0.77953301427920763
-0.14081163276277081 0.74158648137879757 0.75219058136175421
-0.14648371590932552 0.75472237095907002 0.73181855385158912
-0.25446128793877903 0.68384649657543939 0.75634482433584105
-0.24063188246493591 0.65383436553036245 0.7922569344653696
-0.13310996215856674 0.72563682807496588 0.76571154726014501
-0.76995403493217063 -0.28932998202586396 0.6135349164624786
-0.77295202681931174 -0.2342714456547785 0.62661967118156059
-0.78197563596458908 -0.28763550282053507 0.58475808255017281
-0.76858066099721112 -0.34236167760552833 0.60032925685969785
-0.75307751974832349 -0.28995581415482835 0.63735961222702797
-0.75563330097754211 -0.23553171902101377 0.65049547855405465
-0.7851381671695461 -0.2326834073669124 0.59769967187921824
-0.78085302798344902 -0.3406721435590791 0.57187994393854957
-0.75162570645465254 -0.34227566474117171 0.62396756517317487
-0.40791510693681665 0.57951787962137713 0.80425938063625724
-0.41760917961095745 0.59399341815082329 0.78226776796976694
-0.45052731875765351 0.55398902139278672 0.8089179687448611
-0.39156678236759934 0.56423528279885393 0.81906393425604396
-0.3589972582655786 0.60614568966725102 0.79752176965039201
-0.36617009890765029 0.62094077521989455 0.77563115252362524
-0.46300995797874278 0.56769394225663139 0.78682548538130836
-0.43070108489054726 0.53975009926145323 0.82381514848715653
-0.34600330783789712 0.59025865978941616 0.81226104464625548
-0.79372545550647711 -0.087023697814708173 0.66089229094342672
-0.79839635180735258 -0.047066698988701361 0.67140906275086798
-0.8085619294217059 -0.081468980280199291 0.6321347620555795
-0.78600623466624142 -0.13148571046630564 0.65029008153259937
-0.77263150441515005 -0.094056990325968523 0.68428768586903677
-0.77612712266143924 -0.057031417604354859 0.6943360904228526
-0.81412456490279395 -0.039007646407764177 0.64297278953159887
-0.79975266599437456 -0.12808335235933468 0.62138168318952558
-0.76637650253970324 -0.13586074602928599 0.67396422890484953
-0.5237488594200177 0.46834749242331714 0.81080271863229103
-0.54161380793736469 0.47723039113865245 0.78798151807409567
-0.52700741735293333 0.43555580487456463 0.80835250971933825
-0.49768299936774851 0.45996137972195594 0.82665532603979841
-0.50959256576855905 0.49917043061568273 0.81198678002722224
-0.52640403280138592 0.50997439679909862 0.78947779874352775
-0.54522058722687239 0.44248543484672842 0.78522109776362514
-0.50078849749771714 0.42954437303819254 0.82465745267641744
-0.48463658890403949 0.48847299383438941 0.82740934991138682
-0.76800760263470269 0.046257464582715763 0.70688429304818157
-0.73979255322812365 0.067864472887779456 0.71930756566800902
-0.78269538060252919 0.060594996493722506 0.68077274840603552
-0.7870651371241445 0.019689207495211858 0.69439878075057071
-0.74706821014444602 0.029061262283500436 0.72694698436363248
-0.72080489512991752 0.049398938374431017 0.73822844079737049
-0.75307651221723004 0.08328121579681072 0.69416476754166867
-0.80276701117919591 0.032370739628441253 0.6673265386433278
-0.76478957322681063 0.0044113293730148467 0.71561150205629498
-0.4719039386589915 0.32876136142684242 0.79716551799772062
-0.48747892372439128 0.33154577495423998 0.77362729204559755
-0.44282432686695072 0.29361962159157029 0.79273498888505589
-0.45041205382101512 0.32817913964816325 0.81433321958769844
-0.49888446693628441 0.36499764903155546 0.8012942080428318
-0.51578142558635165 0.36876312526532079 0.77777014355672769
-0.45705956108762169 0.29585095243159776 0.76931795077564535
-0.42351773534825998 0.29394924553031981 0.80992060465832472
-0.47519556005630592 0.36302280906835122 0.81829704228926481
-0.6031427828432524 0.10204861353091269 0.75105203948343169
-0.5505589892772379 0.10753645745161813 0.7585403305283136
-0.61191634485320112 0.11656483645150356 0.72770898546612628
-0.655202102257327 0.094927395717181562 0.74181430814931737
-0.59152100668379737 0.084438865529969764 0.76784662853588914
-0.54091380514871157 0.091196308011329663 0.77500117820600223
-0.55837384635614018 0.12084402475461589 0.73550928014997963
-0.66533169691874494 0.11036221652828893 0.71807688314999663
-0.64114266314690938 0.076343594345749041 0.75907052705831801
-0.38698200234855684 0.20593850388452481 0.77867591935076153
-0.39988728852015043 0.20944475563073178 0.7564154469734734
-0.38376416927289914 0.18270249035966515 0.77475615343212945
-0.36958767483890809 0.20483756475610207 0.79507682199119234
-0.39791080945043433 0.23181975785566394 0.78325019222174186
-0.4106800983838309 0.2342993909522425 0.76053714583868515
-0.39730755138398999 0.18811056621911137 0.75282848099610611
-0.36431457796867994 0.17772013549536594 0.79100894116381859
-0.38103396388966426 0.23233589141637262 0.79997327611051672
-0.4296404585914132 0.13228388666830532 0.76875658035253469
-0.40511839868192379 0.14583481248183364 0.77005995702929586
-0.43878065462065929 0.14228763246910286 0.74684218274180192
-0.46177379816361785 0.12154397496603345 0.76705554486172733
-0.41918649049109169 0.11920701176436974 0.78438666842478755
-0.38952658457300326 0.13419507535998246 0.78587670614736371
-0.41663767876219682 0.15473571108691292 0.74832484170705094
-0.4696035670394364 0.13254735654386424 0.74476601496551398
-0.45336936475943512 0.10744022953029925 0.78287192020646046
-0.37205926269142608 0.33916691559505235 0.81128724808950703
-0.34644982479748387 0.34522557317825664 0.79939360341381538
-0.38501666368484977 0.36738565309493937 0.81306409769532717
-0.39874224205378184 0.3337674998018425 0.8204777960782379
-0.35633076644736272 0.3108457069300154 0.80888863000370637
-0.33473680898206581 0.31946151375958493 0.7979913669769092
-0.35509970490810983 0.37089933494366462 0.80019939766565384
-0.41623782407625798 0.36450665677960631 0.82322746576698136
-0.37878713400795871 0.30300759773511771 0.81710994983789886
-0.5508310303523366 0.030464138700993723 0.76499755489987842
-0.5863458198996726 0.01970357318253943 0.7572438250039768
-0.53809560748377339 0.014322457295837823 0.75364263026112588
-0.51328561904325631 0.039843213485638074 0.77168857532684543
-0.56443598316346288 0.047620947654960027 0.77381590779926723
-0.60549681071900718 0.037632562003109826 0.76579938966471128
-0.56813964453389165 0.0030313558658212891 0.74614685523527813
-0.50586992298470967 0.023999683102352717 0.76026947469398287
-0.5215962199832056 0.056410262901866265 0.78056696611617182
-0.39040727211306947 0.44303100347012553 0.81517906411996233
-0.35385066199861159 0.4399957998057103 0.80003519768668485
-0.37960372999450998 0.46514343472210001 0.81446324002037596
-0.42856234346089328 0.44715541699671768 0.82774634108245371
-0.39504046448444585 0.41961814928898983 0.81506271944829978
-0.35927335072302591 0.41851675444827302 0.80052177552495385
-0.34347120521836316 0.4604523846144335 0.79894841625429724
-0.4172324489430066 0.4711561401106707 0.82749679148878186
-0.43240516734157286 0.42158650251158164 0.82696474806341591
-0.66126952480798173 -0.024787872766332902 0.73225610869923941
-0.67468270398308117 -0.04450167211917655 0.72400691972876796
-0.63222012663070271 -0.040728826307531954 0.7228889052773817
-0.64241707914066526 -0.0076294460008720366 0.74058669067842708
-0.69177285072069028 -0.0075098943848677796 0.73882169704005474
-0.70655660726223624 -0.028619486518751791 0.72967327271032834
-0.64440161290123033 -0.059235528356861508 0.71544723680167954
-0.61573226541490789 -0.024362862413008543 0.73050889506052408
-0.67037384769757558 0.01053334659020097 0.74798362087161396
-0.31215632460917431 0.5283502698583411 0.80539593997342851
-0.27871026942956134 0.55177191881734089 0.79925151882190115
-0.34187673956767373 0.53802509516378239 0.81831530832361765
-0.34026904403814306 0.50696788252610792 0.80979918112738014
-0.28302594050379715 0.52037257286295713 0.79055547706627616
-0.2533897522457661 0.54282375452854859 0.78501123275515194
-0.30433028896259429 0.56238264392443327 0.81176833056286535
-0.37349852885704704 0.51569237409747659 0.82299190961597568
-0.30798793816845083 0.49989269950126242 0.7944662763674164
-0.68830888491427367 -0.1212497371477704 0.69985136790506108
-0.71799936193014935 -0.11159589923148777 0.70308769724870546
-0.68777887969506724 -0.15462370566156428 0.6910204046116819
-0.66005684154743161 -0.13067304709482308 0.69397082290178713
-0.68724127827360293 -0.092271795737801698 0.70799580650812777
-0.7185172654181583 -0.08024724289061376 0.71195404499633619
-0.71547723021201637 -0.14767175306261643 0.6936397426392984
-0.6613449855093555 -0.16158209410469815 0.68592726510985158
-0.65754889661279659 -0.10374647911837714 0.70122849015003719
-0.15150293808693727 0.64272493843948686 0.76855500916948549
-0.10762758520852897 0.67377048652258043 0.75542756964746594
-0.16354584721446316 0.65771881984354374 0.77972939465064273
-0.19671646528102449 0.6099110673052357 0.78065247014809769
-0.13999177509945432 0.62883000944276612 0.75583819143629505
-0.10026231267651664 0.65768105702502599 0.74333522267815066
-0.11580717238211302 0.69079216053569281 0.76599763833197132
-0.21320408128769341 0.62311757041938431 0.79229810504466469
-0.18050702437281949 0.5980323368411351 0.76746323748932488
-0.6883335046304222 -0.28406327366045869 0.65726792181775262
-0.71080871890293362 -0.28713744794359597 0.65858758542547702
-0.68840675634355597 -0.32881315771189645 0.64515324005738695
-0.66683390636070672 -0.28065955484601479 0.65355109615841278
-0.68756630524451601 -0.23756621557115082 0.66952355609888925
-0.71140580198972392 -0.2371138357318115 0.67127301833140707
-0.71011348494990723 -0.33520026461752656 0.64578820317325203
-0.66771801525217966 -0.32185419999777126 0.64207260046011805
-0.66473240098491926 -0.23795003639404838 0.6654233224872883
-0.0094505442185357502 0.72811836911149852 0.71520796540963327
0.015050064602246338 0.73150974038946326 0.70144363463215131
-0.01229024909180601 0.75177693315964556 0.72228019133809185
-0.036339651551168334 0.71776629018283544 0.7285914207398867
-0.007463332534201117 0.70582250102693012 0.70719005669676749
0.016609079491451434 0.70785885558322237 0.69571008247895638
0.012943885975089997 0.75680195261352923 0.70635128075142473
-0.040031712203912773 0.73930080808925314 0.73722793879722581
-0.033662115271340942 0.69730992475272902 0.71876689704229535
-0.67481295186962942 -0.42026384905060782 0.61761469584945194
-0.6986312230258942 -0.43287886679904636 0.61318122473377445
-0.6623148396839732 -0.43750795333917503 0.61281957010154642
-0.65253268739083914 -0.40748132287465455 0.61988706473856459
-0.68264041686073296 -0.39778656630305798 0.62477036523682239
-0.70525014576126399 -0.40896136704581248 0.62251196309337153
-0.68701461602370117 -0.45127465717463783 0.60603057719367537
-0.63926970743506639 -0.42401966971912708 0.61757169292630287
-0.66136959779373949 -0.38609712770415294 0.62471199246733033
0.095869416545523389 0.70532135565955478 0.65634268944731033
0.12400768501713663 0.68503639346194989 0.64252886411969579
0.10026356601395495 0.7302201435400788 0.65032627744358673
0.067237457265736683 0.71981797124532343 0.67156484625673341
0.092372270464797762 0.68194545121206818 0.66019010621416685
0.11776949913809362 0.66273993048058477 0.64969250363359388
0.13160357920625843 0.70850982713834898 0.63252752769971243
0.068659415087229253 0.74571534602295153 0.66972806255101602
0.066191224980474722 0.69567044313335291 0.67192490984267361
-0.58843789772194721 -0.47531776364056305 0.61477976360975428
-0.60873419697558007 -0.49305657949376397 0.60201907433562218
-0.55278840428121367 -0.48249691562591129 0.62091317120075429
-0.5689816002221858 -0.45905353773753677 0.62513921874454215
-0.61918528396075934 -0.4646088778968433 0.61132375494579838
-0.64215978413866803 -0.48086427119134573 0.60019198022114195
-0.5699331662469479 -0.5017256176307221 0.60705391793644026
-0.53594793775036664 -0.46495440034571039 0.63219291408693756
-0.59751331832171295 -0.44950668157374368 0.620276774784839
0.19038572581599589 0.59059820866442925 0.62000107520009395
0.20414205858486234 0.55090407547483555 0.61930824257223605
0.20517401618386547 0.60989931856471835 0.60384707307171182
0.17223979300647388 0.62703906273021337 0.62390627415794353
0.17739054381350616 0.57125514836240288 0.63313661668531673
0.18972401199324415 0.53302203681400551 0.63310030720172317
0.2202642453900204 0.56843490062025381 0.60283366089426194
0.18521182917024379 0.64770982967430846 0.60872299861672929
0.1610778665336583 0.60671870906505054 0.63581510914635886
-0.42596059294526756 -0.4722544944679849 0.65357662675372863
-0.43543493051589865 -0.49477843757954171 0.64049155188086448
-0.38101104013311105 -0.45803700397867675 0.66694616223837744
-0.41555370634091748 -0.45124698767476229 0.66469610380988176
-0.47044126696818955 -0.4813603401345023 0.64082552526771241
-0.48207769986373572 -0.5031262965051172 0.62688093097180797
-0.38823849472427019 -0.48074826868045412 0.65494729744936708
-0.37266238999273904 -0.43667714903850513 0.67735053219351848
-0.45817568897558836 -0.46127545393305153 0.65242336217281927
0.21592403827202047 0.42395620863364319 0.63435459250257509
0.2088378145109471 0.38047044691842447 0.64595195831373853
0.23412715073037396 0.4311026367211156 0.61813750413169855
0.21725193995523581 0.46690536048114034 0.62638123213782548
0.19932874379042925 0.41633667589707074 0.64781391058927085
0.19148678318468851 0.37798114198710264 0.65824309737775177
0.22789700822594763 0.38267230309096356 0.63044030350980629
0.23488909379863568 0.47840550555091205 0.60992177223090382
0.20119294101590732 0.45483459652771091 0.64035603589500245
-0.25532759233590541 -0.38836547712744196 0.70302904751758999
-0.25206339541175182 -0.40693576182023738 0.69337763750352788
-0.21839970138740611 -0.35593620816377614 0.71433908237212251
-0.25760573710767237 -0.371333275720168 0.7109267388792293
-0.29491294264765733 -0.41601112716698585 0.69180553363468444
-0.2959591312263673 -0.43668740415632912 0.68153351679057605
-0.20999263680889754 -0.37205637267202879 0.70549412996979854
-0.22601415116916693 -0.34167403841879374 0.72093690440502445
-0.29273669664390811 -0.39666515007518638 0.7006319990383878
0.15130647164168504 0.24936420335094395 0.70412986671418665
0.12352224191679542 0.20997635672509118 0.72515216064952792
0.17755842616765702 0.23427457665711643 0.6961940873701884
0.17589023035558843 0.29218289861205077 0.68201717704399822
0.12810090613714994 0.26406711868171212 0.7076566987785633
0.098087900129294608 0.23102170825750146 0.72458763536467341
0.15418855040997312 0.18636347373393394 0.72319973183763842
0.19878203814618969 0.28361762720047629 0.67023057907610539
0.15512466535077246 0.30092750043314959 0.68927105395208565
-0.12696470572863541 -0.23024246754023509 0.75309645200584097
-0.096997697862412802 -0.23888411581478522 0.75070302822648483
-0.1056613353004161 -0.18503574290188401 0.76435795853320587
-0.15540143484522337 -0.22459707425216541 0.75202020450953388
-0.15355945573670599 -0.27563205931832346 0.73988252331458937
-0.13230563121576169 -0.28697748995257094 0.7342559402024289
-0.064130029252424559 -0.18987369692126363 0.76702677120760354
-0.14199508151848531 -0.18281936320788747 0.75999163146768511
-0.17439894608450598 -0.26705483314925904 0.74193964223770603
0.025731507020024358 0.14024982927862004 0.74790270680971771
0.0094583897964120311 0.17183049304224793 0.74603684672617332
-0.0082272573686238137 0.13055678479311333 0.74569279206949068
0.045410899419172007 0.10621079444819326 0.7499210194920003
0.059885591250568776 0.15500999517482755 0.7474355813664173
0.037814576359673446 0.18449041709329483 0.7439750370228333
-0.018079454087101959 0.16463783849525854 0.74585280699981582
0.0033114029735100969 0.091806983321218422 0.7457478675549396
0.087564804658615686 0.12227527123526924 0.75107827686164552
-0.10054568559058294 -0.077442495647601389 0.7633028019223711
-0.11351560081854012 -0.05097183430413757 0.75586044384249584
-0.14127462903038168 -0.088050590762844994 0.76078751836119451
-0.092535282592545454 -0.10772855145953517 0.76932708593889632
-0.055448385435813152 -0.067637565503500641 0.76585284176355728
-0.069321766441367477 -0.033403635406535709 0.75493847352692356
-0.15230494040303311 -0.066801894299939352 0.75636755998658711
-0.13511278335778343 -0.11363252240191277 0.76411942121027576
-0.043488084904912128 -0.10359090602865693 0.77500979753038468
-0.30866452160807378 0.23407724803579982 0.79742526895799593
-0.32414065391066604 0.25779758846860085 0.80191090998367343
-0.32896866299219085 0.21928459928469074 0.80351549166697156
-0.29238775429075714 0.2122661333615968 0.7925076132161144
-0.28971529435116883 0.24976708648693902 0.78922092395574794
-0.30605565903922038 0.27111576819681882 0.79289684200413624
-0.3429436465935215 0.24575562762099928 0.80842971868445712
-0.31636166229192142 0.19283553700510381 0.79877976062218337
-0.27156585359058172 0.23079260562061921 0.78497840404616293
-0.40788226028551444 0.062818773621092797 0.78111637504829923
-0.40761096700617416 0.083533149906229467 0.78949850610129535
-0.44097020501801976 0.056119283481825974 0.77983837591411542
-0.40962846298927369 0.042795406127540334 0.77072533259981135
-0.37612709847251635 0.067743437566894674 0.78096682771278259
-0.37375730244401673 0.093771084160075902 0.79005882983285036
-0.44248326685204653 0.073912122254787646 0.78826101987539032
-0.44082144302759962 0.038485970014260781 0.76895747550151605
-0.3795159044018781 0.044491250870103513 0.77103854655607451
-0.22204400035551727 0.16736143797557163 0.7737426154676954
-0.24917655242832654 0.17893190444085982 0.78055091570222213
-0.24172791109937863 0.14125993691289382 0.77699922220556816
-0.19371601299227448 0.15760675627839837 0.76696449705804959
-0.20370581684918759 0.19089459118360996 0.77022643471577701
-0.22841594223293701 0.20144536867699553 0.77535530549833531
-0.27298046234598716 0.15348785412302296 0.7854723574403828
-0.21088731167497177 0.13039577734314806 0.76889982629593678
-0.17777084830191298 0.18236488339460435 0.76503397426371289
-0.28662894985964038 0.055935698189248886 0.77030044684097376
-0.27476119737812255 0.084267829510899506 0.7752287595908296
-0.31556130803364024 0.064388408371636202 0.77529322906432352
-0.2968753612024484 0.030153924697244427 0.76530774278224789
-0.25878576990088475 0.045356774140180148 0.76494193120314136
-0.24412369979544982 0.073060926768713397 0.76787432377802367
-0.30715032211305449 0.094528070703529754 0.78272081835868734
-0.32310401528970734 0.038067541722023202 0.76808127042484386
-0.27186789086715113 0.020038960789324559 0.76206903624867683
-0.10543411132044614 0.13364426077480746 0.74877786186200312
-0.074093758567251644 0.1281150194725065 0.74506164121943175
-0.098361213795892855 0.1645178570926833 0.75054556722362187
-0.13544504904120258 0.14079693256154385 0.75409012537394382
-0.11541357867610263 0.099551806753654493 0.74786418732029758
-0.078072011033944372 0.088947463484900527 0.74352157931015239
-0.071809293010226288 0.16184997599002016 0.74727319389617497
-0.12481608427739782 0.16918275567666474 0.75490577978147977
-0.14881709153656583 0.10993774376168225 0.75398183090587367
-0.17921573657604831 0.0063962531384534754 0.75056271562639143
-0.20388763876899921 -0.017481630345149379 0.75289282285037107
-0.15392207627423757 -0.0095488088009836325 0.74863687500813048
-0.15333308848715127 0.034153292514903205 0.74882156713172687
-0.20518256314873123 0.0205119338493404 0.75448231147303391
-0.22522364385508106 -0.0040018390117784047 0.75539417999545289
-0.18437297030339078 -0.032271695964482469 0.7517973456823086
-0.11942187256271816 0.01764120744371396 0.74547697282297554
-0.18452606840501826 0.048346059910412451 0.75419822314919527
0.87732031345337547 -0.32646187845644886 0.5846826041558606
0.86548931215463132 -0.32463878156478337 0.6004465404726278
0.86695900043114615 -0.34856346252947873 0.59723112541026713
0.88925464493144091 -0.32959521994081037 0.56677373277376319
0.88580100348666735 -0.30487017296935787 0.57326930455066738
0.87220293380980751 -0.30604066123578882 0.59170094249073246
0.8570302401729456 -0.34324532749740017 0.61029700686172084
0.87701100074248983 -0.35516451738908644 0.58215505446933302
0.89949666251562943 -0.30499890062141449 0.55248883775291158
0.82733424440906067 -0.41228760980253992 0.63688196752223969
0.8416269297765574 -0.39205899671866168 0.62372462912124926
0.82414930434667732 -0.39562213082639064 0.64316195444384916
0.81251918828506309 -0.43069707565376497 0.64960035644706715
0.83061457504925074 -0.43027668240040323 0.62857182619235341
0.8472592325977254 -0.40624659929323698 0.61354528690918841
0.83612928336137082 -0.37913267462137418 0.63193591565820739
0.81134972497579294 -0.41053206646411028 0.65437326937812745
0.81369615074620671 -0.45231416258265295 0.64272650381521257
0.89690672888385548 -0.24778930353597653 0.55068367994818512
0.87830167023828565 -0.25325193371956201 0.57552483169535473
0.89609331501972267 -0.26545754115800041 0.55586255368284632
0.91584438332245421 -0.24309142723304092 0.52252181993328173
0.89384365669877008 -0.23093801063236188 0.54826982768037014
0.87357586549107957 -0.23682625904484622 0.57458091620466134
0.87914438348134138 -0.27021455765552271 0.57890658189206134
0.91323937223277663 -0.26171295869336048 0.52987015767275758
0.91465870349835154 -0.2255863049593794 0.51823900818503543
0.76799349274555817 -0.46915293736662439 0.68274036855885512
0.78300709772711208 -0.45963860785874328 0.67258170585584964
0.76888212953755053 -0.44115388335965472 0.68593646386446272
0.75182836946446785 -0.47481213970509334 0.69225107244417416
0.76650398594788693 -0.49951618815085425 0.6774666003722003
0.78175860299373057 -0.48746433287556873 0.66715401728082524
0.78388590164417604 -0.43379080927117553 0.67588402609823794
0.75237890104408034 -0.4449645834408133 0.69547423538251851
0.7505086847520519 -0.50745171373181552 0.68698977539606698
