# XYZ point cloud file
0.18560586232345339 -0.22032101004680271 -0.44149234119198033
0.14976550336439459 -0.19040127283526298 -0.51247222465770559
0.21175963603455983 -0.035627677767597198 -0.50002354416592409
0.27323800064178427 -0.094539264265739942 -0.35838715665947374
0.2199026768542901 -0.24249639933776571 -0.36020270243334307
0.062749460300853668 -0.40868151093957428 -0.38445263279691988
0.017662608748373568 -0.45215992874257782 -0.35477290683638196
0.023905265821435914 -0.38605884383287759 -0.45667505804832709
0.10664765166206251 -0.35473317801178128 -0.41242398361169486
0.10119843690976418 -0.42230760920116311 -0.30315092318061504
0.056471585309773864 -0.46349558047139783 -0.27487928439786236
-0.02105685506141465 -0.43211289494115124 -0.42609956093381129
0.068173335870343008 -0.32933739899283454 -0.48532504716031827
0.14429221138270254 -0.37117746946481256 -0.32988127460438643
0.33178384740866484 -0.19776040912512971 -0.069042645876220249
0.30722645663095788 -0.19507769038458142 -0.17220283411777193
0.34644595438282305 -0.1332109320905242 -0.074633143744385705
0.35302987174004352 -0.19677947393956263 0.028834193302576194
0.31031257935560824 -0.25913239917108133 -0.059631213562611016
0.28276600560892462 -0.26083789794244833 -0.16504560554406039
0.32494449740205866 -0.12696965143700301 -0.17545340550461358
0.36516010216210021 -0.13540605607995962 0.024145586755198872
0.334274895523543 -0.25393999818035518 0.039185970865452724
0.20843916377798999 -0.40756557454432485 -0.011190648211060722
0.1647266602871878 -0.4423420189962885 0.0083364279004761871
0.17483427389749667 -0.42030960075114449 -0.11278981932880303
0.24798043165627637 -0.36515112601065802 -0.029943530382128297
0.23848642420930199 -0.39158740711898682 0.084570766793265334
0.19565407097055781 -0.42372243165493312 0.10448239729482742
0.13078082372407812 -0.45731890141517295 -0.090507369212523447
0.21568533412113472 -0.37495382006746125 -0.13450392060102342
0.27654172486529094 -0.35212361251624291 0.067708295290312512
0.39355945398190634 -0.19782831318006205 0.2102422481076604
0.38314651348888856 -0.19547833763052497 0.17030328785484977
0.40112719473362191 -0.15205718716023692 0.20559288273090351
0.40374396446360539 -0.20185605677690011 0.23759179224347682
0.38014762225027382 -0.24314375279824524 0.22189398716114508
0.36846921677955763 -0.24438532561978996 0.18157960535206619
0.39169534220531843 -0.14404549320561719 0.16679489531296432
0.41099743046570986 -0.15915624467216741 0.23220057712143938
0.39113739839509265 -0.2446548824440769 0.24909043378847517
0.30023338172787617 -0.35650101885205576 0.25942245929454999
0.26650392321360872 -0.38095537832868764 0.27570483784770644
0.28383455578635586 -0.36434349962278917 0.2214757473754177
0.33241223499696315 -0.32430192877291775 0.24721592270320308
0.31527123926025624 -0.35226745559651973 0.28513998185810135
0.28361241807128124 -0.37572707017876383 0.30007807478001591
0.24650967687150405 -0.39093233158489771 0.24026031542054782
0.31805636471597915 -0.3301015403733496 0.20782447036586776
0.34583559789957063 -0.32166933628144823 0.27355314550985299
0.39876064218298357 -0.040733485992762809 0.27667053584383894
0.41268353050418272 -0.051524726666297933 0.2862231659162825
0.40187262515574862 -0.072301847580035522 0.23937395541371265
0.38692745442818632 -0.027215987290535988 0.26360401035388725
0.39722580498937887 -0.013543085269489476 0.31870024448554063
0.41455697902846289 -0.024474892082816162 0.32162869885410295
0.41346445098593465 -0.082926486908839941 0.25659880973232291
0.39210386163632382 -0.058331049628088015 0.21505316615982803
0.38154633658060932 9.1919032534228118e-05 0.31349590197726357
0.19241036197872852 -0.39167688548887286 0.37752015492890967
0.21083797839260821 -0.39716602989283495 0.3350236904794196
0.21087156673972351 -0.39470512191025597 0.38819285592006791
0.1794473027686655 -0.38395132511847718 0.42301139396567572
0.17237958777328699 -0.39215374369008643 0.36447757557512572
0.18919421679361725 -0.4034370697814979 0.3131571127530241
0.229554601905751 -0.39564041175772657 0.35135651269643753
0.19852343683352086 -0.3918573119047547 0.42937506985329282
0.15881185099278033 -0.37880921253711863 0.41534972523287167
0.28152157147690959 0.65989886912279749 0.20804854715823468
0.2773890073500937 0.64582524948616682 0.27502994293341743
0.30477506611715965 0.59744433544142894 0.19963548331010889
0.28588757476964688 0.67588355453799565 0.13957643184443003
0.25115850679634816 0.71551968791365228 0.22507258560769156
0.25082043975390306 0.70044238035607309 0.28743375675458482
0.29678370008621247 0.58648153785604273 0.2712384925618761
0.31451323135694198 0.60896807050796375 0.1230291519965179
0.25103252630845535 0.73339884487248508 0.16241661011904046
-0.45705935086847466 -0.60020106031168285 0.27013928681905153
-0.39561736757596072 -0.5970974077843253 0.28899700441156556
-0.44431528522841035 -0.58545053894347932 0.33820001970152191
-0.51630440775918007 -0.59430942695265299 0.25570437535172263
-0.47109539845279613 -0.61565533480914658 0.20008322056922895
-0.40595758107311003 -0.61980291363238249 0.21614251701011894
-0.38532629050750555 -0.57688326508950771 0.35792759594256385
-0.50275560167473765 -0.58562153523694815 0.32225583739743691
-0.53198094211836444 -0.60305290010939172 0.187513819030734
-0.11980949262588876 0.34513477469814929 -0.72224823531053139
-0.17980400299995919 0.44873530384585214 -0.70901412964349486
-0.067451942474423668 0.40519685740604039 -0.68865482266083178
-0.06418243676278336 0.24377398827993413 -0.72041297884722733
-0.17350588585264148 0.27433492264589876 -0.74849686864551468
-0.23724588947984865 0.37694223295366991 -0.73888237606512086
-0.12334032755566361 0.5080351122755109 -0.67258057001278748
-0.016650865288135211 0.30527184950427344 -0.68991171351631297
-0.1135679772951645 0.17348542591306276 -0.74315886243228046
-0.31494219453373756 0.011819802063038461 -0.73559582968653892
-0.35057093937054096 -0.078391348085782409 -0.70648789018067581
-0.38544954092813805 0.097250092892015971 -0.73913913776411655
-0.27298851291781923 0.1044016110208188 -0.75560810278637813
-0.24843885786693626 -0.070769526294512497 -0.71859008908824495
-0.28404064356802 -0.15117595637649908 -0.68626706690554073
-0.42158694075195796 -0.0016987498377374829 -0.71429162445886563
-0.34211215790197091 0.19770098990868878 -0.75463919297337922
-0.20749539114150628 0.013140081616245781 -0.74242982950220215
-0.63522773052638182 0.72508034139407029 0.13540267565773284
-0.62310011052853542 0.68797056264531775 0.2093613662085613
-0.57251726532807112 0.79980974431491969 0.15328008173686783
-0.6355569310353868 0.75724297739066027 0.056784726028706656
-0.69568688638446041 0.64075419022089675 0.10877576613612688
-0.68404623728890346 0.60225725861619805 0.1865383580358024
-0.5600311239086454 0.76453552726693585 0.22280366766100368
-0.5734729862054635 0.83013804019773219 0.079035610977188059
-0.69541183229752712 0.67423726510386572 0.026604005616951087
-0.84705834352440013 0.36170613303312038 0.0056591718774149369
-0.88090415840724245 0.27085447030488546 -0.031784597678282067
-0.83587770189625288 0.32305283140000701 0.084937926321049212
-0.80347483764737793 0.45584659617989354 0.041993881933341637
-0.84685049877704277 0.39474442044823221 -0.076023811795585206
-0.88112350420378249 0.30238316508593116 -0.11033056790135343
-0.8697135670777596 0.23346797299883576 0.045279303571721108
-0.79233096631852973 0.41653617816997851 0.12250516893720903
-0.80291718266766532 0.48978969765549463 -0.041769108222264095
-0.58160003281683126 0.81759538358362183 -0.20148117733966756
-0.60815159442270073 0.80549112190781347 -0.11252250674559972
-0.52330694722884896 0.88536558824628808 -0.16417156946722161
-0.545617050672489 0.8167885545817164 -0.29163552426869255
-0.63849880319050389 0.73802766545615128 -0.24301264575629622
-0.66609471429496037 0.72485606894194676 -0.15033028949244082
-0.54843502890059004 0.87490397167529166 -0.080369064690797409
-0.48838226069632995 0.88293031310096626 -0.24997842264892117
-0.60187758888574716 0.73825442583009471 -0.33594167528575913
-0.79324353434697503 0.45452773876117519 -0.33216294378981936
-0.83146831395282661 0.35678440302708248 -0.35019158094582836
-0.81933736691656534 0.44316867048920222 -0.24597525709584045
-0.74618075452777255 0.55329055173380592 -0.31035439671086046
-0.75818787481980965 0.45221605965689537 -0.41659318069928475
-0.79780014815539979 0.35231345245711854 -0.42769912577511071
-0.8559574281155865 0.34735787476501584 -0.27046115891381406
-0.77353835312927366 0.5405077243119476 -0.21907357259928661
-0.71005016034947566 0.55272060567164227 -0.40036418334053131
-0.37882060268668627 0.70585683814170874 -0.55281337946373854
-0.44276457168296968 0.76175203784411549 -0.4705167270118551
-0.31981652796115845 0.7670409787018676 -0.50877307281519268
-0.31129606302646817 0.6337180284284325 -0.62344556467629908
-0.43794160664110382 0.63052890411809592 -0.59438369137501901
-0.50036410299913248 0.68532058919617078 -0.51485376481189371
-0.38496314055049818 0.82451901815001016 -0.42541919645467563
-0.25156907763442166 0.69366070565697713 -0.5815723894309982
-0.37143494217109174 0.55953044072735614 -0.66125232077247609
-0.5965459923074391 0.33300961380938882 -0.63813976365876568
-0.63594406305929441 0.22572829730471189 -0.6294878199904772
-0.65897145264695367 0.39127662071431957 -0.57249127146912482
-0.54889741015281213 0.44051373782718983 -0.63850188431600841
-0.52862580944270088 0.26179270465459153 -0.69039457262393089
-0.56685318638924198 0.15413975880034378 -0.67593613134129837
-0.69920183038467498 0.28611163970586562 -0.57004088707258749
-0.6104821365022669 0.49662142787174257 -0.56750921102791718
-0.48224143418572246 0.36989445666028575 -0.69593895335177713
-0.029196691682430373 0.81508777358536766 0.45410906558192299
-0.024256171112730082 0.82002529412827629 0.49530946272150811
0.0014079549373953448 0.82676524913304272 0.4432114435854424
-0.038689929503043216 0.81674449010263894 0.41246603403212523
-0.058746640751865947 0.79757507259424498 0.46046245258281415
-0.054699570420658108 0.80153722026105922 0.50342988317521575
0.0069982945608643571 0.83173421470216036 0.48295065172006174
-0.0078467205112787014 0.8283072825276323 0.40308906403659339
-0.068284253383429402 0.80017495520505488 0.41700510907516686
-0.73509297836732124 -0.39193307295596408 0.31226443515970337
-0.73031453899857668 -0.42424201613669466 0.3092195238217022
-0.74229138165667086 -0.4077349431624524 0.35221318546539521
-0.7347081046406494 -0.35838486307719153 0.31524928262291663
-0.73469668597786542 -0.37344093904546433 0.2670066256810143
-0.73047406768693102 -0.40722313128886634 0.2652422928632428
-0.73658062024753646 -0.43952420890432142 0.34817583525090673
-0.74206160200465254 -0.37390520148611006 0.35684249760178521
-0.73448144534810023 -0.33916326729351914 0.2681859883779783
-0.1033148338578906 0.88435378493956329 0.29021103528919578
-0.076920311481722542 0.8521947239370018 0.33080534572160947
-0.064148821000640566 0.89307937678329374 0.28511756088731771
-0.12957558607837871 0.91983584144516972 0.24802108735062711
-0.14161159954229824 0.87090369509532417 0.29104935782643437
-0.11110169896380866 0.83763238977168086 0.3325440347793735
-0.041581933435119983 0.86232744133280326 0.32435217704410624
-0.086553782591620984 0.92689076480565169 0.24425898849232139
-0.17207168628205516 0.9075631043435749 0.24808571398820134
-0.79449834515840312 -0.29831302723457276 0.091037491929888581
-0.78708845466619293 -0.34367519713551753 0.095365552172687967
-0.7657305887392426 -0.32609837141388676 0.15579099104995042
-0.79842699745949208 -0.25315031967560303 0.087199635057715524
-0.82474364038765724 -0.26997223627460165 0.02338633426867584
-0.81536943349964164 -0.32022279217325195 0.03009549105945003
-0.76013404676247709 -0.36662930156601192 0.1577755869157641
-0.76775375661347878 -0.28581138109041543 0.15348278123188452
-0.83057640482180806 -0.21972302017610701 0.018161736427950881
-0.17429463042133636 1.0039203499543996 0.10052011695484024
-0.16673338206723393 0.98188146638353346 0.15360111731072529
-0.12608448260256588 1.0056913102473304 0.10076286685465413
-0.17504959594381392 1.020237366651096 0.044142792753103455
-0.2226736448173619 0.99550449126208373 0.097713236482917257
-0.21448778376581523 0.97212945088129554 0.15187338844214171
-0.118991637751356 0.98538793023960369 0.15253521419974947
-0.12713489339352366 1.0202907129256615 0.045556554263166849
-0.22326531141570927 1.013205593396276 0.040261965215137335
-0.87570251654970444 -0.19722106317851693 -0.1752409143448021
-0.86342443218556564 -0.25663524333394555 -0.16293523139440419
-0.86759257960771097 -0.21817701039138526 -0.11101680795277435
-0.88391473354293693 -0.13714206081948729 -0.18384352947436686
-0.87629787950487759 -0.18070937915878224 -0.23730692431271233
-0.8640475059602466 -0.24138003017581677 -0.223697634766785
-0.85565562904013659 -0.27563988821634611 -0.10025120728073916
-0.87566037241582029 -0.16025087884155714 -0.11859260228706703
-0.8842859807486827 -0.11913977652115446 -0.24692211537902792
-0.1399724007611225 1.0341793287600221 -0.13878161628951849
-0.1577559552896341 1.0365064577216179 -0.076653753504650757
-0.095647828412196878 1.0297603994976336 -0.1340774135166603
-0.11591224515160159 1.021571223218332 -0.19962653571688804
-0.18603665916744255 1.0311684893078055 -0.14567632447656337
-0.20493434144120631 1.0323805421760746 -0.082282154901116344
-0.11123908264285041 1.0331603578594231 -0.073645797725554685
-0.076730608234074904 1.0173164259022345 -0.19081480316074517
-0.15959260510037937 1.0189113198728899 -0.20896604505765098
-0.84148400807392887 -0.1670345971204111 -0.40665329402378547
-0.83056104496451255 -0.22830955843487877 -0.38930110552377872
-0.85904169136476427 -0.16445447918755562 -0.35444454404545644
-0.84806857906122401 -0.10273412677753957 -0.42015214796900147
-0.81700135761689752 -0.17870111865220537 -0.4509748177632581
-0.80853788142502925 -0.23525040203528466 -0.43088620372388381
-0.84718116903719987 -0.22679722124605498 -0.33866364054868014
-0.86630449035061674 -0.10051930541617066 -0.36629999479479614
-0.82217961664818118 -0.11571831346385242 -0.46693972946676821
0.0032422314431213156 0.90258762584781771 -0.36226294838979856
0.051485346119351752 0.83784270113089754 -0.40635371852907076
-0.031687017935693659 0.89252432222180655 -0.38559731336383046
-0.043189150677921659 0.95603044950430849 -0.31247106689822823
0.030975306941908462 0.91304443216985409 -0.33266308552138169
0.078367464061387213 0.85488612937956454 -0.37346032219897729
0.019009601467894419 0.82374437270430911 -0.43342725513152025
-0.080902323418587815 0.9497224935675368 -0.33067365947659194
-0.01335261806081435 0.95959858754613214 -0.28972051432934876
-0.69433587655911877 -0.29038603194818091 -0.51570385742849401
-0.69061400524193339 -0.2345314562651343 -0.54419302342647868
-0.63938613948720535 -0.34309716745870278 -0.51593922985277829
-0.70043529006810701 -0.33763742725662316 -0.48230627841140616
-0.74321397873094885 -0.24165404040235058 -0.50591700425755959
-0.74298079737285283 -0.183253001188525 -0.52979942032801253
-0.63248174111614164 -0.29003136041537825 -0.54816508341570513
-0.64976642921371108 -0.38962784611483436 -0.48000157315793224
-0.74391984434456992 -0.29014711502626744 -0.4770223277719009
-0.16043796664585608 0.86296706122586186 -0.42838088252594325
-0.2098041956642403 0.84390359658823189 -0.44489531775805946
-0.22074430382622617 0.92331378035575173 -0.35588514411135475
-0.11447454885472307 0.87465662356445673 -0.4160460611379927
-0.09809388485842159 0.78885018651567762 -0.49269512360359313
-0.14406101019880341 0.76934114681317056 -0.51435802698441813
-0.27322401030241728 0.90389326866636788 -0.36668212920963295
-0.17097153185198688 0.93469145713150414 -0.35001290306694582
-0.056168186741973339 0.80165964414314628 -0.47432140590595762
-0.68783252952641871 -0.039663730093330789 -0.59676825305558656
-0.74816798300830833 0.020138221806124103 -0.56132780671510552
-0.6808885191111762 0.037487468656021351 -0.60728053202086296
-0.62140521990992559 -0.10626875450282511 -0.62064263746620452
-0.68932058154763665 -0.1089784230286408 -0.58404970654205268
-0.74708054457608752 -0.051619083506172413 -0.55688626545810049
-0.74323941620348011 0.098848864381962193 -0.56323406674559129
-0.61241106750668073 -0.031908362360703817 -0.63930884081056671
-0.62556771950376722 -0.17211374381623917 -0.60006771095626399
-0.34562877935780734 0.99962697301576975 -0.13451768187064672
-0.40447152782260964 0.97573054618707078 -0.13061186109637174
-0.36686329977614957 0.99559847919613154 -0.064534070427218065
-0.2887966231044517 1.0143328015622086 -0.14295777176098923
-0.31514336292528633 0.99129235856427245 -0.20642621743413803
-0.37241020418737614 0.9693261165367687 -0.20675669533273688
-0.42680169559745101 0.96948376772238121 -0.05685486527168121
-0.30910762117489821 1.0123889302462772 -0.075944263333455053
-0.2598415801286667 1.0042862900227354 -0.21121741199705263
-0.86843389142644101 0.10345823861745657 -0.4059563113060215
-0.88887769578706788 0.10068248728926221 -0.34325794581898716
-0.86844602133984494 0.18019471322760561 -0.38729838309874554
-0.83915514304958871 0.093246060995553881 -0.46415491178155022
-0.86205135414902245 0.031960125464282903 -0.41999590940444986
-0.88161468984176805 0.031183977738878967 -0.36110728369830197
-0.88997469056827228 0.17523337421025711 -0.31988071644631844
-0.83777283459909446 0.17158556972865383 -0.45113486415237269
-0.83405560413017199 0.020471885798544455 -0.47343456208233081
-0.38606595400104382 0.94130171783278671 0.1325558813121597
-0.44673393704055109 0.90794549093908128 0.15006130768393541
-0.37498195200084966 0.91266777755440287 0.19155851139764329
-0.32795979582939905 0.96495857048477196 0.11348132110977881
-0.38724489031824444 0.96466229824135319 0.069527772606278404
-0.44814206302733395 0.93370916912398538 0.083973715873318311
-0.43475866570709365 0.87705927414542983 0.21179123960977217
-0.31793235858160113 0.93842418023995899 0.17038732990237054
-0.32881940408696719 0.98606253539885957 0.052886543576227185
-0.90877693363869705 0.045259033446333634 -0.14137828877910069
-0.89902228320307842 0.014498224698786248 -0.071671159843144649
-0.91079399025385199 0.11225307441582999 -0.107445644730848
-0.9091780355699608 0.069872348767642228 -0.21009257538426956
-0.90090036977020094 -0.016934629917656228 -0.16785164265675206
-0.8918713197107826 -0.045027107969357556 -0.10006717416108585
-0.90032188253618528 0.078937731600465827 -0.035494404850489103
-0.91134268863470824 0.13941044690132143 -0.1791265208459602
-0.90113023469054754 0.005167758687637268 -0.23406557511769394
-0.27356128028103743 0.7996141163529199 0.33697384281388976
-0.32589216509944308 0.75906339917962928 0.36241112210951809
-0.2315244865885222 0.76350407674267773 0.37790594909517672
-0.22546013611056853 0.82991596340264173 0.31300079608067755
-0.31612192483264751 0.83955027246768354 0.293416791731548
-0.37156584631605738 0.80029934209754217 0.31776478405107011
-0.28073890181915218 0.72198150980564813 0.4035042474633429
-0.18695445077299294 0.79474998566340882 0.35439388555165585
-0.26430616195176043 0.86865250647845704 0.26970099578530599
-0.8051665660011329 -0.11060772644416325 0.13836124548166115
-0.76735554222133706 -0.1536105549175884 0.20334024483304869
-0.8004595821184709 -0.053621394936933631 0.1758095055342721
-0.84449886180592104 -0.065498568145174962 0.069433623932884492
-0.80428695468999212 -0.16099564716647027 0.10896962973253504
-0.76905976914348906 -0.20142889516338727 0.1752219597520692
-0.76010451406496982 -0.098596467962260306 0.23927517612759835
-0.84230214321136065 -0.0061616104352126555 0.1074295061595493
-0.84099443709249577 -0.11895609065498927 0.039531664467064714
-0.16834134274008905 0.71597741164416129 0.49981970984659896
-0.16857290115066736 0.71757910458374752 0.54048771799638473
-0.12715344614799615 0.74892501340241113 0.4818318635958978
-0.1768577826803322 0.72098894254919388 0.45876802945391232
-0.21313591519172498 0.67357345660336498 0.51920661574954474
-0.21566224163991876 0.67600392605761339 0.55720730534619856
-0.1256204822323814 0.7507263430460317 0.52472187311558738
-0.13604565309973216 0.75354225731265079 0.43845495716642791
-0.22171447431916907 0.67844800223186508 0.48105221630161948
-0.72413788566370441 -0.23480438264377501 0.35668419596773376
-0.72942384225692869 -0.28123342742022606 0.3360628202242848
-0.73214867315915655 -0.24651276224341453 0.39515088089992634
-0.71291419193229666 -0.18148266151028125 0.38283380719883958
-0.72500227050310218 -0.21676589550713182 0.31285490863673371
-0.73002441927773032 -0.26250446009673456 0.2893336219221429
-0.73671893261310628 -0.29452560383916088 0.37734345369542976
-0.72272450213344153 -0.19153244713025316 0.41742035189627025
-0.71398352252770447 -0.16381148058759853 0.34289656179144368
-0.50623684519055678 0.55411621165727298 0.39902273896984025
-0.45445511445622644 0.51250651760522892 0.45111403211881007
-0.44357828032656266 0.63607739528554774 0.39608392892252597
-0.55612907227387309 0.60014662347901104 0.34139142447645759
-0.56773195458766057 0.4628507737306663 0.39283409130084429
-0.51365799002393719 0.41628708238597389 0.45452310447742056
-0.39374221487557093 0.59687567117897511 0.44204528050153979
-0.49282613842293072 0.68020292950308914 0.34444471598358795
-0.61803236933488082 0.51152448084259938 0.32820113727176237
-0.72542123439894368 0.17866431750844045 0.30500254720489256
-0.76162667052972044 0.091308579506346993 0.26203006871642209
-0.67826462679876864 0.12930023509709498 0.3677670948226921
-0.67946926338169755 0.27144280806816962 0.34442848269680582
-0.77228481296853779 0.22970863927197699 0.23565413984079378
-0.8071097950745465 0.14163618399463074 0.1935540455713666
-0.71703398745124103 0.043361068645198057 0.32355316620492536
-0.62804841952235391 0.22042410128935103 0.41154325158936211
-0.72810105587089946 0.32288714327250806 0.27378972288634984
-0.40616704496767653 0.49832091403008538 0.6254817166932416
-0.42264806814304862 0.4482428664669515 0.62839432224045499
-0.44075872504852637 0.50489548071848944 0.63671482401863599
-0.39170645300597856 0.54690045833649048 0.63009863826325763
-0.37371560317505587 0.48994675324370718 0.61467043566287016
-0.39415442472686857 0.42611062773728803 0.61818706647343435
-0.45259935946576535 0.4652843042733843 0.6389446188581156
-0.42897865106853078 0.54221990654199537 0.64126491761351179
-0.35210564746980788 0.55287467640416632 0.61800871999050189
-0.68102849029649792 0.027751314872966691 0.5267806685451204
-0.7089178444906219 0.04570927393788727 0.53344982880610592
-0.64670264709341374 0.064662046986576849 0.54836237617788741
-0.65323361265200175 0.011501364843357356 0.52137042908848796
-0.71673309729220269 -0.0095609694031056208 0.51266061164559984
-0.7360916617077824 0.016325625565045729 0.52277201071169987
-0.6812362891751671 0.073779262541800866 0.55125183098727493
-0.60881457905375569 0.058691351184800102 0.54730605054302295
-0.69753855408237875 -0.038403052716994748 0.50221467072543413
-0.35088094533632319 0.46879025959443021 0.55964883531342013
-0.3430831500858183 0.47338124706765672 0.58309162865274078
-0.30690451162449395 0.54773119573648665 0.54984281556736625
-0.37277908855819558 0.46959840824194843 0.53127484190627938
-0.38846942099019893 0.38938710997754727 0.56796963733593575
-0.37350116006198186 0.39595647864014044 0.58914883579467381
-0.30569438046655545 0.55159970250985924 0.57840529474667501
-0.32182913609819691 0.55191815238584752 0.51825953938640312
-0.41915439843472979 0.38062890137773309 0.54244218442361114
-0.61248281542437877 0.021144080988821826 0.482389403147645
-0.65657488085086391 -0.050605916195802174 0.44726233859391124
-0.6163611193321088 0.0057417164853969457 0.50123540982853432
-0.56449973058543057 0.088178540382447823 0.51673679987403331
-0.61909828329815586 0.048076678035366784 0.45656095410074349
-0.66155012291924109 -0.029424973780920963 0.41620800161505056
-0.66432116224713922 -0.062088381932215178 0.47120903782301554
-0.56558403791901668 0.067273246517615987 0.5327366993621806
-0.56857567432351142 0.12493479543960456 0.4976008678103756
-0.4187630252185181 0.25173809095446675 0.58611635794214667
-0.40629654149194194 0.2461854822608926 0.59714800354974507
-0.42094632573930757 0.27498189272067342 0.58102680300407483
-0.43081526560255756 0.23579825531469517 0.58006728124772988
-0.41367834697986289 0.22287138780354976 0.59454162000064381
-0.40247545392738837 0.27994556406738108 0.5971663910723668
-0.44721447681856047 0.25939943549582078 0.5662191876705005
-0.46208484966685304 0.17763466755736618 0.57530921129049517
-0.48333912992763406 0.16824681673075562 0.56479750129196937
-0.45163134144299732 0.16864212905694126 0.58607932708865018
-0.45370132027260834 0.19665411112363468 0.57455210474887342
-0.48166971195634972 0.20045529811741075 0.55728810518658412
-0.4797674705842227 0.14771960093955716 0.57690585921505755
-0.43448746470137289 0.18728230862522771 0.58973785948269442
0.12419427741113058 0.81686634298595129 0.3402627450975923
0.13003729877013726 0.81151798246387308 0.38686687305782158
0.17060144235313562 0.79483556438518099 0.29367264986604408
0.11671470112526382 0.82725940150972466 0.2933953400054311
0.078251006246857227 0.82873634393613305 0.38549221692600522
0.084411331859944053 0.8283099998383826 0.42776381117615603
0.17541382031883779 0.78463066907523793 0.34559853405615987
0.16461722312200705 0.80931395382802063 0.24149124565988311
0.069896031798764996 0.83489170254970657 0.34293514184085161
-0.66140027209678942 -0.52524937722297849 0.27098903448314965
-0.62004214100300725 -0.55547092930165454 0.25659856724520846
-0.65678109970763432 -0.53263033587721298 0.32187097435988976
-0.69429413240637072 -0.49147733372619617 0.28792962621934765
-0.67046583012846828 -0.51766391931890732 0.21671885656649567
-0.63278331344455174 -0.5526383370392759 0.19616856676040048
-0.61091248039187718 -0.5582273887859851 0.31429557649478179
-0.69440232635524901 -0.50257574797534421 0.33241131977257654
-0.69942899145789961 -0.47990573246343404 0.23941564981944369
0.078458137773255235 0.88771540686952388 0.17780923462120818
0.13149216407154779 0.86835131407369248 0.12138150099514035
0.063650059260580663 0.91160704966327155 0.14398771154465015
0.026647955235645684 0.89627904825922666 0.22912914987674418
0.093403086828002871 0.86392101834458357 0.21200887074937591
0.14468370993522622 0.84728743837554188 0.15519590956988477
0.11864585776704965 0.88882601112366566 0.087908915458353401
0.0098828900113705417 0.92405442772268187 0.19306790034204577
0.043519637253116708 0.8697775056989604 0.26478443866284496
-0.72431130149164569 -0.48443127797232172 0.055351249309980366
-0.74468691609808102 -0.47029135228357066 0.0030361105161314794
-0.68626075561167876 -0.52891210508662201 0.033734953311255755
-0.70321386440943301 -0.49747720230572023 0.10797532160759525
-0.75337223454160918 -0.43741757301779088 0.077509328316472198
-0.77662737688986261 -0.42100156629398655 0.02059089389549662
-0.70406123938256826 -0.51710614498644192 -0.015721022046992827
-0.66712828689409109 -0.53961539405288039 0.083881161431174356
-0.7302462946400724 -0.45297217030582676 0.13344307777444181
0.032091240537157388 0.96021004262361254 0.026371838699370431
0.083142403706565615 0.93374066896105223 -0.017454266468631977
0.02967850163352069 0.96556606222149621 -0.021604021825071928
-0.022137941371446083 0.98307443571553599 0.064478023532802034
0.039301590870072227 0.94927367236943205 0.069560740212813943
0.092921333315938506 0.92301278594718061 0.020067721059403576
0.079900917739777172 0.9379101068532788 -0.060939922976622596
-0.023985485658794145 0.99161284804178307 0.013199209491978475
-0.015645151720002894 0.9691239640696373 0.11166400158736656
-0.77756426235443499 -0.42443852468942184 -0.15190306418942778
-0.77611178474038556 -0.41252638766193461 -0.2030638117354428
-0.7389304957475612 -0.47161167582300412 -0.15861586434488562
-0.77270939285868967 -0.43928730835653379 -0.10055941747104297
-0.81391120092046632 -0.37151507604269518 -0.14931025706269982
-0.81309970794683339 -0.35849173435018233 -0.20461680320552669
-0.73828478816359011 -0.460850056139127 -0.20535871637135772
-0.7319653250942546 -0.48701915154655862 -0.11175303679574738
-0.80848842396358789 -0.38717519434889769 -0.093252955205081645
0.045418289502901055 0.95282310974502982 -0.18898122643031004
0.05077085226203179 0.93941256628651093 -0.24496088524965548
-0.0022603465537635314 0.9868878326485625 -0.15942451905678234
0.038046988364548798 0.96162947612833338 -0.13098168517916106
0.088589183994921258 0.92010501440452064 -0.21973639897958125
0.09508655584921924 0.89908876256569636 -0.27823126596763836
0.0056794558598335099 0.97555421285527488 -0.21322963167361378
-0.012347842848196178 0.9933766352829233 -0.10094353937193216
0.083826138724803184 0.93178699873266513 -0.16310543788864901
-0.74334493262130097 -0.39600101933869686 -0.35562061641685883
-0.7800067652289151 -0.34360946000083176 -0.3621574404285467
-0.72615499179870457 -0.38907173895787706 -0.40192517498773184
-0.70828358528170643 -0.44210081805168 -0.35174413158326617
-0.75804743378487172 -0.39981959107450032 -0.30576505156900313
-0.7950869019458856 -0.34575985744849691 -0.31244704983324145
-0.76293346835520126 -0.33921008791200569 -0.40548534309513373
-0.68682150837258193 -0.43740433090078479 -0.39774581307980861
-0.72279629889872266 -0.44716458633756656 -0.302662486822459
0.34791276693913686 0.062217495615849334 -0.082376830677670279
0.35300128737786934 -0.0024921576073370644 -0.08082975325618004
0.33620738995984162 0.068798604403334768 -0.17259449778674954
0.34205109120464983 0.12718449270118781 -0.081984818530484366
0.35535986617413734 0.060141515680461922 0.0066851878549610833
0.36469941785222709 -0.0063749030428216988 0.012655279869247804
0.33807555873306905 0.0059232400948866087 -0.17474498352861645
0.33302844539968979 0.13020378644032271 -0.17015729688066192
0.34590192006471887 0.12858883696912182 0.0080401739803313971
0.015921523804722566 -0.50288180467461185 0.04424942729558036
-0.0088329518843700446 -0.51855398842012723 -0.044311614915070657
0.06753854070377581 -0.48827965152916919 0.036508631689644466
0.036857536419868948 -0.48197723388152192 0.12952699656845454
-0.036151185809027514 -0.51672256413986173 0.050955974751602004
-0.055430044237303001 -0.53119572641123802 -0.035994848309807176
0.038069220394237116 -0.5046666535921307 -0.055427634133058762
0.093772061684772451 -0.46739040962009648 0.12659186467323053
-0.02056994703134115 -0.49534540209442662 0.13698687966265827
0.34849037098366664 0.32609389911420883 -0.094185272831896732
0.34878320324597206 0.34868949113895797 -0.017970882158002077
0.3419428043140193 0.26019631791026143 -0.087110247529898252
0.34323242633365908 0.30989581915286751 -0.16733665830513789
0.3558506503235484 0.38795898819688246 -0.1024369853709147
0.35495760912564522 0.42087039102905238 -0.03278470201018692
0.3425889764825899 0.27397841904062636 -0.002596449578734325
0.33568070154675034 0.25133297546193262 -0.16715292646856061
0.35291729630411156 0.36466769167943969 -0.16873425307500345
-0.18984429848058282 -0.59098989610771924 0.0541213298809472
-0.13999810013517633 -0.56067584978825025 0.056321115442719276
-0.19766879548371624 -0.5823055239080438 0.12637038452864863
-0.23629254832016233 -0.62094627203841646 0.04916922730889757
-0.18786326511114204 -0.59481983530503213 -0.018182538222510397
-0.14569625623152696 -0.56857069438526731 -0.023304628450064466
-0.13859298248941809 -0.5456484092977868 0.13718269615517009
-0.25421349621283656 -0.61718363962312772 0.11298411041353329
-0.2267221012082713 -0.62285385750250022 -0.014358625493397666
0.32451081816386906 0.39781784200662618 0.22248567847726564
0.31525080201393474 0.40394217307025215 0.29505235476543212
0.32096263510296202 0.33171925076670122 0.24283995029136812
0.3351958307188771 0.38725981976007939 0.1428868709655618
0.32520574514979089 0.46453926353707131 0.20763184624392489
0.31479550045707283 0.46447938865824301 0.28196646230614797
0.31220649618825064 0.3429183871475382 0.3138797966615221
0.33049905937371571 0.31288018310566235 0.16515682361365569
0.33806646134370166 0.46217239604698257 0.12512986215682675
-0.2185003121650283 -0.52757445708221173 0.34642174980809004
-0.16194878082820507 -0.49109229391954728 0.36502041613970548
-0.21955189338324427 -0.50751496203881796 0.41308046286055289
-0.2756408952402683 -0.55963820642161899 0.32816085972066134
-0.21425547067406103 -0.5490335146233879 0.27395761405400498
-0.15200253565770866 -0.50915358704902303 0.2933473374667479
-0.16645512399281154 -0.4727112863204036 0.43066757579464116
-0.27277487425207042 -0.53711727211489058 0.39614967248195421
-0.2764819841186314 -0.58528452089889749 0.2540750403021762
0.31827404163182815 0.15728333810567707 0.33541715076490919
0.30849031135468086 0.16929446891484048 0.37396502075999427
0.32257685370624761 0.1139578484088079 0.37000787118982847
0.32857944091888563 0.13818338971447791 0.29463725142866287
0.3164990333306878 0.2094076315916481 0.30070987050225656
0.30745196755812293 0.22316385754654144 0.35397563711277058
0.31153205266415673 0.12466124231999559 0.39713674539327715
0.33440828945535328 0.097017893820454393 0.34095802512497703
0.32593810644343335 0.18664972601521607 0.24339126815720533
-0.00011145092724444694 -0.38490145861249436 0.4383888242559344
0.045280963041626821 -0.35815944319873427 0.46680634727231163
-0.009523948210148056 -0.37231207596985993 0.47293221459729534
-0.051421739481361736 -0.41725020315790551 0.41086478562593193
0.014780741518707882 -0.39612573045781235 0.40107013735059688
0.060822028275716908 -0.36872327338099731 0.44100478473246574
0.034683679387454328 -0.34674341187594004 0.49015939384818902
-0.05992533599280013 -0.40262380076231297 0.45974692792492705
-0.03623408375335721 -0.43013853681568681 0.35765164391605386
0.35891678968320329 0.053129268413005366 0.20187597320496109
0.36648081876397975 0.023968305483955545 0.22330798864816864
0.35980814985517162 0.055958674683857255 0.15665810736170541
0.35049266485814917 0.080169658013431788 0.22481255068577932
0.35751933123033447 0.048711471134759217 0.26960627546620813
0.37159441373627222 0.0062362526764626544 0.16709544033338861
0.34775710916577596 0.10727509463921903 0.16552548569929487
0.081876599413575862 -0.41838023138653174 0.31168851265390302
0.071124513232585368 -0.4353797078838082 0.26999430681632242
0.11300308572005761 -0.40736207132344426 0.3294412043739528
0.060747023329239577 -0.41302853054021937 0.33462980743140858
0.026199794674902674 -0.44014610674130428 0.28189880232647935
0.1180947411692989 -0.42510702201731582 0.27502393347053911
0.098316796095869102 -0.39241329079945669 0.37414017254530946
0.28434167544461281 0.15551635405821174 0.44087247178718697
0.28196797094371273 0.17275673346867765 0.44419917524275354
0.28253944206725856 0.13057985308968345 0.44886989914552444
0.28988611762337868 0.16508620668812674 0.42870519796487044
0.28931308399783395 0.20267186884649482 0.42631899262593426
0.27850568746108983 0.1425046016401566 0.45563358647546848
0.29068230378843524 0.12886174832815203 0.43729077511745584
8.9495337653552887e-05 -0.32861847984824333 0.52695864902847633
0.022251805328053778 -0.3126992763821973 0.53080465570673308
-0.015745850839145023 -0.33434389572348944 0.53168652195496369
-0.0072471423530080098 -0.34099706407526054 0.51820006906171356
0.026280183102231278 -0.3214045110733838 0.52201073208208149
0.010719889864332657 -0.31357330694719199 0.53774080548474612
-0.040774685686778375 -0.35961172344054154 0.52038578591294971
0.17409330218972729 0.5984004720658137 -0.48402878951971862
0.19938529701681612 0.62275731396261125 -0.45677236029997104
0.2068738716829342 0.51738020218616187 -0.48363606432848893
0.14711853690341875 0.57452629978237713 -0.51200658475196748
0.13815394727254754 0.68222273271845091 -0.46953334843325589
0.16403280986009577 0.70569174748252206 -0.43895520273926775
0.23196336098091419 0.54442225930143207 -0.45868316653167041
0.1816256360235543 0.48691937512487538 -0.51150676043259113
0.10954812255207226 0.66190677124561803 -0.49838896927769094
-0.45512052246572143 -0.4755953881244831 -0.46765146339229419
-0.39413262150247858 -0.50798829438856674 -0.43204471573147835
-0.46783109159081437 -0.51602610108946312 -0.43350108800909892
-0.51782933662653285 -0.43799684065116357 -0.4922708891510833
-0.44279430426423516 -0.43247134790580055 -0.50299900839656586
-0.3783216733344682 -0.46845273357118833 -0.46757949034507551
-0.40770873257048434 -0.5468434838105044 -0.39845877488209863
-0.53092553447038981 -0.48099955421459706 -0.45667004411241929
-0.5071574450690427 -0.39134321557205098 -0.52765483573894323
0.056747135426906389 0.51527873882254305 -0.59460149516402705
0.012608389570035475 0.61070527203413705 -0.57669036831796372
0.088854689267736972 0.53473288483194015 -0.56726281586218841
0.094484346201180305 0.42328322330549795 -0.60078717899729894
0.021322070254346806 0.48923273557450309 -0.62278452034096776
-0.026294578114788622 0.58732586815576793 -0.60428775217919328
0.047177501033285899 0.62836522616016821 -0.55104744677607476
0.12561789370979354 0.44147081169851277 -0.57124552240524329
0.062446100888596243 0.39528188220884791 -0.62859298168238098
-0.41361564770424342 -0.28791958447165211 -0.60810585217161106
-0.42326535726439007 -0.3396628425748569 -0.57389557559949778
-0.48168164495363847 -0.23381033897528866 -0.62528769863536438
-0.39945462673133675 -0.22937098797577932 -0.64083821344761871
-0.34991659525980934 -0.33518103536159027 -0.58344975472641658
-0.35744333506729276 -0.38287623377759955 -0.54486102518976698
-0.49065051674093607 -0.29040966177209837 -0.59434875514598029
-0.46886554291634319 -0.16892471293528891 -0.65526851693341481
-0.33523316945272519 -0.28350199013533245 -0.61766881368977411
0.29309834382440164 0.34482725577184781 -0.37201533722285485
0.31534805722628328 0.31711194628130668 -0.30792555570283286
0.2788726464958749 0.3019128116291187 -0.38629138077408864
0.26663864986188412 0.38754335075471941 -0.42634717592045379
0.31170526984362329 0.38289095279748453 -0.35813507393405875
0.33090353825120333 0.36047225049620041 -0.29826704087123135
0.30411902501890298 0.2700625729683418 -0.31759893764677083
0.24811432091147045 0.34719826624501349 -0.44709297868666059
0.28844453667262371 0.42157336038759391 -0.40791110946999098
-0.24678610041712779 -0.57521784514387764 -0.24730241909460815
-0.22062971566239031 -0.54928122532330792 -0.26832460759911425
-0.21535937272515726 -0.58708974691002536 -0.17000294067937549
-0.26876778323898082 -0.60632382490839831 -0.22404263282630435
-0.28795913573875193 -0.5578681487673991 -0.32021910528192565
-0.26503876071738697 -0.52755515498009631 -0.34818045304810274
-0.18491262562670086 -0.56307373949026573 -0.18594892659783008
-0.24230861184678532 -0.61618361370370889 -0.15196510226683796
-0.30618133607442932 -0.59204447053668163 -0.29183321722193356
0.27023541153010078 0.13886446423234231 -0.41310715045783886
0.2686138865353474 0.075209809224044799 -0.41919017391794466
0.24128532990819118 0.17259547178019019 -0.47610130259970962
0.26920010480005774 0.19867999920251461 -0.40695369698886041
0.2968796004003873 0.10762682399429246 -0.34062182151379194
0.29551437776264711 0.045336218337173641 -0.34656229233172703
0.23995504763770314 0.10736617091552786 -0.48169876817748603
0.23752941226662821 0.23808158012768393 -0.47213824146614847
0.29642208457103386 0.16550219014648865 -0.33409704815455654
-0.11274199045339034 -0.51347649405374285 -0.30143412348640547
-0.15079198406307481 -0.49543339137358344 -0.37572640943076352
-0.070803452579622783 -0.502825531271755 -0.31203646510309713
-0.074233318512667595 -0.52433928152331966 -0.21980829027958038
-0.15298780929061379 -0.52058764070233432 -0.29403141428047352
-0.19490262529704599 -0.49887526160336682 -0.37424107528073253
-0.1081992781668871 -0.48570493012348387 -0.38355814401925864
-0.032209563799885335 -0.51263989768975715 -0.23223384913775511
-0.11403318141260028 -0.53358178142803792 -0.20973944813590606
0.16485761107418001 0.23153880606810162 -0.58775274353886131
0.15063817684350522 0.27568275179611496 -0.59493352888118911
0.18625508439903171 0.2214413846239382 -0.56600692543108611
0.15601333074837942 0.19757856523029466 -0.60038333905026642
0.12827536022687386 0.24641571296151071 -0.61701742335126775
0.17630940444390436 0.28350014183885597 -0.56593800638543401
0.18332184988329164 0.16504573835180142 -0.5725624310726698
-0.21680725520871241 -0.41913058485849725 -0.51868989215657657
-0.20504500233533424 -0.44555524430302601 -0.48771893649073761
-0.24817521175987045 -0.40438065301634496 -0.5346807055383207
-0.19692619548583673 -0.40407364524812178 -0.53310238680410205
-0.16889939309036794 -0.43523086153714013 -0.49411494324004568
-0.24721753368742017 -0.43862539839843517 -0.4959661002768545
-0.23320413268388374 -0.37000393794234154 -0.56370995935156265
0.15492329916826331 1.0820586735997066 -0.17113633836860548
0.14675510200224712 1.0874838871355168 -0.17727206615251606
0.15170993024573565 1.0456016410675362 -0.16364673665454521
0.16566221960689653 1.0750226977455535 -0.17327469798401895
0.16126937804740138 1.1208671943399078 -0.18113982662195871
0.15378445851920092 1.1286300343047642 -0.18715840557688848
0.14303797507516147 1.0488807350006124 -0.1698326610877865
0.16278944069393908 1.0407138662178135 -0.16565078769210684
0.17150928610809385 1.1114485130482148 -0.18349603093833763
-0.8074128719480389 -0.56328535800930613 -0.35208650203458441
-0.78368752954684684 -0.55351219350665926 -0.32663391608906356
-0.81204757282214235 -0.55193247528580225 -0.36605556343340262
-0.83165564151237548 -0.57694040553472203 -0.38018224655987387
-0.80034375161463622 -0.57644750529123712 -0.34385673155406871
-0.777921012243729 -0.56734852631282462 -0.31947457832840298
-0.78708766737433689 -0.54132329856493033 -0.33962320761535403
-0.83761447179779858 -0.56669124678491345 -0.39516286580849563
-0.82317402402265683 -0.58920367188820377 -0.37083451470360917
0.20431736718669774 1.2491504499886283 -0.2231651120678218
0.18554436656954765 1.2065241850632082 -0.20738901365460921
0.2123521967355016 1.2326071419460329 -0.22638656535524412
0.22791342539895415 1.2856859714252129 -0.24051432187130201
0.19928567159865757 1.2637278482726253 -0.22786552043951197
0.17962879204680854 1.2189869779162066 -0.21268309404602617
0.19445764490488188 1.1922115257128933 -0.21032820834634736
0.23480785169466056 1.2672345740658417 -0.24394200185299797
0.22393787870190224 1.3020725022158572 -0.24458268606089817
-0.90539606434267172 -0.64870627106426337 -0.47206144345051781
-0.8929445045232649 -0.65749903814388488 -0.45939686764373738
-0.88200282090671045 -0.61915946913133757 -0.4423190450581434
-0.91515627098036445 -0.64236806223073017 -0.48930004485321776
-0.92388227089193342 -0.68410016215109326 -0.49585366378749274
-0.91047164662863966 -0.69120635611159642 -0.4825851455483815
-0.87074442422814169 -0.62927342179450763 -0.43064476354255732
-0.89059309820925359 -0.61141512808853149 -0.45904661700159222
-0.93462837958151945 -0.67945091883007047 -0.51318224955295522
0.32840265180191824 1.3191307735827242 -0.30099346470741928
0.29076681279119859 1.3226113689506147 -0.27934036740841273
0.32967114614216286 1.2981701072657308 -0.30403396613130518
0.36761552386332347 1.3018202623440194 -0.32456760902198939
0.32923356197355014 1.3380722795061568 -0.30385459794877051
0.28974931561754724 1.3412561876041145 -0.28238210153566806
0.29424112369326466 1.3018557653636853 -0.28274779896990232
0.36656462037805299 1.2813572577144696 -0.32688576856688684
0.37036216637292413 1.3204445665576219 -0.32764215335130009
-0.92536446152007912 -0.82399131326910247 -0.49983127208815581
-0.91121305925067653 -0.8227677673571735 -0.48869633869106033
-0.93497516137900671 -0.77309500197584569 -0.51038388293943437
-0.93734046660966608 -0.82706345272184434 -0.51392576243153543
-0.90641241415096807 -0.87532219291208446 -0.48074455326562526
-0.89288560174863563 -0.87074352987536463 -0.47134751803781383
-0.92065791494308735 -0.77512756169345243 -0.49788369111690878
-0.94688056966829937 -0.77320815702819867 -0.52609254213899059
-0.91807043418540524 -0.88141306308948153 -0.4929977643478205
0.47576638016172029 1.174834748127539 -0.40619699642346335
0.44308905305911117 1.2281008685369212 -0.37877059582847228
0.46862305431319395 1.1604557240171134 -0.40368693922816279
0.5028555398166934 1.1140226996019407 -0.42914244418144742
0.48339590277781375 1.1885068363424682 -0.41316595773019826
0.44933845498699476 1.2440813998920155 -0.38395688235393077
0.43771314430069852 1.2109596852347351 -0.3782282672079042
0.49431021898959115 1.1029834907081089 -0.42465121826002439
0.51152081569618713 1.1248111452478404 -0.43805302088973708
-0.80049350962492183 -1.0038934715748418 -0.39546210835139317
-0.79184025503042221 -0.99128691356940202 -0.39157243246605195
-0.8427704965579409 -0.96780257194935659 -0.42700562762124383
-0.80858561444759935 -1.0170699041542688 -0.4029266723748095
-0.75369873965310663 -1.0303064601796508 -0.36160434922915918
-0.74750735498764964 -1.0162151553037988 -0.35931674362829957
-0.83201793560151227 -0.95734151574990645 -0.42136248166543572
-0.85247943011299177 -0.97911623075873622 -0.43581655592228552
-0.75981498286280014 -1.0447201982243171 -0.36799973550940696
0.53673849269664642 0.91108945934485908 -0.4400220498606654
0.53362228966452274 0.97994199295730267 -0.44750077442758818
0.5267867013548253 0.91228762498976324 -0.43185550185837562
0.53314385350996285 0.8435293798689506 -0.42228164376356858
0.54588349721385498 0.91056985207297203 -0.45341223761190108
0.54303277753370693 0.98348337510754724 -0.45978208310785851
0.5236739606432983 0.97684894786372112 -0.44003529052831264
0.52355132486351241 0.84896577212556223 -0.41398232663186219
0.54172626491286624 0.83897414635799539 -0.43628900177491281
-0.60381637109589537 -1.0335907106604412 -0.25159883863272842
-0.60630735580510597 -1.0197806785654167 -0.25281525914718145
-0.65391750240530033 -1.0453556472805201 -0.28934940267724907
-0.60243423787845407 -1.0472502782273378 -0.25652922040545623
-0.55496990924559708 -1.0113415756552795 -0.21282823983021773
-0.56045090089204586 -0.99902290829668527 -0.21488871512391028
-0.65339385183751197 -1.0306741408513895 -0.28960580206943715
-0.65520668489700939 -1.0599871649559298 -0.29452309821955075
-0.55091324797515207 -1.0235007149744528 -0.2176083600772972
0.49288429267498024 0.66584719320591057 -0.31873063051823447
0.5102220120133264 0.71977700385907506 -0.35854613706863764
0.48580183625966011 0.68205538568566171 -0.3134829720810568
0.4728155745808349 0.61773521520689556 -0.28101398426751889
0.49888076654695679 0.65136739993921122 -0.33121424841742714
0.5171820526053259 0.70819146578748382 -0.37200522248373424
0.50212249325814751 0.73273951009847049 -0.35181730349148055
0.46687990213225883 0.63704897185469855 -0.2773699828734959
0.47774513731670265 0.60059118049255678 -0.29241255769039798
-0.42621157306052176 -0.90027854489264891 -0.094769301487285129
-0.43960739920718239 -0.89497750070867066 -0.099201937381048891
-0.46522169529434354 -0.94251717454444095 -0.13241467456798747
-0.41522459400707906 -0.9061230992483601 -0.098762816055431912
-0.39224082968611901 -0.8562251654357369 -0.064099121503848194
-0.40795345139819278 -0.85371826874707579 -0.069145066990117784
-0.47617952606388486 -0.93457234408478618 -0.13608968119133177
-0.45632156568073701 -0.95066842791389727 -0.13671529701945861
-0.37932931394272146 -0.85963986432647521 -0.067920656036324203
0.46797845267370358 0.72751609651015547 -0.33096328695358346
0.48149936827477591 0.76947673479082312 -0.36478063808129801
0.46415397313280093 0.73895748671346062 -0.3436451299229607
0.45261993156107561 0.69066548342323431 -0.29980877922932248
0.47282263935055596 0.71387210231032094 -0.32078322696948391
0.48716812320872305 0.75836225826694947 -0.35593185667459332
0.47706279117631339 0.77887833687613461 -0.37637111469544471
