# XYZ point cloud file
0.15484036606831536 -0.2785847053584547 0.76565958863321149
0.32449244825822815 -0.062705777978684429 0.64378801999179647
0.33027130063605298 -0.071192702095794064 0.64026635062459392
0.33445591571784805 -0.050817321105367498 0.61898692480301609
0.31652053796822827 -0.05393741935661963 0.64772708204672713
0.31357422917421135 -0.076582625883273303 0.66581239494890987
0.31851461527795139 -0.083740159633470673 0.6639991598799776
0.34099134450014496 -0.060790633442586971 0.61408260630850175
0.32566044635775199 -0.040651416537515993 0.62433503617164643
0.30635027139665821 -0.068914674608249488 0.66826028723112918
0.19914952378804979 -0.29586167954784914 0.7742293703320775
0.18691677370146637 -0.32574467240297283 0.77463434000211595
0.20568879806114582 -0.30391687474275214 0.77419616104539435
0.21088139380948845 -0.26723204354006797 0.7710537352332214
0.19143382472836901 -0.28550153849708587 0.7730451865932727
0.1784520118923193 -0.31347916452573626 0.77317245798026513
0.19419722100065728 -0.33564442098306485 0.77466819867012116
0.21683802703886551 -0.27316963237388259 0.77110235023966067
0.20370449186239614 -0.25869252576342228 0.77003765206680874
0.17347644676111562 -0.035589377632929804 0.71310045342901651
0.16359335473168446 -0.026202740783143517 0.71187295633241787
0.16643422147329612 -0.050531208115035385 0.71853108913123043
0.1859538555299981 -0.046374908033272551 0.71493614798338823
0.18041193448720011 -0.020001576609201661 0.7064834560249168
0.16966942104477128 -0.0095024217614802162 0.70536062011122236
0.1569309413378317 -0.041880806443853121 0.71719003236190504
0.17854699116904577 -0.060946863021324287 0.72067142700167786
0.19347887277282633 -0.031241028098771571 0.70796231467691206
0.14136577897317987 -0.091965829817472838 0.73190812228099844
0.15056983805123786 -0.078380591325432986 0.72780719426326201
0.13071568067358544 -0.083627214979108466 0.72982979984773677
0.13129094381670611 -0.10626034875605375 0.73533278800564927
0.1541163683213147 -0.10264891966480424 0.7352244810176124
0.16284641802349814 -0.088693540493805623 0.73066016677715917
0.14067539008091989 -0.070274236737698531 0.72607512400216556
0.11943730393491589 -0.097229520870601632 0.73275989866960345
0.1446305648436855 -0.11759912842358641 0.73917067195931963
0.23536264006396362 -0.086166277349261827 0.71513979493375457
0.24444749286510076 -0.070001874104176298 0.70578996059162791
0.21777123496425643 -0.072168894518157445 0.71620372121682485
0.22643042609660979 -0.10208044604790684 0.72314133265122693
0.25205094738120742 -0.099541603490262698 0.71369236625940069
0.2615281457837772 -0.082704382441151664 0.70337867585013847
0.22633546607359178 -0.056600023033262205 0.70780356123211396
0.20939365002801508 -0.087292779963185296 0.72327323693911538
0.24268157583331124 -0.1163486284944692 0.72262041252904752
0.19993991413408524 -0.15040446859113141 0.74480518597074752
0.18416125134914663 -0.13260576425036891 0.74210930585960233
0.19033124880431879 -0.16813628221527374 0.75108972997893142
0.21478926480786914 -0.16759552195708696 0.74699156716260717
0.20891516489454531 -0.13384439946238028 0.73781303766645701
0.19281543018062358 -0.11710403183489448 0.73605700962930354
0.17478406317036371 -0.1492914056970516 0.74750748998496752
0.20483226938906274 -0.18626670365551087 0.75410493513388432
0.22421143957067574 -0.15008002581092197 0.7391147400384811
0.28373844303964674 -0.12736170933108634 0.71180893247198562
0.28830994916566399 -0.13286383250345254 0.71189785385854731
0.29291656247542469 -0.10930615055331055 0.69957069131934679
0.27664406672111624 -0.1203588830994696 0.71188874074498965
0.27472684594865898 -0.14582501132697293 0.72227954803005945
0.27975491552210768 -0.15132925721440216 0.72234307292495148
0.29719293368262639 -0.11496902517315499 0.69965148765188423
0.28613183055715868 -0.10247431834968035 0.7000334573633531
0.2672466030330462 -0.1385376728637471 0.72211718177023809
0.24463088451910459 -0.19961837440369287 0.75037737275174332
0.23358870333889697 -0.2190499647697754 0.75863516369583472
0.24988437910708911 -0.20398681727008919 0.7503438079965099
0.25530679531061345 -0.18168151118870748 0.74132156936040572
0.23739770686111289 -0.19268986649101882 0.74980276097506782
0.22661523966445429 -0.21224938476863991 0.75790293551459964
0.23889928598854532 -0.22303147667633247 0.75869640579784015
0.26067327776978294 -0.18661502698702909 0.74129141575963642
0.24775319510065363 -0.17444744023760014 0.74087488396762269
0.16145821695590273 0.049487751074963414 0.71040464740249831
0.15965098117938781 0.059151654212396855 0.70964732161647148
0.16252011389251991 0.051450257956453811 0.7183327502757032
0.16145138810383669 0.037592665083065142 0.71155613622913738
0.16109160745357093 0.048246986944454916 0.7020582536962261
0.15871098341844408 0.058026677185123492 0.70128195519276038
0.16108323723628787 0.060914174152113219 0.71778554678357143
0.16202026106718875 0.039894980212565635 0.71916913088746848
0.16199076463955236 0.035802071271316745 0.70347081798921485
0.075774974966221265 -0.098432691594186161 0.74964816580480864
0.077147377469678396 -0.095887690168805523 0.75723002508115522
0.067784532727819119 -0.099173454392626786 0.75054797587158362
0.074023371402530763 -0.10214189842617882 0.74227066367879979
0.084746935477299501 -0.095036739332085507 0.74760013981657181
0.085626846346132102 -0.092129057429723132 0.75477357473375906
0.06946799799853981 -0.096945720221612242 0.75843424431864104
0.065753851087786003 -0.10222920161923735 0.74289213754120498
0.0837854360286171 -0.099540976179798929 0.74073697776834757
0.14089258207539926 0.074078665785607123 0.70591210437105012
0.13139642787004782 0.07336103446067524 0.7047232298240903
0.14259994892814232 0.075705115760354602 0.7133930801817423
0.14920992520683801 0.071671109262140653 0.70742066770094947
0.13954153124736529 0.072944022841373524 0.69950995868279686
0.12990684215703702 0.072161667916158051 0.69918384818352064
0.13316687174906686 0.075190136940784219 0.71174029353423496
0.1509183868661465 0.073260079523486593 0.71531965014730903
0.14788754771401114 0.070512822290222099 0.70010011316112419
0.048326912330275279 -0.084462451815942086 0.74281431689281641
0.049881976938306427 -0.083078507439074523 0.75027546655696531
0.044812464188360046 -0.074613969317294679 0.73784290114667028
0.046810166708917245 -0.085897488321003107 0.73655509193835322
0.053813099585388324 -0.092081074705394034 0.74703223487743431
0.055570514811682736 -0.09039035816302507 0.75483076308764829
0.046053446283081612 -0.073669061395082919 0.74497329201737317
0.043589086689368617 -0.075372381256208959 0.73226289133173195
0.052022942132258193 -0.094067925812932746 0.74001475235486047
0.10254675148769976 0.049917838507707847 0.70687042005988732
0.095199547527639122 0.037423021283256495 0.70963573078699238
0.10583088638944638 0.0538784852974473 0.71320561495918899
0.11152198479871023 0.06088219275301588 0.70504663343453389
0.098579187230345311 0.046732318180122918 0.70173816322858873
0.089701290199558997 0.031809122584971893 0.70437443651907017
0.099278154581376815 0.042658821703131851 0.71593919748723478
0.11407974757847597 0.06384894851346673 0.71146712061016348
0.10877441954134121 0.05893259578518225 0.70011172926881415
0.051959008418350439 -0.036178644380753376 0.72465381106599469
0.051854689500780093 -0.03796864783107972 0.73211087593325452
0.059320934689603033 -0.023603468874113846 0.72209265551957824
0.051603408800375505 -0.033227314815677957 0.71829658884884351
0.046616959986410911 -0.049681923238959362 0.72830308427864499
0.047037110463576892 -0.050336173083922929 0.7354003312348002
0.058544020154759763 -0.026616723223073242 0.73003929534036871
0.060198383937586586 -0.018380191593171051 0.71464956458191453
0.045788518064807882 -0.048373665156211616 0.7227289991079473
0.090788971842502897 0.0083869231748620668 0.72119989177193933
0.091589828952755525 0.0027531526996730574 0.72449130321694266
0.093940077343199174 0.012574849722301308 0.72771464018804077
0.089779828917334215 0.015823972887958913 0.71721050150691834
0.0875666293215904 0.0040952847957166152 0.71671431003297226
0.089048746870591611 0.001000831843353249 0.7206177183098883
0.094118155608538839 0.0053140771773851972 0.73108091007539611
0.09375773655349981 0.021322924244591222 0.72362391408564464
0.084836287211497219 0.0092863361984347817 0.7122539195257872
0.082362013818642499 -0.0059319592570655152 0.72405899212827884
0.082181104899551688 -0.0074070499411737281 0.73171508477079084
0.087719359930362339 -0.0038212691524422623 0.725797231033249
0.083176809636275439 -0.0033632526348572681 0.71820215530996712
0.075422607143799086 -0.0085782184584645357 0.72211753486658781
0.074500181826403944 -0.011409728073675747 0.73020996861875576
0.0885626462538181 -0.0041250614824177648 0.73296334641817507
0.087063897874703922 -0.0023708085533206899 0.72128613687621557
0.077201936003051502 -0.0036899157516221623 0.71486275402729427
0.15198675461015765 -0.0089379770655350424 0.72159585659800485
0.15318011270080339 -0.013006959995806415 0.71605999444644686
0.15664377338855762 0.0078124329530153067 0.7171917573707598
0.15206062672464005 -0.0057509818525931997 0.72798139123937866
0.14580326941638388 -0.025646584309353855 0.72623377723933691
0.14696061326024881 -0.029655396903711488 0.72098646723442539
0.15801165811718237 0.0043354159422043861 0.71073092656591752
0.15669475962562335 0.010824625365457856 0.7239438978620214
0.14587433064344249 -0.022536548633054716 0.73250200445562741
0.11737092233372776 -0.068961247427059169 0.73859942453571936
0.1059300653164664 -0.080076608866874233 0.74189132180713746
0.1189050708751021 -0.07251971853925987 0.73324737362785475
0.12825322250112006 -0.05608813410219092 0.73489682830076852
0.11718913053248425 -0.066169407109726908 0.74489909667679677
0.10592777566463957 -0.077086697037666019 0.74836593627382386
0.1068891530746354 -0.084384839280662316 0.73616790889458406
0.12976513201956244 -0.059521301959284796 0.72964841068358566
0.12813028018586073 -0.053289277547990073 0.74115263337013493
0.15057012796116487 0.00095370227017583381 0.74525088018565944
0.15179360925887814 -0.0010899483460638168 0.74016610246252956
0.15515277680579437 0.016236806693090848 0.74173871528718605
0.14885019882499928 0.0032579318087702577 0.749753441604882
0.1445981994133913 -0.014889932803542415 0.74938068105885913
0.1457356888265233 -0.017492374728133843 0.74446904116916091
0.15641825875988435 0.015019666672770084 0.73645367364102632
0.1534304300259125 0.01705978041105944 0.74637114949483896
0.14283562455709281 -0.011846179869571087 0.75373844240274135
0.11725642402687145 -0.056659450570170043 0.76095082031739736
0.10695648076163808 -0.06708439293363358 0.76432249691042586
0.11761934433140367 -0.060232181754855861 0.75644848127655495
0.12758656150521044 -0.044315712536121675 0.75742374925610845
0.11629712493334493 -0.052996069405643616 0.7649059410637199
0.10708029863464189 -0.063019528441719805 0.76786688074241338
0.10671091395662446 -0.07096582067433857 0.75997059135509615
0.12833757337136031 -0.047609166472805879 0.75279183324762644
0.12606331097415244 -0.040833216519839934 0.7615610956435207
0.10434524355300531 0.02008221429270015 0.74857526356496928
0.10338217568281571 0.010403040482894192 0.75289519026006346
0.10891531399264498 0.022222690266492519 0.75378332886803567
0.10481439995695641 0.029963453108842457 0.74380707480084174
0.10051563827583182 0.018305017558328689 0.7422020246976575
0.099748640288363333 0.0093794663670834985 0.74614891505208381
0.10806534070840168 0.011274057726194019 0.75889260506510281
0.10906575052518 0.031684499317793123 0.7487831114599105
0.10093950273280214 0.028154424999164047 0.73759582527090872
0.086213195336482196 -0.010781072728529816 0.75496484938840813
0.087802049476598976 -0.013764505616945692 0.76144163473053494
0.094307580287730286 -0.0050438075462305235 0.75609608002934625
0.08433736981872586 -0.0092062600221128679 0.74779202029166125
0.077657924680054224 -0.01625528916044159 0.7533587884886972
0.079361655743491577 -0.018923983146950353 0.75946251792810859
0.097115235610982925 -0.007394483449331031 0.76288364130824871
0.091822592786239748 -0.0040981987994339955 0.74888336054695581
0.075856649132950427 -0.014504556074461335 0.7462831277813623
0.11493587907911748 0.058684231004557531 0.73379795739858
0.10965207405745594 0.049681007542412954 0.73606110757941323
0.11817657469096748 0.057058311742178271 0.74003978740063292
0.12155622146084083 0.066228285897344974 0.73251398064130957
0.11182253648627963 0.058826748893718188 0.72708710162884349
0.10612204916264215 0.049017818031914955 0.72958591263241845
0.11328975489555076 0.049044422406846359 0.74184227789589685
0.12399248340525146 0.063817274948959418 0.73862342492474964
0.11906321759037666 0.067148230278671617 0.72573869604449226
0.057185374172675885 -0.039660903412688055 0.75435477237574677
0.061367895190890059 -0.039762364542983326 0.76060558745341778
0.062548410349295952 -0.030499925456073017 0.75268218293144018
0.054082988830061518 -0.039447229965789761 0.74741002679850621
0.053744936805025928 -0.049338677129838741 0.75703943491518177
0.058188522527720943 -0.048410142262259169 0.76277782746834377
0.06599962213901811 -0.031519102935955369 0.7588140979057979
0.05996560717924565 -0.029506308738966987 0.74567824692849927
0.05025944571041896 -0.05005470746581283 0.75037997345549245
0.14593575031886541 0.073908985008239336 0.73610761872649422
0.13761843134555779 0.074057110787222213 0.73392497046415661
0.14499372888617887 0.069633180989794152 0.7425602409457428
0.15334087927617107 0.071435278409306441 0.73824544031066541
0.14554438650333451 0.07623235975556561 0.72893921659832106
0.13657040919360022 0.076117716892754927 0.72693047852538462
0.13777762266671045 0.070306458171415537 0.74004515624031708
0.15163266813876097 0.06689353270927087 0.74481743779204701
0.15347419105016519 0.073794720782203616 0.73103545872223274
0.058880166062508121 -0.075205348747049233 0.77086312608491692
0.063509241035319824 -0.069962706936341879 0.77519360260959369
0.054727970671345549 -0.067633704992676597 0.76575716622471279
0.05498483698513279 -0.07885945460231969 0.76498644814621408
0.06441098157243319 -0.081206294819093722 0.77512403691178455
0.068975388251909631 -0.074988338349482708 0.77912636782120437
0.059306946278771894 -0.063877074679134699 0.77038656743575706
0.050842272209623368 -0.070384625410175095 0.75968060536440229
0.060658004934331683 -0.085506129998576097 0.76948213562507706
0.1622848284448124 0.052243900203719808 0.73925084749013503
0.16172421437531037 0.060475272388018426 0.73977225223626408
0.15983170891107712 0.048541862411402785 0.74517666512899761
0.16109964275569144 0.042196130120854443 0.73886082903214001
0.16343369925374829 0.053595781531267837 0.73278673708637176
0.16262922040520128 0.062348920807103254 0.73292817991911596
0.15927267478201135 0.056144891264711498 0.74607069399517756
0.15892828472790665 0.039688949919552054 0.74424329598060146
0.16235165105089805 0.042799891435764896 0.7328583173434674
0.082709338267268812 -0.084989937057296572 0.77507313857414861
0.086192458024719809 -0.078423231613465177 0.77819522636065142
0.076513080681782392 -0.086289131578601602 0.77731469451076662
0.080260984191382945 -0.089876381602775196 0.77038432694809056
0.089533621674872638 -0.081353619808352651 0.77164219843480975
0.092096315663094647 -0.075647185346407617 0.77467644430003246
0.080563818830771655 -0.07940233943079171 0.78066914597548953
0.073488640272015598 -0.091204076180207538 0.77229243588159102
0.087794413661115428 -0.085961589909423597 0.76721943767225154
0.1295770757326995 0.044712225478172017 0.75562378054436241
0.13332899074943155 0.038181209329340861 0.75929514248393104
0.13664023079150089 0.054587254946450538 0.75248793514788337
0.12558830574555732 0.05000942773314631 0.7510591106214578
0.12187525894159812 0.034670091378500849 0.75736448793453592
0.12365499099156049 0.025376995794527922 0.76215498668423109
0.14158690468781457 0.049973419860304104 0.75543345776839443
0.13155497617558831 0.057939037397611672 0.74866432692222729
0.11956167056768155 0.041764317347949796 0.75237109429446525
0.079630153689566802 -0.040791441858382106 0.77535337982222419
0.074193448993415262 -0.052376068487357326 0.77741787788720762
0.087129744291422478 -0.041064853878761264 0.77823095209883508
0.084564203678929001 -0.029139456955684769 0.7718272698502483
0.072714010384891281 -0.040344342643470123 0.77124007111898141
0.068488138896681011 -0.04989819265827098 0.77302486708881901
0.080556972678035771 -0.054760793735178483 0.78066127031669397
0.093626185916342086 -0.026079014218346318 0.77423546665482657
0.076879972467026714 -0.031116014684346473 0.76841826908199751
0.14277809578588482 0.017685937087863181 0.75985019458319292
0.13421508832424686 0.0023295073787245255 0.76414264860869019
0.14497221696262858 0.011575440854679965 0.75717637492491241
0.15006970591806248 0.031148365819326097 0.75538526959240793
0.14001328821760872 0.02424659094722504 0.7614527849128202
0.1298998877714847 0.0085113793198988916 0.76579562687051894
0.13769666458667246 -0.0032704938439910777 0.76128326190238671
0.15095757254859352 0.024406366504604517 0.75321098013488363
0.14844964905286093 0.037929263372007478 0.75684128565436926
0.10634267399071795 -0.045107747665492089 0.77607130394413815
0.11091836870461949 -0.04717076588901422 0.77258507892248052
0.11546979132915108 -0.029975175540030007 0.77248178683949897
0.10085938471665334 -0.043152053389303162 0.77853690724920166
0.09805752240155588 -0.058497706230840191 0.77857437572344335
0.10274357726468983 -0.058766599011986408 0.77502509011568255
0.12009589119913147 -0.033633877419927842 0.76924727662769621
0.10970796122553605 -0.026244334686447608 0.77459371519414189
0.092797068348216827 -0.057885188634683789 0.78118669713225319
0.081335092989458319 0.060184334374565156 0.69650794524776205
0.087801544823243899 0.050909249717640818 0.69702361727017415
0.099216239478580104 0.072820426166507496 0.69911475933384615
0.074872757874270723 0.074058753352190781 0.69533099011229593
0.064106204234860076 0.044050499740627143 0.69423845486937008
0.074230524234303957 0.034121439048950548 0.69723121639222319
0.10227052372542073 0.063767540852064791 0.69772336638016286
0.097376084989540562 0.08742771439900146 0.69967871280792526
0.052256102515768038 0.057605230561434011 0.69006428761675775
0.034470434489621227 -0.019331445071778731 0.71191948439810782
0.031788532277055359 -0.041736520704699444 0.72195113510400544
0.043681475348423315 -0.024121301114834022 0.71228138212971104
0.040099964072395522 0.0033497519452952498 0.70199917513006715
0.021510334384496302 -0.01610646884187384 0.71124723809740664
0.020160249544384626 -0.043320778800545114 0.7239231309265467
0.039301049543988165 -0.043420648612228933 0.71994327970671157
0.05152863651208428 -0.004465485408623078 0.7049932641046085
0.025009764516369493 0.011623084160258791 0.69794842039450977
0.14083527499083243 0.081388291603095242 0.68955853310574922
0.139446955922889 0.076359618080887481 0.69258682512406622
0.15026215978483487 0.077692739111470455 0.6829488153225185
0.14284256440335674 0.087867941954728856 0.68259064523699509
0.12958479665860262 0.083054810215875352 0.69581214023924576
0.12874927096156269 0.076267892216761835 0.69581966512626747
0.14841989898796348 0.073421749248006596 0.68900673283724545
0.15246384621575643 0.082800116889247904 0.67289778064416561
0.13171002904804954 0.093436345320984243 0.69291921109018129
0.037722553117595814 -0.095193054558316864 0.73056320013700349
0.042308558316130784 -0.10774024994798903 0.72832385732480809
0.042014321761855378 -0.090523265270658265 0.73145868887591825
0.033948563562735457 -0.080208458777181635 0.73160158969984057
0.031443111749012126 -0.10287260922806551 0.72675228838727113
0.036314501186614528 -0.11677838349208486 0.72200876428413152
0.046670194951116267 -0.10131707583198857 0.73161255850822993
0.038939395039463087 -0.077171204599995047 0.72996217419150466
0.025846016493794727 -0.087053276409881808 0.73151562931580882
0.16993915162997569 0.059975777093273418 0.67272102573424963
0.16550292938841116 0.053444041122816775 0.68394687379707086
0.17577688861171475 0.052402066212339359 0.67267713213856439
0.17438944881701601 0.067416443310543417 0.65816061492612288
0.16430672345339803 0.066692973753613854 0.67410601112223112
0.16109999326099717 0.061687136273925601 0.68431601801112663
0.16957173689060828 0.043281385403524462 0.68470770819597793
0.18141871013693145 0.061736342832125542 0.65746602909919061
0.16775991716111099 0.072778696755395611 0.66044417503708996
0.060196416607999015 -0.13004098117502713 0.72542444780252002
0.067961441993190014 -0.13482184516475609 0.72682818704106744
0.066564235563916968 -0.11772137663508453 0.73083636389264373
0.053484800401012167 -0.12469579227938982 0.7251677174989104
0.052127608459418717 -0.14442115260004731 0.71750783071044799
0.058794548534865071 -0.15135748328103485 0.71972575476112732
0.075723769939376295 -0.11952377220260813 0.73112952501617645
0.058953058253139901 -0.11460539428843053 0.73088048366480496
0.046271916584277706 -0.13715669690311352 0.71697157290200419
0.20464086938364534 0.027205818277275855 0.67438251310431296
0.19619111089661773 0.01176389119796762 0.68773116542555801
0.21874674733722327 0.017479039773319584 0.67394004182705602
0.21219530060141573 0.041821223895524763 0.65742196244629969
0.19265059076461272 0.036029607315686767 0.67404026030879416
0.18431802417644755 0.022073013760603992 0.68698599064931898
0.2101223696654026 0.0010118630484450483 0.68806285979976756
0.22649973830780362 0.033204201112324784 0.65618400407829058
0.19991546731895521 0.049174328161486529 0.65772794136589985
0.098010990631066081 -0.16033242644703999 0.73827341028470173
0.11043495459879729 -0.17417736243596268 0.74389304379978882
0.1096544877533287 -0.14035278656938879 0.73922677000954329
0.086823152214987348 -0.14915943824478348 0.7333626739636625
0.085331402795071343 -0.18138719358564234 0.7337998004925349
0.096842501657976976 -0.19626150477841267 0.7400909220446833
0.12288665285250672 -0.1533084078676869 0.74421988008189355
0.097409205445223884 -0.12988827332633379 0.73517380707287083
0.075244063384417748 -0.16910901817992643 0.72813616923192082
0.22182321500781993 0.074652093564625183 0.57912699893037722
0.21877429403468557 0.079724709010185052 0.5474657196958318
0.2087525883202011 0.078769117598251448 0.58037351776348534
0.22142450652032269 0.066185466435411983 0.60927131300513804
0.23664144237183254 0.068684159008855272 0.57708390765742734
0.23332924996007048 0.074205141345597497 0.54547069025170936
0.20591385095338893 0.083356554016902035 0.54880609138827652
0.20847797496161968 0.071110158786147543 0.61043107149179854
0.23617396493648396 0.059529900602074977 0.60721669462347683
0.040222336933929764 -0.24489002629134435 0.68857808842082413
0.03269847723331204 -0.22960568386214475 0.68035176620678206
0.024922336977682535 -0.26122253259238848 0.66363982007379796
0.049515195459361921 -0.26238395401112469 0.69772110565647638
0.056047328447676292 -0.22485907894764837 0.70916133261711078
0.047814250570355932 -0.21032687021548929 0.7017559450016837
0.01805659766168527 -0.24558793118189914 0.65503020951298563
0.033584533725115079 -0.27897684101442488 0.67332294655666103
0.065966425678451679 -0.241694269623138 0.7173321231133144
0.17965477289771198 0.087254571455273322 0.58337024132888304
0.17740519311370867 0.090769413553518336 0.55250946607141016
0.1719954925221856 0.089914943930187091 0.58606647578265025
0.17978132996461726 0.081774565188052373 0.61296759594857075
0.18794701281024834 0.084605294838063144 0.5819720701506268
0.18547436746700896 0.088411707100046477 0.5509322064649701
0.17004925100257434 0.093105985242576628 0.55501619206285713
0.17212087243082996 0.085072237286577479 0.61587296634023014
0.18797436321303779 0.078472561297930815 0.61165697111511752
0.016796979999812028 -0.19520319588125229 0.66364585472956805
0.012918122193555426 -0.18529453088492318 0.66146702374542998
0.0038796255339905855 -0.21017424497657336 0.63797691475554319
0.021277176521346211 -0.20527416203099608 0.66765605063895828
0.029945289734217229 -0.17806014457748909 0.68665730021636107
0.025514628822057586 -0.16850031748329694 0.6850958015628833
0.00047348406983491187 -0.20028035343633169 0.63545656396285277
0.0078441667608965954 -0.22048864385005695 0.6420728346418979
0.035023246096319849 -0.18752645887600281 0.69020003792792628
0.14915720237398022 0.10170369600653359 0.60540574800784352
0.1446625564908734 0.11277228009547316 0.6102165215327835
0.14756240496085943 0.098745828609292596 0.63984287758439307
0.15625453191851402 0.095840837493577302 0.59804626344787692
0.14913523609063009 0.10322966896984268 0.56971615991316538
0.1460533508231058 0.11381978777559895 0.57196137864130037
0.14031104490970409 0.10969834326415021 0.64921444732735301
0.15587840155524063 0.092404080148952711 0.62986227782163118
0.15531761630040786 0.097992084762783094 0.56457495005259728
0.0014646651535856064 -0.15173514029487919 0.66637686008462316
0.012780543811163406 -0.13230051312732613 0.69445135561930049
-0.0070045811101394351 -0.14655659411367389 0.66877424527388774
-0.0097042674023813807 -0.16955033488840845 0.6362153565882932
0.0063089042165287434 -0.16226345832263214 0.66342786202410331
0.017902251910358408 -0.14495198172458007 0.68939353179681495
0.0044279090864111081 -0.12223089839651069 0.69989024443013492
-0.017784682077801262 -0.16667779974277114 0.63677944961591659
-0.0052677713266564147 -0.17854343092161676 0.63510574012587406
0.29231221108415717 -0.14605623194861858 0.71050464648073086
0.29219164468217929 -0.14189252652141199 0.71174515595465937
0.2852750406385382 -0.16256311147739097 0.71897606282452575
0.29152934511710377 -0.14999240062402458 0.70743117869742578
0.29884760175042929 -0.13197895853876601 0.70239150119203353
0.29962422381667941 -0.12626835206871026 0.70187513125820644
0.28470192527729171 -0.15924666701283655 0.72105092219515066
0.28470550611014883 -0.16590137317859635 0.71536562874754861
0.29769745476269377 -0.13667239634922487 0.70019893536459443
0.2584675161151625 -0.20888468578474048 0.7451710153818113
0.2678960575205756 -0.19480466382769554 0.73668985708697765
0.25664395315766048 -0.20783233539271606 0.74793637723912443
0.25036347135573195 -0.22208401181349965 0.75248836795051122
0.2589467499578415 -0.21052594551607628 0.74101557420730024
0.26788252319296013 -0.19714058051446487 0.73263732963698835
0.26671904718568545 -0.19257485414502595 0.73923402920555936
0.24734600981179972 -0.22338580239205258 0.75572375335961961
0.25148181894749227 -0.22261360987583281 0.7481813767171015
0.31733512279629 -0.12543623304868745 0.68427616079708509
0.32093085450193054 -0.12073432285331601 0.67941970475901814
0.31151138005496409 -0.12130566107807214 0.68902167965856187
0.31451174575619095 -0.12965379526906928 0.68434538556031665
0.32204662501662867 -0.13345207684782029 0.68090550629745561
0.32602103603556237 -0.12958781352746693 0.67566240595268046
0.31435174679552996 -0.11527318495700176 0.6850917828131885
0.30927205012802556 -0.12615487927543759 0.6885481661998113
0.31876085302581836 -0.13713574567011225 0.68127775618174469
0.2482447461890081 -0.25482045923284979 0.75994892166252692
0.24505005236733385 -0.24537442615399044 0.76010627968388811
0.24541641876953413 -0.26232493773195698 0.76289793337796907
0.25357330481043361 -0.26209579418082551 0.75771119722649016
0.2491715043779697 -0.2519620322142645 0.75568074263077956
0.24642510271611312 -0.2434717933702317 0.75574781827897619
0.24145457848781854 -0.25144491064275482 0.76344686910548154
0.25126481906429349 -0.27025263294181179 0.76046086164748772
0.25406531189787568 -0.25859544718010286 0.75346734113082159
0.32551571751822622 -0.16775550255430938 0.67898772146108199
0.32957738870700609 -0.16499579112361187 0.67438484072452054
0.32618496830538751 -0.15556094080371285 0.67832218699685043
0.32171701954767146 -0.17039561487304461 0.67917008888361452
0.32354217555318077 -0.18003891948021269 0.68078433758436818
0.32740711410864531 -0.17761226651959353 0.67672065930683201
0.3303269307177864 -0.15252985285655477 0.67330893977985695
0.32241073429250516 -0.15848695443137292 0.67871019939788968
0.31984327575413446 -0.18236812679768272 0.6806855825629502
0.27273821099218487 -0.26767655839197807 0.74152063386695966
0.26640058334859656 -0.26850799668155612 0.74811556687158232
0.27138262011115716 -0.27537118097071411 0.74420104870619597
0.2788867327610744 -0.26473788569550272 0.73437073505074923
0.27226044193175586 -0.26392292757650876 0.73730863269373226
0.26618646737243562 -0.2645961772353726 0.74386162874353079
0.26476381642978997 -0.27661368037938217 0.75080351331972228
0.2778258535109121 -0.2718217988490651 0.73694779613244343
0.27817454334139446 -0.26130972390639817 0.73028866540007198
0.31339696232761521 -0.21300462628293423 0.69165302221559399
0.315971681619584 -0.21291252001193794 0.68951837553433082
0.31724257955414159 -0.20286011701378157 0.68725239711463881
0.31056534890318049 -0.21371063663385217 0.69066497028166607
0.30920685801941034 -0.22245271972523509 0.69664245721334928
0.31119387215275746 -0.22350316627772812 0.69522708748060535
0.32034900091574198 -0.20175055122948779 0.68444325763249869
0.31405212845133673 -0.20422796884001523 0.68655985941782383
0.30675847202905221 -0.22244672840716409 0.69531443311374441
0.29531484636284439 -0.24742690420123684 0.71389839530210841
0.29019786436812534 -0.25429948394878621 0.72033084112765045
0.29554374225807617 -0.25186299324510147 0.71492271283624875
0.30014982044438926 -0.23970279886816032 0.70782281254315316
0.29386696700533349 -0.24546306133618848 0.71105227998956644
0.28901573039250189 -0.25179391051122457 0.71694709452073524
0.28992019227907373 -0.2597237136268124 0.72208114282907665
0.30093772745692282 -0.24306876710777967 0.70802334366471131
0.29840707618980394 -0.23833514054972502 0.70554688809108124
0.29832338100809547 -0.21899894333260314 0.67304975105914877
0.3029885816181761 -0.21727409849162979 0.68050786086801618
0.30139593852063723 -0.21031581775386346 0.66890921692244065
0.29356320089545818 -0.21907025778490882 0.66588820220099432
0.29491279947482046 -0.22703813515475066 0.67755012208651666
0.2995566996188897 -0.22533630332482121 0.68497935659400033
0.30610148798492914 -0.20848564076071113 0.67646036560298428
0.29671695531324005 -0.21028609744211232 0.66157191353988687
0.29002832833834075 -0.22739554891711974 0.6705314028716497
0.28278064507967959 -0.24847113419869685 0.69166637829245159
0.2780882864287782 -0.25447915931711351 0.69668341120557187
0.28747667039122132 -0.24672510624322769 0.69924830000323468
0.28714019437216592 -0.24178341959862187 0.68688851252324945
0.27735911280105924 -0.24973224690218818 0.68501654563919256
0.27255488023875746 -0.25598177918724524 0.68998696390183156
0.28280115907028169 -0.25268658852388526 0.70444844105882976
0.29180723052435736 -0.24005674401768493 0.69437432885769679
0.28189749560301447 -0.24278637873622225 0.68015175828681851
0.3082008634211561 -0.17957791769471507 0.66057473661396704
0.31306538342239149 -0.17660273254276651 0.66879258874673597
0.3090852403706566 -0.16881859664285687 0.65991573128206993
0.30357615079938743 -0.18124904096459113 0.65262448932985817
0.30646347971217019 -0.19042320389628073 0.66245697406423276
0.31130249577538743 -0.18795268439257687 0.67045503393488148
0.31385970077314712 -0.16531422915584024 0.66814474383255096
0.30468251407398322 -0.17142605237097483 0.65251330320701439
0.30179653131096129 -0.19122322335873335 0.6545644906826219
0.26213611348652771 -0.26652104420659922 0.71398491960846833
0.25674163794195975 -0.26744664041417093 0.71988060519982588
0.26660886761021146 -0.26434561142111379 0.72292045492399937
0.26765234194388793 -0.26378661797098507 0.7079405889533521
0.25723385376835556 -0.26863473754243727 0.70599926189625395
0.25268567629035127 -0.2693343126339548 0.71179479638561183
0.260875045089279 -0.26520320142343556 0.72907607526826268
0.27229324057625848 -0.26175417969153009 0.71644577974341384
0.26229713297281215 -0.2657933430204793 0.70044445593582771
0.30397446145589296 -0.14352042213109198 0.66414811573945032
0.30796441423052789 -0.13840018480221836 0.6730458061611172
0.30002375599964165 -0.14080916508583458 0.66792158896705767
0.30022534725708278 -0.14933492202009541 0.65540505476500577
0.30699199550018802 -0.14989545977013796 0.66168114824843471
0.31131443048278695 -0.14527389366350371 0.67025567079866166
0.30362538690457747 -0.13534347478496675 0.67691317745343149
0.29663641228665666 -0.14734062236557424 0.65886508946992639
0.3030333518709365 -0.15467181379218084 0.65387685483072888
0.24279267987453373 -0.25806064149074248 0.73101451764610437
0.24105683231775371 -0.25096941001615874 0.73134686001711668
0.24584018627940862 -0.25469728204873637 0.74090824676047118
0.24658582438931281 -0.26324158747702842 0.72882257500360059
0.24026375072673745 -0.2616102522393875 0.72102025343791976
0.2389782986949841 -0.25509722851910782 0.72106568378482117
0.24372570668801319 -0.24721674194674378 0.74121590136597515
0.24997387781329489 -0.2603916963606811 0.73851161196604331
0.24377332718895089 -0.26585472589374476 0.71968719933930669
0.28428296300574535 -0.16420358651634448 0.68518340629494145
0.28719074933440408 -0.15870402205574477 0.69433865368895586
0.27769302124361822 -0.17927620676080105 0.69251465273695101
0.28176837787898718 -0.17092062845485209 0.67592209102796552
0.29013072523055494 -0.15147972857746234 0.67858384752581813
0.29316772735206348 -0.14584252289556252 0.68764144954242534
0.2805079010425045 -0.17399789513440814 0.7017849769158524
0.275360709994033 -0.18562034365338062 0.68310936153764013
0.28740568494244639 -0.15841828642004455 0.66943130778672566
0.25362356511390688 -0.2212734909286522 0.71725688897422757
0.26185766764298396 -0.20874039178668072 0.70903050508655296
0.25601112596851011 -0.21670924817551351 0.72681366724626506
0.24666715417082424 -0.2324394008372167 0.7242998792030968
0.25194499028527467 -0.22647225121357736 0.70729086057268198
0.25996645373131089 -0.21428570477173486 0.69925775051575112
0.26440253496234828 -0.20394716625685397 0.71850455891121878
0.24897697341998071 -0.22811524252156037 0.73394150310228212
0.2450845817443732 -0.23730077114428164 0.71416807751902633
0.28229831005861755 -0.1999439307401957 0.65869805305301132
0.27737317918688098 -0.21142803085199199 0.66460514737270826
0.28522649977545317 -0.20940646540037319 0.6581132106963602
0.28654268018230228 -0.18940904603145045 0.65333308296589698
0.28057334619710356 -0.18937197944847547 0.66197829705090871
0.27502616136593833 -0.20223566289236231 0.66844233608919057
0.28090271515806742 -0.21952794432784387 0.66348335438515638
0.28898007413310983 -0.19965799461965722 0.65317799881420491
0.28537262390319801 -0.17799894744400221 0.65612458563818166
0.25933663686032266 -0.24295111750020806 0.68387768096581036
0.26516208705005623 -0.24711469013464388 0.68067282005489804
0.26561019486224546 -0.23345748083059401 0.67748997479889517
0.25468548073249214 -0.23773319718117525 0.68981613600276026
0.25351128874731438 -0.25129341786824927 0.68963054870473917
0.25977334917046585 -0.25455088454578345 0.68603151609900681
0.27069280644803811 -0.23871562849759839 0.67496024738333216
0.2617099115591896 -0.22710544133493196 0.6827335523340986
0.24840097402219646 -0.24709639951040629 0.69601450122761699
0.29492143227190509 -0.1719103362008795 0.64364399297829056
0.29285597362490262 -0.17498233839158259 0.64478834462770507
0.29657281098029609 -0.17630496434746337 0.64328856993437633
0.29548623570738325 -0.16467778319283441 0.64413820694627733
0.29270117034047755 -0.16505747803095175 0.64670418196003088
0.29463097925016973 -0.1834493823349099 0.64517910334316952
0.29803508288946873 -0.16816441369598864 0.64417845106751037
0.24426105915877666 -0.26697738513919189 0.69998885255463605
0.24716925161500519 -0.26915776987649626 0.69886130138072888
0.24533192288329975 -0.26411510612938877 0.69742940302153389
0.24103561971489207 -0.26676329694898016 0.70428515580954476
0.24409518265585001 -0.269458267175891 0.70448504132694345
0.2506985927721464 -0.26603752328160557 0.6946773974611592
0.24100396251887285 -0.26184980149814191 0.70323987338289962
0.033748393238085872 0.20781973624474739 0.67514669888212864
0.029159228534717613 0.19725926240593147 0.6723958282868171
0.041889595442058475 0.20765427240817572 0.67497671488402367
0.036891181375970139 0.2152391005097751 0.67732583087679343
0.025732842517843038 0.20917966593636292 0.67525467279227025
0.020488689109569747 0.19871099561383218 0.67263789924999906
0.037987841032603442 0.19704680035815414 0.67218537951355184
0.044538161923089792 0.21486551668828738 0.67727198027079361
0.029414647951044565 0.21681348934599906 0.67733157794545418
-0.10563212280809506 -0.020028421146716748 0.68335098282109175
-0.10245402010278348 -0.028775605332010977 0.68551211152062341
-0.098945858414750093 -0.012231804619176716 0.68026491529896393
-0.10976075434837287 -0.011840866848655866 0.68116779632726898
-0.11036075844848955 -0.02538383351896726 0.68558934804626337
-0.10713654931716654 -0.033462993113472568 0.68786766585291426
-0.095536463877130162 -0.021758275098877462 0.68235399421918419
-0.10330734761322283 -0.0032877035910119437 0.67829760380278648
-0.11452535413544707 -0.017909077878412165 0.68328256277578936
0.0026900223296816017 0.22093117526758838 0.67385432740452611
-0.0044329424522715627 0.21060933899150819 0.67215152153182967
0.010114568448138669 0.21566579691682417 0.67464226872126509
0.0080541101569930745 0.22905625502476887 0.67552985605031568
-0.0042518280593208946 0.22767351996186 0.67286679326025522
-0.011880974021697965 0.21750292832083898 0.67156116214804995
0.0035890563929526359 0.20529976142139431 0.67256747916263182
0.014926052894824376 0.22368438991099987 0.67647398254940372
0.0016312211129989318 0.2357812406637517 0.67437732796122307
-0.12847224531827187 0.0085356500095271834 0.67278579959195994
-0.12113839151969646 0.0025731427782665836 0.67596750227001356
-0.12256810980678212 0.019301889663161133 0.67122030809266209
-0.13692867047388457 0.013407328569050352 0.66924958058948969
-0.13319419976628283 0.00034098335187652401 0.67432403974083177
-0.12592166112382563 -0.0049477710568643016 0.67773145542387669
-0.1150587415190604 0.012643146626037029 0.67389309603577863
-0.13126904941518017 0.024722054997244967 0.66819837677064431
-0.14149018146302761 0.0046267778875664703 0.67056605946742498
-0.020390228756633794 0.25746559075421499 0.66946855493494595
-0.028636998345362763 0.2491054038235587 0.66917833013779127
-0.01600685041060293 0.24597365813615704 0.67066219070481081
-0.013337762367998454 0.26434299985758869 0.67055229860963561
-0.023429648309632609 0.27030329842893341 0.66812428107123223
-0.031678247424220027 0.26297858538041319 0.66802659814504517
-0.024190657989494602 0.23676513213657688 0.67008998490080174
-0.0092641727250516726 0.25346827968759911 0.67185706965763925
-0.01616404151833932 0.27639461623882977 0.66916740768093053
-0.16896844578818879 0.019525605595116506 0.65668426387394097
-0.15728640015882034 0.01909974069120212 0.6612168764868348
-0.16497228072406941 0.030942724925203273 0.65670328720723969
-0.18133506714004377 0.018070651155015695 0.65172805952879231
-0.17213102605197728 0.0098741330199877755 0.65762613345829746
-0.16107356030325007 0.0095700468410791009 0.66220352663899318
-0.15255876278861222 0.030740248065014318 0.66100217723047494
-0.17822862982093859 0.029113180659209599 0.65180946373777959
-0.18375248851033493 0.0084677867409175475 0.65275258574432049
0.067708452322349039 0.2148739197923312 0.67475286468574391
0.066185117363423918 0.20488232832811096 0.67229136095835584
0.078442462970435806 0.22200047171672993 0.6731264623385026
0.069247703510773112 0.22156506246061086 0.67769342806120292
0.058516259782673385 0.21073444526660254 0.67508757964766253
0.056154448340808155 0.20037072790660262 0.67250514525362382
0.077760260120055352 0.21258269665072868 0.67062138399478854
0.07960884876226676 0.22845421039776956 0.67641487104438636
0.060384213225631089 0.21759846378670064 0.67774965340175231
-0.098651745511691424 -0.059053504564328695 0.69314943030200771
-0.10067831065772267 -0.073477192819517062 0.69528112802197972
-0.09133664829335153 -0.054716047946536985 0.69068435463448374
-0.098686530807358452 -0.047668700396498696 0.69052813064470075
-0.1031580170033006 -0.062142440151352805 0.69599898225193102
-0.10506579729820387 -0.075964687504199851 0.69829409420279054
-0.093514806104163101 -0.070249661843485744 0.69309555676290147
-0.091407990459404592 -0.042353634932304506 0.68773010063559681
-0.10326648143220993 -0.051259010829196962 0.69319293990200903
0.12476171708174627 0.26847698547228505 0.65443764168674901
0.12633908668051919 0.26219005041297233 0.64981127687937279
0.14194786809431489 0.29028373449228917 0.64500262212689607
0.12406453354896935 0.27340876378461221 0.65922218505296526
0.1073984691607745 0.24897321106275419 0.66289029412301403
0.10828267458243107 0.24141896399249876 0.65929206077966773
0.14415850720839846 0.28542235558231216 0.63923269517153569
0.14050893761199904 0.2944340783626414 0.65037301012274595
0.10743729052247941 0.25456173336458271 0.66711298750859116
-0.12413231873641228 -0.1443341170621785 0.69495498290098323
-0.13699826629239695 -0.17279791105481981 0.69227151386652641
-0.11909437063939793 -0.14546565967222433 0.69231060090451213
-0.11340033885152292 -0.11667570146471271 0.6963768751951106
-0.12768424821036126 -0.14365723555138427 0.69811370802401351
-0.14007750007161346 -0.1708024942921619 0.69544562269657362
-0.13311294061547083 -0.17554317833827085 0.68910734386283534
-0.10737975544552894 -0.11621083744142965 0.69412070497992429
-0.11732415662437778 -0.11726714250590523 0.69953582836831252
0.17883442054824245 0.3584494786913065 0.61905307742771698
0.18258583779374832 0.35834777562418962 0.61056999295451009
0.18598796718805594 0.38188529383267422 0.61181293170015882
0.17583161735683761 0.35966879250766082 0.6260017137689502
0.16948817858786397 0.33567928840565586 0.62691060675764909
0.17278622330732729 0.33394744227983097 0.61911617587020762
0.1901300290219739 0.38342315967490592 0.6029088864366613
0.18266606739422525 0.38192000036172713 0.61905644022924178
0.16687683403573939 0.33797036053632179 0.6334083241665448
-0.18332625161555693 -0.2419505674037811 0.67682015838589893
-0.2012174487759758 -0.25894513688139414 0.66882536953322336
-0.18320636782109362 -0.24878944845872153 0.67203631883165471
-0.16678968752220952 -0.22243696664415194 0.68327382810850057
-0.18435458351976083 -0.23678281901334056 0.68051400586379029
-0.20136938229895543 -0.25301372323610805 0.67277328159799488
-0.20233630040351316 -0.26678361371902165 0.66361504668482263
-0.16541135652759864 -0.22808732990861444 0.67898899505008659
-0.16860496369881672 -0.21815379921883674 0.68671827953906084
0.1990775156537487 0.45878004182168952 0.59308148979971032
0.20399911770613161 0.46504033365430364 0.58475448660317542
0.20047142906188326 0.4834114367259017 0.5887782600831134
0.19488292572489258 0.45456184004714828 0.59981875958089537
0.19598593904063927 0.43260351719181478 0.5986618946092428
0.20071803510938396 0.43735283521646856 0.58986588999922995
0.20550015760694179 0.49106761254332798 0.58106731741052875
0.19605349724850324 0.47775246022066253 0.5950512749799669
0.19207174347261513 0.42987830592542481 0.60578117759425554
-0.26353243138853466 -0.30079035270200882 0.63482859466363195
-0.28444488041735161 -0.31035425578028464 0.62195139712256209
-0.26807230045480812 -0.31042719424800025 0.62892766393084676
-0.24185138062618278 -0.2884334072609267 0.64749664099923909
-0.26064950442364526 -0.29298330519490473 0.63916388406841407
-0.28054191195673583 -0.30210332173128429 0.62639534453765433
-0.28998881409129246 -0.32021958830415276 0.61589975363601324
-0.2453133918762177 -0.29766751954538634 0.64174584404538215
-0.24001781156441823 -0.28118479524331513 0.65175797154390858
0.19203625772959343 0.5344373945855182 0.58717352912032594
0.19683262452387801 0.54523391404207877 0.58133319855557553
0.18575115869077591 0.54348735379127699 0.58966277443570159
0.18759645383280948 0.52563615017055465 0.5923898273527558
0.19688540741372601 0.52176000078698692 0.58585217026462255
0.20184797969350277 0.53172167869549369 0.57941646346480602
0.19031192919036982 0.55485687113742088 0.58443364454499602
0.18152326503500654 0.53413711914574602 0.59461514331525211
0.19233379763305575 0.51375961649786739 0.59134193600685725
-0.33157807707638198 -0.31500525276623081 0.58959264446785897
-0.34158283763205732 -0.30957381174529558 0.58158306953626138
-0.33956173491878189 -0.32467595922951936 0.58265859508203111
-0.31893545453480759 -0.31749739831238399 0.59894491452475773
-0.32525402069177367 -0.30642124099355345 0.59509351781739472
-0.33475403263356118 -0.30122721973325273 0.58752542423277132
-0.35007577355491709 -0.31891814834454907 0.57439514768684985
-0.32622835499328162 -0.32736897057298903 0.59235480163037146
-0.31327847595654168 -0.30884491308497031 0.60398514283212656
0.16173257261398949 0.55278512207644925 0.59998458274155275
0.16523790720921033 0.56399717086620349 0.59684715982474112
0.15105800544873538 0.54849523759091501 0.60501974713358198
0.15865503635025635 0.54331907895220233 0.60384678662373237
0.17067349579215907 0.55281876081048154 0.59607768379195125
0.1746185281268815 0.56439560269826261 0.5922513890056007
0.15393719746844764 0.55907924349930482 0.60238258876398554
0.14860075289423613 0.53947053156403524 0.60864410856914075
0.16711648466307155 0.54314087297494362 0.60031974958943923
-0.3581517167504828 -0.28216157262674202 0.56561065614749195
-0.35830327054370648 -0.26794426970473101 0.56434081033155514
-0.36674828497482254 -0.28976371251759714 0.55896104645649647
-0.35496794321547026 -0.293209954324754 0.56931806397707496
-0.35090725432638931 -0.27548303593773832 0.57203581575871754
-0.35123254603566278 -0.26218187875570031 0.57083672745660163
-0.36656876451550841 -0.27457266490957244 0.55798000151822458
-0.36375718357255149 -0.30154757897369228 0.56231163265695439
-0.34768579416278123 -0.28580944999160746 0.57570929102943402
0.10440984496573197 0.50462214971653285 0.63002716059543717
0.10376556605844056 0.51217664727121581 0.62679033014814289
0.08610860226633843 0.48376095884046499 0.63902520356218484
0.10486250516767431 0.49808362751855917 0.63462221070347413
0.12211279024349761 0.52377677200854478 0.62046477755602414
0.12288010892597581 0.5324656021566001 0.6177161408329801
0.084012910977296962 0.49017981038233527 0.63535785542137313
0.087680163498063374 0.47821371837885462 0.64408504638142483
0.12145409071834584 0.51626782796308823 0.6245109885977117
-0.33731229847810007 -0.19980329892028673 0.57908198975810721
-0.32596979122467395 -0.17236398106036321 0.58702541084041937
-0.34435706255645004 -0.20169617345909718 0.57179786005760957
-0.34743138703891474 -0.22622692131640151 0.57157620804732923
-0.3312772058910799 -0.1980315130140041 0.58690055454953882
-0.32034771947316415 -0.17207944303970546 0.59528433435338457
-0.33263120627115472 -0.17240889672105486 0.57927345013233478
-0.35488057639462134 -0.22994682748246126 0.56485754362277785
-0.34099650270702214 -0.22296719458490674 0.57881341931779795
0.038102096066134461 0.42942636578125248 0.65153969823657965
0.032690687668383067 0.43321941647160955 0.64901942768772447
0.025517800680093322 0.41485751083754152 0.6518846229371158
0.042208984015006668 0.42622402422495165 0.65564234245633524
0.052381681986930551 0.4453874354879469 0.64995133797920512
0.047852617163457012 0.44991172222822995 0.64663209270947186
0.019384117179674046 0.41798148004309904 0.65026206824216037
0.030189949974750524 0.4122526556052144 0.65516805631338482
0.055810555206331713 0.44152960299335681 0.65476982874724998
-0.29689815051638607 -0.10183762881705979 0.59996788884976937
-0.28907560456420828 -0.083583054273720148 0.60144878045209016
