# XYZ point cloud file
-0.86201882362365723 -0.65780729055404663 -0.55310976505279541
-0.880085289478302 -0.62441468238830566 -0.52226638793945312
-0.83411586284637451 -0.55544579029083252 -0.47375056147575378
-0.8107725977897644 -0.58722645044326782 -0.51034426689147949
0.16026794910430908 1.0055042505264282 -0.24673968553543091
0.15439325571060181 1.015562891960144 -0.21346434950828552
0.17129364609718323 1.0488671064376831 -0.25762084126472473
0.17574825882911682 0.98094046115875244 -0.28484082221984863
0.15258821845054626 0.96438205242156982 -0.23864397406578064
0.1478596031665802 0.97592878341674805 -0.20575886964797974
0.16422818601131439 1.0574696063995361 -0.22373193502426147
0.18812070786952972 1.0257501602172852 -0.29701545834541321
0.16654342412948608 0.93854784965515137 -0.27564018964767456
-0.74624490737915039 -0.49583923816680908 -0.40657690167427063
-0.77230507135391235 -0.51396960020065308 -0.43589767813682556
-0.75577205419540405 -0.49188113212585449 -0.38272729516029358
-0.72099083662033081 -0.48234346508979797 -0.38011816143989563
-0.72650235891342163 -0.51321077346801758 -0.42149326205253601
-0.75351136922836304 -0.53368562459945679 -0.45075705647468567
-0.78106820583343506 -0.50823414325714111 -0.41189560294151306
-0.73126113414764404 -0.48002234101295471 -0.35622492432594299
-0.70049768686294556 -0.49722868204116821 -0.39543354511260986
0.29942435026168823 0.78415429592132568 -0.39804035425186157
0.31655603647232056 0.8345571756362915 -0.42007452249526978
0.35111963748931885 0.70274448394775391 -0.421347975730896
0.28283470869064331 0.73921459913253784 -0.37861564755439758
0.24772804975509644 0.86642438173294067 -0.3643050491809845
0.26324564218521118 0.91477680206298828 -0.38215705752372742
0.36965417861938477 0.75509464740753174 -0.4478396475315094
0.331952303647995 0.65713006258010864 -0.3971439003944397
0.23392155766487122 0.8221735954284668 -0.34934112429618835
-0.58460932970046997 -0.67876988649368286 -0.35259535908699036
-0.526264488697052 -0.74872809648513794 -0.30059307813644409
-0.61728984117507935 -0.71085208654403687 -0.38116106390953064
-0.64309495687484741 -0.60818564891815186 -0.39473536610603333
-0.55549830198287964 -0.64804601669311523 -0.32939380407333374
-0.49583333730697632 -0.71225917339324951 -0.27805721759796143
-0.56133413314819336 -0.78511261940002441 -0.32931578159332275
-0.67344599962234497 -0.63581538200378418 -0.42348256707191467
-0.61518895626068115 -0.58334314823150635 -0.37048783898353577
0.36942189931869507 1.0114461183547974 -0.46131247282028198
0.31771409511566162 1.0785363912582397 -0.41913300752639771
0.38516849279403687 1.0686393976211548 -0.46397015452384949
0.42024442553520203 0.94473344087600708 -0.49464145302772522
0.35208800435066223 0.95050543546676636 -0.45362097024917603
0.2986128032207489 1.0231304168701172 -0.41110178828239441
0.33703023195266724 1.1288551092147827 -0.42392686009407043
0.4323427677154541 1.0092132091522217 -0.49545952677726746
0.40487575531005859 0.87826943397521973 -0.48681125044822693
-0.72885018587112427 -0.80634713172912598 -0.462461918592453
-0.76418811082839966 -0.8338056206703186 -0.48199287056922913
-0.77398461103439331 -0.72887521982192993 -0.50457620620727539
-0.69094449281692505 -0.77576172351837158 -0.43853411078453064
-0.68400919437408447 -0.88246691226959229 -0.41255396604537964
-0.72465389966964722 -0.90540915727615356 -0.43452551960945129
-0.80435901880264282 -0.7608763575553894 -0.52239334583282471
-0.74032372236251831 -0.69686055183410645 -0.48097404837608337
-0.64176535606384277 -0.853473961353302 -0.3875899612903595
0.41241097450256348 1.1740937232971191 -0.44965434074401855
0.39345705509185791 1.2060668468475342 -0.42926907539367676
0.43439376354217529 1.1580296754837036 -0.46063825488090515
0.40799599885940552 1.1546095609664917 -0.45724290609359741
0.37411338090896606 1.1965160369873047 -0.42697760462760925
0.41616761684417725 1.1949474811553955 -0.43639275431632996
0.44140428304672241 1.1165140867233276 -0.47834107279777527
-0.8295324444770813 -0.8818134069442749 -0.50487411022186279
-0.81882315874099731 -0.9163481593132019 -0.48404720425605774
-0.85033923387527466 -0.85314071178436279 -0.52381789684295654
-0.8172987699508667 -0.87369316816329956 -0.50418674945831299
-0.79229354858398438 -0.92536294460296631 -0.46886458992958069
-0.84281963109970093 -0.88923060894012451 -0.50186622142791748
-0.84494316577911377 -0.82181477546691895 -0.53360879421234131
0.1463017463684082 0.85878235101699829 -0.24115508794784546
0.14097979664802551 0.83948493003845215 -0.24196842312812805
0.143596351146698 0.87448573112487793 -0.20226751267910004
0.14747814834117889 0.88888061046600342 -0.23730647563934326
0.15571677684783936 0.83001643419265747 -0.28319612145423889
0.14866571128368378 0.80965113639831543 -0.29138478636741638
0.13932090997695923 0.85515415668487549 -0.19682326912879944
0.14420318603515625 0.90352964401245117 -0.20218262076377869
0.15840977430343628 0.86102807521820068 -0.27545037865638733
-0.65310519933700562 -0.46487554907798767 -0.33149716258049011
-0.66550534963607788 -0.46526885032653809 -0.3011096715927124
-0.64143449068069458 -0.45600771903991699 -0.32555529475212097
-0.6313132643699646 -0.47305262088775635 -0.35587659478187561
-0.67265349626541138 -0.46916481852531433 -0.34212300181388855
-0.68449503183364868 -0.46874663233757019 -0.3156948983669281
-0.65383368730545044 -0.45816007256507874 -0.28807470202445984
-0.61884969472885132 -0.46108454465866089 -0.35812839865684509
-0.65127921104431152 -0.4796217679977417 -0.36146530508995056
0.23608508706092834 0.63897210359573364 -0.37485641241073608
0.20215393602848053 0.716591477394104 -0.35407835245132446
0.25164014101028442 0.66697168350219727 -0.36594089865684509
0.27054503560066223 0.5623660683631897 -0.38266146183013916
0.21917012333869934 0.61504364013671875 -0.39071384072303772
0.18932782113552094 0.69313013553619385 -0.37045967578887939
0.21224650740623474 0.74663716554641724 -0.34349861741065979
0.29166889190673828 0.5878487229347229 -0.3764764666557312
0.2487742006778717 0.53999489545822144 -0.39643016457557678
-0.49415707588195801 -0.56938356161117554 -0.32547125220298767
-0.51039683818817139 -0.59399998188018799 -0.31492525339126587
-0.54953181743621826 -0.52755063772201538 -0.35443833470344543
-0.4809873104095459 -0.54354006052017212 -0.34500077366828918
-0.43861937522888184 -0.61081326007843018 -0.28419986367225647
-0.45250701904296875 -0.64322739839553833 -0.26926827430725098
-0.56787127256393433 -0.54459410905838013 -0.34899377822875977
-0.53578221797943115 -0.50701874494552612 -0.3697630763053894
-0.4273853600025177 -0.57861423492431641 -0.30768665671348572
0.33884972333908081 0.42704051733016968 -0.31284889578819275
0.3126162588596344 0.40135493874549866 -0.31674924492835999
0.3234579861164093 0.45255836844444275 -0.34927180409431458
0.36573025584220886 0.45480319857597351 -0.31598487496376038
0.34864610433578491 0.4179043173789978 -0.27299788594245911
0.3244355320930481 0.38939937949180603 -0.27048256993293762
0.29650887846946716 0.42978894710540771 -0.35725423693656921
0.35057598352432251 0.47779124975204468 -0.34928128123283386
0.37406742572784424 0.44824689626693726 -0.27965351939201355
-0.32780736684799194 -0.6752743124961853 -0.12824539840221405
-0.35252881050109863 -0.66529577970504761 -0.18119058012962341
-0.31479871273040771 -0.63611024618148804 -0.149366095662117
-0.31458714604377747 -0.67869699001312256 -0.080582275986671448
-0.34303110837936401 -0.71709597110748291 -0.11388301849365234
-0.36577466130256653 -0.70676934719085693 -0.16408011317253113
-0.34183543920516968 -0.62586390972137451 -0.20632690191268921
-0.29877632856369019 -0.64105468988418579 -0.094022125005722046
-0.33206996321678162 -0.71926814317703247 -0.070761620998382568
0.050701577216386795 0.531524658203125 0.68146467208862305
0.041726429015398026 0.5170825719833374 0.70134198665618896
0.0337088443338871 0.50427448749542236 0.71845686435699463
0.045237664133310318 0.48382961750030518 0.72928929328918457
0.059886399656534195 0.47010362148284912 0.72749340534210205
0.071044400334358215 0.45380812883377075 0.72690129280090332
0.089444071054458618 0.437867671251297 0.71301794052124023
0.10423626005649567 0.44120857119560242 0.69474470615386963
0.12072497606277466 0.44501453638076782 0.67347276210784912
0.12584592401981354 0.47865450382232666 0.64910149574279785
0.10876129567623138 0.50546473264694214 0.65061330795288086
0.086478069424629211 0.5283045768737793 0.65415000915527344
-0.42540013790130615 -0.31889280676841736 0.65904819965362549
-0.39276385307312012 -0.32451030611991882 0.67002880573272705
-0.35910689830780029 -0.32381677627563477 0.68120348453521729
-0.32974725961685181 -0.30036282539367676 0.70959568023681641
-0.3342444896697998 -0.28435567021369934 0.72505223751068115
-0.338480144739151 -0.2702535092830658 0.73816764354705811
-0.36309432983398438 -0.26465940475463867 0.74216437339782715
-0.38458707928657532 -0.26551371812820435 0.73533904552459717
-0.40556779503822327 -0.26231512427330017 0.72874009609222412
-0.43106222152709961 -0.26504048705101013 0.70882761478424072
-0.43858152627944946 -0.27794960141181946 0.69147717952728271
-0.44709205627441406 -0.29244989156723022 0.67130732536315918
0.082190677523612976 0.58386659622192383 0.58579015731811523
0.075222134590148926 0.57202279567718506 0.61122918128967285
0.067801967263221741 0.5595582127571106 0.63590753078460693
0.15126645565032959 0.45242959260940552 0.62465524673461914
0.16395516693592072 0.45572522282600403 0.59819984436035156
0.17561165988445282 0.45885449647903442 0.57092499732971191
0.17307558655738831 0.50227367877960205 0.54297387599945068
0.15163962543010712 0.53885239362716675 0.54606354236602783
0.12330570816993713 0.57032990455627441 0.55192363262176514
-0.44631767272949219 -0.37241283059120178 0.56183719635009766
-0.4043823778629303 -0.3812585175037384 0.57650744915008545
-0.36107537150382996 -0.38153195381164551 0.59106504917144775
-0.31914955377578735 -0.35970416665077209 0.62783217430114746
-0.32066828012466431 -0.34608188271522522 0.65045297145843506
-0.32275217771530151 -0.33185365796089172 0.6719822883605957
-0.46375226974487305 -0.32029804587364197 0.6250452995300293
-0.47123759984970093 -0.33250680565834045 0.59997498989105225
-0.47838413715362549 -0.34402972459793091 0.57412934303283691
0.14160279929637909 0.41717642545700073 0.65322303771972656
0.13973943889141083 0.38478633761405945 0.6586226224899292
0.13161146640777588 0.35298466682434082 0.66557812690734863
0.12952291965484619 0.31478577852249146 0.65084338188171387
0.13993656635284424 0.30706900358200073 0.62664949893951416
0.14920385181903839 0.29970681667327881 0.60149228572845459
0.17711320519447327 0.33266052603721619 0.56454133987426758
0.18850450217723846 0.37539994716644287 0.55481052398681641
0.19180567562580109 0.41904503107070923 0.54744899272918701
-0.27641713619232178 -0.35551753640174866 0.61647439002990723
-0.2380916029214859 -0.33024859428405762 0.62641251087188721
-0.2044433057308197 -0.29845273494720459 0.63441002368927002
-0.18583838641643524 -0.25447285175323486 0.66236376762390137
-0.1952911764383316 -0.24744038283824921 0.68365669250488281
-0.20592959225177765 -0.24012117087841034 0.7035987377166748
-0.23893643915653229 -0.26002088189125061 0.71629953384399414
-0.26445198059082031 -0.28390294313430786 0.70954406261444092
-0.29375016689300537 -0.30310535430908203 0.70136439800262451
0.080951124429702759 0.4152991771697998 0.7297210693359375
0.079436317086219788 0.39448046684265137 0.73298192024230957
0.073903679847717285 0.37388044595718384 0.7371443510055542
0.074691146612167358 0.34856733679771423 0.72892570495605469
0.088110610842704773 0.3407948911190033 0.71296501159667969
0.10296490788459778 0.33199441432952881 0.69440901279449463
-0.23313987255096436 -0.22405396401882172 0.7367253303527832
-0.24838913977146149 -0.21594136953353882 0.74957919120788574
-0.26218110322952271 -0.20881456136703491 0.76041805744171143
-0.28586980700492859 -0.22142335772514343 0.7655491828918457
-0.30234935879707336 -0.23726309835910797 0.76066994667053223
-0.32124382257461548 -0.25023719668388367 0.75506699085235596
0.051657292991876602 0.33711963891983032 0.74717521667480469
0.035772208124399185 0.32232478260993958 0.75242042541503906
0.017524112015962601 0.31048142910003662 0.75732147693634033
0.00039916113018989563 0.29071035981178284 0.75060606002807617
0.0041271187365055084 0.27576768398284912 0.73754751682281494
0.0081098861992359161 0.25891023874282837 0.72236943244934082
0.043382409960031509 0.25487607717514038 0.69852304458618164
0.072229266166687012 0.27323737740516663 0.69066977500915527
0.097247391939163208 0.296205073595047 0.68215596675872803
-0.20383599400520325 -0.20187394320964813 0.72506976127624512
-0.19557194411754608 -0.1697932630777359 0.72707498073577881
-0.19372780621051788 -0.13740037381649017 0.7276376485824585
-0.21555891633033752 -0.11117361485958099 0.74214339256286621
-0.23289796710014343 -0.11643727123737335 0.75515341758728027
-0.24848653376102448 -0.12113754451274872 0.76618492603302002
-0.25711482763290405 -0.14397254586219788 0.77569901943206787
-0.25814646482467651 -0.16401736438274384 0.77472484111785889
-0.2633330225944519 -0.18407987058162689 0.77266764640808105
0.014462042599916458 0.22636283934116364 0.68580222129821777
0.016471076756715775 0.2120136022567749 0.6649625301361084
0.018013458698987961 0.19843512773513794 0.64309954643249512
0.060449313372373581 0.20200969278812408 0.61122512817382812
0.098178386688232422 0.22616572678089142 0.60002505779266357
0.13112372159957886 0.25668051838874817 0.58795702457427979
-0.15720738470554352 -0.22021321952342987 0.64429473876953125
-0.14544126391410828 -0.17678254842758179 0.64642000198364258
-0.14199510216712952 -0.13285002112388611 0.64708030223846436
-0.1585882157087326 -0.093713849782943726 0.66825258731842041
-0.17056059837341309 -0.097404152154922485 0.68928134441375732
-0.18366824090480804 -0.10143183171749115 0.70903217792510986
-0.021612029522657394 0.23495097458362579 0.70981919765472412
-0.05541689321398735 0.23409833014011383 0.71306121349334717
-0.088365912437438965 0.2392764538526535 0.71524143218994141
-0.1275719553232193 0.23655892908573151 0.69854283332824707
-0.13529773056507111 0.22398380935192108 0.6788477897644043
-0.14256855845451355 0.21228687465190887 0.65816986560821533
-0.1098514199256897 0.18491844832897186 0.63547694683074951
-0.067396804690361023 0.17682875692844391 0.63249492645263672
-0.023816745728254318 0.17689244449138641 0.62769675254821777
-0.16131919622421265 -0.050590280443429947 0.64524257183074951
-0.18342198431491852 -0.015147563070058823 0.64292776584625244
-0.21250800788402557 0.015032719820737839 0.63951349258422852
-0.25434863567352295 0.027261678129434586 0.65580809116363525
-0.26138725876808167 0.015273746103048325 0.67623209953308105
-0.26899373531341553 0.002470109611749649 0.69563961029052734
-0.25025266408920288 -0.028651762753725052 0.71799230575561523
-0.2275099903345108 -0.050687048584222794 0.72184133529663086
-0.20999525487422943 -0.076760202646255493 0.72486639022827148
-0.023629795759916306 0.29733198881149292 0.76459944248199463
-0.045168694108724594 0.29645627737045288 0.76687359809875488
-0.066338345408439636 0.29938933253288269 0.76859664916992188
-0.092458248138427734 0.29569566249847412 0.75965011119842529
-0.10061077773571014 0.28176820278167725 0.74731230735778809
-0.10984446108341217 0.26610493659973145 0.73301851749420166
-0.287049800157547 -0.027215104550123215 0.72936749458312988
-0.29669526219367981 -0.042802702635526657 0.74323713779449463
-0.30530303716659546 -0.056617695838212967 0.75518941879272461
-0.29398798942565918 -0.077400445938110352 0.76876986026763916
-0.27918601036071777 -0.090845108032226562 0.77180850505828857
-0.26781600713729858 -0.10677114129066467 0.77414500713348389
-0.10454174876213074 0.31672000885009766 0.77146732807159424
-0.12012468278408051 0.33049300312995911 0.7726738452911377
-0.13243944942951202 0.34682422876358032 0.77344727516174316
-0.15168265998363495 0.36122381687164307 0.76315915584564209
-0.16623194515705109 0.35615658760070801 0.75071811676025391
-0.18267610669136047 0.35061562061309814 0.73615050315856934
-0.18742243945598602 0.31598842144012451 0.71943128108978271
-0.16955459117889404 0.2897571325302124 0.71895742416381836
-0.14651384949684143 0.26759690046310425 0.71803605556488037
-0.30834293365478516 -0.00030698254704475403 0.70862710475921631
-0.341530442237854 0.0050210244953632355 0.70304632186889648
-0.37562525272369385 0.0043522603809833527 0.69651114940643311
-0.40611022710800171 -0.019370261579751968 0.70684552192687988
-0.4030347466468811 -0.035948675125837326 0.72279632091522217
-0.40035581588745117 -0.050520714372396469 0.73650741577148438
-0.37646955251693726 -0.057197879999876022 0.75304687023162842
-0.35403788089752197 -0.05675395205616951 0.75757098197937012
-0.33213886618614197 -0.060041617602109909 0.76159894466400146
-0.21420393884181976 0.34106758236885071 0.70023047924041748
-0.22793008387088776 0.33754783868789673 0.67935943603515625
-0.24084185063838959 0.33452972769737244 0.65732347965240479
-0.23824726045131683 0.29165217280387878 0.63601207733154297
-0.21507900953292847 0.25565361976623535 0.63700556755065918
-0.18511106073856354 0.22502656280994415 0.63742220401763916
-0.28769969940185547 0.055178325623273849 0.62888526916503906
-0.33096319437026978 0.063757210969924927 0.62137413024902344
-0.37552684545516968 0.064294829964637756 0.61217236518859863
-0.4171404242515564 0.042536471039056778 0.62429690361022949
-0.41467750072479248 0.028264004737138748 0.6469719409942627
-0.412067711353302 0.013389546424150467 0.66862797737121582
-0.2041889876127243 0.37686452269554138 0.71863210201263428
-0.20242734253406525 0.40930613875389099 0.71717894077301025
-0.19417330622673035 0.44141080975532532 0.71491503715515137
-0.19223992526531219 0.47997188568115234 0.69241940975189209
-0.20364263653755188 0.4878849983215332 0.67130005359649658
-0.21423839032649994 0.49570745229721069 0.64899206161499023
-0.2442413866519928 0.46231412887573242 0.62932503223419189
-0.25593560934066772 0.4188193678855896 0.63164663314819336
-0.2591058611869812 0.37472671270370483 0.63334500789642334
-0.46111145615577698 0.040113132447004318 0.588020920753479
-0.49899300932884216 0.016185760498046875 0.57382762432098389
-0.53189182281494141 -0.014198180288076401 0.55945670604705811
-0.54856634140014648 -0.058099310845136642 0.57297301292419434
-0.53822147846221924 -0.066312134265899658 0.5996394157409668
-0.52710801362991333 -0.074675247073173523 0.62535858154296875
-0.49478575587272644 -0.056470867246389389 0.65928494930267334
-0.469826340675354 -0.03355645015835762 0.66946315765380859
-0.4409736692905426 -0.015276294201612473 0.67951381206512451
-0.1444946825504303 0.38462591171264648 0.77285254001617432
-0.14370247721672058 0.40479028224945068 0.77135646343231201
-0.13857804238796234 0.42490243911743164 0.76917386054992676
-0.1386091560125351 0.44924187660217285 0.75593209266662598
-0.15119102597236633 0.45592224597930908 0.74341118335723877
-0.16540460288524628 0.46369475126266479 0.72872066497802734
-0.50103706121444702 -0.092156708240509033 0.67206466197967529
-0.487264484167099 -0.10062713921070099 0.69211447238922119
-0.47509035468101501 -0.10795506834983826 0.70934271812438965
-0.45322906970977783 -0.096122309565544128 0.72921407222747803
-0.43731993436813354 -0.081396505236625671 0.7355574369430542
-0.41887640953063965 -0.069695919752120972 0.74191391468048096
-0.11597259342670441 0.46228232979774475 0.7630774974822998
-0.099363818764686584 0.47810524702072144 0.75929605960845947
-0.080168172717094421 0.49098896980285645 0.7550886869430542
-0.061433207243680954 0.51045620441436768 0.73901546001434326
-0.064617782831192017 0.52418816089630127 0.72488820552825928
-0.068203791975975037 0.53991949558258057 0.70836091041564941
-0.10393816232681274 0.54266184568405151 0.69655478000640869
-0.13339425623416901 0.5234789252281189 0.70254802703857422
-0.1589968204498291 0.49959015846252441 0.7076258659362793
-0.5289844274520874 -0.11318120360374451 0.64126193523406982
-0.53701686859130859 -0.14497140049934387 0.6345829963684082
-0.5387423038482666 -0.17738974094390869 0.63010871410369873
-0.51824104785919189 -0.20527781546115875 0.65327274799346924
-0.50271475315093994 -0.20120957493782043 0.67578864097595215
-0.48901310563087463 -0.19750441610813141 0.69510114192962646
-0.48200735449790955 -0.1743655651807785 0.7114875316619873
-0.48077398538589478 -0.15344603359699249 0.7141568660736084
-0.47536623477935791 -0.13282768428325653 0.71817803382873535
-0.074796527624130249 0.57162117958068848 0.66906857490539551
-0.07747824490070343 0.58637487888336182 0.64702439308166504
-0.079914495348930359 0.60068756341934204 0.62402009963989258
-0.12439675629138947 0.59754449129104614 0.60894787311553955
-0.16309584677219391 0.57238894701004028 0.61596775054931641
-0.19691120088100433 0.54060620069503784 0.62166047096252441
-0.57761639356613159 -0.090029880404472351 0.53388702869415283
-0.58881074190139771 -0.13276630640029907 0.52441108226776123
-0.59175688028335571 -0.17653557658195496 0.5182032585144043
-0.57396602630615234 -0.21749861538410187 0.54516613483428955
-0.56146806478500366 -0.21512536704540253 0.57385528087615967
-0.54825276136398315 -0.21241140365600586 0.60171329975128174
-0.037933912128210068 0.56318992376327515 0.68193531036376953
-0.0038540922105312347 0.56374800205230713 0.67392623424530029
0.029142115265130997 0.55802392959594727 0.66623365879058838
0.049386966973543167 0.61275124549865723 0.56962120532989502
0.0064723379909992218 0.62201368808746338 0.5801084041595459
-0.038002710789442062 0.62281507253646851 0.5906682014465332
-0.57150548696517944 -0.26062887907028198 0.5187835693359375
-0.54909211397171021 -0.29783996939659119 0.52554500102996826
-0.51999884843826294 -0.32985863089561462 0.53552329540252686
-0.48258915543556213 -0.28911080956459045 0.64043068885803223
-0.50509458780288696 -0.26610767841339111 0.63388550281524658
-0.52248376607894897 -0.23911221325397491 0.62971663475036621
-0.036866512149572372 0.50484508275985718 0.74558496475219727
-0.014395337551832199 0.50529968738555908 0.74067091941833496
0.0073933042585849762 0.50177949666976929 0.73609447479248047
-0.44331881403923035 -0.24431838095188141 0.71765244007110596
-0.45868954062461853 -0.2302255779504776 0.71375572681427002
-0.47074979543685913 -0.21349120140075684 0.71127188205718994
0.020316068083047867 0.48289245367050171 0.75485122203826904
0.022327307611703873 0.48621875047683716 0.74901342391967773
0.024266276508569717 0.48931074142456055 0.74191641807556152
-0.058059286326169968 0.49473732709884644 0.75910699367523193
-0.057567384093999863 0.49162089824676514 0.76566517353057861
-0.056876670569181442 0.48824131488800049 0.77100801467895508
-0.036427941173315048 0.48648941516876221 0.77137887477874756
-0.017810773104429245 0.48739242553710938 0.76705431938171387
6.6645443439483643e-06 0.48366963863372803 0.76366233825683594
-0.43077269196510315 -0.22942674160003662 0.74712717533111572
-0.44437921047210693 -0.21877406537532806 0.74353373050689697
-0.45410209894180298 -0.20499195158481598 0.74197101593017578
-0.46733182668685913 -0.19132933020591736 0.73499095439910889
-0.47072437405586243 -0.19242678582668304 0.72862708568572998
-0.47360211610794067 -0.19326718151569366 0.72102785110473633
-0.42233067750930786 -0.24992240965366364 0.73253750801086426
-0.42052993178367615 -0.24682268500328064 0.73969054222106934
-0.41854226589202881 -0.24353064596652985 0.74561464786529541
-0.12483139336109161 0.4417024552822113 0.77487695217132568
-0.1226222813129425 0.44027146697044373 0.78169393539428711
-0.12001657485961914 0.43878781795501709 0.78712797164916992
-0.10366962850093842 0.45160284638404846 0.78801989555358887
-0.090239048004150391 0.46512049436569214 0.78412926197052002
-0.073635458946228027 0.47508394718170166 0.78016674518585205
-0.46464037895202637 -0.17230306565761566 0.74267494678497314
-0.46482163667678833 -0.15509657561779022 0.74488532543182373
-0.45985168218612671 -0.13815560936927795 0.74901163578033447
-0.45707309246063232 -0.11931778490543365 0.74760782718658447
-0.45967942476272583 -0.11784149706363678 0.74117159843444824
-0.46181535720825195 -0.11629532277584076 0.73347973823547363
-0.13532617688179016 0.36698535084724426 0.78207242488861084
-0.13240531086921692 0.36789017915725708 0.78883159160614014
-0.12915490567684174 0.36874660849571228 0.79403769969940186
-0.12697383761405945 0.38690367341041565 0.7973020076751709
-0.12750798463821411 0.40350502729415894 0.7960205078125
-0.12281674146652222 0.41994765400886536 0.79410660266876221
-0.44110816717147827 -0.10707421600818634 0.75894224643707275
-0.42831048369407654 -0.094551533460617065 0.76399469375610352
-0.41230988502502441 -0.085530921816825867 0.76945734024047852
-0.3962363600730896 -0.073452621698379517 0.76963019371032715
-0.39708599448204041 -0.070338577032089233 0.76386725902557373
-0.39757215976715088 -0.067215308547019958 0.75680732727050781
-0.083378791809082031 0.31135907769203186 0.77847886085510254
-0.081889644265174866 0.31394019722938538 0.78522253036499023
-0.080357670783996582 0.31647476553916931 0.79051601886749268
-0.093084365129470825 0.32978051900863647 0.79586279392242432
-0.1065686047077179 0.34066295623779297 0.7969132661819458
-0.11616848409175873 0.35466313362121582 0.79766535758972168
-0.37545692920684814 -0.074604213237762451 0.77896213531494141
-0.35655209422111511 -0.073178201913833618 0.78268969058990479
-0.33834278583526611 -0.076210632920265198 0.78619813919067383
-0.31822812557220459 -0.077262341976165771 0.78548181056976318
-0.31667715311050415 -0.074693828821182251 0.78024506568908691
-0.3150525689125061 -0.072121471166610718 0.77357292175292969
-0.0039157681167125702 0.30794179439544678 0.77020943164825439
-0.0046535693109035492 0.31111788749694824 0.77713239192962646
-0.0054380707442760468 0.3141513466835022 0.78269243240356445
-0.025032889097929001 0.31470006704330444 0.78982937335968018
-0.04304220899939537 0.31285116076469421 0.79167962074279785
-0.060490470379590988 0.31552350521087646 0.79324281215667725
-0.30579641461372375 -0.090494528412818909 0.79248011112213135
-0.2931210994720459 -0.10104244947433472 0.79506278038024902
-0.28446128964424133 -0.1146446019411087 0.79704165458679199
-0.27271661162376404 -0.12815865874290466 0.79489123821258545
-0.26953738927841187 -0.12722405791282654 0.78994333744049072
-0.26636621356010437 -0.12636977434158325 0.78346776962280273
0.05961180105805397 0.35755833983421326 0.75173044204711914
0.057182732969522476 0.35917344689369202 0.75919628143310547
0.054650578647851944 0.36055833101272583 0.7653118371963501
0.039006505161523819 0.34806212782859802 0.77539527416229248
0.026206422597169876 0.33549076318740845 0.77957248687744141
0.010465715080499649 0.32630392909049988 0.783713698387146
-0.27510064840316772 -0.14625878632068634 0.79850363731384277
-0.27486646175384521 -0.16271859407424927 0.797737717628479
-0.27958482503890991 -0.17912830412387848 0.79586923122406006
-0.28274723887443542 -0.19773928821086884 0.78910434246063232
-0.28022500872612 -0.19913487136363983 0.78394114971160889
-0.27772828936576843 -0.20063196122646332 0.77743244171142578
0.072466537356376648 0.43417298793792725 0.73784196376800537
0.069334074854850769 0.43338891863822937 0.74522745609283447
0.066003039479255676 0.43220981955528259 0.7512814998626709
0.063068315386772156 0.41322317719459534 0.75935053825378418
0.062913849949836731 0.39614269137382507 0.76217138767242432
0.057852108031511307 0.37920045852661133 0.76634669303894043
-0.29866164922714233 -0.21074418723583221 0.78888571262359619
-0.31199836730957031 -0.22425775229930878 0.784110426902771
-0.32824450731277466 -0.23433601856231689 0.77891266345977783
-0.34473991394042969 -0.24752214550971985 0.76859104633331299
-0.34411901235580444 -0.25082358717918396 0.76340091228485107
-0.34338098764419556 -0.25399553775787354 0.75704693794250488
0.032299105077981949 0.46889567375183105 0.75808060169219971
0.045155275613069534 0.45861971378326416 0.75630974769592285
0.053971890360116959 0.44526514410972595 0.75631487369537354
-0.36392033100128174 -0.24633665382862091 0.7672421932220459
-0.38156861066818237 -0.24763394892215729 0.76138949394226074
-0.39856016635894775 -0.24424444139003754 0.75635647773742676
0.010299045592546463 0.46604132652282715 0.76824474334716797
0.00092547014355659485 0.45040839910507202 0.77675759792327881
-0.011255946010351181 0.4303206205368042 0.78592419624328613
0.0063770301640033722 0.41084346175193787 0.78478479385375977
0.0295974500477314 0.41899102926254272 0.77468085289001465
0.04743121936917305 0.42535778880119324 0.76545560359954834
-0.38678956031799316 -0.19128324091434479 0.77808558940887451
-0.39886528253555298 -0.211347296833992 0.76842093467712402
-0.40831899642944336 -0.22687838971614838 0.75948941707611084
-0.34870857000350952 -0.23023080825805664 0.77816951274871826
-0.35280486941337585 -0.21388743817806244 0.78284120559692383
-0.35828420519828796 -0.19270752370357513 0.78692150115966797
0.0023601986467838287 0.38385346531867981 0.79016399383544922
0.022989977151155472 0.37467613816261292 0.78381490707397461
0.03874695673584938 0.36770090460777283 0.77731943130493164
-0.29849344491958618 -0.19037048518657684 0.79535961151123047
-0.31417056918144226 -0.18329596519470215 0.7961655855178833
-0.33477523922920227 -0.17412026226520538 0.79505801200866699
-0.02078966423869133 0.36594894528388977 0.79672574996948242
-0.014733131974935532 0.34573695063591003 0.79462718963623047
-0.010126631706953049 0.33024495840072632 0.79138410091400146
-0.29066407680511475 -0.13403071463108063 0.79994320869445801
-0.30811405181884766 -0.1398167759180069 0.79974019527435303
-0.33093768358230591 -0.14738264679908752 0.79738867282867432
-0.049683075398206711 0.36680284142494202 0.80017566680908203
-0.061681877821683884 0.34692215919494629 0.7996819019317627
-0.070930197834968567 0.33177125453948975 0.79774463176727295
-0.32738798856735229 -0.092732548713684082 0.79238486289978027
-0.3364906907081604 -0.10795858502388 0.79397237300872803
-0.34850925207138062 -0.12783001363277435 0.79396665096282959
-0.068116709589958191 0.3867071270942688 0.80129992961883545
-0.091860786080360413 0.37952360510826111 0.80175483226776123
-0.11016127467155457 0.37410911917686462 0.80053091049194336
-0.39053863286972046 -0.090077787637710571 0.77955377101898193
-0.38511812686920166 -0.10596048831939697 0.78394389152526855
-0.37818583846092224 -0.12658096849918365 0.78749430179595947
-0.06468731164932251 0.41364884376525879 0.79853510856628418
-0.086404487490653992 0.42330685257911682 0.79745829105377197
-0.10307112336158752 0.43082687258720398 0.79500842094421387
-0.44003510475158691 -0.12708967924118042 0.7617039680480957
-0.42335158586502075 -0.13454613089561462 0.77020728588104248
-0.4016912579536438 -0.14425230026245117 0.77914011478424072
-0.040669020265340805 0.43208080530166626 0.79205548763275146
-0.047005947679281235 0.45367640256881714 0.78687548637390137
-0.051904808729887009 0.47041696310043335 0.7813875675201416
-0.44781202077865601 -0.18504108488559723 0.75102889537811279
-0.42922985553741455 -0.17910178005695343 0.76200449466705322
-0.40522417426109314 -0.17140944302082062 0.77434468269348145
0.74524623155593872 -0.40682893991470337 0.50716179609298706
0.76014643907546997 -0.37730187177658081 0.48418602347373962
0.77327042818069458 -0.34848523139953613 0.46066960692405701
0.78640264272689819 -0.31153398752212524 0.45879426598548889
0.78403395414352417 -0.30348879098892212 0.4802192747592926
0.77816992998123169 -0.29718172550201416 0.50194036960601807
0.75984174013137817 -0.31595408916473389 0.53937602043151855
0.74851840734481812 -0.34060889482498169 0.55615031719207764
0.73534554243087769 -0.36637651920318604 0.57383632659912109
0.72522050142288208 -0.40358740091323853 0.57798051834106445
0.72850269079208374 -0.41471755504608154 0.56322503089904785
0.7297171950340271 -0.42578437924385071 0.546988844871521
0.70392709970474243 -0.41817140579223633 0.60883247852325439
0.68658697605133057 -0.44270646572113037 0.62506651878356934
0.66920804977416992 -0.46536985039710999 0.64006078243255615
0.65159875154495239 -0.50583726167678833 0.64342570304870605
0.65043425559997559 -0.52372312545776367 0.63069236278533936
0.64830583333969116 -0.53917843103408813 0.61521410942077637
0.66637247800827026 -0.52469569444656372 0.58249473571777344
0.68813991546630859 -0.49599474668502808 0.56643319129943848
0.70902067422866821 -0.46654123067855835 0.54859423637390137
0.79528778791427612 -0.29446223378181458 0.41490590572357178
0.80348986387252808 -0.2697308361530304 0.39461523294448853
0.80853563547134399 -0.24665991961956024 0.37769708037376404
0.81040710210800171 -0.22182707488536835 0.3949677050113678
0.80529212951660156 -0.21988679468631744 0.42648005485534668
0.79498046636581421 -0.21954607963562012 0.45912021398544312
0.78257399797439575 -0.23766139149665833 0.49522766470909119
0.78110277652740479 -0.25481873750686646 0.50187063217163086
0.77646332979202271 -0.27306491136550903 0.51167428493499756
0.63748222589492798 -0.50219053030014038 0.6651458740234375
0.62312084436416626 -0.5152733325958252 0.67536795139312744
0.60869330167770386 -0.52433663606643677 0.6846168041229248
0.58816033601760864 -0.56052923202514648 0.68423330783843994
0.5813254714012146 -0.58912813663482666 0.67228865623474121
0.57270878553390503 -0.61369884014129639 0.65708434581756592
0.58189749717712402 -0.62028098106384277 0.63043463230133057
0.60220271348953247 -0.60154920816421509 0.62091302871704102
0.62304723262786865 -0.578391432762146 0.6097104549407959
0.80529665946960449 -0.20592533051967621 0.35890686511993408
0.79593676328659058 -0.18745265901088715 0.35772931575775146
0.78126698732376099 -0.16902412474155426 0.36131176352500916
0.76913118362426758 -0.14802291989326477 0.40116599202156067
0.76551491022109985 -0.14757010340690613 0.43675893545150757
0.75291424989700317 -0.14888879656791687 0.47409185767173767
0.75014150142669678 -0.16895404458045959 0.50311332941055298
0.76361995935440063 -0.18607683479785919 0.49670478701591492
0.77385216951370239 -0.20348979532718658 0.49280780553817749
0.57643520832061768 -0.52900469303131104 0.70191609859466553
0.55814385414123535 -0.52490448951721191 0.71006059646606445
0.53886348009109497 -0.51738005876541138 0.71742057800292969
0.51344972848892212 -0.5438157320022583 0.71399366855621338
0.50560492277145386 -0.57620024681091309 0.69976162910461426
0.49424606561660767 -0.60134381055831909 0.68025088310241699
0.50193756818771362 -0.62963074445724487 0.65213572978973389
0.52315527200698853 -0.63722115755081177 0.64873254299163818
0.54288101196289062 -0.63857108354568481 0.64420449733734131
0.73554885387420654 -0.1286434680223465 0.38060420751571655
0.70487004518508911 -0.10623472929000854 0.39465945959091187
0.66962051391601562 -0.082956820726394653 0.4101678729057312
0.64493423700332642 -0.061996188014745712 0.45777171850204468
0.6484256386756897 -0.068062648177146912 0.49116334319114685
0.64350563287734985 -0.077170386910438538 0.52461230754852295
0.66632097959518433 -0.10619170963764191 0.54331982135772705
0.69337517023086548 -0.12194550037384033 0.53141164779663086
0.71545243263244629 -0.13710808753967285 0.52077615261077881
0.49869483709335327 -0.49464321136474609 0.72844183444976807
0.47663938999176025 -0.47948542237281799 0.73189759254455566
0.45126378536224365 -0.46101060509681702 0.73415851593017578
0.40652996301651001 -0.46821197867393494 0.72500240802764893
0.39034360647201538 -0.49393457174301147 0.70903265476226807
0.37185436487197876 -0.51262485980987549 0.68660926818847656
0.38686856627464294 -0.54948151111602783 0.65836429595947266
0.4204656183719635 -0.57540309429168701 0.65824234485626221
0.45098894834518433 -0.59799385070800781 0.65691208839416504
0.58733063936233521 -0.035620037466287613 0.44107708334922791
0.54297512769699097 -0.013165485113859177 0.45499655604362488
0.49941879510879517 0.006952676922082901 0.46740257740020752
0.46746420860290527 0.021013569086790085 0.51251411437988281
0.46868896484375 0.013665247708559036 0.54769742488861084
0.46422785520553589 0.0023079179227352142 0.58158934116363525
0.49988240003585815 -0.029825646430253983 0.60012233257293701
0.54634773731231689 -0.049412105232477188 0.58604371547698975
0.59181267023086548 -0.069621756672859192 0.57115530967712402
0.38452863693237305 -0.4117315411567688 0.73561751842498779
0.34463009238243103 -0.38240015506744385 0.73499703407287598
0.30433303117752075 -0.35269692540168762 0.73354601860046387
0.2502569854259491 -0.35104674100875854 0.71592581272125244
0.23355966806411743 -0.37463575601577759 0.69465672969818115
0.21684497594833374 -0.39287638664245605 0.66787636280059814
0.23411381244659424 -0.43112710118293762 0.642539381980896
0.27181237936019897 -0.46083277463912964 0.6485295295715332
0.31132006645202637 -0.49119845032691956 0.65346884727478027
0.18436399102210999 0.11516091227531433 0.67512226104736328
0.20793247222900391 0.11672522127628326 0.62513458728790283
0.22416013479232788 0.11636234819889069 0.57822334766387939
0.23823335766792297 0.14881889522075653 0.52956032752990723
0.2484474778175354 0.19136506319046021 0.51691955327987671
0.26129716634750366 0.23970843851566315 0.50276756286621094
0.26473623514175415 0.29423213005065918 0.52064990997314453
0.25032293796539307 0.2991442084312439 0.55411171913146973
0.23256087303161621 0.30471616983413696 0.58653771877288818
0.19786971807479858 0.2607276439666748 0.63758730888366699
0.18011164665222168 0.21132417023181915 0.66503214836120605
0.16209737956523895 0.16227687895298004 0.69483661651611328
-0.041726391762495041 -0.17477037012577057 0.74709761142730713
-0.080964997410774231 -0.2204144150018692 0.72910559177398682
-0.12017582356929779 -0.26523810625076294 0.71236228942871094
-0.14864477515220642 -0.32568490505218506 0.67853319644927979
-0.13880378007888794 -0.34431582689285278 0.65499138832092285
-0.13153223693370819 -0.36100301146507263 0.62920892238616943
-0.087242662906646729 -0.33655464649200439 0.60702812671661377
-0.048925247043371201 -0.30027514696121216 0.6102675199508667
-0.014630254358053207 -0.26921200752258301 0.61276483535766602
0.01452796533703804 -0.23018677532672882 0.64926731586456299
0.013199452310800552 -0.20520795881748199 0.68871331214904785
0.01004459336400032 -0.17304350435733795 0.72884607315063477
0.28295448422431946 0.34137231111526489 0.4808027446269989
0.28857618570327759 0.39206096529960632 0.4744047224521637
0.29046258330345154 0.44328218698501587 0.46931880712509155
0.28062227368354797 0.50042808055877686 0.49179098010063171
0.26729971170425415 0.50420522689819336 0.51973235607147217
0.25068360567092896 0.50517523288726807 0.54643619060516357
0.23493379354476929 0.45554843544960022 0.57574403285980225
0.23218590021133423 0.40799397230148315 0.58427262306213379
0.22496187686920166 0.35940858721733093 0.59679806232452393
-0.20080330967903137 -0.34476763010025024 0.68484663963317871
-0.24265579879283905 -0.37740382552146912 0.67345094680786133
-0.28535053133964539 -0.40508073568344116 0.662056565284729
-0.32505267858505249 -0.44722238183021545 0.63482105731964111
-0.31818258762359619 -0.46426695585250854 0.61765778064727783
-0.31060224771499634 -0.47750020027160645 0.59801006317138672
-0.25720566511154175 -0.46247699856758118 0.58845734596252441
-0.21230119466781616 -0.43623745441436768 0.59608399868011475
-0.16942772269248962 -0.40667122602462769 0.60054326057434082
0.28223311901092529 0.54920452833175659 0.4578615128993988
0.27082744240760803 0.60267132520675659 0.45407828688621521
0.25310474634170532 0.6542019248008728 0.45678415894508362
0.21959680318832397 0.69801604747772217 0.49861285090446472
0.20671620965003967 0.68932437896728516 0.52837848663330078
0.19171042740345001 0.67664617300033569 0.55666613578796387
0.19815857708454132 0.62618231773376465 0.57114529609680176
0.21459078788757324 0.58772683143615723 0.56684219837188721
0.22621864080429077 0.54597866535186768 0.56693017482757568
-0.37271693348884583 -0.44493818283081055 0.63455569744110107
-0.41661840677261353 -0.45670109987258911 0.61888182163238525
-0.45982339978218079 -0.46267151832580566 0.60407590866088867
-0.50976496934890747 -0.48430463671684265 0.57066786289215088
-0.51477497816085815 -0.50473082065582275 0.54677009582519531
-0.51722300052642822 -0.52138245105743408 0.52142351865768433
-0.46310180425643921 -0.5308830738067627 0.51294058561325073
-0.40876805782318115 -0.5216747522354126 0.53439760208129883
-0.35564517974853516 -0.50598526000976562 0.55662858486175537
0.194345623254776 0.74463570117950439 0.4972396194934845
0.15562354028224945 0.77971261739730835 0.53282618522644043
0.11521625518798828 0.80519950389862061 0.57057476043701172
0.074485182762145996 0.80794548988342285 0.6259160041809082
0.071570396423339844 0.79012882709503174 0.64307427406311035
0.068498671054840088 0.76767885684967041 0.65550315380096436
0.093402460217475891 0.73215043544769287 0.64078521728515625
0.12245328724384308 0.71439415216445923 0.6182020902633667
0.15101219713687897 0.69028258323669434 0.59746253490447998
-0.54161113500595093 -0.45618310570716858 0.58352279663085938
-0.5778542160987854 -0.44493764638900757 0.57913589477539062
-0.60872161388397217 -0.43032670021057129 0.57833802700042725
-0.65349656343460083 -0.42786321043968201 0.56337666511535645
-0.67164415121078491 -0.44058778882026672 0.54193592071533203
-0.68535596132278442 -0.45033165812492371 0.51778507232666016
-0.6623152494430542 -0.48221230506896973 0.48723694682121277
-0.62058395147323608 -0.50529623031616211 0.48500201106071472
-0.57121956348419189 -0.52253496646881104 0.48730221390724182
0.042974177747964859 0.81891822814941406 0.62833082675933838
0.011715654283761978 0.80770277976989746 0.64500653743743896
-0.020076196640729904 0.78800588846206665 0.65718519687652588
-0.052577625960111618 0.75468200445175171 0.69169080257415771
-0.048088189214468002 0.74222618341445923 0.71065902709960938
-0.042708110064268112 0.72644329071044922 0.72325313091278076
-0.0062369070947170258 0.72804975509643555 0.71385574340820312
0.019289214164018631 0.74040430784225464 0.69863224029541016
0.042321834713220596 0.74540537595748901 0.68185126781463623
-0.64749950170516968 -0.39690256118774414 0.58650267124176025
-0.65558981895446777 -0.37722495198249817 0.59459638595581055
-0.65866297483444214 -0.35244899988174438 0.60454094409942627
-0.6767309308052063 -0.32367831468582153 0.59998810291290283
-0.69230532646179199 -0.32482549548149109 0.57738578319549561
-0.70381814241409302 -0.32404303550720215 0.55037450790405273
-0.71396881341934204 -0.36133548617362976 0.51237368583679199
-0.71509754657745361 -0.39609965682029724 0.50457656383514404
-0.70937651395797729 -0.42709434032440186 0.49788281321525574
-0.096580639481544495 0.73386430740356445 0.67895805835723877
-0.14246468245983124 0.70374786853790283 0.69057202339172363
-0.19122417271137238 0.67380547523498535 0.7017287015914917
-0.24122172594070435 0.63558125495910645 0.73772358894348145
-0.23699058592319489 0.6221345067024231 0.75896561145782471
-0.22872386872768402 0.6069909930229187 0.77344644069671631
-0.17018143832683563 0.6212117075920105 0.7684401273727417
-0.1226334422826767 0.65238326787948608 0.75603461265563965
-0.077274128794670105 0.68247103691101074 0.74245929718017578
-0.65730577707290649 -0.27823659777641296 0.62751710414886475
-0.65555310249328613 -0.23035962879657745 0.63946974277496338
-0.65414160490036011 -0.1805015504360199 0.65111565589904785
-0.67316007614135742 -0.12936091423034668 0.64658033847808838
-0.68911772966384888 -0.12699759006500244 0.62340307235717773
-0.7004399299621582 -0.12532617151737213 0.59535074234008789
-0.70366638898849487 -0.17522497475147247 0.55440115928649902
-0.70400261878967285 -0.22654376924037933 0.54304075241088867
-0.70623457431793213 -0.27606505155563354 0.53184080123901367
-0.29073342680931091 0.62105047702789307 0.71983611583709717
-0.33759060502052307 0.59813988208770752 0.72605061531066895
-0.37953728437423706 0.575206458568573 0.73033463954925537
-0.40961477160453796 0.54061126708984375 0.75900912284851074
-0.39698755741119385 0.52883714437484741 0.78080928325653076
-0.37770563364028931 0.51635324954986572 0.79579460620880127
-0.32750159502029419 0.52479910850524902 0.79880034923553467
-0.2958814799785614 0.54515129327774048 0.79418456554412842
-0.25873425602912903 0.56696015596389771 0.78769230842590332
-0.6555095911026001 -0.090442568063735962 0.67164242267608643
-0.65721344947814941 -0.053573589771986008 0.68051302433013916
-0.6571052074432373 -0.021385896950960159 0.68905627727508545
-0.67677175998687744 0.020697016268968582 0.6839897632598877
-0.69607353210449219 0.033107984811067581 0.66213142871856689
-0.70982587337493896 0.042989309877157211 0.63491129875183105
-0.7193942666053772 0.011895302683115005 0.59437572956085205
-0.71658635139465332 -0.029984310269355774 0.58462142944335938
-0.71110177040100098 -0.075569480657577515 0.57515966892242432
-0.43976515531539917 0.52226793766021729 0.73299491405487061
-0.45538938045501709 0.49106591939926147 0.73181092739105225
-0.46078792214393616 0.45744511485099792 0.72957563400268555
-0.44836875796318054 0.41628894209861755 0.75355195999145508
-0.43287953734397888 0.41129180788993835 0.77635574340820312
-0.41091492772102356 0.40710249543190002 0.79278790950775146
-0.38788777589797974 0.43214514851570129 0.80215167999267578
-0.38359898328781128 0.45819687843322754 0.80310022830963135
-0.37184646725654602 0.48219811916351318 0.80304074287414551
-0.64397674798965454 0.031217437237501144 0.70696842670440674
-0.62864267826080322 0.05210590735077858 0.71655678749084473
-0.60686564445495605 0.069259315729141235 0.72625815868377686
-0.59495747089385986 0.10209546983242035 0.72626376152038574
-0.60856384038925171 0.12010957300662994 0.70849239826202393
-0.61817651987075806 0.13482807576656342 0.68468856811523438
-0.65837502479553223 0.12990705668926239 0.64416348934173584
-0.68592679500579834 0.10889874398708344 0.63073229789733887
-0.70541137456893921 0.081906020641326904 0.61746311187744141
-0.43921589851379395 0.38516217470169067 0.72382378578186035
-0.41640216112136841 0.34849452972412109 0.720794677734375
-0.39167940616607666 0.31339937448501587 0.71768677234649658
-0.36378931999206543 0.27747282385826111 0.74096322059631348
-0.35218745470046997 0.27549600601196289 0.7634357213973999
-0.33672010898590088 0.27585503458976746 0.78003013134002686
-0.33682262897491455 0.30946752429008484 0.79254984855651855
-0.35562080144882202 0.34126296639442444 0.79570341110229492
-0.37250924110412598 0.37314420938491821 0.7983325719833374
-0.54219454526901245 0.091977730393409729 0.74507045745849609
-0.50194650888442993 0.098824188113212585 0.75344240665435791
-0.46054738759994507 0.10449719429016113 0.76044392585754395
-0.42711782455444336 0.1261010468006134 0.75769364833831787
-0.43386334180831909 0.14018402993679047 0.74177932739257812
-0.43997818231582642 0.1512436717748642 0.7196199893951416
-0.48648461699485779 0.15630072355270386 0.6867605447769165
-0.53305155038833618 0.15517456829547882 0.67853164672851562
-0.57986050844192505 0.15204952657222748 0.66854262351989746
-0.35482829809188843 0.25369396805763245 0.71130800247192383
-0.34708750247955322 0.23015905916690826 0.70822334289550781
-0.34621039032936096 0.21034865081310272 0.70543253421783447
-0.34572884440422058 0.18891380727291107 0.72846519947052002
-0.33417677879333496 0.18190151453018188 0.7496795654296875
-0.31726393103599548 0.17290593683719635 0.76556611061096191
-0.29126608371734619 0.19615469872951508 0.77676737308502197
-0.29699164628982544 0.22412307560443878 0.78029251098632812
-0.3061678409576416 0.25115346908569336 0.78453421592712402
-0.38666164875030518 0.11782990396022797 0.76830244064331055
-0.3553653359413147 0.12744435667991638 0.76983237266540527
-0.32529735565185547 0.13979634642601013 0.7713395357131958
