# XYZ point cloud file
0.23935443162918091 -0.42402538657188416 0.48185831308364868
0.21653485298156738 -0.40297135710716248 0.43702226877212524
0.22826564311981201 -0.40139272809028625 0.39961895346641541
0.24649727344512939 -0.39852967858314514 0.36679702997207642
0.46379265189170837 0.002465471625328064 0.38724789023399353
0.48884099721908569 0.01631338894367218 0.41795891523361206
0.51347649097442627 0.024964794516563416 0.44950702786445618
0.24214917421340942 -0.43386271595954895 0.60380470752716064
0.22715163230895996 -0.42627713084220886 0.5626862645149231
0.21651375293731689 -0.41581183671951294 0.52007502317428589
0.39190685749053955 0.054540224373340607 0.4770348072052002
0.38035088777542114 0.049470312893390656 0.44486624002456665
0.36789548397064209 0.044227398931980133 0.40863972902297974
0.34049570560455322 0.065774992108345032 0.38343867659568787
0.32703912258148193 0.080372326076030731 0.40382218360900879
0.31462234258651733 0.089698165655136108 0.42227396368980408
0.30886852741241455 0.078003279864788055 0.45625662803649902
0.31560760736465454 0.071443699300289154 0.476695716381073
0.32113289833068848 0.070830725133419037 0.50083327293395996
0.10214104503393173 -0.30007913708686829 0.58606594800949097
0.094190649688243866 -0.30359497666358948 0.56138730049133301
0.081065274775028229 -0.30789676308631897 0.54046803712844849
0.067972414195537567 -0.32815882563591003 0.51142978668212891
0.07936597615480423 -0.3391670286655426 0.49678444862365723
0.095047362148761749 -0.3499310314655304 0.4799218475818634
0.13302463293075562 -0.353422611951828 0.5105021595954895
0.14310681819915771 -0.35215848684310913 0.55044060945510864
0.1520346999168396 -0.35150870680809021 0.58573293685913086
0.41903799772262573 -0.0047876462340354919 0.35989633202552795
0.39794734120368958 0.0059536844491958618 0.36201637983322144
0.37831565737724304 0.018955789506435394 0.36210590600967407
0.14927226305007935 -0.36876624822616577 0.46552202105522156
0.17048168182373047 -0.37901613116264343 0.4702899158000946
0.1904100775718689 -0.39164546132087708 0.47405135631561279
0.27465856075286865 0.12334609031677246 0.47768047451972961
0.2751157283782959 0.11859145760536194 0.4931948184967041
0.27476152777671814 0.11720706522464752 0.51556748151779175
0.29090851545333862 0.097375690937042236 0.45091590285301208
0.28129136562347412 0.1023162454366684 0.46022027730941772
0.27607226371765137 0.11516675353050232 0.46581834554672241
0.032290466129779816 -0.29797497391700745 0.54422348737716675
0.045436002314090729 -0.2973531186580658 0.53868746757507324
0.053379185497760773 -0.30509963631629944 0.53209209442138672
0.037390716373920441 -0.28505995869636536 0.59262710809707642
0.033133842051029205 -0.29149818420410156 0.57119107246398926
0.026309452950954437 -0.29755038022994995 0.55654585361480713
0.27586740255355835 0.15222007036209106 0.4624517560005188
0.28045666217803955 0.18771553039550781 0.45074805617332458
0.28875195980072021 0.23005139827728271 0.43182668089866638
-0.066997922956943512 -0.37308475375175476 0.53000020980834961
-0.031392760574817657 -0.34093397855758667 0.54071247577667236
-0.00086953490972518921 -0.31685391068458557 0.54601091146469116
0.032012335956096649 -0.18641762435436249 -0.62070047855377197
-0.0088824853301048279 -0.13417726755142212 -0.66569620370864868
-0.053636915981769562 -0.071157634258270264 -0.70219695568084717
-0.05835416167974472 0.079002022743225098 -0.72480881214141846
-0.013162665069103241 0.14910219609737396 -0.70558011531829834
0.029425419867038727 0.21229168772697449 -0.6785929799079895
0.10312866419553757 0.19708943367004395 -0.63615703582763672
0.1362292468547821 0.14348018169403076 -0.61445271968841553
0.16784486174583435 0.10331422090530396 -0.58273732662200928
0.17717152833938599 -0.002735525369644165 -0.55352181196212769
0.1473463773727417 -0.079039819538593292 -0.56540888547897339
0.11117813736200333 -0.15581309795379639 -0.57144486904144287
0.027873821556568146 -0.29702076315879822 -0.54678761959075928
-0.016047470271587372 -0.35601970553398132 -0.51783668994903564
-0.059883780777454376 -0.40461468696594238 -0.48652482032775879
-0.13440412282943726 -0.40929186344146729 -0.51101702451705933
-0.16761261224746704 -0.37199798226356506 -0.55392378568649292
-0.20705041289329529 -0.32936397194862366 -0.58951383829116821
-0.22408241033554077 -0.218211829662323 -0.65628981590270996
-0.18796256184577942 -0.14774474501609802 -0.69047170877456665
-0.147492915391922 -0.072375059127807617 -0.71718323230743408
0.18196120858192444 -0.31292861700057983 -0.34813821315765381
0.14595299959182739 -0.29349634051322937 -0.43097060918807983
0.10876134783029556 -0.2655189037322998 -0.50373148918151855
0.22927278280258179 0.035606160759925842 -0.48755043745040894
0.25887602567672729 0.0032532475888729095 -0.42400926351547241
0.28657394647598267 -0.025273401290178299 -0.35031789541244507
0.29800334572792053 -0.11779345571994781 -0.26997977495193481
0.27715757489204407 -0.18909591436386108 -0.2703249454498291
0.24972811341285706 -0.2586137056350708 -0.26592215895652771
0.17821633815765381 -0.37968936562538147 -0.23507246375083923
0.13632538914680481 -0.42754879593849182 -0.21039798855781555
0.092237815260887146 -0.46622312068939209 -0.18452164530754089
0.009737212210893631 -0.4942304790019989 -0.24759271740913391
-0.028811708092689514 -0.4842262864112854 -0.32673552632331848
-0.066721238195896149 -0.4661003053188324 -0.39764979481697083
0.30565056204795837 -0.30806815624237061 0.055020794272422791
0.2792782187461853 -0.31756287813186646 -0.044364213943481445
0.24924430251121521 -0.32367196679115295 -0.1506044864654541
0.33276379108428955 -0.062376875430345535 -0.17393052577972412
0.35093536972999573 -0.070659294724464417 -0.076084211468696594
0.36656287312507629 -0.074531301856040955 0.02221032977104187
0.37730759382247925 -0.14050661027431488 0.11059503257274628
0.36711344122886658 -0.19767418503761292 0.11380413174629211
0.35062447190284729 -0.25044885277748108 0.12457564473152161
0.29706820845603943 -0.34106174111366272 0.15187372267246246
0.26088577508926392 -0.37741410732269287 0.16721677780151367
0.22018009424209595 -0.40639945864677429 0.18775486946105957
0.14503350853919983 -0.44952774047851562 0.12263348698616028
0.11512764543294907 -0.46987807750701904 0.027321204543113708
0.082537651062011719 -0.48606744408607483 -0.068404942750930786
0.36866241693496704 -0.28747594356536865 0.26445817947387695
0.35661473870277405 -0.28809279203414917 0.23778006434440613
0.34363672137260437 -0.29173168540000916 0.19772425293922424
0.39141428470611572 -0.09921601414680481 0.18083083629608154
0.40041786432266235 -0.11202439665794373 0.21525081992149353
0.41059142351150513 -0.12167055904865265 0.23893237113952637
0.25093835592269897 -0.39175203442573547 0.32302027940750122
0.23238357901573181 -0.39631697535514832 0.30149972438812256
0.20990660786628723 -0.40634962916374207 0.27096575498580933
0.3796694278717041 -0.037414193153381348 0.19075649976730347
0.37365394830703735 -0.0099850296974182129 0.24761354923248291
0.36546850204467773 0.016780845820903778 0.30071291327476501
0.13071107864379883 -0.38067978620529175 0.40230154991149902
0.14472496509552002 -0.3975273072719574 0.35014227032661438
0.15734070539474487 -0.41374263167381287 0.29297316074371338
0.21088209748268127 0.77430617809295654 0.19488811492919922
0.21442738175392151 0.75709128379821777 0.25256812572479248
0.21719872951507568 0.74336934089660645 0.30997511744499207
0.30830806493759155 0.52097201347351074 0.27449634671211243
0.3188035786151886 0.52693772315979004 0.20000357925891876
0.3321608304977417 0.53190279006958008 0.11739780008792877
0.31983068585395813 0.617820143699646 0.054054677486419678
0.28692805767059326 0.68757510185241699 0.078238934278488159
0.24846529960632324 0.74707925319671631 0.10620090365409851
-0.54716032743453979 -0.60481083393096924 0.12428510934114456
-0.48519110679626465 -0.62378537654876709 0.13547064363956451
-0.41832554340362549 -0.63526594638824463 0.14860054850578308
-0.33988127112388611 -0.60847556591033936 0.23542298376560211
-0.33424097299575806 -0.58127069473266602 0.31009292602539062
-0.32742559909820557 -0.55790090560913086 0.37895295023918152
-0.55733412504196167 -0.57288956642150879 0.31345176696777344
-0.56969517469406128 -0.57555365562438965 0.2500794529914856
-0.58485305309295654 -0.57819139957427979 0.18457528948783875
-0.16126298904418945 0.094174742698669434 -0.75121021270751953
-0.22394943237304688 0.19193306565284729 -0.76068305969238281
-0.29012396931648254 0.29135921597480774 -0.75558346509933472
-0.30074179172515869 0.47217890620231628 -0.71081399917602539
-0.24107134342193604 0.54469931125640869 -0.67715322971343994
-0.18212887644767761 0.60350942611694336 -0.63801449537277222
-0.069464914500713348 0.55084145069122314 -0.63521081209182739
-0.018389709293842316 0.44999530911445618 -0.65278559923171997
0.026894696056842804 0.35279622673988342 -0.65632939338684082
-0.31229448318481445 -0.22355112433433533 -0.64953130483627319
-0.37742888927459717 -0.16047529876232147 -0.67219138145446777
-0.44744738936424255 -0.092259928584098816 -0.68399882316589355
-0.49155572056770325 0.076646670699119568 -0.70511823892593384
-0.45446324348449707 0.1813320517539978 -0.72505861520767212
-0.40956932306289673 0.28685766458511353 -0.7357172966003418
-0.7456972599029541 0.58513474464416504 -0.0095660388469696045
-0.74643397331237793 0.55123496055603027 0.074535787105560303
-0.73537278175354004 0.51212799549102783 0.15473318099975586
-0.65344524383544922 0.5600818395614624 0.25767940282821655
-0.59219437837600708 0.64667117595672607 0.27609425783157349
-0.52913582324981689 0.7244638204574585 0.28470364212989807
-0.49162599444389343 0.82794201374053955 0.22230815887451172
-0.50395965576171875 0.86096334457397461 0.15709447860717773
-0.50525897741317749 0.88892483711242676 0.087310299277305603
-0.559276282787323 0.85449469089508057 -0.0011812150478363037
-0.62019878625869751 0.78388738632202148 -0.02806439995765686
-0.67909634113311768 0.7026296854019165 -0.061816662549972534
-0.78632742166519165 0.51937007904052734 -0.13062658905982971
-0.83096271753311157 0.42371386289596558 -0.16168412566184998
-0.86617600917816162 0.33009636402130127 -0.1916121244430542
-0.89749050140380859 0.21886712312698364 -0.14622560143470764
-0.89704394340515137 0.18953514099121094 -0.071262925863265991
-0.88620477914810181 0.15410885214805603 0.0031733214855194092
-0.84025955200195312 0.19325198233127594 0.11884969472885132
-0.80604928731918335 0.28150245547294617 0.15986651182174683
-0.76230460405349731 0.3741891086101532 0.1978667676448822
-0.65124666690826416 0.64927804470062256 -0.37632095813751221
-0.68773317337036133 0.64922571182250977 -0.28332680463790894
-0.71556252241134644 0.63609719276428223 -0.18964526057243347
-0.48246818780899048 0.9289543628692627 -0.061771675944328308
-0.45896893739700317 0.93712389469146729 -0.13999228179454803
-0.42561322450637817 0.93244051933288574 -0.22063139081001282
-0.4378141462802887 0.86191773414611816 -0.33862560987472534
-0.49457183480262756 0.79786300659179688 -0.38307923078536987
-0.55080592632293701 0.72082865238189697 -0.42848238348960876
-0.65959846973419189 0.53505396842956543 -0.48797130584716797
-0.70829010009765625 0.43294039368629456 -0.49839282035827637
-0.74872404336929321 0.33109948039054871 -0.50243484973907471
-0.81992393732070923 0.25907596945762634 -0.43889740109443665
-0.85185301303863525 0.26602804660797119 -0.36877888441085815
-0.87459427118301392 0.25906842947006226 -0.29582476615905762
-0.42565691471099854 0.47004273533821106 -0.68801999092102051
-0.49101299047470093 0.54065060615539551 -0.62615233659744263
-0.55185145139694214 0.59562885761260986 -0.55090725421905518
-0.32396990060806274 0.86963355541229248 -0.38905736804008484
-0.2593037486076355 0.81030857563018799 -0.470863938331604
-0.19202300906181335 0.73572444915771484 -0.54312717914581299
-0.59177082777023315 0.054665327072143555 -0.65719932317733765
-0.66063863039016724 0.12606558203697205 -0.6177593469619751
-0.72351616621017456 0.18798662722110748 -0.56580662727355957
-0.097329020500183105 0.776542067527771 0.42211845517158508
-0.088049463927745819 0.77278602123260498 0.46651265025138855
-0.085151448845863342 0.77552688121795654 0.51037120819091797
0.043822675943374634 0.8317185640335083 0.46079874038696289
0.037855930626392365 0.82830154895782471 0.42111903429031372
0.029058292508125305 0.83112645149230957 0.3810957670211792
-0.019765414297580719 0.83607912063598633 0.36208665370941162
-0.051900178194046021 0.82517313957214355 0.3698919415473938
-0.082746803760528564 0.80978882312774658 0.37276315689086914
-0.74103391170501709 -0.31131938099861145 0.21401236951351166
-0.74062734842300415 -0.34761238098144531 0.21471568942070007
-0.73637270927429199 -0.38397356867790222 0.21467921137809753
-0.71656626462936401 -0.43789005279541016 0.25740078091621399
-0.71475809812545776 -0.45252484083175659 0.30198174715042114
-0.71883672475814819 -0.46617770195007324 0.34195443987846375
-0.73579096794128418 -0.33240509033203125 0.36370515823364258
-0.72857195138931274 -0.31792938709259033 0.32124704122543335
-0.72876191139221191 -0.29877910017967224 0.2732539176940918
-0.21281960606575012 0.88800704479217529 0.25100696086883545
-0.17840224504470825 0.85034894943237305 0.2944033145904541
-0.14407774806022644 0.81609666347503662 0.33630478382110596
-0.00032971799373626709 0.86473739147186279 0.30395731329917908
-0.01942906528711319 0.89361441135406494 0.26635748147964478
-0.038373939692974091 0.9249112606048584 0.22744624316692352
-0.10290149599313736 0.95591485500335693 0.19910463690757751
-0.14876198768615723 0.95091962814331055 0.20142963528633118
-0.19443532824516296 0.94016385078430176 0.20060104131698608
-0.85378098487854004 -0.18413583934307098 -0.052024543285369873
-0.84663403034210205 -0.23876778781414032 -0.045442193746566772
-0.83582031726837158 -0.29316753149032593 -0.036403656005859375
-0.79647302627563477 -0.36638528108596802 0.031032472848892212
-0.77066397666931152 -0.38567522168159485 0.09279981255531311
-0.74576359987258911 -0.40436911582946777 0.15224060416221619
-0.76441925764083862 -0.24082747101783752 0.156964972615242
-0.79689520597457886 -0.20380412042140961 0.090061858296394348
-0.83079886436462402 -0.16566312313079834 0.020408660173416138
-0.26973390579223633 0.99844062328338623 0.039181351661682129
-0.26918217539787292 0.97942149639129639 0.097897179424762726
-0.26031297445297241 0.95479655265808105 0.15322723984718323
-0.066528961062431335 0.97788643836975098 0.13981369137763977
-0.073183529078960419 0.9955437183380127 0.089911304414272308
-0.074570238590240479 1.0075780153274536 0.036335371434688568
-0.11894773691892624 1.0256721973419189 -0.014009267091751099
-0.16587209701538086 1.0275706052780151 -0.016486704349517822
-0.21326568722724915 1.0222398042678833 -0.021438434720039368
-0.87313759326934814 -0.10346329212188721 -0.30844303965568542
-0.86575686931610107 -0.16604608297348022 -0.29764187335968018
-0.85395532846450806 -0.22745317220687866 -0.28277289867401123
-0.84000259637832642 -0.2969420850276947 -0.21148118376731873
-0.83981531858444214 -0.3109399676322937 -0.15285056829452515
-0.83294677734375 -0.3280823826789856 -0.092743486166000366
-0.877876877784729 -0.09876897931098938 -0.11787852644920349
-0.88622206449508667 -0.073414281010627747 -0.18413630127906799
-0.88633811473846436 -0.053736776113510132 -0.2483927309513092
-0.20389395952224731 1.0086969137191772 -0.21556708216667175
-0.23126354813575745 1.0203138589859009 -0.15039306879043579
-0.25068360567092896 1.020374059677124 -0.085692554712295532
-0.060586892068386078 1.0155695676803589 -0.080684751272201538
-0.047829806804656982 1.0107253789901733 -0.13956263661384583
-0.035028800368309021 0.99865305423736572 -0.19298160076141357
-0.047904051840305328 0.99005627632141113 -0.24377885460853577
-0.081224136054515839 0.99211752414703369 -0.25879764556884766
-0.12165797501802444 0.98874390125274658 -0.27194476127624512
-0.78331232070922852 -0.13917899131774902 -0.50444483757019043
-0.78055655956268311 -0.19974663853645325 -0.48496550321578979
-0.77616816759109497 -0.25084367394447327 -0.46093887090682983
-0.78825110197067261 -0.2847101092338562 -0.41347324848175049
-0.80742043256759644 -0.28365403413772583 -0.3729853630065918
-0.82302552461624146 -0.28378838300704956 -0.32344329357147217
-0.86758100986480713 -0.032265022397041321 -0.37067145109176636
-0.84885728359222412 -0.033375710248947144 -0.4265097975730896
-0.82220333814620972 -0.045977696776390076 -0.47597804665565491
0.0066199004650115967 0.96010291576385498 -0.25867235660552979
0.049874886870384216 0.92020320892333984 -0.29473686218261719
0.096044011414051056 0.870269775390625 -0.33186942338943481
0.12526929378509521 0.78066349029541016 -0.40948405861854553
0.098860077559947968 0.75895404815673828 -0.44254076480865479
0.068638615310192108 0.74138844013214111 -0.4715874195098877
-0.015431694686412811 0.8075937032699585 -0.45585489273071289
-0.069122709333896637 0.8789743185043335 -0.40375673770904541
-0.12123043090105057 0.93818140029907227 -0.34422498941421509
-0.74000519514083862 -0.11643165349960327 -0.54730826616287231
-0.68551594018936157 -0.17100079357624054 -0.56696796417236328
-0.62520742416381836 -0.23049372434616089 -0.57585251331329346
-0.56835103034973145 -0.34220901131629944 -0.54164129495620728
-0.57779210805892944 -0.39196500182151794 -0.50694596767425537
-0.59076082706451416 -0.43712440133094788 -0.47030472755432129
-0.66242653131484985 -0.42034575343132019 -0.43996760249137878
-0.70741772651672363 -0.36902093887329102 -0.44391092658042908
-0.74567931890487671 -0.32115963101387024 -0.44324523210525513
0.0009045824408531189 0.7143627405166626 -0.52053296566009521
-0.036906920373439789 0.69979405403137207 -0.54367387294769287
-0.07912733405828476 0.67914879322052002 -0.56928753852844238
-0.32483664155006409 0.94385242462158203 -0.28672975301742554
-0.26996463537216187 0.96393477916717529 -0.28146058320999146
-0.21726346015930176 0.97543752193450928 -0.28148582577705383
-0.79156827926635742 -0.0041255205869674683 -0.52006906270980835
-0.79469937086105347 0.068658575415611267 -0.51698273420333862
-0.79145759344100952 0.14750981330871582 -0.5108877420425415
-0.53798246383666992 -0.10195480287075043 -0.65576738119125366
-0.54908972978591919 -0.17193944752216339 -0.63023561239242554
-0.55594485998153687 -0.23322188854217529 -0.60318100452423096
-0.43584457039833069 0.95254480838775635 0.012669757008552551
-0.37554004788398743 0.98061847686767578 0.0016346871852874756
-0.31762033700942993 0.99930334091186523 -0.01227705180644989
-0.88884550333023071 0.024250142276287079 -0.29950475692749023
-0.89641112089157104 0.091246157884597778 -0.27862459421157837
-0.89803099632263184 0.16314658522605896 -0.25138971209526062
-0.4058203399181366 0.83998501300811768 0.26607489585876465
-0.34799790382385254 0.87713170051574707 0.24362939596176147
-0.29324018955230713 0.904319167137146 0.2209673672914505
-0.86753934621810913 -0.075447827577590942 -0.031930804252624512
-0.87308758497238159 -0.018903862684965134 -0.0024936795234680176
-0.87284326553344727 0.042854905128479004 0.034921616315841675
-0.42613041400909424 0.74743938446044922 0.33482325077056885
-0.37857800722122192 0.70474016666412354 0.38210746645927429
-0.33120578527450562 0.6665499210357666 0.424786776304245
-0.24048721790313721 0.69222033023834229 0.44102737307548523
-0.19409719109535217 0.73398709297180176 0.41647446155548096
-0.15235966444015503 0.76561176776885986 0.39424008131027222
-0.73842328786849976 -0.23275451362133026 0.23531636595726013
-0.73450583219528198 -0.18673329055309296 0.26135087013244629
-0.72494566440582275 -0.13328197598457336 0.29470083117485046
-0.74011999368667603 -0.030557200312614441 0.27907323837280273
-0.78239732980728149 0.015999540686607361 0.21679401397705078
-0.8259623646736145 0.065166160464286804 0.14855906367301941
-0.26716232299804688 0.6221156120300293 0.50046175718307495
-0.25693535804748535 0.61762380599975586 0.53537386655807495
-0.25978115200996399 0.62114322185516357 0.56951510906219482
-0.69852954149246216 -0.12639698386192322 0.44200855493545532
-0.68810313940048218 -0.11696651577949524 0.41232943534851074
-0.69017136096954346 -0.098617196083068848 0.37681201100349426
-0.67113465070724487 0.41949900984764099 0.30357897281646729
-0.6215624213218689 0.36860883235931396 0.37359616160392761
-0.56740689277648926 0.31777229905128479 0.44244980812072754
-0.45848125219345093 0.38543879985809326 0.50505590438842773
-0.40417349338531494 0.48230168223381042 0.49422472715377808
-0.34732431173324585 0.56690692901611328 0.48106485605239868
-0.67718857526779175 0.0047257840633392334 0.37451869249343872
-0.63595384359359741 0.087268173694610596 0.41837477684020996
-0.58300143480300903 0.17321294546127319 0.46432080864906311
-0.31697440147399902 0.55555534362792969 0.60019004344940186
-0.34723696112632751 0.48124018311500549 0.59989786148071289
-0.37202972173690796 0.4066656231880188 0.60440629720687866
-0.57482045888900757 0.061104446649551392 0.54231536388397217
-0.62656450271606445 0.0052313655614852905 0.51268124580383301
-0.67595994472503662 -0.056200835853815079 0.48791712522506714
-0.44495269656181335 0.30522659420967102 0.5520780086517334
-0.41069591045379639 0.32181635499000549 0.57362008094787598
-0.39122453331947327 0.32918861508369446 0.59313046932220459
-0.514853835105896 0.11856994032859802 0.55863803625106812
-0.51598769426345825 0.14244157075881958 0.54444205760955811
-0.51619505882263184 0.18385156989097595 0.53186309337615967
-0.46770048141479492 0.23560270667076111 0.55555558204650879
-0.44120076298713684 0.21889415383338928 0.57410639524459839
-0.42063039541244507 0.20619390904903412 0.59015733003616333
0.15726125240325928 0.82278919219970703 0.19325584173202515
0.10800351947546005 0.83886516094207764 0.24882757663726807
0.060156047344207764 0.84443330764770508 0.30113691091537476
-0.70820647478103638 -0.46307691931724548 0.18745167553424835
-0.68177306652069092 -0.50464653968811035 0.161516472697258
-0.64644938707351685 -0.543937087059021 0.13735169172286987
0.19538766145706177 0.81194460391998291 0.10252775251865387
0.18401312828063965 0.8299487829208374 0.068335637450218201
0.17301902174949646 0.84660911560058594 0.034848511219024658
0.10733377188444138 0.90296578407287598 0.053687259554862976
0.052067652344703674 0.92880797386169434 0.10770875215530396
-0.0025905929505825043 0.9456639289855957 0.15351016819477081
-0.79272842407226562 -0.39998957514762878 -0.036834776401519775
-0.75853145122528076 -0.45112231373786926 -0.049011349678039551
-0.71683329343795776 -0.49944442510604858 -0.064142510294914246
-0.65126997232437134 -0.55515968799591064 -0.025714665651321411
-0.63623714447021484 -0.56475973129272461 0.02105984091758728
-0.61929869651794434 -0.57310211658477783 0.069193027913570404
0.13951683044433594 0.88991081714630127 -0.031213648617267609
0.12739229202270508 0.90277767181396484 -0.061003610491752625
0.12294592708349228 0.90845084190368652 -0.097095191478729248
0.0825977623462677 0.93212926387786865 -0.1102433055639267
0.033851891756057739 0.96140635013580322 -0.074875690042972565
-0.018341179937124252 0.99076187610626221 -0.042958997189998627
-0.80288213491439819 -0.34576508402824402 -0.25915881991386414
-0.76592844724655151 -0.40047347545623779 -0.25420880317687988
-0.72919195890426636 -0.44961303472518921 -0.2527824342250824
-0.70272278785705566 -0.49641719460487366 -0.20854131877422333
-0.70061570405960083 -0.5059967041015625 -0.16781432926654816
-0.69014662504196167 -0.52150928974151611 -0.12669922411441803
0.11941050738096237 0.90910637378692627 -0.19036480784416199
0.12254644185304642 0.89481770992279053 -0.2435968816280365
0.13164085149765015 0.86623620986938477 -0.30159711837768555
-0.65619748830795288 -0.47402876615524292 -0.39218983054161072
-0.68198859691619873 -0.47406518459320068 -0.35027778148651123
-0.69643133878707886 -0.47910162806510925 -0.30443894863128662
0.34478521347045898 0.12160378694534302 0.094250395894050598
0.3566591739654541 0.05584070086479187 0.089938625693321228
0.36874231696128845 -0.0072426795959472656 0.099553517997264862
0.31685554981231689 0.017566196620464325 -0.26284962892532349
0.31731587648391724 0.079196915030479431 -0.25820344686508179
0.31610018014907837 0.13776201009750366 -0.25308758020401001
0.32984843850135803 0.18685069680213928 -0.16659855842590332
0.33693122863769531 0.1890999972820282 -0.081157557666301727
0.33835244178771973 0.1958661824464798 0.0092020705342292786
-0.080213040113449097 -0.51349246501922607 0.14335328340530396
-0.089552447199821472 -0.53365558385848999 0.05696599930524826
-0.10245610028505325 -0.54578495025634766 -0.02769768238067627
-0.081982098519802094 -0.53682112693786621 -0.12132591009140015
-0.040087670087814331 -0.52632415294647217 -0.13138319551944733
0.0031466707587242126 -0.51381707191467285 -0.14405983686447144
0.10985078662633896 -0.44558686017990112 0.20998767018318176
0.052950046956539154 -0.45855754613876343 0.2080596387386322
-0.0036689862608909607 -0.46876344084739685 0.21747024357318878
0.35962879657745361 0.40949580073356628 -0.16908401250839233
0.35965994000434875 0.4369405210018158 -0.11139485239982605
0.35696807503700256 0.47695973515510559 -0.049678906798362732
0.34800013899803162 0.44555056095123291 0.043189831078052521
0.34277331829071045 0.36701023578643799 0.062057487666606903
0.33678451180458069 0.28790202736854553 0.083764113485813141
0.32155585289001465 0.24859493970870972 -0.24219554662704468
0.33077895641326904 0.30078491568565369 -0.23690220713615417
0.34343358874320984 0.34975826740264893 -0.23210024833679199
-0.22856637835502625 -0.62007725238800049 -0.078891828656196594
-0.19598108530044556 -0.59226977825164795 -0.090701036155223846
-0.16035443544387817 -0.56832444667816162 -0.10181337594985962
-0.14325323700904846 -0.52592217922210693 0.2182013988494873
-0.20782962441444397 -0.56667768955230713 0.20055544376373291
-0.27117455005645752 -0.60467886924743652 0.18135470151901245
-0.30291286110877991 -0.64235985279083252 0.094682969152927399
-0.27754560112953186 -0.64371895790100098 0.041266441345214844
-0.26262935996055603 -0.64568543434143066 -0.01134747639298439
0.30707257986068726 0.27899643778800964 0.33544552326202393
0.31571945548057556 0.26479253172874451 0.26967886090278625
0.3247934877872467 0.24072074890136719 0.19794858992099762
-0.093022353947162628 -0.46753975749015808 0.32012462615966797
-0.10715492814779282 -0.45213928818702698 0.38685208559036255
-0.11418426781892776 -0.43525797128677368 0.44775956869125366
0.29683935642242432 0.21964362263679504 0.3983844518661499
0.29728394746780396 0.16960921883583069 0.40715259313583374
0.29906845092773438 0.12677402794361115 0.42111259698867798
0.34394258260726929 0.071924358606338501 0.30931195616722107
0.33713522553443909 0.10921910405158997 0.25740668177604675
0.334138423204422 0.1498410701751709 0.19541700184345245
-0.01287919282913208 -0.43817731738090515 0.31230196356773376
0.033365406095981598 -0.40541663765907288 0.36637118458747864
0.07727079838514328 -0.37975743412971497 0.41204348206520081
0.027028203010559082 -0.33423522114753723 0.51013177633285522
-0.013590924441814423 -0.35731711983680725 0.50172656774520874
-0.058803446590900421 -0.38327229022979736 0.49910628795623779
0.18658798933029175 0.72472238540649414 -0.40985694527626038
0.22238829731941223 0.64194965362548828 -0.43080312013626099
0.25626763701438904 0.56396353244781494 -0.43550229072570801
0.26098805665969849 0.47085478901863098 -0.44181624054908752
0.23679366707801819 0.44046211242675781 -0.46421787142753601
0.21415579319000244 0.40367221832275391 -0.49040180444717407
0.15489986538887024 0.45511585474014282 -0.54006379842758179
0.11906959861516953 0.54833137989044189 -0.53920680284500122
0.079895950853824615 0.63969278335571289 -0.52504730224609375
-0.49645620584487915 -0.34034532308578491 -0.56099581718444824
-0.43054339289665222 -0.38570475578308105 -0.53751134872436523
-0.36387085914611816 -0.42599019408226013 -0.50377219915390015
-0.31746888160705566 -0.49871179461479187 -0.41580575704574585
-0.33723229169845581 -0.53386950492858887 -0.38203942775726318
-0.35272204875946045 -0.57077276706695557 -0.34982043504714966
-0.41886788606643677 -0.58238506317138672 -0.36553290486335754
-0.47941070795059204 -0.5503075122833252 -0.40098154544830322
-0.54305452108383179 -0.51550197601318359 -0.4236818253993988
0.15509524941444397 0.35134240984916687 -0.56758356094360352
0.12559190392494202 0.3373035192489624 -0.59822475910186768
0.09773910790681839 0.30838471651077271 -0.62415397167205811
-0.27841576933860779 -0.33036395907402039 -0.58889788389205933
-0.29325565695762634 -0.37388870120048523 -0.55554485321044922
-0.29699474573135376 -0.41619271039962769 -0.51443791389465332
0.31227165460586548 0.44563606381416321 -0.39054042100906372
0.33301809430122375 0.41142624616622925 -0.34457403421401978
0.34908664226531982 0.39426639676094055 -0.28974881768226624
0.29603588581085205 0.21536844968795776 -0.32499194145202637
0.26907813549041748 0.2492680549621582 -0.39716392755508423
0.23600268363952637 0.29395139217376709 -0.46285921335220337
-0.23514294624328613 -0.50533294677734375 -0.36689412593841553
-0.19022524356842041 -0.52961945533752441 -0.28297519683837891
-0.15200865268707275 -0.54418838024139404 -0.19760024547576904
-0.26552337408065796 -0.64791989326477051 -0.13222348690032959
-0.28697788715362549 -0.64007461071014404 -0.19793051481246948
-0.32042765617370605 -0.62771356105804443 -0.26138341426849365
0.20973092317581177 0.13472554087638855 -0.53137993812561035
0.21134626865386963 0.19839775562286377 -0.52606290578842163
0.20438039302825928 0.26663607358932495 -0.52476853132247925
-0.22988250851631165 -0.47016191482543945 -0.44204455614089966
-0.18376722931861877 -0.47177451848983765 -0.43721649050712585
-0.14250826835632324 -0.46259060502052307 -0.44297724962234497
0.18257606029510498 1.144383430480957 -0.19654221832752228
0.17305052280426025 1.1562978029251099 -0.1939568966627121
0.16641432046890259 1.166450023651123 -0.19974735379219055
0.15179494023323059 1.1278742551803589 -0.20350590348243713
0.1438155472278595 1.0847781896591187 -0.19355326890945435
0.13932356238365173 1.0442910194396973 -0.18606242537498474
0.14369729161262512 1.0073754787445068 -0.16569134593009949
0.1525503396987915 1.0058760643005371 -0.15943016111850739
0.16369533538818359 1.0027052164077759 -0.16138020157814026
0.17676323652267456 1.0294315814971924 -0.17490606009960175
0.17950865626335144 1.0615688562393188 -0.18282450735569
0.18508675694465637 1.0955777168273926 -0.19337351620197296
-0.81015861034393311 -0.59840011596679688 -0.36651787161827087
-0.7888261079788208 -0.58644664287567139 -0.34065437316894531
-0.76781469583511353 -0.5779794454574585 -0.31726980209350586
-0.75288504362106323 -0.55703580379486084 -0.29773011803627014
-0.75748252868652344 -0.54285836219787598 -0.30391412973403931
-0.75976169109344482 -0.5302739143371582 -0.3160557746887207
-0.78407925367355347 -0.52758109569549561 -0.35846671462059021
-0.80999886989593506 -0.53906941413879395 -0.38565009832382202
-0.83657020330429077 -0.55498743057250977 -0.41554504632949829
-0.86032980680465698 -0.58184719085693359 -0.42597627639770508
-0.85309994220733643 -0.59083950519561768 -0.41003209352493286
-0.84328347444534302 -0.60206568241119385 -0.39949941635131836
0.22545927762985229 1.307826042175293 -0.25811734795570374
0.19998610019683838 1.268208384513855 -0.24253624677658081
0.17950445413589478 1.2219109535217285 -0.22828139364719391
0.20706096291542053 1.1712371110916138 -0.22066009044647217
0.22414311766624451 1.2092263698577881 -0.23674276471138
0.24543496966362 1.2417658567428589 -0.25414279103279114
0.26357853412628174 1.2848052978515625 -0.26335901021957397
0.25826296210289001 1.304681658744812 -0.2599044144153595
0.25566473603248596 1.3224194049835205 -0.26342648267745972
-0.94254392385482788 -0.71782362461090088 -0.526206374168396
-0.93114054203033447 -0.72039687633514404 -0.50933051109313965
-0.91718542575836182 -0.72534191608428955 -0.49602186679840088
-0.89248526096343994 -0.69536781311035156 -0.47326332330703735
-0.87584739923477173 -0.66337454319000244 -0.45108324289321899
-0.85484153032302856 -0.63646519184112549 -0.42366266250610352
-0.89160484075546265 -0.6021653413772583 -0.48029023408889771
-0.91716283559799194 -0.63434922695159912 -0.51037275791168213
-0.93756550550460815 -0.67280936241149902 -0.53362947702407837
0.37564367055892944 1.3273582458496094 -0.3371657133102417
0.33356410264968872 1.3453301191329956 -0.3139839768409729
0.29309374094009399 1.3484354019165039 -0.29349803924560547
0.30108359456062317 1.27382493019104 -0.29197394847869873
0.33397084474563599 1.2698822021484375 -0.31236362457275391
0.36813157796859741 1.2535648345947266 -0.33398962020874023
0.40371644496917725 1.2443238496780396 -0.35158407688140869
0.4070684015750885 1.2634596824645996 -0.35045939683914185
0.41168534755706787 1.2810293436050415 -0.35428231954574585
-0.88692992925643921 -0.92759788036346436 -0.46504533290863037
-0.87606042623519897 -0.91874754428863525 -0.45463389158248901
-0.86371123790740967 -0.91107451915740967 -0.44713044166564941
-0.87612384557723999 -0.86296939849853516 -0.46436575055122375
-0.89334726333618164 -0.81842267513275146 -0.48027834296226501
-0.90222817659378052 -0.77410519123077393 -0.48847877979278564
-0.95135539770126343 -0.77020621299743652 -0.54376637935638428
-0.94235098361968994 -0.82627415657043457 -0.52966201305389404
-0.92340922355651855 -0.88288366794586182 -0.50675904750823975
0.51894766092300415 1.1260453462600708 -0.45096385478973389
0.49065369367599487 1.1918215751647949 -0.42453524470329285
0.45614373683929443 1.2490302324295044 -0.39411401748657227
0.43396455049514771 1.1866234540939331 -0.38170713186264038
0.46257463097572327 1.1389917135238647 -0.40498828887939453
0.48633360862731934 1.0849649906158447 -0.42388427257537842
0.51247125864028931 1.0331138372421265 -0.43714374303817749
0.52193742990493774 1.0402696132659912 -0.44335654377937317
0.53118318319320679 1.047572135925293 -0.45409691333770752
-0.70687919855117798 -1.0546633005142212 -0.33014595508575439
-0.70303082466125488 -1.0397891998291016 -0.324546217918396
-0.69955843687057495 -1.0250347852706909 -0.32367861270904541
-0.74028974771499634 -0.99871242046356201 -0.35942548513412476
-0.78162986040115356 -0.97529697418212891 -0.38990235328674316
-0.81913816928863525 -0.94354808330535889 -0.41787520051002502
-0.85769855976104736 -0.98460948467254639 -0.44651180505752563
-0.81330305337905884 -1.0240640640258789 -0.41276711225509644
-0.76371568441390991 -1.0527368783950806 -0.37742200493812561
0.5465925931930542 0.82826423645019531 -0.45499256253242493
0.55173671245574951 0.90304028987884521 -0.47100737690925598
0.54972481727600098 0.97917366027832031 -0.47596645355224609
0.5133589506149292 0.96687066555023193 -0.43651548027992249
0.5160943865776062 0.90660989284515381 -0.42789730429649353
0.51291662454605103 0.8475654125213623 -0.41018348932266235
0.51356405019760132 0.78150475025177002 -0.38596129417419434
0.52243131399154663 0.77204704284667969 -0.39374417066574097
0.53018200397491455 0.76368474960327148 -0.40774995088577271
-0.50175261497497559 -0.98663794994354248 -0.17599636316299438
-0.50828748941421509 -0.97634971141815186 -0.17142786085605621
-0.51654589176177979 -0.96601533889770508 -0.17432039976119995
-0.56619244813919067 -0.98356044292449951 -0.22081016004085541
-0.60884553194046021 -1.0026869773864746 -0.25748226046562195
-0.65265154838562012 -1.0126218795776367 -0.29290241003036499
-0.65647482872009277 -1.0682034492492676 -0.30437347292900085
-0.60200601816177368 -1.054707407951355 -0.2670520544052124
-0.54871654510498047 -1.0298479795455933 -0.22889415919780731
0.47881752252578735 0.58132064342498779 -0.31154757738113403
0.50092053413391113 0.63356673717498779 -0.35058885812759399
0.52012163400650024 0.69225561618804932 -0.39154157042503357
0.49263691902160645 0.7392122745513916 -0.35005921125411987
0.47729730606079102 0.69206500053405762 -0.31338131427764893
0.45956942439079285 0.65045905113220215 -0.27907618880271912
0.44468441605567932 0.5923537015914917 -0.24763178825378418
0.44929149746894836 0.56995415687561035 -0.2497498095035553
0.45297271013259888 0.55025982856750488 -0.26016569137573242
-0.34984731674194336 -0.81095755100250244 -0.046692978590726852
-0.36447036266326904 -0.80995583534240723 -0.042815160006284714
-0.38232499361038208 -0.81018316745758057 -0.048282034695148468
-0.42458093166351318 -0.84917819499969482 -0.079154461622238159
-0.45380789041519165 -0.88729727268218994 -0.10837534070014954
-0.48777684569358826 -0.92393779754638672 -0.14427495002746582
-0.45091381669044495 -0.95441234111785889 -0.14915359020233154
-0.40852323174476624 -0.90847921371459961 -0.11161723732948303
-0.37156039476394653 -0.86047208309173584 -0.08133426308631897
0.49728018045425415 0.80051326751708984 -0.38754892349243164
0.49113553762435913 0.80892443656921387 -0.39525473117828369
0.48641926050186157 0.81614875793457031 -0.40585330128669739
0.47270515561103821 0.77930712699890137 -0.38833451271057129
0.46008908748626709 0.74108219146728516 -0.35640782117843628
0.44628685712814331 0.70754468441009521 -0.32733446359634399
0.43344876170158386 0.6681218147277832 -0.29052254557609558
0.43497434258460999 0.65344870090484619 -0.27526044845581055
0.43713551759719849 0.63557755947113037 -0.26196926832199097
-0.41819977760314941 -0.81530618667602539 -0.076615616679191589
-0.43339180946350098 -0.81965899467468262 -0.095278471708297729
-0.44616144895553589 -0.82415914535522461 -0.11488112807273865
-0.47501027584075928 -0.85557246208190918 -0.15093567967414856
-0.49829429388046265 -0.88502931594848633 -0.17776584625244141
-0.52533549070358276 -0.91421222686767578 -0.21044546365737915
-0.5496983528137207 -0.94208812713623047 -0.22836156189441681
-0.5424991250038147 -0.94500076770782471 -0.21149793267250061
-0.53432530164718628 -0.94984591007232666 -0.19590342044830322
0.49676614999771118 1.0221396684646606 -0.43804168701171875
0.4915701150894165 1.0189586877822876 -0.44412794709205627
0.4882386326789856 1.0172005891799927 -0.4526934027671814
0.49325567483901978 0.96725130081176758 -0.46304053068161011
0.49426382780075073 0.91727828979492188 -0.45556867122650146
0.49065089225769043 0.86832237243652344 -0.44052228331565857
-0.58835947513580322 -0.96302676200866699 -0.27762827277183533
-0.62292486429214478 -0.9791867733001709 -0.30832940340042114
-0.65841102600097656 -0.98812830448150635 -0.33727332949638367
-0.69362705945968628 -0.98989748954772949 -0.35356378555297852
-0.69389790296554565 -0.99422931671142578 -0.34291651844978333
-0.69490253925323486 -1.0015400648117065 -0.33369153738021851
0.40224409103393555 1.2091754674911499 -0.36621600389480591
0.40406864881515503 1.1955330371856689 -0.37802547216415405
0.40705245733261108 1.1850595474243164 -0.3913847804069519
0.43505364656448364 1.1468628644943237 -0.42361137270927429
0.45658886432647705 1.1083520650863647 -0.44083008170127869
0.47423535585403442 1.0644019842147827 -0.45463153719902039
-0.72880077362060547 -0.97919213771820068 -0.39039885997772217
-0.76160979270935059 -0.9615713357925415 -0.41440427303314209
-0.79115092754364014 -0.93724620342254639 -0.4363027811050415
-0.82185941934585571 -0.90431928634643555 -0.4491504430770874
-0.82985836267471313 -0.90249812602996826 -0.444416344165802
-0.8397638201713562 -0.90272986888885498 -0.44213604927062988
0.28009712696075439 1.2462266683578491 -0.28656074404716492
0.28994327783584595 1.2300899028778076 -0.30351006984710693
0.29979068040847778 1.2169463634490967 -0.32183712720870972
0.33285710215568542 1.2157732248306274 -0.35543501377105713
0.35858234763145447 1.2132459878921509 -0.37134689092636108
0.38492423295974731 1.2005040645599365 -0.38786417245864868
-0.83539390563964844 -0.87467002868652344 -0.47256696224212646
-0.84832513332366943 -0.83956623077392578 -0.48497945070266724
-0.85444349050521851 -0.80404782295227051 -0.49137735366821289
-0.86230587959289551 -0.76044023036956787 -0.48469966650009155
-0.87397164106369019 -0.75061726570129395 -0.48188626766204834
-0.88749796152114868 -0.74099433422088623 -0.48236840963363647
0.20664176344871521 1.1202996969223022 -0.22133305668830872
0.21943596005439758 1.1099025011062622 -0.24019044637680054
0.2316303551197052 1.1012886762619019 -0.26072829961776733
0.25429171323776245 1.127920389175415 -0.29490143060684204
0.26942694187164307 1.1600055694580078 -0.30947422981262207
0.28765860199928284 1.1876976490020752 -0.32452923059463501
-0.84419006109237671 -0.73816728591918945 -0.47952347993850708
-0.82952648401260376 -0.70991635322570801 -0.46203756332397461
-0.81146794557571411 -0.68547940254211426 -0.4400685727596283
-0.80005735158920288 -0.65421748161315918 -0.40655976533889771
-0.80976814031600952 -0.64157509803771973 -0.39902806282043457
-0.82067233324050903 -0.62818002700805664 -0.39457887411117554
0.18941906094551086 0.99454128742218018 -0.18392501771450043
0.20236879587173462 0.99059486389160156 -0.20128396153450012
0.21435365080833435 0.9870680570602417 -0.22038218379020691
0.22537222504615784 1.0098839998245239 -0.24649932980537415
0.22832885384559631 1.036523699760437 -0.25616216659545898
0.23387068510055542 1.0646971464157104 -0.26785761117935181
-0.77405685186386108 -0.65011179447174072 -0.39235180616378784
-0.75656121969223022 -0.638968825340271 -0.36960715055465698
-0.73938339948654175 -0.63121986389160156 -0.34838587045669556
-0.72748351097106934 -0.61502242088317871 -0.31801092624664307
-0.73368996381759644 -0.60181224346160889 -0.30811703205108643
-0.74030584096908569 -0.58724868297576904 -0.30070185661315918
0.32571619749069214 0.60407984256744385 -0.090650469064712524
0.33429268002510071 0.59115159511566162 -0.063151314854621887
0.34197220206260681 0.56994390487670898 -0.028676938265562057
0.36911928653717041 0.44360524415969849 -0.20503588020801544
0.36956283450126648 0.48176392912864685 -0.20003996789455414
0.36613065004348755 0.51586794853210449 -0.2047463059425354
0.35030856728553772 0.54251241683959961 -0.19185011088848114
0.34341377019882202 0.55128371715545654 -0.16556701064109802
0.33355456590652466 0.5738755464553833 -0.13988704979419708
-0.39262154698371887 -0.65848147869110107 -0.020414136350154877
-0.37431514263153076 -0.66653788089752197 -0.033950641751289368
-0.36772358417510986 -0.6757206916809082 -0.053293228149414062
-0.34421473741531372 -0.68908429145812988 -0.051557347178459167
-0.31724235415458679 -0.68308699131011963 -0.040468607097864151
-0.28921902179718018 -0.67280888557434082 -0.041576631367206573
-0.37848126888275146 -0.65266811847686768 0.092040926218032837
-0.40024369955062866 -0.65551304817199707 0.049621403217315674
-0.41497543454170227 -0.65315544605255127 0.014703661203384399
0.38070219755172729 0.43182715773582458 -0.24594122171401978
0.4039541482925415 0.46288689970970154 -0.25397968292236328
0.42912852764129639 0.49686244130134583 -0.2633797824382782
0.42018622159957886 0.58643758296966553 -0.23793578147888184
0.39994096755981445 0.56526303291320801 -0.23118822276592255
0.38012784719467163 0.55211138725280762 -0.2269909530878067
-0.36914741992950439 -0.71892154216766357 -0.068525098264217377
-0.37353792786598206 -0.74672520160675049 -0.06054949015378952
-0.38409030437469482 -0.77772331237792969 -0.056043267250061035
-0.31717327237129211 -0.76844561100006104 -0.059624269604682922
-0.29799351096153259 -0.72726166248321533 -0.064931124448776245
-0.28073132038116455 -0.68967723846435547 -0.070957005023956299
0.29179444909095764 0.66393232345581055 -0.089917406439781189
0.25786027312278748 0.72645676136016846 -0.064692817628383636
0.2168935239315033 0.79291737079620361 -0.038199145346879959
-0.59346359968185425 -0.58454644680023193 -0.056456133723258972
-0.52972477674484253 -0.61162877082824707 -0.037221863865852356
-0.47180154919624329 -0.63278853893280029 -0.022397726774215698
0.13951337337493896 0.97111845016479492 -0.18097423017024994
0.14067021012306213 0.94117164611816406 -0.17889612913131714
0.13826653361320496 0.91930568218231201 -0.17031541466712952
0.14838483929634094 0.90230119228363037 -0.14300078153610229
0.16422149538993835 0.896140456199646 -0.14978951215744019
0.17751342058181763 0.89079856872558594 -0.16066999733448029
0.18436974287033081 0.91256892681121826 -0.17196062207221985
0.18019524216651917 0.9399641752243042 -0.16966480016708374
0.17745569348335266 0.96875 -0.16866117715835571
-0.72570353746414185 -0.56781184673309326 -0.27996271848678589
-0.70467787981033325 -0.56529223918914795 -0.26560318470001221
-0.68412190675735474 -0.56462311744689941 -0.25285017490386963
-0.67071884870529175 -0.55187714099884033 -0.23576211929321289
-0.67834180593490601 -0.53704333305358887 -0.23453143239021301
-0.68726563453674316 -0.51930224895477295 -0.23886734247207642
-0.69971710443496704 -0.50646340847015381 -0.27976348996162415
-0.7135128378868103 -0.5122687816619873 -0.29788804054260254
-0.73426121473312378 -0.51584625244140625 -0.31541317701339722
0.41884493827819824 0.6560206413269043 -0.29798012971878052
0.40655872225761414 0.63878798484802246 -0.2987130880355835
0.39578822255134583 0.62775146961212158 -0.30433064699172974
0.38145911693572998 0.6112210750579834 -0.29091089963912964
0.3745344877243042 0.59464466571807861 -0.2688160240650177
0.36714863777160645 0.57404506206512451 -0.24555963277816772
-0.3909447193145752 -0.71216261386871338 -0.099748767912387848
-0.40619257092475891 -0.73000621795654297 -0.12135964632034302
-0.41847711801528931 -0.74604785442352295 -0.1416173130273819
-0.4279988706111908 -0.7699434757232666 -0.14783445000648499
-0.43274492025375366 -0.7851940393447876 -0.13661393523216248
-0.44203794002532959 -0.80455672740936279 -0.13053560256958008
0.38047879934310913 0.62579107284545898 -0.31404629349708557
0.37511175870895386 0.63333117961883545 -0.31486165523529053
0.36960017681121826 0.64399635791778564 -0.31399527192115784
0.35233840346336365 0.64375066757202148 -0.29427674412727356
0.33921673893928528 0.63063061237335205 -0.27400004863739014
0.32442760467529297 0.62018561363220215 -0.25151428580284119
0.32414579391479492 0.59504485130310059 -0.22428441047668457
0.33641898632049561 0.57859241962432861 -0.22510933876037598
0.34734851121902466 0.5645451545715332 -0.22312593460083008
-0.38761630654335022 -0.68253874778747559 -0.089576058089733124
-0.40129703283309937 -0.6733163595199585 -0.10160435736179352
-0.4168458878993988 -0.66260838508605957 -0.11269660294055939
-0.43708887696266174 -0.67242050170898438 -0.14490313827991486
-0.44242963194847107 -0.69606554508209229 -0.15925833582878113
-0.45007425546646118 -0.71814560890197754 -0.1732957512140274
-0.44740092754364014 -0.74251079559326172 -0.18071582913398743
-0.43833974003791809 -0.74704611301422119 -0.17508561909198761
-0.43140232563018799 -0.75183522701263428 -0.1685764491558075
0.31828427314758301 0.6802976131439209 -0.30451473593711853
0.30855104327201843 0.67529737949371338 -0.29838764667510986
0.29871571063995361 0.67288601398468018 -0.29284554719924927
0.2917005717754364 0.66849899291992188 -0.27434548735618591
0.29531562328338623 0.65609955787658691 -0.2599126398563385
0.30016511678695679 0.64049875736236572 -0.24362802505493164
0.35314866900444031 0.66703522205352783 -0.31025314331054688
0.34263372421264648 0.6761707067489624 -0.30889439582824707
0.3328254222869873 0.68195509910583496 -0.3088870644569397
-0.48325064778327942 -0.70351064205169678 -0.21137017011642456
-0.47679391503334045 -0.7148665189743042 -0.20291531085968018
-0.46779480576515198 -0.72643208503723145 -0.19442057609558105
-0.45762729644775391 -0.64610552787780762 -0.15898188948631287
-0.47092604637145996 -0.64496767520904541 -0.18224814534187317
-0.48143637180328369 -0.64436805248260498 -0.20218613743782043
-0.48377418518066406 -0.65581631660461426 -0.21666328608989716
-0.4835037887096405 -0.6695702075958252 -0.2159947007894516
-0.48517823219299316 -0.6838754415512085 -0.21671004593372345
