# XYZ point cloud file
-0.34543258572752039 -0.014925727177130192 0.19989102651479743
0.21572210502122507 0.21968584609719599 0.36668577260816637
0.21961470729537769 0.22586215826590522 0.37841629612255223
0.20084979957951571 0.1934333756188541 0.37186623517513023
0.21168842662527076 0.21356362955018821 0.35227268113724586
0.2290880443569881 0.24824544899459788 0.36294814865221858
0.23282450845961766 0.25431357318873277 0.37426227209154905
0.20484264935902968 0.19969797959599045 0.38395214435053371
0.19681308593392405 0.18700222287412016 0.35694522805110074
0.22499933679441581 0.2423137203459228 0.34916034005930746
-0.30043491131405148 -0.086210046063400256 0.285410173102423
-0.28179024165934796 -0.088648504318026206 0.30510441805959038
-0.29909109738150419 -0.08136303122149971 0.29716326649285674
-0.31723281640070261 -0.080336870922748271 0.26567749578875849
-0.30297553488219608 -0.091869266305102365 0.27024659036752252
-0.28514180430376029 -0.095062320607238293 0.28938222963267968
-0.27997430093971459 -0.083469362641829525 0.31732600379381493
-0.31639471622955345 -0.075853652327953588 0.27684654821205573
-0.31878221968240705 -0.085166251898983497 0.25134893841778416
0.15347818897641663 0.12695039807258335 0.38604981008466394
0.15687625899876201 0.13230616093693054 0.39730619548281121
0.13688435899755114 0.10793544459114811 0.39003933959775255
0.14936154760429315 0.12056305599703739 0.37225935148376488
0.16949554673989692 0.14730664380181535 0.38193977555152736
0.17321805876524787 0.1531366471150159 0.39383409991725438
0.13999301813720821 0.11289586295752595 0.40041243884599242
0.13249974927312097 0.10166548044518299 0.37791697730633267
0.165451488848749 0.14073149821600756 0.36718306136658085
-0.22461953559651721 -0.086538933485419509 0.35126505143986098
-0.20519246886381681 -0.083534470830198687 0.36249644628187583
-0.22181933921617097 -0.081336055699772924 0.3628970254494196
-0.2435457538314002 -0.088272033790597296 0.33842448076846232
-0.22840242703217789 -0.093013688141731152 0.33685978131010946
-0.2079693006098014 -0.089120092424010144 0.35000008675281946
-0.20239832190709894 -0.078580781299144947 0.37324051861852692
-0.24095607972021854 -0.082902122448768267 0.35063413394434212
-0.24764594579815707 -0.095187109892310148 0.32294229317180023
-0.034016617995301798 -0.19345359145329583 0.37213585405517224
-0.046980186701105896 -0.20341650501374198 0.37397824244849381
-0.034944419271405597 -0.1864809814547832 0.3611486451091247
-0.021147987730656861 -0.18161644702216884 0.37108813288086856
-0.033309162903856451 -0.20365917969714709 0.38312300190091486
-0.045668622793771207 -0.21302392881082211 0.38446697320428258
-0.048608252449995545 -0.1971098597460757 0.36356046394053376
-0.021583388824948355 -0.17381064736843627 0.35968947996097894
-0.020846247971280082 -0.19254846408524245 0.38244109763053652
-0.08430892777552304 -0.21734629455760696 0.37803871666127475
-0.089109015968855315 -0.21254864868395296 0.36672262731147687
-0.072446861554421718 -0.2155041401814809 0.37699312404499441
-0.080122236730008942 -0.22550229930061733 0.38954618598128288
-0.094984880778712436 -0.21675013940422588 0.37962592473508683
-0.10051637255062873 -0.21186639080935799 0.36765398840204466
-0.076153282541639375 -0.21035263923141662 0.36642682956944556
-0.069264243554038762 -0.22402358541324169 0.38772727024939468
-0.090119090055168355 -0.22492050017889104 0.39183031948718638
-0.030978915060556278 -0.25458010554589278 0.41518395867012114
-0.04255173867574865 -0.26302520869747137 0.41683009266940962
-0.032008622434239395 -0.23488213553852172 0.40453024241726721
-0.019021063885658954 -0.24453704264099652 0.41382271453890274
-0.029297175138067004 -0.27487278379663371 0.42630603057752958
-0.040844544545268771 -0.28312612415367372 0.42863331746412003
-0.043678317535244697 -0.24350746381684063 0.40573349281284099
-0.019982066734312978 -0.22463251591598277 0.40374398629084918
-0.017395514572782669 -0.26507214590783834 0.42411349144089139
-0.073491525401645441 -0.27281033557578904 0.42477166671294397
-0.074854966599444697 -0.25385311932311772 0.41279578657460153
-0.063783956352670534 -0.27211627168903396 0.42165061549687699
-0.072175166891408432 -0.29264811686790876 0.43740510751908002
-0.082910475368576181 -0.27200395596197285 0.42806802715195846
-0.084179532172423452 -0.25311731002273485 0.41598820292267891
-0.065116152659071863 -0.25298761594916086 0.40989706414321214
-0.062242619781357429 -0.2919813294996329 0.43420903821470558
-0.081916629993515983 -0.2918981052450077 0.44063299329391181
-0.01784349794739705 -0.32436872430378788 0.46532948637763394
-0.029153322301701888 -0.33113740660651209 0.47035554158657911
-0.022781749394106432 -0.31085594460712473 0.45145835018518699
-0.0065588203720578081 -0.31661493648084515 0.45984407556055529
-0.012044120154602336 -0.33412169270854425 0.47934952498945516
-0.023251395726951299 -0.34021440528371644 0.48521973853038491
-0.034211208930269299 -0.3182748655656038 0.45555678343974415
-0.011216052692724313 -0.30219787198583292 0.4471124565357053
-0.0010297877886310675 -0.32731422457561626 0.47283505539605264
-0.063272997939119197 -0.34132129862129051 0.48148651066943826
-0.067282682309307756 -0.32804645204748123 0.46591858942933806
-0.051833876331784427 -0.33958425353672911 0.47846130348924387
-0.058443092666840141 -0.35090612444857239 0.49708994055249123
-0.074874192074752266 -0.34219110775663542 0.48394461823771195
-0.078177358625352147 -0.32814969293709884 0.46867279588861344
-0.056419734755150205 -0.32683683440389166 0.4628125584201922
-0.046430153273542059 -0.34858279635268036 0.49411972984240693
-0.070731259409835309 -0.35260829565853008 0.49929676659900224
0.0083940412024798433 -0.33669189401948907 0.51736323198691092
0.015150283016901731 -0.33062002587296491 0.52786495706718439
-0.0029465352802067885 -0.34143928490597697 0.52453077618379051
0.0013595079637423874 -0.34002731938341907 0.5056951111041279
0.019181732690698353 -0.33178604688691654 0.50940030794725533
0.025987527823259318 -0.32597428646495252 0.51997485841806679
0.0036889831136101836 -0.33519029749286872 0.53504236435027763
-0.0098657782665624999 -0.34507206176088168 0.51266255020210294
0.012121680266362136 -0.33469552575038902 0.49790716829001724
-0.040781129233078355 -0.35356147872592136 0.53831409031556743
-0.027592882270999215 -0.34988097074036095 0.53506224223907606
-0.034590169723749453 -0.34760253608763569 0.54924582263491806
-0.054286652022513905 -0.35705433146392063 0.54054810409953524
-0.046987879927072429 -0.35678683392328669 0.5258864942617969
-0.034065325505650786 -0.35344699611186969 0.52280223497092493
-0.021281507030336502 -0.34370406809058673 0.54580319673308619
-0.048121853469584919 -0.3513358963033521 0.55169248357363621
-0.060272354425146744 -0.35986155438710543 0.52797535572314569
0.048469395384530364 -0.31679984849219522 0.48439184211410713
0.054839680670823412 -0.31194668871040587 0.49561968962484104
0.03940346030652013 -0.32207626011588852 0.49250555236199822
0.041841250087876355 -0.31830286650835887 0.47347607262904201
0.056245585610442891 -0.31041859628304902 0.47711712925898087
0.062561753805655804 -0.30607561469339789 0.4883954743815172
0.045964140565619885 -0.31685883930893843 0.50350773121721415
0.032613691607734474 -0.32402435516910183 0.48120307485500857
0.049601296459303237 -0.31152957254190494 0.46730728365486207
-0.094083314490321146 -0.36655882626355868 0.54312249200558638
-0.081472269912176293 -0.3640002379275144 0.54293447947193829
-0.087236827909620437 -0.36123206316972228 0.55487311600662581
-0.10487260872400209 -0.36714251585069479 0.54236377243223577
-0.099677637517226123 -0.36826421450650576 0.5304643752882342
-0.087363603864673428 -0.36611025099310535 0.53014873756811465
-0.074878410130968742 -0.3585303433779698 0.55448539507114669
-0.098086044024954272 -0.36225121055692344 0.55434692965979893
-0.10936744216055214 -0.36811218787197458 0.53024605772307187
0.068117528935172714 -0.27916639692387829 0.46023122232061175
0.076400592495935657 -0.27764055634635637 0.47337306985972183
0.06601008639573723 -0.2920064302678958 0.46505036313900405
0.058538048251800409 -0.27992133373629102 0.44953005609267649
0.069175031641753995 -0.26360199570584736 0.45619918243491242
0.078441411769827399 -0.26358289225591719 0.47029963321646506
0.07331513394927637 -0.28928575043558113 0.47723989074847284
0.057793774667548162 -0.29298145428598449 0.4555165131677168
0.058438439365785008 -0.26324016577392106 0.44437207590744354
-0.12258359950325082 -0.34958995745573773 0.52978034514226979
-0.11914370885519154 -0.35902833425195974 0.53573982217418636
-0.11648179799910857 -0.34799422597806223 0.54576412362700755
-0.12411805283407665 -0.33669751852727547 0.52268487047293277
-0.1253885502842346 -0.34875853398918244 0.51446906198504716
-0.12209190520526891 -0.35886054007107943 0.52240858194321482
-0.11276884385366624 -0.35598323055776027 0.54982935573484759
-0.1184436606505682 -0.33691719407476578 0.54063730068834603
-0.12658511740862885 -0.33434502359554552 0.50535691591758813
0.069985275024389212 -0.20321210537482809 0.44639539661331018
0.081463725253908589 -0.20593238211728687 0.46321605965473855
0.069919519745530054 -0.2251760903007089 0.44950792491377889
0.056877192679722868 -0.20073665486382181 0.43145322890986804
0.069757093821335645 -0.18032012156421112 0.44316318945152422
0.08157486620921682 -0.18291098915477044 0.46065744395964903
0.080839790982066576 -0.2274915874026705 0.46549050228440203
0.057412866949060434 -0.22283470224510904 0.43553474538287729
0.05627770624422361 -0.17827033110348378 0.42739494918306187
-0.12309050543088979 -0.28275458699043815 0.4975424183389906
-0.12394063030515709 -0.30267545797702688 0.50639473395815127
-0.11859033028844107 -0.28680603423862094 0.51982046627690959
-0.12205777405551654 -0.26179634985351685 0.48824012558928975
-0.12459218265858177 -0.27702214082530074 0.47596089494236116
-0.1256850950211291 -0.29750759332257848 0.48581217063788007
-0.11912090906503475 -0.30595035724744074 0.52762511271328083
-0.11781738268342971 -0.26606677023730652 0.51111398549754294
-0.1234054123734746 -0.25610010133040817 0.46609843337510981
0.017599003955512144 -0.21274067739436592 0.4112217396580457
0.019093613830767228 -0.23425582578076054 0.41850409014649459
0.0052904190686544478 -0.22266858402090833 0.41127852925353225
0.016568486944850677 -0.19182141187884494 0.40395741115718131
0.030203447744614323 -0.20501147646955864 0.41370194334305943
0.031552632156994651 -0.22682923718504078 0.41990662142502488
0.0068375446795712336 -0.24383821924193894 0.41961752572598332
0.0043078359688466378 -0.20216144734928626 0.40291655228587764
0.029180190923226532 -0.18362147068584017 0.4075785098430792
-0.11070909034868154 -0.26841670424177494 0.43862773331968075
-0.10183367122554882 -0.26909376791362311 0.43429623401461415
-0.111190369775264 -0.28902329884820044 0.45046133985567616
-0.11803857913155885 -0.26909421206765988 0.44593345223617264
-0.11055662613189626 -0.24864955845144548 0.42721609740717348
-0.10230249240965653 -0.2497842744331899 0.42250385905675614
-0.1017871857467519 -0.28941550729859589 0.44645993526645722
-0.118951634541516 -0.28989292885380435 0.45729857984161415
-0.11730775039319899 -0.24883976801852403 0.43500097188489717
0.026972348065260165 -0.29274302339763969 0.44327475643379333
0.037717915801737348 -0.28625310296690215 0.441026201567289
0.030865128843624204 -0.30637755437499192 0.45283246392391041
0.015919468626492433 -0.30029193951754024 0.44806609045594104
0.023732556623968393 -0.27534706700347455 0.43437163325073669
0.035356310645280359 -0.26860823492256697 0.43339439903555177
0.040220024742372559 -0.29969095603777446 0.44943448489691862
0.020602895043208988 -0.31322339608851263 0.45877787451284724
0.012081808378852241 -0.2837243149218468 0.43787530528177898
-0.11000064879750798 -0.34475687657398774 0.48988297218345378
-0.10761665779200194 -0.3574001173891565 0.50360995267678854
-0.11884796720219157 -0.34574965231079263 0.49420142350521967
-0.11121158838634995 -0.32834548888409182 0.47618668688081756
-0.098853865513618411 -0.34370733344522847 0.48751400618309504
-0.09611640042824042 -0.35600998811843271 0.50208575008230449
-0.11620100591908739 -0.35755293899469626 0.50625338680667487
-0.11982036447324101 -0.3294742139020822 0.48166238597833
-0.10064057515613734 -0.3278612151762329 0.47311726424353762
0.015526628314921478 -0.14104583028299433 0.37985010868075259
0.027666853738720673 -0.12918875171939229 0.38811449008492693
0.015637839127518718 -0.15550243357892418 0.38823196088060086
0.0035571037958235657 -0.15453575928379942 0.37443244051906033
0.015456586523689045 -0.12907085011245759 0.37164340964393527
0.027378316333829547 -0.11535162815180446 0.38176719217664434
0.02798556034102527 -0.1452585729109811 0.39473596495500346
0.0035806715430631575 -0.16757577653278355 0.38447421656167163
0.0035401385236131927 -0.14423434593083534 0.3644439594456319
-0.11598668616784599 -0.20405589622343412 0.39404554188829388
-0.11316668237013729 -0.21604608534576469 0.4048674122243584
-0.11927423893729205 -0.19945342850795095 0.40429631299096641
-0.11925096066929147 -0.19459902417875569 0.38387473951002504
-0.11096161294534651 -0.20932795462073683 0.38697032309089385
-0.10682764839644918 -0.21943816431550961 0.39881385754904325
-0.11789905506873237 -0.21360941406297568 0.41409446010872569
-0.1209381719425498 -0.1874795601973564 0.39528156913973045
-0.11567276179663741 -0.20208120378694377 0.37560500688134668
0.066736095700490869 -0.11287439707367856 0.43116307231255058
0.078044981280897804 -0.11193298238500864 0.44909483473260259
0.068152961138267285 -0.13446546034830997 0.43551510310552766
0.053736649792056154 -0.11517227884788117 0.41423244303376971
0.064943845594082603 -0.093096151511784936 0.42682068503467219
0.075664369130864703 -0.090463545137598272 0.44441776896419993
0.079875143433839044 -0.13511661830993599 0.45357526885573718
0.054738868495841184 -0.13492067819387782 0.41874236085503291
0.052543165381664467 -0.097326006609173718 0.40991431753455371
-0.11987536402989088 -0.19932371111277436 0.45822411774451732
-0.12042125572958746 -0.21947679017130228 0.4683487158265357
-0.11612998019432764 -0.20073819736514037 0.47993615777318877
-0.11926355904156216 -0.18055116424667794 0.4485785197648231
-0.12135156967096355 -0.19738575127609287 0.43704574967191301
-0.12175694631857584 -0.21577403412477753 0.44646362937046924
-0.11655657990148936 -0.22233833847824808 0.49089111786780848
-0.11558395290368752 -0.18032145226512095 0.46920386173379047
-0.12096584324945719 -0.18059285407795198 0.42832465898659111
0.051821911037175442 -0.01467279918472153 0.41097824620292922
0.052580098557406516 -0.022691031951533172 0.41101687355294536
0.049118151849546779 -0.016538682683076379 0.39809630462427942
0.051032815449778821 -0.0073657770834745229 0.41114958666722046
0.055905242349702219 -0.010465491331931073 0.42355755411652041
0.057732308282451808 -0.017573928080049567 0.424836616558806
0.047879937995135666 -0.026954951202179084 0.39593896345928248
0.049550547299803696 -0.0078718297425865447 0.40010832009606434
0.054334939935623064 -0.0037236632635010494 0.42267200336202715
-0.10956630713929696 -0.0986173937208734 0.41291970285175378
-0.1156566996131827 -0.10279480356683082 0.39879256561748422
-0.1111248174362964 -0.10719190728951006 0.41450361365567945
-0.10482465750093556 -0.093766264457168874 0.42619533632670692
-0.10793337816627729 -0.090599275853006464 0.41177947202630427
-0.11383294026844257 -0.093958552671464718 0.39949226647083008
-0.11709652264781009 -0.11262583294471812 0.39825131006861225
-0.10636452948069175 -0.10196146803770059 0.4290692466147028
-0.10328742506067952 -0.085974214828487022 0.42394992243865537
0.057820367504284584 -0.050111933808041548 0.41621351644846061
0.060338315227493375 -0.061746113489391477 0.41924671471471331
0.047958518907079292 -0.058301687280010762 0.39984724619240364
0.055517662733191156 -0.040166683588626878 0.41358550102938546
0.066173301065338294 -0.04402903181547245 0.43215249033713088
0.069562165609137958 -0.056384731100805413 0.43575984334855933
0.049474831035311403 -0.069193409206006778 0.40279404543456809
0.0469669480339137 -0.048101459497846749 0.39680236085841103
0.06290164310070169 -0.033892708206160096 0.42909488568723697
-0.11558880568586052 -0.13687082517415511 0.42633801827305606
-0.11863576793705877 -0.14204660683976006 0.40864906570211801
-0.11709638792592925 -0.14927175115290914 0.43252151072608358
-0.11167582393004163 -0.13257015475657008 0.44356236883171274
-0.11411008430064568 -0.12606008072811864 0.42108978882336323
-0.11835162381416534 -0.13221240414377172 0.403182327001466
-0.11947417549077223 -0.15303407967512137 0.41426359681224045
-0.11336568782973398 -0.14605680204583926 0.4507632805622005
-0.10982988568794451 -0.12098819733041642 0.43760028144705843
0.049053439575775612 0.013271022867317281 0.41128114056222237
0.050860259525010346 0.017042385836777599 0.42090913079514491
0.048984951061177992 0.0061370187535359499 0.41148228028890349
0.048926690703433709 0.012966583225412484 0.40359351849232061
0.051746116139932255 0.021570584936176126 0.41056632333785864
0.053117815867899418 0.025548769472545418 0.41978395206050112
0.051221734111828524 0.0096575798056927759 0.42156406101108401
0.048561103075344572 0.0061508380158109277 0.40296405204360208
0.052060102353064783 0.020950765242803357 0.40364781322668708
-0.10398870741654043 -0.068334219033484647 0.40844385899236768
-0.10435935580780205 -0.075107167175566064 0.40985888275347893
-0.099449181669109585 -0.062944777393456469 0.41849773572911009
-0.10668547651527582 -0.063518486617710146 0.40620170908583897
-0.10887575849553652 -0.07151796069673462 0.3998695879408235
-0.10952727903835881 -0.078030371674019328 0.40030058218551001
-0.099845480766441619 -0.070173611149257839 0.42044741254869344
-0.10207343268158688 -0.057679162961203789 0.4157912655247864
-0.11150006894034255 -0.067159239093234541 0.3985179613397522
0.084442427772930026 0.057727912867907114 0.40277764362873969
0.069523796402507096 0.043707633628268863 0.4063519100234837
0.081874141282537324 0.054325142989869415 0.39609836956638378
0.10165002295374352 0.073277488703265767 0.39853881749030395
0.086365280420583959 0.061997899100835224 0.41127023056291045
0.070959019942194265 0.047905706632690156 0.4149120653517071
0.068552074617640055 0.041565936759572458 0.40016624867618561
0.097889743859170972 0.068508452849431314 0.39039197338638343
0.10403596025884036 0.077695477686370987 0.4073683138041761
-0.14395572929563463 -0.067530345585204016 0.39042438504048471
-0.14556801511108375 -0.07055704073977806 0.38345117188862565
-0.12672604815917277 -0.063230383690102185 0.39735011390447617
-0.140664287916552 -0.062404050008117343 0.39924023721559831
-0.16402530246235675 -0.073336167411532732 0.38203906206750932
-0.16529051402396766 -0.076867522665922283 0.37372203228053713
-0.12970108912268027 -0.066623175314030808 0.39069913355826569
-0.12279285225433613 -0.057580799947109365 0.40623552312445832
-0.16110684418151189 -0.068499121060450599 0.39119455174968798
-0.10146631328566996 -0.19965452709415948 -0.083517847133505574
-0.092595357010576723 -0.17138497016581283 -0.10492768221301066
-0.071212201649219653 -0.17597566003851745 -0.070809449404598906
-0.1067032658662033 -0.22078686465733083 -0.059362658978747124
-0.1334450609412324 -0.22247319378206382 -0.094387447890137893
-0.12471385889103749 -0.19360131763839372 -0.11766904978524148
-0.062388494968251933 -0.14902678051277121 -0.089857476087464389
-0.076034855271872231 -0.19560842307091664 -0.048765242769480383
-0.13873127812416555 -0.24423406692203969 -0.068541218740691162
-0.22136696013113333 -0.26774703902397051 -0.095464420665170885
-0.24454810117095505 -0.27455308453395583 -0.088404428213471192
-0.215288972423134 -0.2426211638289944 -0.12079338555690314
-0.19469847894239709 -0.25723158103019383 -0.1004259840056643
-0.22495101681603535 -0.28670526234003241 -0.068257284047684857
-0.24727946252243971 -0.29131763517195775 -0.062223582051679133
-0.23997261276686033 -0.25217045710681729 -0.11291157846111563
-0.18735212405954482 -0.2299611135903189 -0.12575092755697501
-0.1990805747664916 -0.27782739841972676 -0.072965229994268854
-0.10754485026811478 -0.25395196907365558 0.033186803682585836
-0.1094639154073033 -0.24745816783780156 -0.0012262579840723042
-0.077797272154969468 -0.22771239983055225 0.03887262069397876
-0.10310661892052572 -0.25521843044217957 0.071208873361534503
-0.13786115019466996 -0.27703392746501793 0.028372861809842193
-0.14080725893632673 -0.27113947053097837 -0.0074242780091524352
-0.078843400551064521 -0.22082417035185975 0.0059284018229132374
-0.074686863636337281 -0.22989591722154723 0.075402508313829206
-0.13199722678697251 -0.27731660954330967 0.067787613506324076
-0.2171450392157655 -0.31218842079902664 0.031633184559798688
-0.23748761879352409 -0.31294755789204975 0.035712526612065448
-0.22307785904655641 -0.30878218505655219 -0.0050694885186523819
-0.19360285333481805 -0.30657574103664653 0.02776160152745874
-0.20776633482765533 -0.31000297803734689 0.07165779047277894
-0.22742141667529153 -0.31021409731746336 0.075194765403772137
-0.24414132628211088 -0.31042440806290039 -0.00055103843994339097
-0.19863893690653703 -0.30227887738547032 -0.0092029779667970601
-0.18517809934818749 -0.30508053384685702 0.068188544301615001
-0.073960713447619203 -0.22568765089900239 0.20398585441824796
-0.085711425037867189 -0.24007176026195542 0.15821605459215493
-0.051129460159849802 -0.20428223104627047 0.2031112798744508
-0.062102325748087911 -0.21013365445939236 0.24693373437490965
-0.096838813799836304 -0.24341618704060841 0.20498950902997576
-0.11073153447839335 -0.25932791751629497 0.15784829404945472
-0.060980435814255954 -0.217471263367775 0.15877893084075823
-0.040702864348375799 -0.18922461422845327 0.24600144943386784
-0.083046809852041478 -0.2266122104304395 0.24873843285937922
-0.1600474000846383 -0.26920408952706182 0.2079682105935281
-0.17813861886138949 -0.268872845872623 0.20808096660079367
-0.17832657546794989 -0.2873481913590003 0.16142614869307478
-0.14030663865162105 -0.26531148107115016 0.20718142493214303
-0.14188625761001741 -0.25011936623988151 0.25143052451979608
-0.15894195116181187 -0.24885193538781603 0.25180515286255167
-0.19698185259830558 -0.28726851340205983 0.16261863732401938
-0.15762334543970086 -0.28318969195107591 0.15964869006184901
-0.12322620222402472 -0.24667553632388362 0.25117538025494163
-0.040802230433885103 -0.18273308259936832 0.32682311222739158
-0.045115567431678147 -0.18755947038026449 0.30889805426653744
-0.025220265292556963 -0.16702786093966188 0.32538450075056446
-0.038011918266611447 -0.1811243265566484 0.33974338853585462
-0.056860755103477587 -0.19543073649675069 0.3299032190225426
-0.062584487995878998 -0.20148343167824262 0.31166737623776875
-0.027468023790318104 -0.16956843466952914 0.3079716416901323
-0.023516917604492621 -0.16673590379112374 0.33802020837724328
-0.053129530850826528 -0.19302925151448042 0.34286027559672622
-0.1055077012951641 -0.21451511856563438 0.3319820583418186
-0.11862461166561097 -0.21304971921780291 0.33249670199733172
-0.11406360309955138 -0.22162571653064361 0.3139267528840885
-0.089943979730643761 -0.21165201269458317 0.33260814783058645
-0.099279641932990645 -0.21105887002693013 0.34500136637023271
-0.11177714008914352 -0.20995867111586014 0.34535919033726586
-0.12837191147971297 -0.21965571316667765 0.31478978293996374
-0.097562681220119463 -0.21871946343369852 0.3143266520395559
-0.084491655445065261 -0.20833205429220403 0.34559859448317609
0.014805223991985722 -0.10693999619856304 0.35058932184402519
0.014854268697203299 -0.11260947548876729 0.35732011873155456
0.0026429806529133654 -0.12808932443013105 0.3371066316330073
0.01576232977916682 -0.10138947102827955 0.34280395933405416
0.026252218581084993 -0.086952309750971901 0.36635695258420031
0.026427282711438987 -0.094849028603248842 0.37111875186150123
0.0028648061643489486 -0.13155945732989166 0.34643005543059724
0.0033006584214892998 -0.12516369353580159 0.32524043357249977
0.027083272879444828 -0.078825177997870671 0.36094814467715164
-0.12889143578679418 -0.17888220677258346 0.3588649655891013
-0.1302060968374962 -0.19420800114846104 0.34567482662683124
-0.1254164212371299 -0.18226332761023853 0.36673829002831571
-0.1255718207169596 -0.16332823568464272 0.37424822099227983
-0.13395958553990339 -0.17703186103621765 0.34982812865213253
-0.13808469300804493 -0.19613143325096716 0.33295584810320811
-0.12481717821402627 -0.19464690450776745 0.35574027744611386
-0.1238401542628822 -0.16970919514311705 0.38064149274699977
-0.12857990553789414 -0.15796070950296551 0.36710199878128308
0.20772834493405645 0.18904300017237152 0.28456440841194841
0.20752198193163535 0.19815367635526382 0.3106888521089699
0.19195125703283167 0.15663970795243826 0.28715257536652822
0.20847138219624284 0.18034026587791308 0.25784907660280743
0.22060090618177236 0.22214588250930029 0.28417995545966684
0.22047502461158919 0.22900326177034103 0.30922563997032537
0.19231691145889562 0.16886857938093847 0.31429539276264618
0.19172877170222519 0.14319295771213403 0.25834736896149174
0.22149769901914168 0.21646681353842501 0.25886306728638586
-0.33037700963688565 -0.13167421016316586 0.1955921659966095
-0.31590678100872932 -0.14104815642455337 0.21487552725789227
-0.31808967809329169 -0.11470774599330055 0.22474093308416312
-0.34124342949369219 -0.11828127443125055 0.17828228923868614
-0.34329060108884607 -0.14903053388634505 0.16541772802666574
-0.33059376468261781 -0.16277741292184464 0.18447057155248459
-0.302311414449279 -0.12112049936026927 0.24377016678606159
-0.33082514875423613 -0.10425997190650353 0.20712673556912939
-0.3522207342240799 -0.1321603078084862 0.14837730249519759
-0.040550947790745515 -0.034826430629826668 -0.15512129738607019
-0.018642064991791593 0.023835558268301082 -0.16383825709661279
-0.0087784321388511138 -0.016055994541617769 -0.13305232796799923
-0.061475394459227305 -0.088447475003354148 -0.14131531038964576
-0.075421939485678852 -0.056095128518801766 -0.17428496256725226
-0.054835036967148358 0.002304990517689301 -0.18513978425510239
0.013910493688463033 0.041914329629524225 -0.13983088375172295
-0.030430756649473659 -0.06859579291432745 -0.12143934893250177
-0.095074252154340802 -0.10980620521255456 -0.15826723517601912
-0.1850853362409578 -0.12585309878907847 -0.19043315803224373
-0.21836221859195382 -0.14780289588369017 -0.18367817560105318
-0.17224047096341527 -0.075491323350106443 -0.2074244595481837
-0.14913240420806001 -0.10256655988224242 -0.19240926584918724
-0.19680570593438901 -0.17134867339325754 -0.16893459676690772
-0.22674059136683267 -0.18868960682006036 -0.16112344660809777
-0.20869598234331349 -0.10172156302598039 -0.20225835330544625
-0.13319217954085122 -0.048429270932722313 -0.20752270509949414
-0.16407663603472583 -0.15210845607599394 -0.17242602631796003
0.04273885188949568 0.41687814969728404 0.077162746706138499
0.038982035908891058 0.4143002425698657 0.10972866340149505
0.079989983520607558 0.43587611922332264 0.094652590827948524
0.046900925091330189 0.41371452064945119 0.04513917743425977
0.0022418770921031478 0.3916761351466832 0.056854215425307122
-0.001761763956037346 0.38943822007119699 0.090868563646825121
0.076548718464800339 0.43303920166962079 0.12548429079653878
0.08377960171989117 0.43302259017455785 0.064286979407938954
0.0066716040907240509 0.38816947316983696 0.023505713586517651
-0.1233332508140296 0.29368362746483456 -0.0069030499350892505
-0.16147684048515909 0.2573351836205629 -0.026216869365867285
-0.12736236197326201 0.29180387969874649 0.02762812980022783
-0.082322379906449417 0.32882918862464067 0.013775284717283287
-0.11902027427197456 0.2901142975180242 -0.040060195763799072
-0.15748783981617923 0.25390489225389612 -0.05817604222799036
-0.16527107817676151 0.25550717566385878 0.0074075381636145299
-0.086473231131654407 0.32694731137456268 0.04880393585669475
-0.077811853040776646 0.32511319717604348 -0.020161112593526959
0.057087092500554618 0.37205881411666547 -0.048387890652094229
0.054754290135340042 0.39178922123769383 -0.017911357299977421
0.09273835086000802 0.39330064210715238 -0.023874354369150863
0.057107685964413332 0.34464954461116948 -0.077220445035179525
0.017668231679854249 0.34486154638654004 -0.074037011805256486
0.015074004602862304 0.36517598588505434 -0.042258911996907844
0.090815081852735777 0.41229408558890679 0.0047917453779072749
0.092364694481632939 0.36638110014410319 -0.051147399763677132
0.017931330608641591 0.31714619794991022 -0.10387193753135135
-0.10892220009624137 0.2487502592359333 -0.13279719599750314
-0.1486380915450761 0.21466030216967802 -0.14508823726139572
-0.11113869631252071 0.2681017269334981 -0.10334978556490518
-0.066863584818134231 0.2819428726051505 -0.11732172082230033
-0.10912738956912565 0.22213338830930157 -0.15950113369327232
-0.14927568500116795 0.18892779470780596 -0.16926140269150089
-0.15041599912700487 0.23308064439407228 -0.11793960296059455
-0.069393907388186044 0.30206882355788023 -0.086063099763340006
-0.066728339476494675 0.25462402949111862 -0.14607381570740721
0.035182283829762698 0.20669332340321528 -0.14616712038966526
0.046463188157824173 0.26129421721926482 -0.12712345590343774
0.069401772559586114 0.22649975857099292 -0.11869184144141467
0.020357093129740503 0.14710318965879937 -0.1595132522235734
-0.0033379362642810134 0.1817220693285338 -0.17235847211990288
0.007685092773673477 0.23494839955519353 -0.15409423021068433
0.081025647447282481 0.28224072776256748 -0.099497063733114205
0.054163479200938822 0.16579167446604021 -0.13273034595846836
-0.017719587078608781 0.12360788941492941 -0.18443292479905868
-0.13169063108201379 0.090228776363447796 -0.21351508647183912
-0.17263682629883659 0.05807109425302176 -0.2152181693733092
-0.12061734079473616 0.1419951789832038 -0.2008437983931399
-0.088428723004246784 0.12223642426246149 -0.20693178798256687
-0.1447623727015333 0.034705235698700862 -0.2195083215025482
-0.185158353770565 0.0033182088275296312 -0.21867097176767633
-0.16152640423356945 0.10960879717160614 -0.20521901373350246
-0.077469079379769018 0.17403546513998475 -0.19192621780492755
-0.10195068434294227 0.066184103709294492 -0.21524083301308108
0.21421034997072086 0.37571785213700748 0.31869310204449625
0.2198437154807682 0.38503457679986341 0.33589438730201393
0.22308669635350653 0.37094998158458919 0.32000745671112107
0.20973047792977123 0.37004348055520997 0.30028493802773093
0.20335713467430472 0.3769475487410231 0.31591227140877559
0.20864030466363853 0.38644638051496988 0.33366515637215721
0.22874753392014074 0.37982467873967579 0.33675327561960489
0.2187320769808816 0.36548650628068796 0.30225186278347382
0.19902950358124877 0.37128985368222112 0.29675335150830517
-0.3160891862703053 0.026637390237313888 0.15382774749101924
-0.32557687352247261 0.01185672472242523 0.15428539799387864
-0.31948021522144499 0.030202873251930898 0.16866512854473437
-0.30520061690383138 0.04068567682178402 0.15431490780436091
-0.3135853528932252 0.024668612435080464 0.13550647796204457
-0.32355069995209279 0.0096893233452395311 0.13639922597948756
-0.32869552443859357 0.015206899206916896 0.16889677319938443
-0.30840934575328427 0.044740281919933539 0.16976887495404391
-0.30263592985698157 0.038678833084485525 0.13522711704694448
0.20916131361332152 0.38736001836696798 0.23769927707860189
0.20725551509571621 0.37653010214902305 0.25965748724499027
0.21922518232589461 0.38057650533000159 0.24303991244659456
0.21202191646284413 0.39916896384343281 0.2150567560192834
0.19745648225320761 0.39115650771929522 0.23094557027459445
0.1960759252708662 0.37909178555126483 0.25408173679691259
0.21690912226069858 0.37093761410450515 0.26368654824684701
0.22241626781383211 0.39107569882483084 0.22170922626288581
0.19980544464494415 0.40427244842597576 0.20715768041565893
-0.31488156760539765 0.032803880647793882 0.052349167626627946
-0.32741645229276523 0.013659584823021403 0.056543419910721232
-0.31312034898547647 0.028156835080247827 0.08425870510092566
-0.30168883870393004 0.051146559021139959 0.049026505172330842
-0.31697607671349382 0.037426490805061483 0.018990812668531809
-0.33048847774718332 0.016338482389191791 0.024622533950763109
-0.32466326113530891 0.010905314460994936 0.087060904670739306
-0.30097685343253278 0.044399281623620016 0.082023744423173728
-0.30265654942897618 0.057983510016089659 0.014632608352042692
0.21866044179004668 0.41322087945538893 0.14591093568867902
0.21718990949149164 0.41349305266249914 0.16895733374601982
0.22870811422453974 0.40259765548142884 0.15527744080586453
0.21941376200795781 0.40835496349937012 0.12300181169361803
0.20628920835381831 0.42067672920341548 0.13564659482823649
0.20460099130455539 0.42048520310918819 0.15927292517346203
0.2275946958490464 0.40341030475511341 0.17767374458917362
0.22894954377022791 0.39735052097246015 0.13281581828485972
0.2074305103114843 0.41610880266944433 0.11231067205174376
-0.31899265304416996 0.037844137089829866 -0.071401561992019719
-0.33440500849635718 0.013529913883835343 -0.062775616746699042
-0.31917396384061208 0.040720360181879259 -0.043849168277894451
-0.30229273848523136 0.062229379489242967 -0.077787069393122604
-0.31857519523487604 0.031846301508213118 -0.096543338756063385
-0.33429131601627254 0.0073008500857792147 -0.087376148305907425
-0.33415353540170778 0.016955836393071425 -0.035945607694267273
-0.30304776667454447 0.064415303442244234 -0.049749458302950827
-0.30143711075120927 0.056570757875481339 -0.10332198119788819
0.21692084321392902 0.36798103191851517 0.056815445358562811
0.21884333338020412 0.38592695462519233 0.077998468626450754
0.22458783540127891 0.35670002817281943 0.06734570626003443
0.21308325918692245 0.34467261243426028 0.037590814825368773
0.20640215934421902 0.37622631271006735 0.045250414107958048
0.20784928184205254 0.39424692697320046 0.066746793986734235
0.22715176044747809 0.37421093590438143 0.088253843883079081
0.22010127897616105 0.33551927533366138 0.048755147800044141
0.2029594083787572 0.35199230408943383 0.025507270274072208
-0.32018103447142759 -0.0057740900160663314 -0.15738252779085835
-0.3360666032079101 -0.029478036283647688 -0.14697147049243423
-0.31888175281926501 0.010175688526346427 -0.14010061728151044
-0.30219799936336805 0.018919117160270282 -0.1654951987189853
-0.32239338337485196 -0.025396513288914457 -0.16998575026253268
-0.33706444438898026 -0.046050425982160699 -0.15907186458727476
-0.3350385448203938 -0.014504062343900455 -0.1301078639995206
-0.30102340615611128 0.03522061444982641 -0.14768326361114867
-0.30473577734013146 -0.002075015490746443 -0.17877575773408425
0.1866830717820524 0.23503735430533917 -0.0012405037125884644
0.17240372526804876 0.18845346049281336 -0.0079410506563955818
0.17488719450515061 0.23442062989855178 -0.01702086918063353
0.19818088416406093 0.27781249811596964 0.008334110409662393
0.19766163430786271 0.23880403581069914 0.015629043785750252
0.18554208287615026 0.19575526795864073 0.0099203626723189942
0.15953458127186121 0.18485981872946666 -0.02463949602767132
0.18741003286981256 0.28042507071300871 -0.0060325435507348757
0.2068824314785675 0.27689344817548406 0.023048633649723343
-0.33842284279201579 -0.11273569586403862 -0.16942771919607111
-0.32221033118791925 -0.096971728665841389 -0.18130812280544609
-0.34428219733478682 -0.14701206776655695 -0.15769497736624202
-0.35201731900241251 -0.12345814949032392 -0.15625543945948897
-0.33190689329312545 -0.079528507251185404 -0.17610329450025033
-0.31522889457767284 -0.060964331769767427 -0.18688675197863855
-0.32860622815263002 -0.13389431186769063 -0.17038037308676143
-0.35829875056038107 -0.15590922556604198 -0.14435739068924056
-0.34517304012171157 -0.092953704603998794 -0.1636488784575845
0.1370429175159214 0.24409674060749015 -0.058195617410367301
0.12008440513518885 0.24466778207222006 -0.073848766598697324
0.14970481541920827 0.29761250559271607 -0.042443884137219695
0.15069078085073545 0.24049527957360117 -0.044689607452356644
0.12105185000440204 0.18623524493685623 -0.069987836482430288
0.10423248773043901 0.18476247120456979 -0.087018725616088449
0.13245282235558248 0.29995363939189967 -0.056419704785255737
0.16351559140516841 0.2916533233758945 -0.030761298214200622
0.13471502846732986 0.18528382736688809 -0.054889358035470293
-0.26412395688283474 -0.029912191455386546 -0.20613563832679924
-0.25443189764419055 0.015752072722077473 -0.20509175585282816
-0.23920252854570556 -0.0026183909800856636 -0.21074543335451154
-0.27389489802733874 -0.077373494704598603 -0.20125343025138479
-0.28533410821478178 -0.054880835188820226 -0.19977645078773484
-0.27653071054037198 -0.012515824286371741 -0.2014657427555803
-0.22876573392431454 0.045924647801379628 -0.20670922618683854
-0.25006594943605714 -0.053369851669759674 -0.20864096779123073
-0.29394336474701288 -0.098692182748545715 -0.19237086082166757
0.16593781272709307 0.40350710856635774 0.019585579693324334
0.14713111098958537 0.40857777677328699 0.010322446541906644
0.16576845788741068 0.4213255052663214 0.043367996866539998
0.1811072684712472 0.39427172753331624 0.026871450153913234
0.16387749311996208 0.37812305962876186 -0.0028899275332052998
0.14567033099984378 0.38272629970505845 -0.013575394469259622
0.14633075148944436 0.42653859911641212 0.035442759613841718
0.18155344993780853 0.41210006533514315 0.049604791858404607
0.17848098512045246 0.36931125697075556 0.0055887848410736962
-0.24005314268089439 0.10977559660884949 -0.16853884025991248
-0.2402207512133514 0.12641041117706192 -0.14752554978134139
-0.21443104534060198 0.14455854510041199 -0.16289895461528367
-0.24191000390966949 0.086745919936239077 -0.18575990341480222
-0.26242256676905423 0.076551690230947225 -0.17123506376042427
-0.2620731972937696 0.092999255352377255 -0.15161062851709659
-0.21514594439411738 0.16154141548547157 -0.14017081218555136
-0.21593287779503317 0.1206834932629292 -0.18212643856927632
-0.26457552459838551 0.05429189333814273 -0.1867843420740127
0.15971093133845421 0.44460231274732831 0.11917460159610763
0.13858485540550519 0.44909417911277316 0.11517722031292091
0.15729717243437313 0.44260454735338206 0.14540470511980513
0.17715433185751028 0.43648208587796594 0.12227743913288679
0.16210281515687996 0.44130489646303273 0.093380367209041526
0.14145961361315612 0.44618893071645493 0.088068459608094049
0.13584085151199654 0.44654018466020828 0.14271433548372958
0.1750376685613711 0.43514803713291972 0.1474225690933291
0.17908009726706131 0.43270118250779288 0.097563119912231294
-0.24640979405561392 0.15038493597627978 -0.069925527713749325
-0.24894934249442929 0.15005046469588795 -0.039652401789070396
-0.22310534822525696 0.184862907062323 -0.058382895139001856
-0.24389820399480738 0.14623661743211858 -0.097856381604793236
-0.26648608743878116 0.11799577226033027 -0.077484930111587441
-0.26847090582306593 0.11851199111594325 -0.048176874234555689
-0.22614108943623495 0.18379180797822336 -0.027021243083274693
-0.22004336803463448 0.18116345701293529 -0.087578874469299323
-0.26454491904930583 0.113310244618142 -0.10433199918152317
0.15249715104280309 0.40305185831614815 0.22534019536681668
0.13133587222513637 0.40430940006062899 0.22626838796003634
0.15244263410970038 0.38700418402831993 0.25054452964381801
0.16970325244293283 0.39896371801824965 0.22441254395562762
0.15345851678636441 0.42022452127560006 0.19890421733390204
0.13201385169069996 0.42251677392213133 0.1987686978846977
0.13159896841734992 0.38716704325770818 0.25216092832825804
0.16928776929767481 0.38422568437931581 0.24909623129319639
0.17103509992336979 0.41482843873054992 0.19882375156043963
-0.25417019965798843 0.12074661806046864 0.064759208777415478
-0.25541826482059554 0.10787561181091147 0.098855220100324326
-0.23243847106220139 0.15032682150463827 0.079226957725280212
-0.25285373852095716 0.13401205603959349 0.028752883007218705
-0.27211490328866683 0.094167644372357293 0.054417792793435255
-0.27296361489876275 0.083205271945623951 0.08846126200950899
-0.23392326784859119 0.13574790299701817 0.11325876778005374
-0.23083199064325527 0.16524564974522898 0.042899159518552166
-0.27129006421551299 0.10547048889095946 0.018786420413550525
0.15904108336691902 0.3780535093310825 0.31225382314098726
0.16256551300144462 0.38713739101422756 0.32832161403222221
0.17617515395843036 0.37789864025435754 0.31230682955847533
0.15585645694512362 0.37362270910224943 0.29419189053519446
0.13831944384796324 0.37553665537033576 0.31227756275043
0.14145366694380851 0.38494679765660872 0.3268238788433902
0.18027664702576707 0.38710427631625394 0.32959317171877855
0.17261706151873446 0.3729183172544302 0.29325804879577533
0.1352976967761354 0.37166256712498941 0.295357306358974
-0.2609991255400162 0.096548109634751508 0.16996478200861109
-0.2782446966842318 0.074829271495470542 0.1618241367388405
-0.2633694822024269 0.1016501149412699 0.18396247904608587
-0.23999519885881598 0.12078264249296668 0.18128876216260664
-0.258778473199958 0.094988712046603294 0.15197775231240368
-0.27597281506270444 0.072888104835216336 0.14272059433665968
-0.2807622820507984 0.079703855537667137 0.17711395256720364
-0.24248796773821057 0.12617842889690534 0.19335990957734178
-0.23763745794753666 0.11992591111282745 0.16481615031450633
0.033984753853917027 0.3718360167941428 0.21069578615719181
0.034949679234990205 0.35357000637271596 0.24234015187720259
0.071939549422709428 0.38947034055426982 0.2197429078397059
0.034368763012977852 0.39029574999721833 0.1771145939508067
-0.0073657504942263863 0.34829459365851628 0.19846305713109152
-0.006790846099747852 0.3294686406052208 0.23447547717533007
0.072820335689073409 0.37137093083926576 0.24852184144721823
0.072300462618633696 0.40824522788717282 0.18870950615123852
-0.0067552704612666159 0.36647294488381021 0.16196179533735539
-0.13465191549498881 0.2528739074804584 0.13967367753462995
-0.1725722920515359 0.21735235538924363 0.11762817884244567
-0.13623864364598232 0.23477465352803828 0.17484171820701588
-0.093372699143192697 0.28754824643839244 0.16206833201688939
-0.13297343541906426 0.27022405134064981 0.10190907057609599
-0.17078309929511359 0.23426735425130263 0.080493109895343362
-0.17430914599780822 0.20017382309731752 0.15177544469957011
-0.094316169759629448 0.26867155459632436 0.19982551472541368
-0.092012552370861964 0.30521129253146972 0.12344061427450274
0.053097299853082161 0.37239103142722141 0.32123466324369404
0.034274237116833042 0.35669689335102805 0.32036133760075014
0.049223488383068489 0.38552751597135515 0.31886324845006386
0.071617892942376291 0.38951049554231704 0.32474228272920003
0.056014501501148103 0.35912157730381472 0.323401676174772
0.032117333114722368 0.33894065643416632 0.32232062240968107
0.034563955485656328 0.37281594841618476 0.3183739760643699
0.063660287657866868 0.39872919973894921 0.32208579286864442
0.080371624587806514 0.38007287356736413 0.32745193230169106
-0.15684915678482661 0.22727118923354472 0.23979092223508763
-0.15615757972849884 0.24247260575365631 0.23663947059933738
-0.13683064252018809 0.23849181209541942 0.25414059106729436
-0.15692537120560701 0.21304013736895022 0.24338472114685161
-0.17670300001065731 0.21775253957291363 0.22814726154313958
-0.17157391308060238 0.23484477073418242 0.22782773508196724
-0.14051928519120899 0.25091957081869282 0.24840854935264658
-0.13135185932897264 0.22691805157524153 0.26117596841813873
-0.18282228866629802 0.19943867577466778 0.22837031426136448
0.049677046265004812 0.33385706078453115 0.30644965232226801
0.05442426042960645 0.33869856162149803 0.31715914629013747
0.082491235305394553 0.35327092024936546 0.30923122326328956
0.043492374532006786 0.3335059874261001 0.29093442829848415
0.017859922780622359 0.31244187723872974 0.30432265376081713
0.024469535742174475 0.3159206151912296 0.31547255498231663
0.086102119730294788 0.36043257249246424 0.32071811203262673
0.078500999051244538 0.35197319052866899 0.29371058883019074
0.0071444386502622498 0.31089667395480097 0.28846105737331063
-0.14881422628106827 0.19926625158437128 0.23555345918587758
-0.18276741262898585 0.17351575762381055 0.21474091477039242
-0.15301709636640284 0.19785834902396854 0.24264289160467734
-0.11564369016189367 0.22203604993215936 0.25691644992410079
-0.14355988201434222 0.20636141356169035 0.2233991132603792
-0.17939990378529858 0.17682761403928088 0.20096056592792277
-0.18610861794074451 0.17565313068584165 0.22301856321286223
-0.12124892725888434 0.21716316882007958 0.2635419998788
-0.10628576977605417 0.23387110194791427 0.2476839903760821
-0.030166591750528715 0.26784927382473883 0.30884756336816599
-0.028638849089051815 0.26494047323692149 0.31576378276043876
-0.023643082359282863 0.27668576943419348 0.30586962259301076
-0.038020680203455837 0.2630233764246887 0.3044848142544988
-0.037643426643843438 0.25674842521623464 0.313839940319944
-0.01723192630771038 0.27765101849092733 0.31573171444547499
-0.034836940987656689 0.27355618522782016 0.29527506546463478
-0.062878676933735278 0.24598157765439682 0.2978954798590191
-0.070808839513910427 0.24505046068380903 0.28983254143693671
-0.062851738095899473 0.24210762902327398 0.30439828247138651
-0.055286186981827343 0.25151240203848629 0.2987760204786763
-0.060881521800293506 0.25609193271621011 0.2864313386700682
-0.075673364469133864 0.23842803374969762 0.29580325539359986
-0.053325327686705094 0.24632664621941924 0.30873291642575984
0.23632542928153538 0.31673520797235521 0.30306801165654212
0.2392969681666669 0.32280629473927003 0.32282627337351877
0.23497798215253929 0.28728857226786542 0.29403688286008067
0.23460470744040735 0.31303000756210542 0.28277297540185808
0.23445466592429004 0.34169579604416422 0.31188238165743665
0.23871549466995112 0.34878295721839681 0.32986813051175523
0.23661530833005529 0.29274239470579422 0.31582120494447263
0.23443994903159665 0.28378158452516422 0.27182637466191217
0.23154932365741809 0.33737762523928122 0.2932274990356975
-0.34679865272864535 -0.053019632199049899 0.15473919120272447
-0.34929669992403678 -0.077937739139952805 0.15770810440648539
-0.34438668902715169 -0.046596999857442596 0.17600662329838929
-0.3413251583493373 -0.02814381209521348 0.15433590372134312
-0.35027483798277526 -0.05900806620445799 0.13126283465033087
-0.35545911890490833 -0.086243781035099776 0.13118522422455872
-0.34402563825389454 -0.069311365759364571 0.18244645657415212
-0.34149736936525815 -0.023422535248057 0.17223437222522658
-0.34233739733486251 -0.032267172816480338 0.13381271056372412
0.23746025381811675 0.32260952138136728 0.22809281076421611
0.23751493446460614 0.29064463610975871 0.21637357761836634
0.23954319302714799 0.32876616972466638 0.21125216076164
0.23385240429074539 0.34887852951550719 0.23826876127180385
0.23546338727205285 0.31653769554230438 0.24510780528159692
0.23600636888914961 0.28600826725449563 0.23283408883802834
0.23893112737032829 0.29503241663839364 0.20012904803726464
0.23660787782495929 0.35660130991900357 0.22007132887527359
0.23148931662481442 0.34156038583822596 0.25629624575192855
-0.36252320130823751 -0.066158335964614456 0.056018819456385469
-0.36600519430148831 -0.066430105208942006 0.030983570110830416
-0.37071580127829884 -0.097532933901505831 0.055807862064367345
-0.35853085950136748 -0.065552363594496746 0.081290963835152219
-0.35172445373059402 -0.035774338174781262 0.058122774936850058
-0.3554006241769514 -0.035397385620980548 0.030651008092376114
-0.37421310531991003 -0.098764405680130701 0.032459074199053334
-0.36655681958468411 -0.096029280567783773 0.07966260188515395
-0.34787599497272087 -0.035976511929624561 0.08515873296060622
0.2398206108459181 0.33156709796814976 0.15733243397422583
0.23819285588012079 0.29980406288910272 0.15039799600229836
0.23742197493752776 0.32440609449932478 0.13769177136030422
0.23925530836530456 0.3614484104178044 0.16146470553941458
