# XYZ point cloud file
-0.70627039670944214 -0.027890674769878387 0.72939956188201904
-0.6441689133644104 -0.058584146201610565 0.71521687507629395
-0.61550766229629517 -0.023749485611915588 0.73028361797332764
-0.67009973526000977 0.011214807629585266 0.74771773815155029
-0.31192094087600708 0.52850246429443359 0.80516922473907471
-0.27848687767982483 0.5518757700920105 0.79903602600097656
-0.34161913394927979 0.53821706771850586 0.8180692195892334
-0.34002414345741272 0.50716090202331543 0.80956351757049561
-0.28281119465827942 0.52048486471176147 0.79034721851348877
-0.253184974193573 0.54289287328720093 0.784812331199646
-0.3040870726108551 0.56252074241638184 0.81153559684753418
-0.37322947382926941 0.51592975854873657 0.82273530960083008
-0.30776539444923401 0.5000414252281189 0.79425048828125
-0.68806910514831543 -0.12053630501031876 0.69961583614349365
-0.7177354097366333 -0.11084571480751038 0.70283305644989014
-0.68755203485488892 -0.1539076566696167 0.69079530239105225
-0.65983957052230835 -0.12999548017978668 0.69375371932983398
-0.68699151277542114 -0.091562531888484955 0.70775210857391357
-0.71824133396148682 -0.079499326646327972 0.71168947219848633
-0.71522867679595947 -0.14692109823226929 0.6933974027633667
-0.66113841533660889 -0.16089975833892822 0.68571877479553223
-0.65732330083847046 -0.10307472199201584 0.7010045051574707
-0.1513228565454483 0.64264214038848877 0.76838171482086182
-0.107462078332901 0.67362260818481445 0.75526905059814453
-0.16335317492485046 0.65765190124511719 0.77954494953155518
-0.19652144610881805 0.60989505052566528 0.78046441078186035
-0.13982315361499786 0.62873131036758423 0.7556755542755127
-0.1001063734292984 0.65752315521240234 0.74318563938140869
-0.1156308501958847 0.6906546950340271 0.76582932472229004
-0.21299430727958679 0.62312358617782593 0.79209697246551514
-0.18032576143741608 0.59799396991729736 0.76728761196136475
-0.68815493583679199 -0.28333333134651184 0.65708184242248535
-0.71061611175537109 -0.28637808561325073 0.65839016437530518
-0.68824487924575806 -0.32807877659797668 0.644980788230896
-0.66666805744171143 -0.27995860576629639 0.65337574481964111
-0.68737083673477173 -0.23684191703796387 0.66932380199432373
-0.71119385957717896 -0.23635897040367126 0.67106008529663086
-0.70993936061859131 -0.33443701267242432 0.64560580253601074
-0.66756695508956909 -0.3211480975151062 0.64190936088562012
-0.66455209255218506 -0.23725578188896179 0.66523623466491699
-0.0093219615519046783 0.72782438993453979 0.71508693695068359
0.015165846794843674 0.73118001222610474 0.70133507251739502
-0.012150932103395462 0.75148433446884155 0.72215044498443604
-0.036199513822793961 0.71751219034194946 0.72845876216888428
-0.0073440410196781158 0.70552748441696167 0.70707690715789795
0.016714822500944138 0.70752960443496704 0.69560956954956055
0.013070996850728989 0.75647175312042236 0.70623385906219482
-0.039881486445665359 0.73905009031295776 0.73708665370941162
-0.033530581742525101 0.69705319404602051 0.71864187717437744
-0.67469418048858643 -0.4195384681224823 0.6174774169921875
-0.69850039482116699 -0.43212234973907471 0.61303484439849854
-0.66221112012863159 -0.43679672479629517 0.6126943826675415
-0.65242433547973633 -0.4067857563495636 0.61975812911987305
-0.68250799179077148 -0.39705315232276917 0.62462198734283447
-0.70510637760162354 -0.40819796919822693 0.62235462665557861
-0.68689829111099243 -0.45053175091743469 0.60589611530303955
-0.63917726278305054 -0.42333853244781494 0.61745500564575195
-0.66124695539474487 -0.38539278507232666 0.62457168102264404
0.095926836133003235 0.70488035678863525 0.65628647804260254
0.12403962016105652 0.68455934524536133 0.64249420166015625
0.10032981634140015 0.7297673225402832 0.65026497840881348
0.067317977547645569 0.71941524744033813 0.67148852348327637
0.092421337962150574 0.68151438236236572 0.66013908386230469
0.11779478192329407 0.6622769832611084 0.64966118335723877
0.13164231181144714 0.70801585912704468 0.63249015808105469
0.068750351667404175 0.74530559778213501 0.66964471340179443
0.066262021660804749 0.69527351856231689 0.67185533046722412
-0.58840227127075195 -0.47469258308410645 0.61470639705657959
-0.60868942737579346 -0.49240636825561523 0.60194003582000732
-0.55278187990188599 -0.48191374540328979 0.62086153030395508
-0.56895458698272705 -0.45845279097557068 0.62507152557373047
-0.61912298202514648 -0.46394774317741394 0.61123037338256836
-0.6420862078666687 -0.48017451167106628 0.60009109973907471
-0.56992018222808838 -0.5011214017868042 0.60699868202209473
-0.53594785928726196 -0.46439224481582642 0.63214504718780518
-0.59746140241622925 -0.44887301325798035 0.62019062042236328
0.19033554196357727 0.59004741907119751 0.62003147602081299
0.20406539738178253 0.55034273862838745 0.61935818195343018
0.20512504875659943 0.60932141542434692 0.60387980937957764
0.17221707105636597 0.62650579214096069 0.62391579151153564
0.17733843624591827 0.57072818279266357 0.63316571712493896
0.18964694440364838 0.53248637914657593 0.6331477165222168
0.22018724679946899 0.56784510612487793 0.60288727283477783
0.18519201874732971 0.6471518874168396 0.6087334156036377
0.16105179488658905 0.60620683431625366 0.63582456111907959
-0.42604440450668335 -0.47182375192642212 0.65359103679656982
-0.43551921844482422 -0.4943355917930603 0.64050769805908203
-0.38112276792526245 -0.45766165852546692 0.66698086261749268
-0.41563805937767029 -0.45082986354827881 0.66470980644226074
-0.47049549221992493 -0.48087549209594727 0.64081847667694092
-0.48213037848472595 -0.50262701511383057 0.62687408924102783
-0.38835251331329346 -0.48036333918571472 0.65498495101928711
-0.37277290225028992 -0.43631309270858765 0.6773831844329834
-0.45823216438293457 -0.46080625057220459 0.65241682529449463
0.21578173339366913 0.42340737581253052 0.63444936275482178
0.20867946743965149 0.37994197010993958 0.64605581760406494
0.23397853970527649 0.43052461743354797 0.6182401180267334
0.21712872385978699 0.46634471416473389 0.62646377086639404
0.19919200241565704 0.41581436991691589 0.64790177345275879
0.19133695960044861 0.37747877836227417 0.65833818912506104
0.22772946953773499 0.38211464881896973 0.63055408000946045
0.23476186394691467 0.47781556844711304 0.61001050472259521
0.20107291638851166 0.45430067181587219 0.64043331146240234
-0.25550419092178345 -0.38815084099769592 0.70311117172241211
-0.25224828720092773 -0.40672484040260315 0.69346725940704346
-0.21859036386013031 -0.35577070713043213 0.7144315242767334
-0.25777503848075867 -0.37111645936965942 0.71100246906280518
-0.29507157206535339 -0.41574487090110779 0.69187438488006592
-0.29612386226654053 -0.43641915917396545 0.68160820007324219
-0.21019425988197327 -0.37190133333206177 0.70559608936309814
-0.22619470953941345 -0.34149950742721558 0.72102081775665283
-0.29289034008979797 -0.39640244841575623 0.70069622993469238
0.15112018585205078 0.24894970655441284 0.70424163341522217
0.12333416938781738 0.20961040258407593 0.72526049613952637
0.17734900116920471 0.233827143907547 0.69632482528686523
0.17570966482162476 0.29172289371490479 0.68212950229644775
0.12793634831905365 0.26368039846420288 0.70775127410888672
0.097926661372184753 0.23068398237228394 0.72467577457427979
0.15396943688392639 0.18596240878105164 0.72333204746246338
0.19858425855636597 0.28312665224075317 0.67035818099975586
0.15496084094047546 0.30049437284469604 0.68936944007873535
-0.12717290222644806 -0.23020368814468384 0.75320065021514893
-0.097229942679405212 -0.23888242244720459 0.75082635879516602
-0.10586723685264587 -0.18502867221832275 0.76446008682250977
-0.15558718144893646 -0.2245236337184906 0.75210726261138916
-0.15376594662666321 -0.27555543184280396 0.73998606204986572
-0.13253065943717957 -0.28692740201950073 0.7343745231628418
-0.064367443323135376 -0.18991747498512268 0.76715302467346191
-0.1421738862991333 -0.18276801705360413 0.76007330417633057
-0.17458769679069519 -0.2669527530670166 0.74202919006347656
0.02557697519659996 0.14002707600593567 0.74797844886779785
0.0093291066586971283 0.17162206768989563 0.7460942268371582
-0.0083618499338626862 0.13037809729576111 0.74575293064117432
0.045227687805891037 0.1059698686003685 0.75001788139343262
0.059713732451200485 0.15474122762680054 0.74752569198608398
0.037671398371458054 0.18424320220947266 0.74404406547546387
-0.018192637711763382 0.1644655168056488 0.74589729309082031
0.0031521432101726532 0.091620691120624542 0.74582600593566895
0.087358906865119934 0.12197846919298172 0.75119328498840332
-0.10070879757404327 -0.077461600303649902 0.76337528228759766
-0.11365680396556854 -0.0509815514087677 0.75591778755187988
-0.14141345024108887 -0.088016994297504425 0.76084089279174805
-0.092718169093132019 -0.10775052756071091 0.76941311359405518
-0.055639181286096573 -0.06771472841501236 0.76594698429107666
-0.069486021995544434 -0.033472709357738495 0.75501465797424316
-0.15242607891559601 -0.066759489476680756 0.7564084529876709
-0.13526751101016998 -0.11360111087560654 0.76418399810791016
-0.043704483658075333 -0.10367397218942642 0.77512133121490479
-0.30855613946914673 0.2342756986618042 0.79728949069976807
-0.32401224970817566 0.25801265239715576 0.80175948143005371
-0.32885375618934631 0.21951323747634888 0.80337297916412354
-0.29229903221130371 0.21244636178016663 0.79238736629486084
-0.28961172699928284 0.24993622303009033 0.78909075260162354
-0.30593231320381165 0.27130287885665894 0.79275131225585938
-0.34280866384506226 0.24599862098693848 0.80827164649963379
-0.31626588106155396 0.19305151700973511 0.79865217208862305
-0.2714821994304657 0.23094090819358826 0.78486394882202148
-0.40777507424354553 0.06316867470741272 0.78097820281982422
-0.40749669075012207 0.083881475031375885 0.78935408592224121
-0.44084250926971436 0.056511849164962769 0.77968406677246094
-0.40952643752098083 0.043147966265678406 0.7705923318862915
-0.37603980302810669 0.068052209913730621 0.78084444999694824
-0.37366235256195068 0.094074942171573639 0.78992986679077148
-0.44234859943389893 0.074305951595306396 0.7881004810333252
-0.44069927930831909 0.038878269493579865 0.76880872249603271
-0.37943419814109802 0.04480549693107605 0.77092146873474121
-0.2220197319984436 0.16745513677597046 0.77367448806762695
-0.24912981688976288 0.17905989289283752 0.78046441078186035
-0.24170179665088654 0.14138424396514893 0.77692818641662598
-0.1937142014503479 0.15766429901123047 0.76691484451293945
-0.2036835104227066 0.19095978140830994 0.77016127109527588
-0.2283729761838913 0.20154145359992981 0.77527332305908203
-0.27292904257774353 0.15365204215049744 0.78538048267364502
-0.21088564395904541 0.13048049807548523 0.76884901523590088
-0.17776915431022644 0.18239718675613403 0.76498556137084961
-0.28660678863525391 0.056130126118659973 0.77023077011108398
-0.27473616600036621 0.084443658590316772 0.77515697479248047
-0.31551644206047058 0.064619436860084534 0.77520513534545898
-0.29685616493225098 0.030364453792572021 0.76524031162261963
-0.25878649950027466 0.045516267418861389 0.76489067077636719
-0.24412332475185394 0.07319776713848114 0.76782262325286865
-0.307099848985672 0.094745270907878876 0.78262805938720703
-0.32306376099586487 0.038310714066028595 0.76799702644348145
-0.27186980843544006 0.020218729972839355 0.76201832294464111
-0.10550038516521454 0.13358891010284424 0.74878394603729248
-0.074183478951454163 0.12801992893218994 0.74508655071258545
-0.098419517278671265 0.16444855928421021 0.75054609775543213
-0.13548846542835236 0.14077988266944885 0.75407755374908447
-0.11548732221126556 0.099514953792095184 0.74787509441375732
-0.078175410628318787 0.088863976299762726 0.74355614185333252
-0.071886554360389709 0.1617465615272522 0.74728906154632568
-0.12485486268997192 0.16914737224578857 0.75489044189453125
-0.14886440336704254 0.10994317382574081 0.75397133827209473
-0.17928558588027954 0.0064577534794807434 0.75056684017181396
-0.20395104587078094 -0.017383880913257599 0.75289058685302734
-0.15401598811149597 -0.0095170289278030396 0.74865961074829102
-0.1534087061882019 0.03417651355266571 0.74883151054382324
-0.20522910356521606 0.020604930818080902 0.75446796417236328
-0.2252669483423233 -0.003878764808177948 0.75537621974945068
-0.18445603549480438 -0.032196350395679474 0.75181031227111816
-0.11952748894691467 0.017623491585254669 0.74551045894622803
-0.18457499146461487 0.048407815396785736 0.75418674945831299
0.87640613317489624 -0.32772734761238098 0.58536636829376221
0.86458092927932739 -0.32588487863540649 0.60112321376800537
0.86603999137878418 -0.34980806708335876 0.5979158878326416
0.88833433389663696 -0.33088061213493347 0.56746518611907959
0.88489240407943726 -0.30615374445915222 0.57395124435424805
0.8712996244430542 -0.30730122327804565 0.59237575531005859
0.85611778497695923 -0.34447437524795532 0.61097455024719238
0.87608522176742554 -0.35642522573471069 0.58284735679626465
0.89858269691467285 -0.30630600452423096 0.55317842960357666
0.82640749216079712 -0.41345858573913574 0.63756406307220459
0.84070152044296265 -0.39325571060180664 0.62440848350524902
0.82323062419891357 -0.39679023623466492 0.64383721351623535
0.81159228086471558 -0.43184217810630798 0.65027987957000732
0.82967942953109741 -0.43145108222961426 0.62926125526428223
0.84632581472396851 -0.40745094418525696 0.61423659324645996
0.83521157503128052 -0.38032227754592896 0.63261282444000244
0.81043130159378052 -0.41167789697647095 0.65504610538482666
0.81276053190231323 -0.45345890522003174 0.64341318607330322
0.89601951837539673 -0.24910402297973633 0.55135464668273926
0.87742000818252563 -0.25453460216522217 0.5761871337890625
0.89519798755645752 -0.26676645874977112 0.55653834342956543
0.9149516224861145 -0.24443942308425903 0.52320182323455811
0.89296621084213257 -0.2322525680065155 0.54893398284912109
0.87270468473434448 -0.23810616135597229 0.57523560523986816
0.87825411558151245 -0.27149420976638794 0.57957446575164795
0.91233891248703003 -0.26305204629898071 0.53055429458618164
0.91377514600753784 -0.22693723440170288 0.5189131498336792
0.76707440614700317 -0.47022473812103271 0.68340694904327393
0.78208369016647339 -0.46073424816131592 0.67325365543365479
0.76797372102737427 -0.44223091006278992 0.68659508228302002
0.75091618299484253 -0.47585964202880859 0.69291043281555176
0.76557397842407227 -0.50058227777481079 0.67814159393310547
0.78082519769668579 -0.48855498433113098 0.66783380508422852
0.78297227621078491 -0.4348912239074707 0.67654860019683838
0.75147849321365356 -0.44601720571517944 0.69612491130828857
0.74958449602127075 -0.50849324464797974 0.68765830993652344
0.85531479120254517 -0.18349391222000122 0.56023025512695312
0.8297303318977356 -0.19226264953613281 0.58948993682861328
0.87227749824523926 -0.19934853911399841 0.55362868309020996
0.88223904371261597 -0.17548200488090515 0.52644908428192139
0.83582180738449097 -0.16884547472000122 0.56856679916381836
0.80798178911209106 -0.18015351891517639 0.59931886196136475
0.84860712289810181 -0.20655688643455505 0.58192992210388184
0.89721441268920898 -0.19255411624908447 0.52080869674682617
0.8642914891242981 -0.15913811326026917 0.53407120704650879
0.69009149074554443 -0.46691161394119263 0.71880853176116943
0.71220344305038452 -0.4739069938659668 0.71068787574768066
0.69009381532669067 -0.43181023001670837 0.72098267078399658
0.6677129864692688 -0.45724594593048096 0.72597646713256836
0.68980365991592407 -0.50555229187011719 0.71432173252105713
0.71173304319381714 -0.51066476106643677 0.70575034618377686
0.71204310655593872 -0.44081050157546997 0.71350347995758057
0.6686287522315979 -0.41924238204956055 0.72720873355865479
0.66699814796447754 -0.49757730960845947 0.72209620475769043
0.62008088827133179 -0.076384268701076508 0.63873708248138428
0.56586909294128418 -0.058976404368877411 0.65254998207092285
0.60526150465011597 -0.098123975098133087 0.6586456298828125
0.6720157265663147 -0.0934557244181633 0.62456130981445312
0.63407266139984131 -0.055539481341838837 0.61510133743286133
0.5792815089225769 -0.03776095062494278 0.62995350360870361
0.55179047584533691 -0.080910615622997284 0.6711885929107666
0.6560329794883728 -0.11462452262639999 0.64590549468994141
0.68715262413024902 -0.073464803397655487 0.59966599941253662
0.46417436003684998 -0.34414547681808472 0.74868965148925781
0.47884896397590637 -0.31523007154464722 0.74789142608642578
0.41621473431587219 -0.31606495380401611 0.75002455711364746
0.44855251908302307 -0.37416097521781921 0.74574422836303711
0.51014679670333862 -0.37139037251472473 0.74683308601379395
0.52399903535842896 -0.34133195877075195 0.74550414085388184
0.43116030097007751 -0.28813809156417847 0.7498772144317627
0.40030953288078308 -0.34521514177322388 0.74629998207092285
0.49553254246711731 -0.40248116850852966 0.74451446533203125
0.77698653936386108 -0.13324835896492004 0.59225761890411377
0.7973676323890686 -0.14413562417030334 0.58472597599029541
0.80031472444534302 -0.11781568080186844 0.56153237819671631
0.75124061107635498 -0.12191500514745712 0.60094249248504639
0.75383871793746948 -0.15105292201042175 0.61944305896759033
0.7707703709602356 -0.16027864813804626 0.61449134349822998
0.82395166158676147 -0.13057059049606323 0.55181121826171875
0.77121216058731079 -0.10472474247217178 0.57243967056274414
0.73109883069992065 -0.14109474420547485 0.62588357925415039
0.60596227645874023 -0.42675310373306274 0.7397761344909668
0.59859472513198853 -0.46398070454597473 0.73766160011291504
0.62654858827590942 -0.43725323677062988 0.73640239238739014
0.61403614282608032 -0.39098954200744629 0.73838150501251221
0.58151060342788696 -0.413238525390625 0.74242556095123291
0.5712011456489563 -0.44801053404808044 0.74054586887359619
0.62213712930679321 -0.47685176134109497 0.73380899429321289
0.63178664445877075 -0.39878618717193604 0.73568034172058105
0.59202474355697632 -0.37980943918228149 0.74073469638824463
0.3878142237663269 -0.094167910516262054 0.7229233980178833
0.35909253358840942 -0.081779561936855316 0.72590756416320801
0.38015905022621155 -0.11292162537574768 0.72852241992950439
0.42323333024978638 -0.10847103595733643 0.71971607208251953
0.39519599080085754 -0.074550338089466095 0.7160259485244751
0.36369571089744568 -0.060717426240444183 0.71958696842193604
0.35285922884941101 -0.1014786884188652 0.73112094402313232
0.41437813639640808 -0.12675017118453979 0.72585880756378174
0.43240690231323242 -0.08944326639175415 0.71213424205780029
0.34684267640113831 -0.16460290551185608 0.74346697330474854
0.35992002487182617 -0.14771515130996704 0.73865318298339844
0.31739512085914612 -0.1534736156463623 0.74540698528289795
0.33250442147254944 -0.18232241272926331 0.74754500389099121
0.3822915256023407 -0.17884156107902527 0.74202179908752441
0.39419031143188477 -0.16144669055938721 0.7368396520614624
0.33224150538444519 -0.13692793250083923 0.74076998233795166
0.29999500513076782 -0.17024266719818115 0.7493366003036499
0.3695732057094574 -0.19743689894676208 0.7464526891708374
0.56396108865737915 -0.16117042303085327 0.6989288330078125
0.57683092355728149 -0.14083024859428406 0.68822026252746582
0.51357227563858032 -0.14266224205493927 0.70768952369689941
0.55174428224563599 -0.1811540424823761 0.7079930305480957
0.61198550462722778 -0.1788351833820343 0.69006180763244629
0.62562710046768188 -0.15762883424758911 0.6781991720199585
0.52532786130905151 -0.12308377772569656 0.69816708564758301
0.50240582227706909 -0.1616399884223938 0.71561849117279053
0.59906059503555298 -0.19995978474617004 0.7002028226852417
0.51702839136123657 -0.24177277088165283 0.73212015628814697
0.46947792172431946 -0.21841087937355042 0.73653554916381836
0.50513511896133423 -0.26396277546882629 0.73890280723571777
0.56220906972885132 -0.26430371403694153 0.72744810581207275
0.52853697538375854 -0.22100973129272461 0.72440886497497559
0.48065456748008728 -0.19900417327880859 0.72985386848449707
0.45770096778869629 -0.23925754427909851 0.74237561225891113
0.54987806081771851 -0.28769436478614807 0.73515498638153076
0.5743897557258606 -0.24232244491577148 0.71872091293334961
0.70455235242843628 -0.21547222137451172 0.67380869388580322
0.71881437301635742 -0.22265326976776123 0.67161297798156738
0.71734350919723511 -0.1926429271697998 0.65990662574768066
0.68341052532196045 -0.20627832412719727 0.67718076705932617
0.69305217266082764 -0.23876309394836426 0.68541908264160156
0.70837002992630005 -0.2459678053855896 0.68306982517242432
0.7310444712638855 -0.2000129222869873 0.65774834156036377
0.69689387083053589 -0.18369355797767639 0.66363179683685303
0.67091476917266846 -0.22918236255645752 0.68865346908569336
0.65160626173019409 -0.30635362863540649 0.71732044219970703
0.63691419363021851 -0.33069443702697754 0.72657060623168945
0.66668468713760376 -0.31212902069091797 0.71501541137695312
0.66678208112716675 -0.28385785222053528 0.70689594745635986
0.63043016195297241 -0.29722404479980469 0.71991288661956787
0.61647748947143555 -0.32173359394073486 0.72887527942657471
0.6518206000328064 -0.33598649501800537 0.72444272041320801
0.68251097202301025 -0.29035350680351257 0.70445370674133301
0.64461445808410645 -0.27433100342750549 0.70979082584381104
0.30208122730255127 0.014112494885921478 0.73957324028015137
0.29149040579795837 0.026449047029018402 0.74102973937988281
0.30033943057060242 0.016265459358692169 0.74939405918121338
0.30993077158927917 -0.00097332149744033813 0.73864579200744629
0.30506113171577454 0.012853942811489105 0.72919595241546631
0.29308369755744934 0.025365017354488373 0.7308051586151123
0.2906612753868103 0.028323940932750702 0.75096964836120605
0.30693545937538147 0.0016440525650978088 0.74827897548675537
0.3152749240398407 -0.0029798373579978943 0.72823822498321533
0.1948818564414978 -0.17027121782302856 0.78147232532501221
0.19356852769851685 -0.16738417744636536 0.79090023040771484
0.17678365111351013 -0.17085790634155273 0.78456532955169678
0.196064293384552 -0.1746198832988739 0.77216708660125732
0.21378734707832336 -0.16633263230323792 0.77723193168640137
0.21123883128166199 -0.16294893622398376 0.78636229038238525
0.17629531025886536 -0.16839772462844849 0.79422080516815186
0.17697122693061829 -0.17435690760612488 0.77512216567993164
0.21714955568313599 -0.17174273729324341 0.76818966865539551
0.23948296904563904 0.046357549726963043 0.74440240859985352
0.21866102516651154 0.045945487916469574 0.74534213542938232
0.23961111903190613 0.048070274293422699 0.75343644618988037
0.25966623425483704 0.042861782014369965 0.74355471134185791
0.23944643139839172 0.045211933553218842 0.73669242858886719
0.21804673969745636 0.044694311916828156 0.73871397972106934
0.21895700693130493 0.047927819192409515 0.75383055210113525
0.25967493653297424 0.044512368738651276 0.75309336185455322
0.26003709435462952 0.041717164218425751 0.73470664024353027
0.12474173307418823 -0.15104870498180389 0.78318107128143311
0.12469688057899475 -0.1496347188949585 0.79218375682830811
0.1116064041852951 -0.1382489800453186 0.77996444702148438
0.12448415160179138 -0.15257138013839722 0.77563142776489258
0.14110752940177917 -0.16109567880630493 0.7853858470916748
0.14119312167167664 -0.15931521356105804 0.79480838775634766
0.11126494407653809 -0.13736370205879211 0.7885591983795166
0.11130933463573456 -0.13895371556282043 0.77330219745635986
0.14087632298469543 -0.16327661275863647 0.7768712043762207
0.16815179586410522 0.017596341669559479 0.75107204914093018
0.15904052555561066 0.0020460113883018494 0.75396692752838135
0.17067250609397888 0.022226430475711823 0.75873947143554688
0.18172153830528259 0.031099908053874969 0.74859511852264404
0.16310116648674011 0.01393706351518631 0.74521458148956299
0.15221987664699554 -0.0046071335673332214 0.74788248538970947
0.16250458359718323 0.008252166211605072 0.76163399219512939
0.18324017524719238 0.034504584968090057 0.75636565685272217
0.17853470146656036 0.028938673436641693 0.7428966760635376
0.10590873658657074 -0.089511469006538391 0.76945042610168457
0.10427354276180267 -0.092032656073570251 0.7782670259475708
0.11492553353309631 -0.073867388069629669 0.76681768894195557
0.1052936464548111 -0.085538022220134735 0.76233351230621338
0.10177670419216156 -0.10646425187587738 0.77269434928894043
0.10067984461784363 -0.10756129771471024 0.78115320205688477
0.1124277263879776 -0.077920891344547272 0.77617359161376953
0.11593806743621826 -0.067041009664535522 0.75848722457885742
0.10094438493251801 -0.10457400232553482 0.76634037494659424
0.16504077613353729 -0.034876413643360138 0.76360750198364258
0.1696268767118454 -0.042156316339969635 0.7663193941116333
0.16703522205352783 -0.029958777129650116 0.7715752124786377
0.15897086262702942 -0.025281094014644623 0.76045048236846924
0.16223663091659546 -0.039993099868297577 0.75812578201293945
0.16639965772628784 -0.044115208089351654 0.76190555095672607
0.1713004857301712 -0.039269514381885529 0.77422523498535156
0.16198238730430603 -0.018741138279438019 0.76833105087280273
0.15395481884479523 -0.033139877021312714 0.75440943241119385
0.15469273924827576 -0.05268559604883194 0.76654684543609619
0.15259265899658203 -0.054811812937259674 0.77568995952606201
0.16487510502338409 -0.050333000719547272 0.76766109466552734
0.15684625506401062 -0.049269653856754303 0.75965523719787598
0.14133259654045105 -0.055632881820201874 0.76550114154815674
0.13832360506057739 -0.059454672038555145 0.77511036396026611
0.16447892785072327 -0.051009409129619598 0.77616024017333984
0.16396340727806091 -0.048308484256267548 0.76259195804595947
0.14457634091377258 -0.04927990585565567 0.75709450244903564
0.31706684827804565 -0.059728913009166718 0.74432587623596191
0.32458990812301636 -0.064738117158412933 0.73642027378082275
0.31763944029808044 -0.03860967606306076 0.74097883701324463
0.31275764107704163 -0.055925719439983368 0.75276076793670654
0.31288740038871765 -0.080730535089969635 0.74837589263916016
0.32018393278121948 -0.085672050714492798 0.7408454418182373
0.32547804713249207 -0.042845942080020905 0.73200905323028564
0.31326958537101746 -0.035039357841014862 0.74983477592468262
0.30866682529449463 -0.077020421624183655 0.7566525936126709
0.27353489398956299 -0.13459351658821106 0.76260983943939209
0.25390496850013733 -0.14822185039520264 0.76751589775085449
0.28141805529594421 -0.13897973299026489 0.75493896007537842
0.29080891609191895 -0.11870071291923523 0.75769567489624023
0.26894557476043701 -0.13127490878105164 0.77093017101287842
0.24952691793441772 -0.14466744661331177 0.77604150772094727
0.26112446188926697 -0.15351589024066925 0.75939583778381348
0.29851731657981873 -0.12293101102113724 0.7501823902130127
0.28636503219604492 -0.11537449806928635 0.76594781875610352
0.29856505990028381 -0.047980837523937225 0.77564775943756104
0.30458870530128479 -0.050445564091205597 0.76868569850921631
0.29967194795608521 -0.028745345771312714 0.77312517166137695
0.29142975807189941 -0.045142345130443573 0.78208029270172119
0.2944483757019043 -0.067880652844905853 0.77918863296508789
0.30060243606567383 -0.071054160594940186 0.77235174179077148
0.30528786778450012 -0.030159614980220795 0.76606893539428711
0.29351532459259033 -0.027784876525402069 0.7794259786605835
0.28675234317779541 -0.064099602401256561 0.78560054302215576
0.25679996609687805 -0.11981339007616043 0.79246008396148682
0.23927375674247742 -0.13262578845024109 0.7972947359085083
0.26171043515205383 -0.12419154495000839 0.786141037940979
0.27311575412750244 -0.10456996411085129 0.78780448436737061
0.25065475702285767 -0.11527283489704132 0.79828560352325439
0.23547470569610596 -0.12761473655700684 0.80240631103515625
0.24295252561569214 -0.13737060129642487 0.79126203060150146
0.27876648306846619 -0.10860885679721832 0.78127765655517578
0.26574063301086426 -0.10023766756057739 0.7939685583114624
0.17824839055538177 -0.02169337123632431 0.79584264755249023
0.1812451183795929 -0.034042023122310638 0.79949080944061279
0.18537846207618713 -0.019387401640415192 0.80142652988433838
0.17413903772830963 -0.0090497657656669617 0.7918168306350708
0.17297367751598358 -0.023534275591373444 0.78870415687561035
0.17602729797363281 -0.034925945103168488 0.79199087619781494
0.18923746049404144 -0.033374898135662079 0.80576217174530029
0.18091331422328949 -0.0072509273886680603 0.7971189022064209
0.1687254011631012 -0.010934464633464813 0.78488266468048096
0.15593597292900085 -0.060089282691478729 0.80244827270507812
0.15935467183589935 -0.06416647881269455 0.80937576293945312
0.17007768154144287 -0.053259007632732391 0.80280029773712158
0.15308645367622375 -0.057755626738071442 0.79446685314178467
0.14072424173355103 -0.066548101603984833 0.80168890953063965
0.14431917667388916 -0.070219576358795166 0.80819046497344971
0.17573677003383636 -0.056605048477649689 0.80990755558013916
0.16628521680831909 -0.051690705120563507 0.79480910301208496
0.13788865506649017 -0.063998907804489136 0.79384148120880127
0.18088281154632568 0.027146197855472565 0.7824939489364624
0.17424529790878296 0.015931330621242523 0.78490877151489258
0.18722259998321533 0.024715416133403778 0.78895914554595947
0.19124847650527954 0.036417163908481598 0.78063511848449707
0.17603245377540588 0.027711115777492523 0.77512788772583008
0.16891780495643616 0.015488766133785248 0.77778434753417969
0.18096908926963806 0.014749102294445038 0.79089784622192383
0.19633933901786804 0.033036418259143829 0.78699839115142822
0.18730054795742035 0.037938021123409271 0.77317714691162109
0.10977666079998016 -0.09520963579416275 0.80377602577209473
0.11720937490463257 -0.095757536590099335 0.81030058860778809
0.11627669632434845 -0.083819754421710968 0.80209505558013916
0.10498473048210144 -0.094547033309936523 0.796134352684021
0.10767950117588043 -0.10738064348697662 0.80608212947845459
0.11517508327960968 -0.10662021487951279 0.81211137771606445
0.12271541357040405 -0.085489325225353241 0.80848860740661621
0.11215291917324066 -0.082193374633789062 0.79439544677734375
0.1025560200214386 -0.10788571089506149 0.79870963096618652
0.24045237898826599 0.044840715825557709 0.78003513813018799
0.22207933664321899 0.045502312481403351 0.77961194515228271
0.23898383975028992 0.039250679314136505 0.78735530376434326
0.25837022066116333 0.041282765567302704 0.7801896333694458
0.24047949910163879 0.048050113022327423 0.77180981636047363
0.22072410583496094 0.048404611647129059 0.77172362804412842
0.22288462519645691 0.040535546839237213 0.78633356094360352
0.25529012084007263 0.035388745367527008 0.78780853748321533
0.25958824157714844 0.044514156877994537 0.77178025245666504
0.13253092765808105 -0.14082980155944824 0.81656467914581299
0.13794942200183868 -0.13457199931144714 0.82166743278503418
0.11956663429737091 -0.13087478280067444 0.81290555000305176
0.12823525071144104 -0.14505906403064728 0.80968308448791504
0.14785860478878021 -0.14883428812026978 0.81912851333618164
0.15256692469120026 -0.14132821559906006 0.82403826713562012
0.1257980614900589 -0.12650468945503235 0.81809568405151367
0.11473563313484192 -0.13395507633686066 0.80595409870147705
0.14425475895404816 -0.15389534831047058 0.81236958503723145
0.29183954000473022 0.016545407474040985 0.77525484561920166
0.28464636206626892 0.02696547657251358 0.7776637077331543
0.28669878840446472 0.011771820485591888 0.78244602680206299
0.29625236988067627 0.0039066597819328308 0.7731163501739502
0.29581934213638306 0.018427632749080658 0.76728999614715576
0.28783953189849854 0.029532648622989655 0.769400954246521
0.27981427311897278 0.021383948624134064 0.7851874828338623
0.29111817479133606 0.00065004080533981323 0.77980124950408936
0.30082511901855469 0.0048214420676231384 0.76554250717163086
0.19240358471870422 -0.15449285507202148 0.8134305477142334
0.19470545649528503 -0.14646303653717041 0.81761884689331055
0.17832639813423157 -0.15591877698898315 0.81757879257202148
0.19185718894004822 -0.16039176285266876 0.80737566947937012
0.2067144513130188 -0.15009896457195282 0.80811631679534912
0.20753839612007141 -0.14311021566390991 0.81227374076843262
0.18162298202514648 -0.14751940965652466 0.82196331024169922
0.17659899592399597 -0.16181448101997375 0.81126368045806885
0.20750381052494049 -0.15568888187408447 0.80225288867950439
0.21639172732830048 0.0080066844820976257 0.80258548259735107
0.22822391986846924 -0.00056252628564834595 0.80479776859283447
0.22680595517158508 0.020269922912120819 0.79879677295684814
0.20519173145294189 0.015058018267154694 0.79909861087799072
0.2051256000995636 -0.0043883547186851501 0.80480170249938965
0.21396699547767639 -0.016396291553974152 0.80836951732635498
0.2402973473072052 0.014094077050685883 0.80017733573913574
0.21418605744838715 0.024886898696422577 0.79612863063812256
0.19666308164596558 0.0048709586262702942 0.80069518089294434
0.15451419353485107 -0.098450303077697754 0.82329475879669189
0.14939232170581818 -0.11291602998971939 0.82499897480010986
0.17085596919059753 -0.099255681037902832 0.82476377487182617
0.15895603597164154 -0.083823978900909424 0.8199465274810791
0.13982515037059784 -0.097409673035144806 0.82018923759460449
0.13616225123405457 -0.10935478657484055 0.82162654399871826
0.16447184979915619 -0.11635050922632217 0.826804518699646
0.17672261595726013 -0.080470673739910126 0.82107865810394287
0.14394462108612061 -0.085837006568908691 0.81743264198303223
0.26391622424125671 -0.026957429945468903 0.79891932010650635
0.25347059965133667 -0.046122856438159943 0.80344796180725098
0.2741367518901825 -0.034697301685810089 0.79385280609130859
0.27282923460006714 -0.01012081652879715 0.79414641857147217
0.25245541334152222 -0.018583260476589203 0.80291378498077393
0.23870566487312317 -0.03815547376871109 0.80784416198730469
0.26634955406188965 -0.053272046148777008 0.79791021347045898
0.28032130002975464 -0.018614597618579865 0.7899169921875
0.2638881504535675 -0.0015176311135292053 0.79769861698150635
0.21842217445373535 -0.10521178692579269 0.8161853551864624
0.23156824707984924 -0.10791740566492081 0.81028294563293457
0.23006609082221985 -0.086381174623966217 0.81232357025146484
0.20363426208496094 -0.10256265848875046 0.82105827331542969
0.20787885785102844 -0.12184028327465057 0.81883335113525391
0.22005210816860199 -0.12227964401245117 0.81317710876464844
0.24434816837310791 -0.091116346418857574 0.80640208721160889
0.21353107690811157 -0.081460975110530853 0.81718671321868896
0.19448333978652954 -0.12090592086315155 0.8235621452331543
0.11611621081829071 0.031960032880306244 0.74605965614318848
0.13718980550765991 0.01990111917257309 0.74313807487487793
0.14734464883804321 0.046996794641017914 0.74696230888366699
0.092087417840957642 0.049859561026096344 0.74907457828521729
0.088694348931312561 0.012456081807613373 0.74470794200897217
0.11772036552429199 -0.00069191306829452515 0.74371647834777832
0.16112679243087769 0.035449035465717316 0.74265873432159424
0.13277234137058258 0.065541215240955353 0.75101995468139648
0.05361383780837059 0.030314065515995026 0.74542593955993652
0.058660637587308884 -0.066918626427650452 0.76183032989501953
0.064549744129180908 -0.095482446253299713 0.77043509483337402
0.082953169941902161 -0.07343011349439621 0.75886929035186768
0.059288840740919113 -0.0381503626704216 0.75262844562530518
0.026982661336660385 -0.062196426093578339 0.76510500907897949
0.038329299539327621 -0.096999861299991608 0.77564883232116699
0.083632707595825195 -0.097901128232479095 0.76563441753387451
0.08983062207698822 -0.048687033355236053 0.75170588493347168
0.020419415086507797 -0.026822097599506378 0.75332450866699219
0.24006038904190063 0.056180723011493683 0.72580969333648682
0.23930653929710388 0.049780033528804779 0.72890341281890869
0.26655533909797668 0.051288075745105743 0.71446037292480469
0.24261763691902161 0.064525537192821503 0.71800684928894043
0.21092745661735535 0.058606572449207306 0.73681056499481201
0.21373209357261658 0.050061695277690887 0.73570752143859863
0.26316210627555847 0.045760981738567352 0.72153830528259277
0.27160418033599854 0.057996205985546112 0.70255625247955322
0.20959764719009399 0.071737907826900482 0.73473930358886719
0.11226479709148407 -0.16368412971496582 0.76888632774353027
0.13228455185890198 -0.17969515919685364 0.76244628429412842
0.11852608621120453 -0.15801405906677246 0.76975584030151367
0.092834368348121643 -0.1445867121219635 0.7741166353225708
0.10457852482795715 -0.1729637086391449 0.764382004737854
0.12708356976509094 -0.19061878323554993 0.75452876091003418
0.13663865625858307 -0.17189472913742065 0.76657581329345703
0.10272949934005737 -0.14092591404914856 0.77137064933776855
0.079074010252952576 -0.15285423398017883 0.77483010292053223
0.32755213975906372 0.028297446668148041 0.69317710399627686
0.31796169281005859 0.019853182137012482 0.70683836936950684
0.34620112180709839 0.018440254032611847 0.69007241725921631
0.33772373199462891 0.038007892668247223 0.67560338973999023
0.30949386954307556 0.037014327943325043 0.69770216941833496
0.30201700329780579 0.030477069318294525 0.71008980274200439
0.3340761661529541 0.0067775771021842957 0.70468354225158691
0.35801428556442261 0.030511774122714996 0.67175531387329102
0.31800663471221924 0.045027054846286774 0.68122982978820801
0.18977728486061096 -0.20865565538406372 0.74972248077392578
0.21038377285003662 -0.21512326598167419 0.74842679500579834
0.19387164711952209 -0.19356751441955566 0.75707864761352539
0.17078389227390289 -0.20156490802764893 0.75225353240966797
0.18410865962505341 -0.22618082165718079 0.73934507369995117
0.20341172814369202 -0.23535093665122986 0.73891687393188477
0.21599280834197998 -0.19629538059234619 0.75463509559631348
0.17426252365112305 -0.18926399946212769 0.7597804069519043
0.16583910584449768 -0.21669352054595947 0.74168241024017334
0.42920729517936707 -0.014869116246700287 0.6794896125793457
0.415872722864151 -0.034466393291950226 0.69507241249084473
0.468425452709198 -0.027830861508846283 0.67326271533966064
0.44234615564346313 0.0038524046540260315 0.65955591201782227
0.39573895931243896 -0.0031231120228767395 0.68401134014129639
0.38178235292434692 -0.020833052694797516 0.69936120510101318
0.4551299512386322 -0.048743762075901031 0.68963944911956787
0.48152884840965271 -0.0076871141791343689 0.65251922607421875
0.40900811553001404 0.01372925192117691 0.66466033458709717
0.29287314414978027 -0.24922916293144226 0.7494044303894043
0.32895737886428833 -0.26753246784210205 0.75024783611297607
0.30529823899269104 -0.22454756498336792 0.75139260292053223
0.26122632622718811 -0.2343895435333252 0.748573899269104
0.28007045388221741 -0.27509742975234985 0.74316644668579102
0.3145427405834198 -0.29468271136283875 0.74487435817718506
0.34283632040023804 -0.24174261093139648 0.75142693519592285
0.2714192271232605 -0.21058365702629089 0.75175678730010986
0.25044134259223938 -0.25888603925704956 0.74133634567260742
0.46928825974464417 0.04767049103975296 0.56746780872344971
0.46999397873878479 0.055345050990581512 0.53047013282775879
0.43605718016624451 0.053458847105503082 0.57329976558685303
0.46358677744865417 0.035921014845371246 0.6028597354888916
0.50809001922607422 0.0394853875041008 0.55982828140258789
0.50786411762237549 0.04773799329996109 0.5230480432510376
0.43754836916923523 0.060506381094455719 0.53626537322998047
0.43010884523391724 0.042728088796138763 0.60871100425720215
0.50271338224411011 0.026869870722293854 0.59508895874023438
0.23697382211685181 -0.35167491436004639 0.68729376792907715
0.21203088760375977 -0.33169355988502502 0.68222856521606445
0.22213578224182129 -0.37072575092315674 0.65759956836700439
0.26717907190322876 -0.37456786632537842 0.69257497787475586
0.25198414921760559 -0.32781815528869629 0.71223700046539307
0.22564972937107086 -0.30878305435180664 0.70821964740753174
0.19859182834625244 -0.35031932592391968 0.65195763111114502
0.25088691711425781 -0.3939368724822998 0.66366016864776611
0.28350943326950073 -0.34987363219261169 0.71628856658935547
0.3624725341796875 0.065477229654788971 0.58642065525054932
0.36580827832221985 0.071115069091320038 0.54988384246826172
0.34213075041770935 0.069113560020923615 0.59229648113250732
0.35609018802642822 0.057499535381793976 0.6215893030166626
0.38379600644111633 0.061779044568538666 0.58196890354156494
0.38648173213005066 0.067802645266056061 0.54532968997955322
0.34645333886146545 0.074333995580673218 0.55538272857666016
0.33522838354110718 0.061934687197208405 0.62784731388092041
0.37760952115058899 0.052977435290813446 0.61714303493499756
0.15761354565620422 -0.28683188557624817 0.67277050018310547
0.14261287450790405 -0.27403676509857178 0.67308628559112549
0.14754268527030945 -0.30424880981445312 0.64181172847747803
0.17345523834228516 -0.29992538690567017 0.67450690269470215
0.16764387488365173 -0.26658529043197632 0.70083737373352051
0.1514037549495697 -0.25422674417495728 0.7019888162612915
0.13375556468963623 -0.29148298501968384 0.64157962799072266
0.16234266757965088 -0.31762859225273132 0.64374303817749023
0.18459920585155487 -0.27892613410949707 0.70195996761322021
0.27479168772697449 0.084436647593975067 0.6244271993637085
0.25509867072105408 0.098482690751552582 0.63370382785797119
0.26099979877471924 0.079561315476894379 0.66648495197296143
0.29772591590881348 0.076940350234508514 0.61235511302947998
0.28632140159606934 0.087622091174125671 0.58098447322845459
0.27110451459884644 0.10108558088541031 0.58664453029632568
0.23346036672592163 0.093432061374187469 0.68206644058227539
0.28798571228981018 0.071493156254291534 0.65077996253967285
0.305940181016922 0.080882415175437927 0.571999192237854
0.091309681534767151 -0.23121374845504761 0.68877029418945312
0.093757390975952148 -0.20815896987915039 0.72398436069488525
0.067467868328094482 -0.22434306144714355 0.6949918270111084
0.088811323046684265 -0.25215384364128113 0.65127742290496826
0.11076793074607849 -0.24465855956077576 0.68178868293762207
0.11607451736927032 -0.22422844171524048 0.71392571926116943
0.065703496336936951 -0.19521418213844299 0.73486554622650146
0.068112954497337341 -0.24815410375595093 0.65469396114349365
0.10561674833297729 -0.26370194554328918 0.64696168899536133
0.73764663934707642 -0.23948225378990173 0.66623926162719727
0.7340354323387146 -0.23425352573394775 0.66861152648925781
0.73001450300216675 -0.26032266020774841 0.67525637149810791
0.73968046903610229 -0.24431556463241577 0.66190648078918457
0.74569284915924072 -0.22170358896255493 0.6573173999786377
0.74368220567703247 -0.21449938416481018 0.65760064125061035
0.72566080093383789 -0.25617328286170959 0.67860555648803711
0.73231112957000732 -0.26439100503921509 0.6703258752822876
0.74710041284561157 -0.22750815749168396 0.65401351451873779
0.69157510995864868 -0.31855261325836182 0.70541656017303467
0.70637381076812744 -0.3008958101272583 0.69527077674865723
0.6856885552406311 -0.31723153591156006 0.70950090885162354
0.67960864305496216 -0.33511781692504883 0.71395492553710938
0.69528573751449585 -0.32050544023513794 0.69987165927886963
0.70940291881561279 -0.30370739102363586 0.68984711170196533
0.70122700929641724 -0.29810857772827148 0.6991429328918457
0.67245930433273315 -0.33673390746116638 0.71847128868103027
0.68406307697296143 -0.33568978309631348 0.70827221870422363
0.78988736867904663 -0.21367490291595459 0.63145720958709717
0.79657012224197388 -0.20772877335548401 0.62546837329864502
0.7719997763633728 -0.20833867788314819 0.63964390754699707
0.78633183240890503 -0.21887701749801636 0.63146686553955078
0.80744361877441406 -0.22392058372497559 0.6244887113571167
0.81571286916732788 -0.21903848648071289 0.61775970458984375
0.7756994366645813 -0.20070603489875793 0.6352543830871582
0.7704131007194519 -0.21434864401817322 0.63870775699615479
0.80235075950622559 -0.22843596339225769 0.62509834766387939
0.69488340616226196 -0.37668600678443909 0.71722447872161865
0.68094342947006226 -0.36459088325500488 0.72013020515441895
0.69258254766464233 -0.38614660501480103 0.72011864185333252
0.71293610334396362 -0.38606441020965576 0.71162545680999756
0.69652897119522095 -0.37296479940414429 0.71230721473693848
0.68431216478347778 -0.36209684610366821 0.71479439735412598
0.67575007677078247 -0.37221479415893555 0.7239915132522583
0.71234983205795288 -0.39636802673339844 0.71400797367095947
0.71313124895095825 -0.38151127099990845 0.70698058605194092
0.83992373943328857 -0.26740825176239014 0.61446011066436768
0.84893423318862915 -0.26394996047019958 0.60827529430389404
0.83321046829223633 -0.25199234485626221 0.61586511135101318
0.83299797773361206 -0.27057254314422607 0.61517953872680664
0.84331196546554565 -0.28291398286819458 0.61477279663085938
0.85191255807876587 -0.27988645434379578 0.60923600196838379
0.84236139059066772 -0.24818024039268494 0.60920917987823486
0.82646667957305908 -0.25552663207054138 0.61677384376525879
0.836497962474823 -0.28567984700202942 0.61518204212188721
0.76643168926239014 -0.39347028732299805 0.68555796146392822
0.75016355514526367 -0.39445078372955322 0.69517242908477783
0.7677302360534668 -0.4032323956489563 0.68769180774688721
0.7809978723526001 -0.38979583978652954 0.67572832107543945
0.76421904563903809 -0.38855156302452087 0.68126118183135986
0.74845939874649048 -0.38934314250946045 0.69078505039215088
0.75110149383544922 -0.40471965074539185 0.69730985164642334
0.78258293867111206 -0.39879590272903442 0.67777681350708008
0.77842879295349121 -0.38528215885162354 0.67158949375152588
0.83916175365447998 -0.32450830936431885 0.624320387840271
0.84574872255325317 -0.32443982362747192 0.62103354930877686
0.84246975183486938 -0.31170600652694702 0.61989438533782959
0.83351951837539673 -0.32523125410079956 0.62372708320617676
0.83437204360961914 -0.33643394708633423 0.62969720363616943
0.84015333652496338 -0.33780783414840698 0.62722444534301758
0.84980535507202148 -0.31035226583480835 0.61583900451660156
0.8363615870475769 -0.3132593035697937 0.61962902545928955
0.82923251390457153 -0.33626270294189453 0.62872481346130371
0.81382280588150024 -0.3679654598236084 0.64964842796325684
0.80460852384567261 -0.37663984298706055 0.65754878520965576
0.81706935167312622 -0.37362349033355713 0.64996993541717529
0.82167267799377441 -0.35821306705474854 0.64242851734161377
0.81014996767044067 -0.36531224846839905 0.64693307876586914
0.8013579249382019 -0.37329524755477905 0.65420997142791748
0.80712538957595825 -0.38354900479316711 0.65870118141174316
0.82574659585952759 -0.36251527070999146 0.64180147647857666
0.81753736734390259 -0.35631990432739258 0.6403735876083374
0.81540805101394653 -0.33071607351303101 0.60436558723449707
0.82224798202514648 -0.32901948690414429 0.61260032653808594
0.81787031888961792 -0.31973445415496826 0.60017752647399902
0.80709546804428101 -0.33032715320587158 0.59684514999389648
0.81159645318984985 -0.34087976813316345 0.60921180248260498
0.81841397285461426 -0.33921021223068237 0.61741232872009277
0.82469648122787476 -0.31790977716445923 0.6085362434387207
0.80973559617996216 -0.31921535730361938 0.59243977069854736
0.80314773321151733 -0.34085178375244141 0.60184347629547119
0.79372566938400269 -0.36790591478347778 0.62554085254669189
0.78538376092910767 -0.37545731663703918 0.63176274299621582
0.80057770013809204 -0.36618831753730774 0.63392329216003418
0.80074816942214966 -0.35948729515075684 0.61983489990234375
0.78454512357711792 -0.36900824308395386 0.61859035491943359
0.77613157033920288 -0.3768581748008728 0.62473750114440918
0.79217702150344849 -0.37368810176849365 0.64037430286407471
0.80758130550384521 -0.35778939723968506 0.62810337543487549
0.79182833433151245 -0.36026859283447266 0.61278080940246582
0.81502455472946167 -0.2808874249458313 0.59419083595275879
0.82118219137191772 -0.27764549851417542 0.60354959964752197
0.80979961156845093 -0.2672974169254303 0.59526395797729492
0.80841416120529175 -0.2825007438659668 0.58535254001617432
0.81792289018630981 -0.29458838701248169 0.59482836723327637
0.8244510293006897 -0.29197585582733154 0.60382521152496338
0.81537914276123047 -0.26338225603103638 0.60476469993591309
0.80415481328964233 -0.27012494206428528 0.58685362339019775
