# XYZ point cloud file
-0.60214591026306152 -0.58733987808227539 -0.074733182787895203
0.31547799706459045 0.47609901428222656 0.071275018155574799
0.30981901288032532 0.46575045585632324 0.066960901021957397
0.30517804622650146 0.45665836334228516 0.062107086181640625
0.29403010010719299 0.424700528383255 0.055341973900794983
0.28363239765167236 0.39670926332473755 0.053776338696479797
0.27121555805206299 0.36698770523071289 0.053058862686157227
-0.60991376638412476 -0.5825650691986084 -0.10771648585796356
-0.61429792642593384 -0.57348072528839111 -0.12595058977603912
-0.61559617519378662 -0.56068599224090576 -0.142786905169487
-0.61310058832168579 -0.54101693630218506 -0.15620250999927521
-0.61344480514526367 -0.5378803014755249 -0.15591658651828766
-0.61517333984375 -0.53614592552185059 -0.1570480614900589
0.31421098113059998 0.5306972861289978 0.0785512775182724
0.30862870812416077 0.51674902439117432 0.07380145788192749
0.30380171537399292 0.5041574239730835 0.068343415856361389
0.30524271726608276 0.49167048931121826 0.060785338282585144
0.30731052160263062 0.48327529430389404 0.059448942542076111
0.30616730451583862 0.46901696920394897 0.058334812521934509
-0.6097225546836853 -0.52781999111175537 -0.17043150961399078
-0.60291850566864014 -0.50931096076965332 -0.1798909455537796
-0.59376180171966553 -0.49021348357200623 -0.18525354564189911
-0.58051484823226929 -0.46357470750808716 -0.18553625047206879
-0.57932215929031372 -0.45592302083969116 -0.18716321885585785
-0.57903563976287842 -0.44883763790130615 -0.19063137471675873
0.26879841089248657 0.48534470796585083 0.095675759017467499
0.2653580904006958 0.47374933958053589 0.090526305139064789
0.26212498545646667 0.46285915374755859 0.084447935223579407
0.27024433016777039 0.46705746650695801 0.073423944413661957
0.281391441822052 0.47955065965652466 0.069185256958007812
0.29169195890426636 0.48908287286758423 0.065556518733501434
-0.56907206773757935 -0.45264631509780884 -0.18012429773807526
-0.55466121435165405 -0.43527325987815857 -0.17026422917842865
-0.54014420509338379 -0.41950836777687073 -0.15757103264331818
-0.52313870191574097 -0.39655530452728271 -0.14148743450641632
-0.51998507976531982 -0.3865947425365448 -0.14071948826313019
-0.51727080345153809 -0.37671971321105957 -0.14158816635608673
0.23070999979972839 0.42629435658454895 0.1127362847328186
0.22956582903862 0.41856762766838074 0.10805396735668182
0.22811377048492432 0.41083016991615295 0.10238541662693024
0.23384237289428711 0.41627106070518494 0.092513471841812134
0.24152418971061707 0.42849934101104736 0.087987124919891357
0.24992036819458008 0.44077861309051514 0.083074159920215607
-0.51460647583007812 -0.39480665326118469 -0.12977792322635651
-0.5043182373046875 -0.38614535331726074 -0.11640436947345734
-0.49539023637771606 -0.37964600324630737 -0.10365010797977448
-0.48352420330047607 -0.36576655507087708 -0.088312819600105286
-0.47915211319923401 -0.35546553134918213 -0.085770949721336365
-0.47478547692298889 -0.34489583969116211 -0.084452226758003235
0.14712616801261902 0.21177023649215698 0.19667123258113861
0.14865639805793762 0.20938566327095032 0.21103990077972412
0.14837068319320679 0.20405673980712891 0.22856301069259644
0.088447950780391693 0.092313602566719055 0.16142792999744415
0.10138284415006638 0.11442811787128448 0.16239102184772491
0.11086837202310562 0.13273820281028748 0.15840010344982147
0.11801817268133163 0.15244469046592712 0.15971541404724121
0.12318123131990433 0.16393202543258667 0.16945435106754303
0.13205978274345398 0.18333888053894043 0.17780828475952148
-0.38790467381477356 -0.37171262502670288 0.11613151431083679
-0.38873898983001709 -0.38162508606910706 0.11442654579877853
-0.39310252666473389 -0.39179658889770508 0.10768190026283264
-0.39240366220474243 -0.40205878019332886 0.11398682743310928
-0.38352102041244507 -0.40007340908050537 0.12447187304496765
-0.37480854988098145 -0.39850506186485291 0.12968334555625916
-0.36717343330383301 -0.34612932801246643 0.16833056509494781
-0.37848538160324097 -0.35386902093887329 0.14511358737945557
-0.38566642999649048 -0.35808196663856506 0.12652678787708282
0.081178493797779083 0.075353249907493591 0.14638997614383698
0.094555266201496124 0.087570816278457642 0.14680784940719604
0.10904905945062637 0.10084007680416107 0.14694231748580933
0.139375239610672 0.15709942579269409 0.15306492149829865
0.12955838441848755 0.14965178072452545 0.15238697826862335
0.12201475352048874 0.14602804183959961 0.15040472149848938
-0.40929806232452393 -0.41877713799476624 0.1021905317902565
-0.41787749528884888 -0.43181562423706055 0.10570710897445679
-0.42920002341270447 -0.44651877880096436 0.10648093372583389
-0.41338273882865906 -0.45141500234603882 0.11904512345790863
-0.39721101522445679 -0.43244665861129761 0.11943027377128601
-0.38266986608505249 -0.4153587818145752 0.11921060830354691
0.15947958827018738 0.24970626831054688 0.18758571147918701
0.17617681622505188 0.29441869258880615 0.18915171921253204
0.19290080666542053 0.34255388379096985 0.18961851298809052
-0.40969625115394592 -0.3108707070350647 0.054356083273887634
-0.40281793475151062 -0.33049339056015015 0.07750760018825531
-0.39584887027740479 -0.34699195623397827 0.097261786460876465
0.21370622515678406 0.42088279128074646 0.10406209528446198
0.2047123908996582 0.40461695194244385 0.10626375675201416
0.19850441813468933 0.39471712708473206 0.11026894301176071
0.19902050495147705 0.38982605934143066 0.12503130733966827
0.19925853610038757 0.38276258111000061 0.1256878674030304
0.19866403937339783 0.37561848759651184 0.12397070974111557
0.20534488558769226 0.38426369428634644 0.11974173039197922
0.21354866027832031 0.40048226714134216 0.11889598518610001
0.22229689359664917 0.41699159145355225 0.11774495244026184
-0.46272492408752441 -0.33168336749076843 -0.072871819138526917
-0.45567002892494202 -0.33009108901023865 -0.062115594744682312
-0.44952672719955444 -0.32980433106422424 -0.052101507782936096
-0.4403546154499054 -0.32091468572616577 -0.042149975895881653
-0.43698641657829285 -0.31139415502548218 -0.043771997094154358
-0.43374866247177124 -0.30129063129425049 -0.048218682408332825
-0.43799477815628052 -0.30131760239601135 -0.069300130009651184
-0.4451865553855896 -0.30654022097587585 -0.080032303929328918
-0.45297437906265259 -0.30944037437438965 -0.092080965638160706
0.15265882015228271 0.18276450037956238 0.12401123344898224
0.14461854100227356 0.1747778058052063 0.12163348495960236
0.13815400004386902 0.16895036399364471 0.11722470819950104
0.13194924592971802 0.16469544172286987 0.12059147655963898
0.12844878435134888 0.16126802563667297 0.12936629354953766
0.1237427219748497 0.15593138337135315 0.13869085907936096
-0.41596481204032898 -0.41878104209899902 0.08354533463716507
-0.42777234315872192 -0.43121212720870972 0.071387603878974915
-0.43822118639945984 -0.44276383519172668 0.060401320457458496
-0.44861036539077759 -0.45600250363349915 0.056445717811584473
-0.45280629396438599 -0.46135032176971436 0.060873493552207947
-0.45995292067527771 -0.46945512294769287 0.062205210328102112
0.13308274745941162 0.16788141429424286 0.10972180962562561
0.13429075479507446 0.17261537909507751 0.10794265568256378
0.13670361042022705 0.17946067452430725 0.10676170885562897
0.13598966598510742 0.18597623705863953 0.11169334501028061
0.13208964467048645 0.18492299318313599 0.11821142584085464
0.12902221083641052 0.18605694174766541 0.12524573504924774
0.12485989183187485 0.17808723449707031 0.13800641894340515
0.12196467071771622 0.16711679100990295 0.14086738228797913
0.1199665293097496 0.1582692414522171 0.14458686113357544
-0.40442776679992676 -0.40066385269165039 0.087699651718139648
-0.40594795346260071 -0.39627605676651001 0.079145573079586029
-0.40723559260368347 -0.39060619473457336 0.070547029376029968
-0.41900092363357544 -0.40019851922988892 0.052381753921508789
-0.42963635921478271 -0.41563689708709717 0.045749768614768982
-0.44018948078155518 -0.42982283234596252 0.038705110549926758
-0.44846153259277344 -0.44526717066764832 0.036872774362564087
-0.44728818535804749 -0.44780921936035156 0.04145851731300354
-0.44649454951286316 -0.4500078558921814 0.045979931950569153
0.13933998346328735 0.2086736261844635 0.09857429563999176
0.13667896389961243 0.2085801362991333 0.099333614110946655
0.13473716378211975 0.20980551838874817 0.099724292755126953
0.13458111882209778 0.21235167980194092 0.10647887736558914
0.13342198729515076 0.20811906456947327 0.11402368545532227
0.13175621628761292 0.20234650373458862 0.12275891005992889
0.14127418398857117 0.19528093934059143 0.10404935479164124
0.14227062463760376 0.20207870006561279 0.102056585252285
0.14214992523193359 0.20663401484489441 0.099739812314510345
-0.44760513305664062 -0.42538154125213623 0.014321818947792053
-0.44871780276298523 -0.43072307109832764 0.019821152091026306
-0.4493831992149353 -0.43652346730232239 0.025894567370414734
-0.41675007343292236 -0.38585689663887024 0.040852800011634827
-0.42236891388893127 -0.3884219229221344 0.027730658650398254
-0.42712622880935669 -0.39095014333724976 0.016690179705619812
-0.4333006739616394 -0.40008729696273804 0.010229930281639099
-0.43752434849739075 -0.40758353471755981 0.011059314012527466
-0.44250974059104919 -0.4154151976108551 0.010880380868911743
0.13955006003379822 0.22636312246322632 0.099873334169387817
0.1467725932598114 0.24232810735702515 0.099859967827796936
0.15565147995948792 0.26088163256645203 0.099935315549373627
0.16499695181846619 0.28246402740478516 0.10589399188756943
0.16533222794532776 0.28611475229263306 0.11227814853191376
0.16684800386428833 0.2922910749912262 0.11980860680341721
0.16026979684829712 0.27681878209114075 0.13125038146972656
0.14930915832519531 0.24886870384216309 0.1331554502248764
0.13865920901298523 0.22084838151931763 0.13428410887718201
-0.41128093004226685 -0.36993339657783508 0.045630276203155518
-0.41580736637115479 -0.35996228456497192 0.031105324625968933
-0.42140796780586243 -0.35153087973594666 0.015689879655838013
-0.43138542771339417 -0.35490503907203674 -0.0050820261240005493
-0.43642976880073547 -0.36452224850654602 -0.010984033346176147
-0.44161882996559143 -0.37316766381263733 -0.016776099801063538
-0.44100061058998108 -0.38287997245788574 -0.013808667659759521
-0.43599876761436462 -0.38552194833755493 -0.0053732991218566895
-0.43238195776939392 -0.38894534111022949 0.00202159583568573
0.19753932952880859 0.35154581069946289 0.10743775963783264
0.19760838150978088 0.35674542188644409 0.11233510076999664
0.19763988256454468 0.36246049404144287 0.1168069988489151
0.19143739342689514 0.35430034995079041 0.12229915708303452
0.1851959228515625 0.33942303061485291 0.12429612129926682
0.17842400074005127 0.32257258892059326 0.12656019628047943
0.17371252179145813 0.29813945293426514 0.1007932722568512
0.18187212944030762 0.31513458490371704 0.10146994143724442
0.18964177370071411 0.33129629492759705 0.10202480852603912
-0.45990040898323059 -0.37329685688018799 -0.045427560806274414
-0.45558434724807739 -0.37549787759780884 -0.037902340292930603
-0.45116573572158813 -0.37799081206321716 -0.030342310667037964
-0.43169385194778442 -0.33922883868217468 -0.011778756976127625
-0.43580520153045654 -0.33519658446311951 -0.022869080305099487
-0.43984103202819824 -0.332379549741745 -0.032922461628913879
-0.44911691546440125 -0.3413255512714386 -0.043909206986427307
-0.45441991090774536 -0.35223248600959778 -0.04627537727355957
-0.45967105031013489 -0.36258906126022339 -0.0494365394115448
0.20458334684371948 0.36188820004463196 0.10190490633249283
0.21192973852157593 0.37644043564796448 0.10088923573493958
0.21923443675041199 0.39040246605873108 0.099069096148014069
-0.48073428869247437 -0.37223508954048157 -0.080815747380256653
-0.47465842962265015 -0.37086614966392517 -0.070836916565895081
-0.46924608945846558 -0.37074273824691772 -0.061680242419242859
0.1959453821182251 0.36173391342163086 0.16892409324645996
0.18539538979530334 0.33694961667060852 0.15338946878910065
0.17670920491218567 0.31710559129714966 0.14009192585945129
-0.423980712890625 -0.33398914337158203 0.0069008171558380127
-0.42151486873626709 -0.3218037486076355 0.013070017099380493
-0.41898325085639954 -0.3068738579750061 0.01952633261680603
0.1406291127204895 0.2093212902545929 0.17190192639827728
0.13656425476074219 0.20523697137832642 0.15978427231311798
0.13248828053474426 0.19970762729644775 0.14738813042640686
-0.40259039402008057 -0.37346908450126648 0.071423575282096863
-0.39799574017524719 -0.3673725426197052 0.08396582305431366
-0.39419129490852356 -0.36341696977615356 0.09699026495218277
0.22300499677658081 0.38857612013816833 0.080221965909004211
0.22372522950172424 0.39285540580749512 0.084998361766338348
0.22498250007629395 0.3978043794631958 0.090443536639213562
0.1962149441242218 0.34251251816749573 0.096873700618743896
0.19511225819587708 0.33848759531974792 0.091641053557395935
0.19427770376205444 0.33459702134132385 0.086852476000785828
0.20131582021713257 0.34475177526473999 0.082059264183044434
0.20851331949234009 0.35847824811935425 0.080791451036930084
0.21575474739074707 0.37181103229522705 0.078920274972915649
-0.49552559852600098 -0.40173876285552979 -0.095009490847587585
-0.48939543962478638 -0.39982277154922485 -0.085435047745704651
-0.48387932777404785 -0.39899915456771851 -0.07651953399181366
-0.47463825345039368 -0.39110073447227478 -0.065556958317756653
-0.47123071551322937 -0.38468194007873535 -0.061833038926124573
-0.46801507472991943 -0.37859311699867249 -0.057552814483642578
-0.49108633399009705 -0.38270208239555359 -0.095634147524833679
-0.49441751837730408 -0.38958123326301575 -0.09954465925693512
-0.49803701043128967 -0.39668020606040955 -0.10294027626514435
0.16457995772361755 0.27786022424697876 0.094779297709465027
0.16400519013404846 0.27556449174880981 0.089866727590560913
0.16362413763999939 0.27310976386070251 0.08573576807975769
0.1719014048576355 0.28635683655738831 0.082968175411224365
0.1795746386051178 0.30164110660552979 0.083168730139732361
0.18693545460700989 0.31637299060821533 0.083151303231716156
-0.47421911358833313 -0.39977449178695679 -0.06039758026599884
-0.4697374701499939 -0.40090566873550415 -0.05295853316783905
-0.46519383788108826 -0.40219298005104065 -0.045712634921073914
-0.4566979706287384 -0.39680576324462891 -0.036378815770149231
-0.45345866680145264 -0.39142367243766785 -0.032685354351997375
-0.45017924904823303 -0.38630849123001099 -0.027877777814865112
0.1350436806678772 0.2155718207359314 0.093921944499015808
0.13515520095825195 0.21593761444091797 0.08902759850025177
0.13637539744377136 0.21751829981803894 0.085558272898197174
0.14126217365264893 0.22651931643486023 0.08281475305557251
0.14705482125282288 0.2381729781627655 0.082266248762607574
0.15502011775970459 0.25355285406112671 0.082313314080238342
-0.45503798127174377 -0.40421959757804871 -0.031137034296989441
-0.45008072257041931 -0.40493452548980713 -0.024190977215766907
-0.44637110829353333 -0.4057576060295105 -0.018205180764198303
-0.44128862023353577 -0.40357896685600281 -0.010902315378189087
-0.43780472874641418 -0.40001508593559265 -0.0061042457818984985
-0.4345671534538269 -0.39668047428131104 -2.6911497116088867e-05
0.14192765951156616 0.20966631174087524 0.095037549734115601
0.14242404699325562 0.21034699678421021 0.091406837105751038
0.14318642020225525 0.21126511693000793 0.087705619633197784
0.14238974452018738 0.21520498394966125 0.083679690957069397
0.139659583568573 0.21565017104148865 0.083099529147148132
0.13825434446334839 0.21733757853507996 0.083163686096668243
-0.44618028402328491 -0.41084346175193787 -0.013201028108596802
-0.44959050416946411 -0.41736233234405518 -0.011897727847099304
-0.45414477586746216 -0.42526194453239441 -0.010162040591239929
-0.45503842830657959 -0.43042397499084473 -0.002683788537979126
-0.45174026489257812 -0.42690548300743103 0.0021404772996902466
-0.44879019260406494 -0.42380866408348083 0.0067954212427139282
0.14081567525863647 0.18724262714385986 0.10001285374164581
0.14147686958312988 0.1869615912437439 0.095030665397644043
0.14244148135185242 0.18788048624992371 0.090926088392734528
0.14665377140045166 0.19902718067169189 0.087038561701774597
0.14733260869979858 0.20568796992301941 0.086203165352344513
0.14684867858886719 0.21089795231819153 0.085387825965881348
-0.46308335661888123 -0.4429384171962738 -0.0041959285736083984
-0.46630382537841797 -0.45148083567619324 8.2001090049743652e-05
-0.46834051609039307 -0.45893311500549316 0.0048851817846298218
-0.46474182605743408 -0.46091294288635254 0.014900326728820801
-0.46071195602416992 -0.45642316341400146 0.020080998539924622
-0.4559018611907959 -0.45030924677848816 0.025665938854217529
0.13454988598823547 0.16620473563671112 0.10577487945556641
0.13464456796646118 0.16598470509052277 0.10040575265884399
0.13552099466323853 0.16725176572799683 0.096931338310241699
0.13723775744438171 0.17131434381008148 0.092765748500823975
0.13887271285057068 0.17589573562145233 0.090378768742084503
0.14180785417556763 0.18311017751693726 0.088903225958347321
-0.46780607104301453 -0.46788489818572998 0.015054851770401001
-0.46584072709083557 -0.46938267350196838 0.020159229636192322
-0.46390137076377869 -0.46978306770324707 0.025263354182243347
-0.46022692322731018 -0.46775874495506287 0.032151371240615845
-0.45691525936126709 -0.46445652842521667 0.036741673946380615
-0.45268303155899048 -0.45956370234489441 0.042963176965713501
0.16130560636520386 0.19262409210205078 0.1156638115644455
0.16066223382949829 0.19277426600456238 0.10941728204488754
0.16029277443885803 0.19383320212364197 0.10369743406772614
0.15234231948852539 0.18711274862289429 0.10000267624855042
0.14485037326812744 0.17822211980819702 0.098791174590587616
0.13961672782897949 0.17225649952888489 0.096774786710739136
-0.46439880132675171 -0.471658855676651 0.030516639351844788
-0.46834477782249451 -0.47550469636917114 0.031366825103759766
-0.47502845525741577 -0.48183467984199524 0.030343532562255859
-0.48180630803108215 -0.49054983258247375 0.034087598323822021
-0.47874212265014648 -0.4884505569934845 0.041894987225532532
-0.47519475221633911 -0.48529371619224548 0.049785718321800232
0.25544038414955139 0.43705403804779053 0.063108131289482117
0.25610801577568054 0.44122707843780518 0.067042514681816101
0.25739622116088867 0.44649940729141235 0.072174295783042908
0.23048600554466248 0.39703848958015442 0.072997674345970154
0.23820215463638306 0.40910825133323669 0.06911083310842514
0.24641475081443787 0.4211326539516449 0.064948514103889465
-0.52838271856307983 -0.42399263381958008 -0.14018778502941132
-0.51873213052749634 -0.41602149605751038 -0.12809111177921295
-0.51009410619735718 -0.4096989631652832 -0.11640067398548126
-0.52973639965057373 -0.41373911499977112 -0.14663524925708771
-0.53292858600616455 -0.42068842053413391 -0.14976327121257782
-0.53605729341506958 -0.42717599868774414 -0.15202625095844269
0.29344195127487183 0.47497570514678955 0.050169602036476135
0.29564261436462402 0.48059237003326416 0.053029939532279968
0.29756656289100647 0.48637604713439941 0.057402521371841431
0.26511943340301514 0.44600218534469604 0.056825175881385803
0.27480041980743408 0.45713686943054199 0.053472474217414856
0.28335559368133545 0.46480476856231689 0.051062330603599548
-0.57521814107894897 -0.47268807888031006 -0.18244956433773041
-0.56334894895553589 -0.45820093154907227 -0.17540477216243744
-0.55105125904083252 -0.44513809680938721 -0.16482903063297272
-0.58485609292984009 -0.47791028022766113 -0.18731619417667389
-0.58690369129180908 -0.48338887095451355 -0.1889597624540329
-0.58765500783920288 -0.48702311515808105 -0.18891794979572296
0.295916348695755 0.43630820512771606 0.046078652143478394
0.29816234111785889 0.44038486480712891 0.048363283276557922
0.29976513981819153 0.4443243145942688 0.052268370985984802
0.29459166526794434 0.46611350774765015 0.048313155770301819
0.29648354649543762 0.45908743143081665 0.047554939985275269
0.29567170143127441 0.44726103544235229 0.046900466084480286
-0.60979670286178589 -0.53692173957824707 -0.17103119194507599
-0.60380637645721436 -0.52108132839202881 -0.17926160991191864
-0.59583485126495361 -0.50463545322418213 -0.18429453670978546
-0.61602252721786499 -0.54985088109970093 -0.16046775877475739
-0.6176261305809021 -0.55353796482086182 -0.16278500854969025
-0.61729037761688232 -0.55460929870605469 -0.16319753229618073
0.25419104099273682 0.33365935087203979 0.043565064668655396
0.25538083910942078 0.33394324779510498 0.045609116554260254
0.25629502534866333 0.33522650599479675 0.049289628863334656
0.28528022766113281 0.41017356514930725 0.044985756278038025
0.27606379985809326 0.38640943169593811 0.043940886855125427
0.26487031579017639 0.36084166169166565 0.043431311845779419
-0.60858613252639771 -0.58065640926361084 -0.11728556454181671
-0.61295568943023682 -0.57396763563156128 -0.13284258544445038
-0.61456602811813354 -0.56402671337127686 -0.14729739725589752
-0.60443013906478882 -0.59001994132995605 -0.09321613609790802
-0.60604041814804077 -0.59207510948181152 -0.097161456942558289
-0.60553830862045288 -0.59070098400115967 -0.099935367703437805
0.19873946905136108 0.24041494727134705 0.064412102103233337
0.19930669665336609 0.23898914456367493 0.068288758397102356
0.20020532608032227 0.23919901251792908 0.073482200503349304
0.23866456747055054 0.30932438373565674 0.04580254852771759
0.22481846809387207 0.28538954257965088 0.049360409379005432
0.21132835745811462 0.2636810839176178 0.054808720946311951
-0.56420606374740601 -0.56641817092895508 -0.051190286874771118
-0.57873523235321045 -0.57592242956161499 -0.068135157227516174
-0.59128201007843018 -0.58174216747283936 -0.084741577506065369
-0.54547536373138428 -0.5568544864654541 -0.015311166644096375
-0.54789561033248901 -0.55888891220092773 -0.021941408514976501
-0.54899680614471436 -0.55837273597717285 -0.028013139963150024
0.18797117471694946 0.22997316718101501 0.072305366396903992
0.17831704020500183 0.2177148163318634 0.082807481288909912
0.16944438219070435 0.20716288685798645 0.092109501361846924
-0.49823713302612305 -0.50519347190856934 0.015293732285499573
-0.51401609182357788 -0.52129566669464111 0.00094205141067504883
-0.53103923797607422 -0.53802603483200073 -0.015935227274894714
0.16249847412109375 0.24282413721084595 0.080695837736129761
0.15540143847465515 0.23080003261566162 0.081425949931144714
0.14945417642593384 0.22099593281745911 0.082589097321033478
0.14969256520271301 0.1987420916557312 0.086263090372085571
0.15639102458953857 0.20907449722290039 0.085299551486968994
0.164216548204422 0.22138518095016479 0.084402024745941162
0.17344212532043457 0.2421603798866272 0.081300482153892517
0.1731509268283844 0.24786153435707092 0.080453410744667053
0.17195412516593933 0.25237530469894409 0.080120652914047241
-0.48615762591362 -0.45501253008842468 -0.028484448790550232
-0.49050718545913696 -0.46481239795684814 -0.024828284978866577
-0.49359297752380371 -0.47342574596405029 -0.020034819841384888
-0.48738610744476318 -0.47630929946899414 -0.0062050223350524902
-0.48042026162147522 -0.47228634357452393 -0.00013925135135650635
-0.47421175241470337 -0.46840369701385498 0.0050983130931854248
-0.46371054649353027 -0.43717297911643982 -0.012910619378089905
-0.46912509202957153 -0.43998965620994568 -0.01850832998752594
-0.47496733069419861 -0.4423975944519043 -0.024664551019668579
0.19341960549354553 0.2994217574596405 0.076485514640808105
0.18572604656219482 0.28477641940116882 0.077836737036705017
0.17796510457992554 0.27032038569450378 0.079045325517654419
0.18048393726348877 0.24807348847389221 0.080270171165466309
0.18836641311645508 0.26165175437927246 0.07689579576253891
0.19625592231750488 0.27560818195343018 0.073307141661643982
0.20450666546821594 0.29867401719093323 0.071863174438476562
0.20393359661102295 0.30501079559326172 0.073164328932762146
0.20271033048629761 0.30988073348999023 0.074152380228042603
-0.51050227880477905 -0.46000313758850098 -0.064061984419822693
-0.5159841775894165 -0.47136542201042175 -0.061668232083320618
-0.52139770984649658 -0.48330113291740417 -0.058714985847473145
-0.51921337842941284 -0.49329394102096558 -0.043898507952690125
-0.51107889413833618 -0.48927038908004761 -0.032920539379119873
-0.50291258096694946 -0.48491835594177246 -0.022630512714385986
-0.48706287145614624 -0.44588121771812439 -0.039359495043754578
-0.49304410815238953 -0.44699633121490479 -0.047856226563453674
-0.49890899658203125 -0.44778302311897278 -0.056827828288078308
0.22278952598571777 0.35617533326148987 0.071122743189334869
0.21559199690818787 0.3425014317035675 0.072367802262306213
0.20834755897521973 0.32843056321144104 0.073695108294487
0.21258491277694702 0.30532780289649963 0.067466095089912415
0.22099193930625916 0.32086187601089478 0.065630629658699036
0.22934293746948242 0.33631658554077148 0.064416274428367615
0.23495867848396301 0.35613325238227844 0.0669235959649086
0.23312243819236755 0.36076334118843079 0.068656452000141144
0.23159679770469666 0.36517819762229919 0.069493792951107025
-0.53214722871780396 -0.46260929107666016 -0.099576994776725769
-0.53782451152801514 -0.47405251860618591 -0.097124919295310974
-0.54473280906677246 -0.48729363083839417 -0.095354244112968445
-0.54786145687103271 -0.50258702039718628 -0.08584226667881012
-0.54140704870223999 -0.50116395950317383 -0.076135411858558655
-0.53448611497879028 -0.49927517771720886 -0.065828040242195129
-0.51007288694381714 -0.44863536953926086 -0.075319930911064148
-0.51547634601593018 -0.44907855987548828 -0.084502771496772766
-0.52097147703170776 -0.44994720816612244 -0.093485906720161438
0.25272822380065918 0.40692263841629028 0.065972588956356049
0.24487578868865967 0.39441505074501038 0.067766956984996796
0.23734048008918762 0.38200816512107849 0.06898614764213562
0.24522393941879272 0.36540591716766357 0.063543960452079773
0.25250941514968872 0.37866237759590149 0.063313275575637817
0.25925114750862122 0.39108553528785706 0.062557384371757507
0.26374185085296631 0.40423280000686646 0.062898024916648865
0.26306700706481934 0.40939822793006897 0.063864678144454956
0.26228106021881104 0.41494613885879517 0.063884139060974121
-0.56038194894790649 -0.47928497195243835 -0.13444508612155914
-0.56498908996582031 -0.48980683088302612 -0.13018973171710968
-0.56972235441207886 -0.50003665685653687 -0.12735213339328766
-0.56968051195144653 -0.5070684552192688 -0.11914239823818207
-0.56463170051574707 -0.50593060255050659 -0.11086942255496979
-0.55940234661102295 -0.50484168529510498 -0.10296623408794403
-0.53287011384963989 -0.45420071482658386 -0.11037923395633698
-0.53961759805679321 -0.45792299509048462 -0.11883436143398285
-0.54714453220367432 -0.46274513006210327 -0.12817783653736115
0.25885748863220215 0.42311739921569824 0.062246054410934448
0.25677219033241272 0.42592701315879822 0.061197027564048767
0.2556796669960022 0.42949056625366211 0.060417428612709045
0.22416746616363525 0.38090535998344421 0.073630295693874359
0.2259344756603241 0.3771497905254364 0.071818806231021881
0.22800472378730774 0.37333312630653381 0.070682406425476074
-0.52054810523986816 -0.43946507573127747 -0.10428567230701447
-0.51411861181259155 -0.42714348435401917 -0.10570691525936127
-0.50790530443191528 -0.41537731885910034 -0.10613946616649628
-0.54214775562286377 -0.44066530466079712 -0.15025283396244049
-0.54572999477386475 -0.44868007302284241 -0.14664511382579803
-0.55048930644989014 -0.45825764536857605 -0.14302898943424225
0.1950986385345459 0.32663661241531372 0.079837366938591003
0.19680744409561157 0.32247373461723328 0.077700428664684296
0.19889116287231445 0.31825876235961914 0.076186753809452057
-0.49793922901153564 -0.43536874651908875 -0.067808553576469421
-0.49106016755104065 -0.42218315601348877 -0.068978413939476013
-0.48451685905456543 -0.40974682569503784 -0.069222226738929749
0.16475936770439148 0.26723715662956238 0.080871358513832092
0.16633936762809753 0.26378276944160461 0.08006596565246582
0.16824120283126831 0.26009654998779297 0.079896047711372375
-0.47556740045547485 -0.43323150277137756 -0.034595206379890442
-0.47010597586631775 -0.42225071787834167 -0.037099406123161316
-0.46493828296661377 -0.41208279132843018 -0.03856678307056427
0.16329970955848694 0.20467936992645264 0.09355645626783371
0.16657185554504395 0.21441057324409485 0.089234799146652222
0.16990962624549866 0.22493866086006165 0.085638232529163361
-0.4940718412399292 -0.48571276664733887 -0.0048246234655380249
-0.49165716767311096 -0.48918092250823975 0.0052235722541809082
-0.48836278915405273 -0.49105006456375122 0.015672445297241211
0.19991672039031982 0.25409138202667236 0.062718063592910767
0.20150795578956604 0.26592537760734558 0.064631029963493347
0.20312464237213135 0.27856332063674927 0.067323297262191772
-0.53341227769851685 -0.51252651214599609 -0.050489410758018494
-0.53956234455108643 -0.52865970134735107 -0.045283377170562744
-0.5447426438331604 -0.54305440187454224 -0.039651438593864441
0.2489955723285675 0.33750125765800476 0.047372087836265564
0.24507272243499756 0.34150469303131104 0.052689492702484131
0.2410394549369812 0.34626218676567078 0.058574661612510681
-0.56618207693099976 -0.52482044696807861 -0.09610120952129364
-0.57960981130599976 -0.5472862720489502 -0.098214015364646912
-0.59204351902008057 -0.56791007518768311 -0.10020060837268829
0.28535616397857666 0.4228740930557251 0.049197718501091003
0.27748778462409973 0.41401681303977966 0.053779348731040955
0.2698662281036377 0.40602082014083862 0.058333814144134521
-0.58204346895217896 -0.51769900321960449 -0.13260133564472198
-0.59338784217834473 -0.53037810325622559 -0.14209814369678497
-0.60469573736190796 -0.54251182079315186 -0.15222145617008209
0.28499507904052734 0.45853579044342041 0.051323309540748596
0.278145432472229 0.44683647155761719 0.054930940270423889
0.26981297135353088 0.43355405330657959 0.059236273169517517
-0.56527900695800781 -0.47579583525657654 -0.15218229591846466
-0.57447540760040283 -0.48233801126480103 -0.16554965078830719
-0.58162760734558105 -0.48660510778427124 -0.17721648514270782
0.18093904852867126 0.192392498254776 0.050359085202217102
0.18124932050704956 0.18358397483825684 0.063545495271682739
0.18480679392814636 0.18604177236557007 0.076954379677772522
0.11698915809392929 0.10454957187175751 0.12959003448486328
0.11201151460409164 0.10093262791633606 0.11211380362510681
0.11107137054204941 0.10902996361255646 0.093687303364276886
0.13113757967948914 0.14867481589317322 0.071220643818378448
0.14735227823257446 0.16710704565048218 0.061393141746520996
0.16540080308914185 0.18986031413078308 0.049939826130867004
-0.53097993135452271 -0.55254405736923218 -0.026590198278427124
-0.50503647327423096 -0.52770382165908813 -0.0059481710195541382
-0.48089912533760071 -0.50281071662902832 0.010237649083137512
-0.45296749472618103 -0.4888690710067749 0.053143933415412903
-0.44502121210098267 -0.48819315433502197 0.080520600080490112
-0.43771153688430786 -0.48163837194442749 0.10108762979507446
-0.54593956470489502 -0.58921867609024048 0.020370945334434509
-0.55160462856292725 -0.59438282251358032 0.0038466602563858032
-0.55590271949768066 -0.59133255481719971 -0.019231244921684265
0.27993786334991455 0.35473313927650452 0.036198467016220093
0.27883008122444153 0.34756490588188171 0.044540762901306152
0.27893269062042236 0.34707644581794739 0.053269639611244202
0.20955276489257812 0.25206160545349121 0.032567605376243591
0.23474577069282532 0.29052981734275818 0.028882980346679688
0.25995069742202759 0.33135855197906494 0.028040513396263123
-0.62680912017822266 -0.62133944034576416 -0.1154257208108902
-0.60645580291748047 -0.61110937595367432 -0.093951478600502014
-0.58293294906616211 -0.59556204080581665 -0.071860268712043762
-0.63420742750167847 -0.63276505470275879 -0.086941733956336975
-0.63968127965927124 -0.63834553956985474 -0.098411068320274353
-0.64292317628860474 -0.63696837425231934 -0.11447243392467499
0.3440966010093689 0.51278120279312134 0.052315160632133484
0.34714961051940918 0.51929706335067749 0.059694990515708923
0.34786194562911987 0.52259743213653564 0.066830947995185852
0.30419743061065674 0.41244450211524963 0.033405512571334839
0.3210027813911438 0.44960451126098633 0.038198485970497131
0.33334597945213318 0.48293018341064453 0.0430031418800354
-0.65783160924911499 -0.59386515617370605 -0.19212247431278229
-0.65842908620834351 -0.61128973960876465 -0.1744331568479538
-0.65340834856033325 -0.62182366847991943 -0.15575848519802094
-0.64788472652435303 -0.56258106231689453 -0.19083456695079803
-0.65218818187713623 -0.56954419612884521 -0.19732595980167389
-0.65433114767074585 -0.57469415664672852 -0.20212368667125702
0.33278608322143555 0.55969440937042236 0.046310648322105408
0.33782860636711121 0.57700055837631226 0.05671536922454834
0.34006810188293457 0.58528918027877808 0.066852308809757233
0.34299424290657043 0.52140820026397705 0.045122832059860229
0.34259456396102905 0.53522545099258423 0.042755737900733948
0.33627855777740479 0.5384138822555542 0.039761051535606384
-0.63059943914413452 -0.5202261209487915 -0.24132488667964935
-0.64248079061508179 -0.54168212413787842 -0.23322536051273346
-0.65056204795837402 -0.56245428323745728 -0.21869634091854095
-0.59786486625671387 -0.44757875800132751 -0.24296940863132477
-0.60290098190307617 -0.45828595757484436 -0.24988286197185516
-0.60863983631134033 -0.47478878498077393 -0.25066375732421875
0.26196891069412231 0.48084819316864014 0.049796432256698608
0.27033442258834839 0.50483900308609009 0.06265588104724884
0.27547267079353333 0.51761072874069214 0.075778141617774963
0.30875933170318604 0.51610857248306274 0.035433799028396606
0.28986462950706482 0.49419611692428589 0.03515276312828064
0.26966875791549683 0.46881389617919922 0.036348834633827209
-0.55562186241149902 -0.43524390459060669 -0.20635370910167694
-0.57681500911712646 -0.45573747158050537 -0.22308908402919769
-0.59705519676208496 -0.4769129753112793 -0.23568414151668549
-0.51959687471389771 -0.3580213189125061 -0.18740139901638031
-0.52344626188278198 -0.36870935559272766 -0.19592969119548798
-0.52839231491088867 -0.38728022575378418 -0.19727768003940582
0.20001652836799622 0.39125210046768188 0.064100489020347595
0.21098372340202332 0.41697224974632263 0.076522447168827057
0.21896106004714966 0.43246513605117798 0.090068034827709198
0.23174339532852173 0.41875284910202026 0.043837130069732666
0.21525624394416809 0.39617937803268433 0.048965141177177429
0.19995275139808655 0.3743475079536438 0.053240850567817688
-0.47976219654083252 -0.3678174614906311 -0.13144351541996002
-0.49602848291397095 -0.38113722205162048 -0.14857478439807892
-0.51445126533508301 -0.39738279581069946 -0.16759030520915985
-0.4623827338218689 -0.31486281752586365 -0.11629964411258698
-0.46352007985115051 -0.32235920429229736 -0.12467010319232941
-0.46493864059448242 -0.33637857437133789 -0.12649942934513092
0.23311066627502441 0.38761734962463379 0.032821014523506165
0.21495431661605835 0.32525104284286499 0.030724555253982544
0.19824215769767761 0.26541045308113098 0.032928943634033203
0.12910345196723938 0.17952916026115417 0.064022377133369446
0.14700609445571899 0.23748117685317993 0.055822834372520447
0.16680604219436646 0.298246830701828 0.052750304341316223
-0.4668184220790863 -0.38939869403839111 -0.093092367053031921
-0.46632051467895508 -0.4238865077495575 -0.058682501316070557
-0.46418541669845581 -0.4558711051940918 -0.019382759928703308
-0.55462729930877686 -0.54313749074935913 -0.086967363953590393
-0.54897874593734741 -0.50082123279571533 -0.12633903324604034
-0.5418122410774231 -0.4559464156627655 -0.16169153153896332
0.31357574462890625 0.49164223670959473 0.030245795845985413
0.30160596966743469 0.44694358110427856 0.026517271995544434
0.29123032093048096 0.40532326698303223 0.026384785771369934
-0.63835161924362183 -0.59979152679443359 -0.16423259675502777
-0.63121283054351807 -0.56639057397842407 -0.1943773478269577
-0.62319177389144897 -0.53082925081253052 -0.22200693190097809
0.17149776220321655 0.33021771907806396 0.053912147879600525
0.15853691101074219 0.31018233299255371 0.04919704794883728
0.14714092016220093 0.29541268944740295 0.041407495737075806
-0.44064468145370483 -0.3443017303943634 -0.10527904331684113
-0.44767636060714722 -0.34979432821273804 -0.10338465869426727
-0.45584183931350708 -0.35335901379585266 -0.10775379836559296
0.10165571421384811 0.12104296684265137 0.075588449835777283
0.087365441024303436 0.10970304906368256 0.069069363176822662
0.072863437235355377 0.098405599594116211 0.058805674314498901
-0.41918885707855225 -0.42652937769889832 0.0024522542953491211
-0.43020221590995789 -0.44188776612281799 0.013336434960365295
-0.4433896541595459 -0.45936030149459839 0.019856676459312439
0.16668230295181274 0.34197536110877991 0.5151900053024292
-0.15711185336112976 -0.007556520402431488 0.45238238573074341
0.17426067590713501 0.32491174340248108 0.49385052919387817
-0.17987671494483948 -0.056119196116924286 0.43303936719894409
0.17555069923400879 0.30263876914978027 0.45726341009140015
-0.20851084589958191 -0.10952518135309219 0.39798861742019653
0.11776795238256454 0.21286401152610779 0.47226309776306152
-0.13375511765480042 -0.055434882640838623 0.44366198778152466
0.13168001174926758 0.25783854722976685 0.50519853830337524
-0.12283752113580704 -0.014819405972957611 0.46894991397857666
0.13892966508865356 0.29878884553909302 0.52183264493942261
-0.11953935772180557 0.020488783717155457 0.47617930173873901
0.10862971097230911 0.28132328391075134 0.51657319068908691
-0.090015098452568054 0.066954523324966431 0.47845536470413208
0.084514237940311432 0.23133596777915955 0.49717593193054199
-0.076012633740901947 0.058800622820854187 0.47075450420379639
0.056118987500667572 0.17837807536125183 0.4633668065071106
-0.069812752306461334 0.043614834547042847 0.44633346796035767
0.023664973676204681 0.21538910269737244 0.42884373664855957
-0.052866846323013306 0.13229531049728394 0.41099494695663452
0.058037199079990387 0.25763896107673645 0.47014796733856201
-0.065573014318943024 0.12344275414943695 0.44139879941940308
0.091357655823230743 0.29759114980697632 0.4997900128364563
-0.084680080413818359 0.10646805167198181 0.45878958702087402
0.098306812345981598 0.34122821688652039 0.48557746410369873
-0.10573156177997589 0.11835289001464844 0.42957213521003723
0.070567525923252106 0.32615205645561218 0.44769442081451416
-0.097086712718009949 0.14238461852073669 0.3976905345916748
0.04168141633272171 0.30757972598075867 0.39687216281890869
-0.092314250767230988 0.16009438037872314 0.35306724905967712
0.10355519503355026 0.40390127897262573 0.39262118935585022
-0.16760943830013275 0.10461530089378357 0.2988152801990509
0.11560679227113724 0.39712691307067871 0.44358581304550171
-0.15388773381710052 0.10086743533611298 0.3577800989151001
0.12597277760505676 0.38522708415985107 0.48171901702880859
-0.14210227131843567 0.091778278350830078 0.40421262383460999
0.15864220261573792 0.40507912635803223 0.48924750089645386
-0.17348039150238037 0.042413637042045593 0.39882686734199524
0.16562443971633911 0.42719441652297974 0.45628100633621216
-0.20258083939552307 0.023994132876396179 0.34892052412033081
0.17004004120826721 0.44441694021224976 0.41095134615898132
-0.2338121235370636 0.0010309666395187378 0.28597474098205566
0.19849243760108948 0.39972284436225891 0.43520557880401611
-0.2500242292881012 -0.087225861847400665 0.33075970411300659
0.18918755650520325 0.39595195651054382 0.47511613368988037
-0.21333333849906921 -0.041036810725927353 0.38152605295181274
0.17473143339157104 0.38542380928993225 0.50235551595687866
-0.17900362610816956 0.0013824254274368286 0.42000728845596313
0.17037373781204224 0.38264349102973938 0.51340299844741821
-0.16680243611335754 0.016576230525970459 0.43489062786102295
0.15712812542915344 0.39920413494110107 0.50247055292129517
-0.16305087506771088 0.049884118139743805 0.41720342636108398
0.13024803996086121 0.38358050584793091 0.49703377485275269
-0.13719838857650757 0.091192960739135742 0.42204791307449341
0.10770411044359207 0.34710142016410828 0.50072622299194336
-0.10685596615076065 0.11298917233943939 0.44343650341033936
0.1019558385014534 0.31075021624565125 0.51245135068893433
-0.08864603191614151 0.10381567478179932 0.4680628776550293
0.11689595133066177 0.29802924394607544 0.52635425329208374
-0.093031838536262512 0.071225017309188843 0.48444205522537231
0.13858324289321899 0.35057404637336731 0.5220026969909668
-0.1245877593755722 0.064857542514801025 0.46074908971786499
0.14214983582496643 0.31229156255722046 0.53088909387588501
-0.11725098639726639 0.032596871256828308 0.48261284828186035
0.16459393501281738 0.34773352742195129 0.52440452575683594
-0.14882028102874756 0.009085528552532196 0.46159428358078003
-0.017318889498710632 0.25423508882522583 0.40965032577514648
-0.0039542540907859802 0.24008268117904663 0.45870590209960938
0.047843046486377716 -0.12665364146232605 0.6401020884513855
0.039573945105075836 0.014530450105667114 0.5922386646270752
0.033493496477603912 0.062846839427947998 0.57059025764465332
0.045973174273967743 -0.17491433024406433 0.64907890558242798
-0.029037639498710632 0.23931100964546204 0.3590620756149292
-0.040534697473049164 0.27093991637229919 0.2957790195941925
-0.083705104887485504 0.27509680390357971 -0.17045308649539948
-0.15049085021018982 0.046977430582046509 -0.22512130439281464
-0.22080859541893005 -0.19878886640071869 -0.15612541139125824
-0.19298595190048218 -0.32126373052597046 0.13323143124580383
0.07233884185552597 0.088257834315299988 0.48128175735473633
-0.087911874055862427 -0.080345369875431061 0.47771579027175903
0.087217576801776886 -0.011352002620697021 0.51304030418395996
-0.091741278767585754 -0.19473908841609955 0.539803147315979
0.093378745019435883 -0.096333794295787811 0.53497052192687988
-0.092081330716609955 -0.28188756108283997 0.59091395139694214
0.086798541247844696 -0.18113599717617035 0.54510116577148438
-0.093408867716789246 -0.35732978582382202 0.62521648406982422
0.072910375893115997 -0.23388409614562988 0.55845248699188232
-0.081371337175369263 -0.38283470273017883 0.63893270492553711
0.045795299112796783 -0.27173483371734619 0.58906644582748413
-0.041174747049808502 -0.35531461238861084 0.63685095310211182
0.0070895254611968994 -0.3130495548248291 0.62160104513168335
0.13267326354980469 0.17676788568496704 0.46175503730773926
-0.16399228572845459 -0.13716286420822144 0.44384509325027466
0.19965356588363647 0.29116344451904297 0.4449312686920166
-0.24626022577285767 -0.18467730283737183 0.39306160807609558
0.25382164120674133 0.42406755685806274 0.42382115125656128
-0.32261538505554199 -0.19897326827049255 0.30708810687065125
0.27491569519042969 0.5442427396774292 0.44260364770889282
-0.33954516053199768 -0.12928137183189392 0.25928103923797607
0.2340356707572937 0.54298371076583862 0.44143354892730713
-0.29565763473510742 -0.040932513773441315 0.26264548301696777
0.15797695517539978 0.50942116975784302 0.42105543613433838
-0.22400039434432983 0.085596844553947449 0.27489796280860901
0.088830046355724335 0.48192405700683594 0.39240372180938721
-0.16420617699623108 0.19911912083625793 0.2827332615852356
0.036197267472743988 0.40995901823043823 0.3852425217628479
-0.10381270945072174 0.25353342294692993 0.32491236925125122
0.0087260901927947998 0.31128457188606262 0.40673410892486572
-0.052237950265407562 0.24376603960990906 0.38418805599212646
0.053283445537090302 0.32345616817474365 0.45585697889328003
-0.074732646346092224 0.18287599086761475 0.41603997349739075
0.04206017404794693 0.27111056447029114 0.46846133470535278
-0.050090208649635315 0.17060095071792603 0.44409692287445068
0.08804021030664444 0.21768587827682495 0.51258349418640137
-0.067872658371925354 0.050551064312458038 0.48968952894210815
0.13894224166870117 0.25374311208724976 0.50864219665527344
-0.12754045426845551 -0.031133726239204407 0.47444760799407959
0.18227458000183105 0.31852209568023682 0.49456340074539185
-0.18741142749786377 -0.078317798674106598 0.43685930967330933
0.21664661169052124 0.40199205279350281 0.47930103540420532
-0.240398108959198 -0.092535316944122314 0.38341179490089417
0.22372537851333618 0.45739370584487915 0.47129416465759277
-0.25836476683616638 -0.068101644515991211 0.345875084400177
0.20439070463180542 0.47089970111846924 0.46729838848114014
-0.24242568016052246 -0.018533222377300262 0.33607721328735352
0.15063995122909546 0.44330060482025146 0.46038955450057983
-0.18805038928985596 0.070743680000305176 0.35111355781555176
0.077457614243030548 0.37788200378417969 0.44748258590698242
-0.11169349402189255 0.16932874917984009 0.38339245319366455
0.050397805869579315 -0.16033944487571716 0.65347695350646973
0.079987458884716034 -0.13198643922805786 0.63816303014755249
0.015890248119831085 -0.19544410705566406 0.66171598434448242
0.077863596379756927 -0.1751454770565033 0.6408848762512207
0.011098109185695648 -0.24041426181793213 0.67062878608703613
0.061256088316440582 -0.21236541867256165 0.64831757545471191
0.022538982331752777 -0.24997399747371674 0.66707348823547363
0.040930978953838348 -0.23724551498889923 0.65772098302841187
0.028327919542789459 0.057154625654220581 0.55886745452880859
0.023172475397586823 0.065639421343803406 0.54476392269134521
0.057940386235713959 0.09627532958984375 0.55160444974899292
-0.0074802190065383911 0.027371466159820557 0.54968792200088501
0.070866681635379791 0.077765107154846191 0.56401491165161133
-0.012880280613899231 -0.0099296197295188904 0.564769446849823
0.062339447438716888 0.035525709390640259 0.57579058408737183
0.0020713880658149719 -0.027175948023796082 0.57889103889465332
0.14196217060089111 0.22371828556060791 0.50238722562789917
-0.13691985607147217 -0.072987392544746399 0.47555166482925415
0.20322132110595703 0.32554441690444946 0.47903132438659668
-0.22277551889419556 -0.13088172674179077 0.41793903708457947
0.24351859092712402 0.43052738904953003 0.46333426237106323
-0.28299629688262939 -0.13943155109882355 0.35121303796768188
0.25551533699035645 0.51289302110671997 0.46967869997024536
-0.29939720034599304 -0.094054356217384338 0.31230491399765015
0.2289707362651825 0.52138811349868774 0.47548741102218628
-0.27010181546211243 -0.027083687484264374 0.31763327121734619
0.15542346239089966 0.48831087350845337 0.45982158184051514
-0.20114031434059143 0.093990102410316467 0.33158162236213684
0.097705580294132233 0.46051841974258423 0.44051992893218994
-0.15048009157180786 0.18455025553703308 0.34183704853057861
0.057242102921009064 0.40486246347427368 0.43666967749595642
-0.10264143347740173 0.22723877429962158 0.37408512830734253
0.030101217329502106 0.3187071681022644 0.45266371965408325
-0.052361786365509033 0.22776833176612854 0.42461425065994263
0.075347252190113068 0.13744905591011047 0.54602235555648804
-0.029111407697200775 0.02685798704624176 0.53938287496566772
0.093268312513828278 -0.0033920332789421082 0.57450270652770996
-0.037268728017807007 -0.13690789043903351 0.595600426197052
0.10225880891084671 -0.086369752883911133 0.59583717584609985
-0.037572652101516724 -0.22595566511154175 0.64000165462493896
0.099073298275470734 -0.14831459522247314 0.6027987003326416
-0.038505397737026215 -0.28321552276611328 0.66153907775878906
0.084999896585941315 -0.19977575540542603 0.60836505889892578
-0.032305605709552765 -0.31344407796859741 0.66694527864456177
0.063110597431659698 -0.23437513411045074 0.62331044673919678
-0.0095518156886100769 -0.3044779896736145 0.66152197122573853
0.028373487293720245 -0.2720908522605896 0.64612513780593872
0.010853089392185211 0.12330164015293121 0.5042574405670166
0.0020180046558380127 0.18501627445220947 0.47539901733398438
0.10779931396245956 0.41512757539749146 0.44966012239456177
-0.14674361050128937 0.13433745503425598 0.36254739761352539
0.060054309666156769 0.21479979157447815 0.49832886457443237
-0.047604590654373169 0.098776862025260925 0.47866123914718628
