# XYZ point cloud file
0.82658804527057694 -0.35093957967417955 0.63862710119819877
0.81505147094335528 -0.35814909446347082 0.64315268110000656
0.80626019660751391 -0.36622837862563173 0.65044015039701142
0.81208499866440464 -0.37645337591074268 0.65489390157218086
0.83068985305725773 -0.35520923608060762 0.63797961138468917
0.82243044705354906 -0.3490733164883783 0.63658862931918514
0.82018123157517586 -0.32337248775474225 0.60064065799123778
0.82704649113679374 -0.32164211755101113 0.60885645730954141
0.82261315220868081 -0.31235302799367859 0.59646629004834528
0.81183204542682619 -0.32303007313036591 0.59314742870400416
0.81639318710983455 -0.33358631734853139 0.60547871378894302
0.82323589184074197 -0.33188312604605796 0.61366030541144134
0.82946421568978967 -0.31049501159704429 0.6048063426146173
0.81444188386728089 -0.31187839605991818 0.58875553414579263
0.80790863505408772 -0.33360659183855135 0.59813720377354973
0.79856041962752544 -0.36081845839132504 0.62180894083871174
0.79021862737001192 -0.36845931605849447 0.62804107845602686
0.80543776077210316 -0.35906742056293883 0.6301724194056153
0.80557573091369539 -0.35232208670308302 0.61609823860464985
0.78934552119217294 -0.36197683804218184 0.61488537864792292
0.78093272176263862 -0.36991672613131393 0.62104242458201298
0.79703712449854047 -0.36665773484339947 0.63663390812700515
0.81243410509488101 -0.35059061183456453 0.62434788855371526
0.79662131866634345 -0.35315683913711715 0.60907095125060806
0.81962628418479777 -0.27349100683758809 0.59056188108323271
0.82580266719538364 -0.27022317979577104 0.59990654252420761
0.81433972687652212 -0.25993902669758107 0.59167608098610525
0.81299072855106391 -0.27513446944359032 0.58174211506580553
0.82257988042685604 -0.28717771603089731 0.5911648153692004
0.82912977490871709 -0.28453560427737035 0.60014531247369107
0.81993380112299741 -0.2560026744361833 0.6011656246720285
0.80867730048885988 -0.262790685990413 0.5832789754143215
0.81521538567396401 -0.28772534473837375 0.58260278512634356
0.75588871930446977 -0.38388819475415392 0.65121606936270049
0.74205503578133891 -0.3851449455037852 0.65974133602139795
0.76147202876557996 -0.38164615839735921 0.66138758712149048
0.76878518832284104 -0.38035078431376101 0.64283907118177175
0.74893866523734554 -0.38607965247360987 0.64233993822118207
0.73692626438060771 -0.38707166625044331 0.65055570189538203
0.74671882709162241 -0.38281839622094321 0.67033846526104468
0.77500768265971443 -0.37827576612936525 0.65240781763804523
0.76054590370829955 -0.38241495169462503 0.63470917519516812
0.78334069472088796 -0.22810986539176253 0.60336038184703167
0.78576117076835772 -0.22214398444848554 0.61421050340132433
0.7710234697001821 -0.22473958197918797 0.6096183102854853
0.7819060779715602 -0.23496332553805038 0.59249416314943515
0.79562254624407458 -0.23612178860741909 0.59822374514920651
0.79927145960645929 -0.23077996361782299 0.60848591008022046
0.7722759973545702 -0.21833150838638785 0.62075964278984408
0.77103435070343063 -0.23249323357598831 0.59812410902825941
0.79264519225002872 -0.24170082077007649 0.58877543219577522
0.69947283958096429 -0.37338976188540163 0.67911349487249528
0.69038946473401308 -0.36442382736978385 0.68142429113552572
0.70060818369401756 -0.36965091923677496 0.69109035681127251
0.71260112941750897 -0.3799313499090029 0.67434175596738166
0.69969532398450462 -0.37737373322147089 0.66683358881056942
0.69215428185250594 -0.36913687416198793 0.66855255224773047
0.69039036159862277 -0.36018292114181061 0.69355307020213153
0.7149518451893081 -0.37684033924299426 0.68587079754639668
0.71121043650660598 -0.38276351993833757 0.66338162196508166
0.74516167054804028 -0.2544696881019799 0.63040211944533886
0.74473826494331463 -0.24800601777617978 0.64194133772878215
0.73800246159836802 -0.27356809022096129 0.63816934459323837
0.74738062432249985 -0.26247337293591089 0.61837994311744016
0.75200499430899159 -0.2383384489965929 0.62326333340010032
0.7518164620324872 -0.23170106419571543 0.63467503123271518
0.7374801167022631 -0.26738518579735293 0.64983068021920865
0.74042947861957342 -0.28110136740339359 0.62599560661102505
0.75385734860347708 -0.24661962847497079 0.61138773546230274
0.70341162783585853 -0.32679918589367651 0.66666988152275142
0.71644811760902571 -0.31090856309695403 0.65684262527896431
0.70230718593408759 -0.32151527697480881 0.67865610863752157
0.69277043562255003 -0.34095528802351976 0.67497020629709081
0.7067354094145093 -0.33288536250112777 0.65385949556711664
0.719458104087213 -0.31743314117777077 0.64425790344054712
0.71557368957062562 -0.3053373254262709 0.66873031023864238
0.69162582733429312 -0.3359750383454983 0.68703351899303633
0.69613671656613507 -0.34661242705655526 0.66199803858814588
0.77507299912974414 -0.29832494665270276 0.5912665589147077
0.76972467867632366 -0.31289240770505145 0.59755235159582121
0.78864977584814422 -0.31030061535330095 0.58784179508073908
0.77933137365690064 -0.28495600988306158 0.58564146992289157
0.76252692591934623 -0.28509808213815246 0.59789079862438288
0.75652036827216829 -0.30140833632166053 0.60475276655798549
0.78391693589815448 -0.32314688496555527 0.59357820461175459
0.79218021017822904 -0.29792591919190381 0.58272023224446068
0.76764513141848256 -0.27066913106222806 0.59168265768368067
0.74358125389327878 -0.35287749021962334 0.61979652565696219
0.76102375897233132 -0.35815361738949347 0.61342958220550003
0.75359511210690378 -0.34083513042100633 0.61215078021811453
0.72712809887271745 -0.34642027961967148 0.62940664729208806
0.73401402042462538 -0.36345632977917364 0.62677230292260355
0.75196334783363039 -0.36758741687779439 0.6199844339124978
0.76985993940630759 -0.3474965911302702 0.6065954703967753
0.73831733419193191 -0.33294219598475316 0.62093080344647178
0.7170646249620648 -0.35829021510882975 0.63684939209321256
0.7897331332525912 -0.26275539239007351 0.57497958350255773
0.78673832403185295 -0.26661286554732966 0.5763316413835482
0.7967378579985821 -0.26832199024084447 0.57320629316459648
0.78577914098566015 -0.25368359092986326 0.57688631223016196
0.77873749083955579 -0.25418898116298427 0.58072134843550582
0.79662112720025746 -0.27734252804613269 0.57462022302207316
0.79406834406042026 -0.25814861290052238 0.57553490624954073
0.72009906286615 -0.38337451751162344 0.63885930022159232
0.72871083642469048 -0.38615631104593534 0.63623973253690802
0.72145734752497537 -0.37969421903862999 0.6360020497164991
0.71101570448691487 -0.38319134627429224 0.64505709507653908
0.71986608195792801 -0.38668052330702263 0.64392073104316427
0.73611222554707101 -0.38215367220803487 0.63076743173457306
0.70786456259837716 -0.37695927797239592 0.64477236327712228
-0.088030031804011116 0.22157698294856421 0.7616754858941428
-0.090186826180408297 0.20852210321299613 0.75743485254912502
-0.069148576613730112 0.22114424015881218 0.75920056883734199
-0.086789058742276937 0.23074091047316708 0.76497944655459604
-0.10743921876142717 0.22351298063276648 0.76428024043238008
-0.11121285751815693 0.21058677236695167 0.76040223062528001
-0.069678662518244699 0.20801231113636121 0.75471228747412522
-0.068938189789700011 0.23005530421952125 0.76274066546369346
-0.1050741149961045 0.23293590499337097 0.76735411166251999
-0.2512480474977602 -0.061742824662749982 0.76412010839102695
-0.23857220484652505 -0.072938565213837292 0.76413904249453823
-0.24026473985242461 -0.051986231096040697 0.76006955607576043
-0.26570718633246232 -0.051223923173296368 0.76422222881925128
-0.25914665123829422 -0.068445577231656923 0.76708512197009271
-0.24687528932623498 -0.078806207429419919 0.76736958623683393
-0.22648497109911708 -0.064166956380347043 0.75977985005766469
-0.25586640527346488 -0.04051690051209382 0.76065259076255143
-0.27314430831252928 -0.058818195053231048 0.76690205786993593
-0.16813421141306525 0.23902534096602573 0.77124792387901309
-0.17665149779560621 0.22629956074793478 0.76903591744628086
-0.14765912297181516 0.23215065478136221 0.76911833032509902
-0.1621065136841244 0.24903575342357626 0.77346686522116226
-0.18846622921251496 0.24775460544874817 0.77329750380414208
-0.19839340479120376 0.23521721710677512 0.77174196443874066
-0.15464087813206745 0.21936765197793612 0.76627726259274898
-0.14288167716074757 0.24203619494976031 0.77165900244752406
-0.18117552579011995 0.25773524592565428 0.77516821521868295
-0.32003059586903426 -0.024683282253644537 0.76317356586012308
-0.30012278248204638 -0.032532567845632548 0.76386482718300641
-0.31346749123947115 -0.011227692362493602 0.76180032535368869
-0.3416263319353115 -0.018161129151867794 0.76213585051075494
-0.32567288106551795 -0.034932824415451355 0.76470659702486654
-0.30645883398634888 -0.04194123172693795 0.76582712558622923
-0.29248739698808346 -0.019937674857648316 0.76167908621395108
-0.33619223963109546 -0.0040291721664064972 0.76157089551557289
-0.34641017105581901 -0.029143873202708379 0.76323495327804247
-0.24525253258718296 0.285872997758223 0.7795510134550967
-0.25822928299740194 0.27559100741130088 0.77977473124916208
-0.2275380952605896 0.27122649909605673 0.7775002493775951
-0.23426020560892991 0.29428869432728488 0.78032986070699151
-0.26077033977142483 0.30218234745801337 0.78131917081496671
-0.27454632247640931 0.29319645472719491 0.78198794082283318
-0.23967481461332243 0.25988605060105041 0.77719009541899586
-0.21773013703535757 0.28042368280240348 0.77862459703544173
-0.2487221526910921 0.30960370214432709 0.7818315438139094
-0.41508232688375424 -0.009024367400559799 0.7567424701171821
-0.38954906073329143 -0.010080664690897689 0.759012261781987
-0.41392126197655416 0.005239450533879253 0.75796717683782755
-0.44071821112207943 -0.010299666785822739 0.75376238032065634
-0.41590796341521818 -0.021128143770503469 0.75682308285940025
-0.3919110656522794 -0.02201518149953606 0.75934363056810006
-0.38678135616031484 0.0044533760172029563 0.75979458903613728
-0.44136054757517046 0.003515113981190518 0.75523227546732152
-0.43989519097411423 -0.022366836256650258 0.75374976862543064
-0.014815799966057551 0.22951171618782745 0.75329677349202928
-0.010430434285250166 0.21707411787659525 0.74868461538029329
0.0054206324907635287 0.23824888676762124 0.7497915662743333
-0.017017753942777401 0.23777256625912335 0.75782803373058472
-0.033148713698754904 0.22454606132090299 0.75539573972068408
-0.030385769172271586 0.21166867207275772 0.75079035197235955
0.011351245370178294 0.22651182406372439 0.74501070888768961
0.002405366691118356 0.24620693814870415 0.75480400707493511
-0.034618107698794053 0.23302682615450826 0.7595300219247505
-0.2112902623601024 -0.11149388656243556 0.76637132909387828
-0.20657778760182063 -0.12968919406117296 0.76663948554317463
-0.19665420988242779 -0.10613722132414427 0.76221391787638293
-0.2184323687243 -0.097046717996587498 0.76545650850605851
-0.22048538483185323 -0.11537400249943862 0.77048114166625559
-0.21598005051440242 -0.132822034458069 0.77103819508215476
-0.19161001257348798 -0.12573759756572497 0.76264315027580976
-0.20444851451437571 -0.090444053568768681 0.76109744029733006
-0.22737939569110321 -0.10154848871365062 0.7692590262247061
0.085843222236759026 0.29623749699066076 0.72351464817736688
0.095519510952314451 0.28846699106673146 0.71614198868547874
0.1133668509128527 0.32360257868955361 0.7116154873670002
0.079084372460553026 0.30226980331750486 0.7305671982212314
0.056644331119360521 0.27181843885506107 0.73472081977040138
0.065253234477817973 0.26242901509695948 0.72854440638579154
0.12390274236364432 0.31765676426521372 0.7029532638425382
0.10524467626352624 0.32864757727337157 0.71943286150958796
0.051314631599423767 0.27868019188114368 0.74101446141286376
-0.21061503272201898 -0.21824295972608015 0.75841399382936214
-0.21924590306809214 -0.25361198874205859 0.75292358551785732
-0.19730867340215597 -0.21970153990450164 0.75356070866173019
-0.20587479690834204 -0.18377522472426605 0.76278018469893083
-0.22037026905963744 -0.21742052344275256 0.76339908413990876
-0.22884601738120761 -0.25114312368027814 0.75806322057027065
-0.20727092553825666 -0.25704850633820753 0.74742413737207491
-0.19156883613125933 -0.18326739002824174 0.75845480899374218
-0.21559431839017584 -0.18453949434568417 0.76761233341308599
0.15946609770019252 0.40947476481079298 0.68338430779945813
0.17116261770960564 0.40959175898594286 0.67192921467741451
0.1620178008747393 0.43908559411074016 0.67725719195105305
0.1492488506197249 0.41080757724699662 0.69297675589886376
0.15119052503441288 0.38073892340803961 0.69100412341569939
0.16274556554129918 0.37878732561938472 0.68019007383955077
0.17361020596672996 0.441273735248085 0.66550851873539885
0.1517943960338842 0.43892341129347601 0.68706048406632392
0.14128019699637284 0.38342902707192661 0.70015175781595351
-0.27167467290076242 -0.33874219737257838 0.73276226165064062
-0.29801971024766644 -0.3593043613233719 0.72444322882721113
-0.26490386469158445 -0.3471598410481801 0.72548515327929408
-0.24966404380621468 -0.31490528084149927 0.74006939547767558
-0.27897350811874622 -0.33235808812365325 0.73861524766913855
-0.3039309937838317 -0.35199397204815175 0.73052113987701839
-0.29324225669587195 -0.36892795727262856 0.71678161211621094
-0.24101289475013737 -0.32188261963041631 0.73329836532557957
-0.25806168567728294 -0.30960246360635379 0.7456543136646212
0.14475685213808001 0.53632785297647545 0.66616399996312592
0.15462115681110489 0.54441711865942088 0.65585963080845033
0.13219545892072299 0.56748629329349021 0.66545984379497125
0.13569288329609225 0.5308555469601306 0.67472987127038864
0.15404969437152849 0.50321885136101241 0.66858951246806675
0.16470533941024978 0.50943009727851629 0.65745777320226106
0.14110782171961128 0.57730488445909589 0.65616266868304796
0.12379413480678339 0.56022513800532492 0.67322757477122752
0.14444665512624724 0.49960294079812384 0.67784750205827304
-0.39977561371275799 -0.40882150998332029 0.6914138775103762
-0.43654777417149832 -0.41973753001460867 0.67942994995113626
-0.4013512375962186 -0.420584009509058 0.68348162422601799
-0.36312386102132999 -0.39440123634821944 0.70349248251067564
-0.40016783424448299 -0.39925135951926616 0.6975119439652735
-0.43494643324438675 -0.40964186868388852 0.6854708298303902
-0.44021653621696577 -0.43175299165407055 0.67154226000328721
-0.36255889402058911 -0.40569341960524447 0.69552977703667396
-0.3655088930929804 -0.3855014597573283 0.70967528892388443
0.077568304556244999 0.63205234837736413 0.67607332578903434
0.083079736551851996 0.64575479392866575 0.6697663828525755
0.055893523315456363 0.64352490182243938 0.68267185916578965
0.071696738401077931 0.62087839789664723 0.68191852322894775
0.098076146337877701 0.61600396616675868 0.67057127415742857
0.10476639606735874 0.62867501038524409 0.66332043559545073
0.060244888058725167 0.65793031114157341 0.67729456454837744
0.050987698612303269 0.63166449715391337 0.68802471055651759
0.091288668645091192 0.60583042237813933 0.67694374381134681
-0.53010944143188221 -0.42291343577566609 0.65173025637201443
-0.5540703903479457 -0.41545686725482556 0.64574272768252361
-0.53920760261375777 -0.43457786091637418 0.64346855504316425
-0.50262666647177356 -0.42679903914648304 0.65923270419965863
-0.52355375706768537 -0.41251095081979006 0.65847052320894783
-0.54634479579069617 -0.40538602907187143 0.65283830140567778
-0.56447778130282666 -0.42668527543519708 0.63737498870471465
-0.51011863974006344 -0.43875031974932632 0.65116299225548602
-0.49748848246332034 -0.41627226194369882 0.66560468614823765
-0.0094747775287277111 0.65548886960058805 0.70379218509718378
-0.0081790233164889189 0.66963924888222615 0.70123846057841877
-0.032773579706812488 0.65018105141241322 0.71203321690278343
-0.011269979803046969 0.64349512041009749 0.70746896042900609
0.01242851135650145 0.6554390676695877 0.6965541534825046
0.014722556656136344 0.67006491288278625 0.69310823740829286
-0.032652880893701601 0.66353755935895731 0.71013849878869628
-0.033369126557613586 0.63873533138348304 0.71533691670931265
0.0095457681496179739 0.64317641092735123 0.70078576805530757
-0.60571973740043272 -0.37980196542618505 0.63621152935125314
-0.61559715075642463 -0.36184038969043508 0.63755646907749974
-0.6177788341271232 -0.38885570350611748 0.6288831162585502
-0.59196356496886027 -0.39395999852246738 0.6376625445178683
-0.59603940214149953 -0.37186363178411441 0.64344964399690796
-0.60569801966014836 -0.35505380315340174 0.64474467352947418
-0.62768138697396703 -0.36968922271840804 0.63068744585469427
-0.60382266448378263 -0.40391970194332805 0.62980128771635124
-0.58269136912085684 -0.38511211629308661 0.64499398336438252
-0.11801817788084937 0.59521845730902645 0.74667483824365233
-0.12365403087572779 0.6048847577972144 0.74440138331781225
-0.14861267105903669 0.56909398159451707 0.75853413488912769
-0.11401698024933807 0.58678076472033458 0.75087133792907701
-0.087400504890119052 0.61923416273770737 0.73394399627441786
-0.090762277183873252 0.63026862477148415 0.73211044359595667
-0.15663359787681858 0.57738920696436047 0.75590218177444357
-0.14290118727507337 0.56185358892393777 0.7631933316885815
-0.085077126807856174 0.60962871041365574 0.73757683405749219
-0.6204205022702487 -0.27723460600284755 0.66359296523980649
-0.61643461963100998 -0.24333052885733525 0.67574711543540134
-0.63269671337539413 -0.27911615949531088 0.6562094707980175
-0.62246347522461265 -0.30991248282743195 0.65184444892731119
-0.61056847682551296 -0.27549900382598752 0.67188459817681356
-0.60664367872601643 -0.24347441571614875 0.68439291248168699
-0.62896136912271372 -0.24287634799476382 0.6680564846601893
-0.6345868575373691 -0.31410686467230386 0.64489784456401589
-0.61253128564522952 -0.30629029729071749 0.65961273718386471
-0.22520840475393078 0.50151321317988162 0.77611892547344485
-0.23941086864164834 0.50654831635804021 0.77527510768418462
-0.24401815641791166 0.48350927112562647 0.77706211685873483
-0.21497851191471457 0.49719349779548727 0.77938043082933239
-0.20304017746829892 0.52127381103677994 0.77346564289783593
-0.21544552802245703 0.52723784431479104 0.7715469019027601
-0.25972857812482258 0.48768507508966807 0.77738294250255158
-0.23261862283425022 0.47995989957579044 0.7792839366639952
-0.19416164524319354 0.51611819394006264 0.77765929935355826
-0.60372891430529962 -0.15587582307951708 0.69784077833617975
-0.59909366257829022 -0.13317060058033242 0.70118501948726486
-0.61756093945892276 -0.15021589698766691 0.6923889330582369
-0.60775467896843749 -0.18159190721800672 0.69327700166886386
-0.59353994271921184 -0.16025153100355477 0.70459609952725244
-0.58872757485468696 -0.13850155730657066 0.7066815845720309
-0.61328655787222752 -0.12637959462011905 0.69717438672558907
-0.62111333383484402 -0.17730143828659772 0.6865445414727438
-0.59778194090187509 -0.18483394476645587 0.70114786761330339
-0.2805225956889032 0.43290011240718351 0.7795240397534744
-0.29882847199986762 0.43425428772414509 0.78137554707796086
-0.28647541143425492 0.41561028956452356 0.78083462111638013
-0.26687093169750037 0.43175147274673958 0.780272648490274
-0.27158213841091988 0.44975227641947324 0.77831259839549061
-0.28936434738061001 0.45213691065290185 0.78005608035968588
-0.30493744807164658 0.41580505888000335 0.78257914214635704
-0.27248164010022113 0.41542387141100379 0.78158768549213731
-0.25846852439954848 0.44774489335090789 0.77921241636961636
-0.57575714441237635 -0.079860004407838414 0.71430520435318656
-0.5636462373656963 -0.065774108503246886 0.7202745523865226
-0.58931008204797219 -0.070267177085575117 0.71317306682152015
-0.58553772308548713 -0.09552166910154955 0.70895716105412698
-0.56593162853617662 -0.087639964505054693 0.71735356132916683
-0.55447553822370643 -0.074324890232046401 0.72290792036710982
-0.57622632272201468 -0.055378655108931016 0.71962042803806514
-0.5996635978498055 -0.0868046741840343 0.70718627739930362
-0.57530253967617739 -0.10251438547914159 0.71253521234903006
-0.28778282849003611 0.35861901096322507 0.78331672954549525
-0.30446371021368696 0.35436466174725817 0.78466319175148147
-0.28227353653187165 0.33895492205868216 0.78325500970230855
-0.27383335969527989 0.3621711274501494 0.78384105923145309
-0.29014593040699688 0.37834434812220952 0.78288024871292827
-0.30773481335088121 0.37571092698154823 0.78432581674913671
-0.29792109340110856 0.333049834800069 0.78447226322333941
-0.26872620056772384 0.3438883536518737 0.78365449147597843
-0.27599957031256173 0.38053151124581175 0.78355367546520016
-0.51149215896703648 -0.029893999275485153 0.73922554383798644
-0.48946615137482252 -0.020864072448411555 0.74494836038224022
-0.51864898633605938 -0.017619101241061502 0.74004173084641733
-0.53144808352214856 -0.040732678492627114 0.73301284333214323
-0.50579781410454316 -0.040670094559082548 0.74025852983222018
-0.48531594231501696 -0.032243693811289956 0.74543633644272522
-0.49434752714403241 -0.0080789754001145131 0.74618729055075517
-0.54076093110119539 -0.029005180244168483 0.73331442547906667
-0.52436638897145438 -0.050802988666023743 0.73465084553566995
-0.24427846218104873 0.37004898975381467 0.78071638602063054
-0.25252336344585119 0.36776278687306851 0.78322950511826406
-0.23955422789671255 0.35488935927775478 0.77923240745866651
-0.2369983294391752 0.37213201630405296 0.77732112702310174
-0.2467122683201213 0.38519754184330324 0.78174194663908292
-0.25490989381205698 0.38388239016230358 0.78372069356155061
-0.24764760844068018 0.3516803115000513 0.78228337612681798
-0.23243961689474038 0.357823402618899 0.775234760492159
-0.23945393430471015 0.38636746889773865 0.77893938653613359
-0.49383380836351176 -0.063322912092850181 0.73859619783151231
-0.4763968352170157 -0.056397451773187987 0.74157845550019763
-0.49724941229635722 -0.057228215520908579 0.74062711096121325
-0.50971447215967158 -0.071534595740453816 0.73526030632262396
-0.4907622731618822 -0.068544297748195912 0.73568003617778888
-0.47418811047285425 -0.06197872265020464 0.73781279319255932
-0.47889264916874219 -0.049889425748410959 0.74441554787938924
-0.51396099097214398 -0.065994428168464098 0.73647229353600285
-0.50584995726316972 -0.07625188605232161 0.73319934848989976
-0.24012225090303635 0.42877846385917207 0.7801015818490038
-0.24762186615379947 0.42973781501166575 0.78139696610945597
-0.24466780127035812 0.41455916481187038 0.78128516161324013
-0.23347175794181757 0.42783791182717174 0.7780630411256777
-0.23314977549097549 0.44299875715874859 0.77905631084634064
-0.24021289830124246 0.44444157448129884 0.78044551970590259
-0.25247563800630318 0.41491016007693182 0.78262223363868721
-0.23773769490453975 0.41416950140458891 0.77920673552948228
-0.22691214314492289 0.44163986283848844 0.77686405394267899
-0.54605557153779627 -0.10252480126437299 0.72219643855930205
-0.53582240237755074 -0.091075203920756825 0.72685070784656913
-0.5518952193347062 -0.098687430879298099 0.72198821066869612
-0.55474244056824074 -0.11549931292847478 0.7180302535967531
-0.54068897107546954 -0.10568681818715635 0.72156090617310342
-0.53077949766528343 -0.094735233131816032 0.72599318614633779
-0.54130630312543249 -0.08669382458240843 0.72689412598001235
-0.56074972861279249 -0.11223094460280607 0.71775715931035311
-0.54924302048890961 -0.11813278755541211 0.717368576040748
-0.19694238864569535 0.48820640899008994 0.78036733912195566
-0.20164079572937413 0.49063403423401719 0.7824736470674194
-0.21169373481577403 0.47236654577538928 0.77970833280980045
-0.19303045494114071 0.4861191459175247 0.77679871135161371
-0.17922823149335926 0.505434124304461 0.77908608071347496
-0.18294862560593339 0.5082945764788025 0.78146687948610594
-0.21733351214366528 0.47448170506528975 0.78153775251563329
-0.20685468046434863 0.47049960216460995 0.77669627430770771
-0.17626278395646794 0.50299462892649149 0.77499147928922962
-0.57393996553508941 -0.16649781102490324 0.71221108293544311
-0.56847980907592055 -0.14724458848409505 0.71352459596834406
-0.57939410169397709 -0.16538729622541098 0.71253576806563079
-0.57867254732360185 -0.1882404791526992 0.70943311269501641
-0.56913376099953472 -0.16702463662785294 0.71016734796523573
-0.56333451174913485 -0.14857328880473736 0.71208169366494145
-0.5742268776583912 -0.14532174833128841 0.71357202181627732
-0.58391847070573077 -0.18803589414832081 0.71001139469413355
-0.57410181972677732 -0.18788617154846227 0.70685226410898583
-0.10803890863861756 0.56745962514466664 0.75113003590575755
-0.10933057152027656 0.5730854835084247 0.7540260737842952
-0.13407551620180611 0.54590356632672377 0.76422131418700401
-0.10716702681871113 0.56232111086799152 0.74644285453868564
-0.081845053630818065 0.58703494731288763 0.73708394478152739
-0.082495963356355395 0.59376654269429008 0.74001124615147873
-0.13606739967147405 0.55039882686525265 0.76701412667831614
-0.13265285697082857 0.5419005376085716 0.75954747850121795
-0.081449792013007505 0.58078293535103287 0.73249851387690579
-0.58916331198325633 -0.26800876864871054 0.68058051554800425
-0.58659279172254419 -0.23990590302665826 0.69322862566549359
-0.59541306452334497 -0.2709974849505698 0.68112175874622416
-0.58977762405376322 -0.29496140197520876 0.66802909075422212
-0.58344561801882056 -0.26472488984087944 0.67797568220889848
-0.5815432862304788 -0.23760730098409444 0.69035939032947291
-0.59225385344154258 -0.24178796504451958 0.69391783163925469
-0.59662491647353055 -0.29899761451753948 0.66838508804708918
-0.58337206187474133 -0.2907709666287478 0.66577704779401703
-0.015977534833543909 0.61554334525598497 0.7073715743170863
-0.01468768362226585 0.62391965259665161 0.70991575435584742
-0.035436581481796202 0.61165651650207131 0.71458129341708765
-0.017098649497184308 0.60773198598855849 0.70332061001646395
0.0021276182733789908 0.61513060082607907 0.70170072465451683
0.0041853712945246271 0.62346009286037585 0.70393659828740907
-0.034832086653041598 0.61982123907535414 0.71733818694928053
-0.03598966107359549 0.60400920626425014 0.71032099293504825
0.00031780449972416275 0.60741277709320785 0.69794162159406103
-0.57319378003971366 -0.35195388050267118 0.65105392362474612
-0.58203512089992304 -0.3374329096498806 0.65260055262399352
-0.58029447118944277 -0.35815176583429398 0.65125902873833774
-0.56142356040367702 -0.36333425728178909 0.65226606547446253
-0.56640149827774444 -0.34601869307217814 0.64920484782661969
-0.57501091289460959 -0.33191730366538108 0.65076792045822218
-0.58938344421730804 -0.34308213642861152 0.65276443937577233
-0.56798994713390405 -0.36998489353980096 0.65257213240917178
-0.5551703294674154 -0.35704884909081813 0.65032107157342911
0.055439842103650445 0.59631133676300763 0.68676197427668972
0.060486558236652978 0.60348818798259052 0.68750031069752127
0.037699761321506826 0.60535456590426051 0.6915077099431215
0.050617288134864415 0.58974266563516509 0.68461195330897406
0.072370224517110726 0.58360928211763774 0.68311095919091525
0.07836545222353028 0.59012352907549448 0.68333669467973923
0.041685778041463624 0.61305477235351946 0.69280416355595165
0.033979913346753411 0.59829667519606045 0.6887350546261044
0.066561528548583604 0.57763127444638873 0.68151663144023367
-0.51085934313156012 -0.38681803555189853 0.6636979845092712
-0.53025116066664768 -0.38068173737666555 0.65890376509233017
-0.51447176127659444 -0.39467199642623546 0.66444723050605647
-0.48855728312396518 -0.39015555139689739 0.66998384515756615
-0.50761786538681553 -0.3793906471242377 0.66145410323508358
-0.52584514119903647 -0.3736321777045909 0.65675041972800163
-0.53501664938152815 -0.38817642972290844 0.65949254993803552
-0.49095587087587356 -0.39820807489574456 0.67091463493075443
-0.48650604708600548 -0.3824930622209865 0.66761907767918149
0.11266601455325886 0.51916706305365534 0.68400798890635706
0.11976073987230351 0.52290590825293704 0.68362421766564307
0.10146163032147143 0.54456075826327266 0.68166921057652563
0.10592087877107909 0.51552311996171418 0.68276733804552214
0.12114640656980019 0.49202066763593588 0.68769776972639129
0.12814286569372435 0.49467156010374025 0.68737744634037901
0.10849296184175145 0.54933380704619716 0.68131997488448914
0.094677046881590315 0.54005553989445709 0.68054030771994012
0.11461179799903845 0.48929619546983116 0.68623999458653984
-0.40341458907834143 -0.3766311701783186 0.7002040950543984
-0.43410663507839453 -0.38510274572273762 0.68856058019523414
-0.40250623350715814 -0.38362159030164744 0.70182620991858502
-0.37272508874887839 -0.36519184156728862 0.71204736700664983
-0.4042195427872558 -0.36996928309104415 0.69706994678691481
-0.43409687924905155 -0.37782235336213588 0.68574182874292222
-0.43421773324239454 -0.3927212494741853 0.6899351798612039
-0.37084306351432217 -0.37141081076921589 0.71390466458038371
-0.37429312788166824 -0.35930141812610961 0.70860025637812041
0.12621701177737518 0.41409721692874296 0.70254159948514849
0.13283450261409238 0.41356591276743659 0.70257235335918855
0.12844510969984463 0.43895140954315626 0.69706658780886954
0.12023477581874381 0.41428848751749681 0.70057827021710728
0.11917264810570805 0.38962829154038092 0.70895728900454236
0.1255309337960803 0.38814616241831068 0.70918596516329435
0.13519506454561886 0.43943729613555871 0.69696354719405607
0.12231381765652855 0.43816814889735556 0.69523067764725588
0.11342163935155516 0.39075912258406864 0.70682906653162036
-0.2962326003437874 -0.3190818829527336 0.73993265038465617
-0.31829582298639275 -0.33640284790047681 0.73221968331870291
-0.29154483866338843 -0.32295390644429162 0.74225881879906352
-0.27752511127186452 -0.29884776810834984 0.74661468049275248
-0.30028193955387622 -0.31554238884291885 0.73594645536380177
-0.3214953782511788 -0.33210623150988344 0.7283428836797321
-0.31450065925623777 -0.34103734691751286 0.73442999904328921
-0.27208638208132163 -0.3019157135856313 0.74904220874751393
-0.2823357590059748 -0.29609133676362509 0.74253700001716982
0.06535589614588469 0.3151321491916852 0.73549756898909724
0.069506299932196397 0.31135883122905494 0.73694236585813799
0.087942535313226544 0.33964064280711603 0.72585737289847385
0.06146202558764189 0.31859689353729403 0.73220002895424452
0.041153035583701071 0.29302769625680525 0.74438805406370712
0.044363275598102249 0.28872459182976457 0.74633928153502649
0.093034661738177649 0.33652307653524799 0.72680664550710339
0.083255346563333887 0.3424307046808025 0.72305507339139696
0.03805091054528973 0.29704318399717566 0.74059211636568989
-0.24105814856262262 -0.21665827451282643 0.76368215456935751
-0.24994262867394818 -0.24676220885475525 0.75853556513488551
-0.23479887854011955 -0.2167648570971859 0.76650363354149564
-0.2355100319893392 -0.18713895860656507 0.76761491756927636
-0.24693518964385078 -0.21663953600885455 0.75911181457943933
-0.25567542632341039 -0.24579423074451989 0.75417141072462135
-0.24372295104209077 -0.24791450256007747 0.76120391063924542
-0.22933468055913189 -0.18628889299578025 0.77060402211625512
-0.24140793741957436 -0.18797967294069112 0.76283046186285386
-0.021389698456378968 0.25423092198147457 0.75708849605625494
-0.019728317684943007 0.24914842091367001 0.76012118632387549
-0.0030074664531600723 0.26226991373211106 0.75530001206115061
-0.02317316556898049 0.25907142649766757 0.75238355534733792
-0.038234889797752407 0.24982513148578611 0.75766039997349899
-0.036804255986299349 0.24462733215915272 0.76094402370945802
-0.0010578917971240318 0.25733542069635112 0.75805492506575556
-0.0050447254834072239 0.26695250700575024 0.7507940034271785
-0.039800777239995554 0.25478092680256637 0.75278134368619543
-0.23886393190482808 -0.12323623701743845 0.7683089954094362
-0.23462312408966143 -0.13973252303430492 0.76981603653074093
-0.23294240676303776 -0.12092172699308815 0.77186202356972045
-0.24560030154115875 -0.11010623673450415 0.76603733368787852
-0.24466167380108336 -0.12536732334744732 0.76305836847912056
-0.24045607206409761 -0.14164214120532176 0.76469570367104178
-0.22864641895529253 -0.13767534449199004 0.773168712491342
-0.23973557455391012 -0.10760533284606441 0.76981668937912429
-0.25133939543450395 -0.11239766657758415 0.7606346125759218
-0.21198163564432893 0.31166653482687856 0.77451010897431938
-0.21789353132985509 0.30686724430200424 0.77834449414355555
-0.19894672513561504 0.29893567714337654 0.77298009586100025
-0.20697772835941214 0.31586753672969842 0.76953895411334172
-0.22326972231376865 0.32543559479091055 0.77601924662218535
-0.2301647094218337 0.32095868339754879 0.77974535646508092
-0.2038058981329865 0.29391409806682928 0.77686965384993867
-0.19492941077768441 0.30326731212483615 0.76788547855072564
-0.21732750803071052 0.32943164834535149 0.77121957086005799
-0.41740782260064507 -0.04503277569582366 0.74984050103984168
-0.39682743325112008 -0.04464781725381689 0.75229182147707396
-0.41700205559036951 -0.038861120420598361 0.75396783540952028
-0.43783348364562991 -0.047142090687516347 0.74716832460800231
-0.41775808144368176 -0.050125206506498404 0.74463276535815059
-0.39797542510985645 -0.049284328503653732 0.74689250647572658
-0.39549570327461681 -0.038920948705291239 0.75654825430551842
-0.43838758294826524 -0.040610811711945236 0.75107386645018481
-0.43735961944608615 -0.052637260114432843 0.74223629027958626
-0.15214866512242387 0.26956594027805514 0.76773317457024137
-0.15460644753350872 0.26378702615696248 0.77207607968999081
-0.13524098270765444 0.26273859021628038 0.7658076739684776
-0.15020630283910488 0.27470419962106041 0.76193151123174263
-0.16868628779646874 0.27779548949312916 0.7696004065969333
-0.17178461882846141 0.27229346766583817 0.77374186392750421
-0.13712399231595854 0.25674072037431644 0.77031109386618835
-0.13375591799449194 0.26819334340309997 0.75977236008435045
-0.16622654113064508 0.28258482434911358 0.76408944129509493
-0.3384234569962325 -0.053830676996444157 0.75745872537442982
-0.32091874173167012 -0.059609300435792351 0.75852856232725019
-0.33472110201584926 -0.048912336828280598 0.76224576297247593
-0.35702297443896214 -0.049192561345861252 0.75611504554310027
-0.34179685943499793 -0.057920045286021377 0.75125006280361939
-0.32492412963034445 -0.063686186870397135 0.75206591356086827
-0.31660891417365289 -0.054852684711060501 0.76348017809462188
-0.35402698026700452 -0.044113142593982219 0.76068822007378589
-0.3596938221897989 -0.053310674870895677 0.75022070891391146
-0.085975612972297083 0.24974405132750493 0.76024224187787048
-0.085945523003209956 0.24393111142288593 0.7644171236231323
-0.070101348401114011 0.24812683295785143 0.75885053812088188
-0.08618674022540157 0.25524530325609307 0.75450885015751035
-0.10201955248564265 0.25281454990152702 0.76196466406253771
-0.10266081774662536 0.24680267931965011 0.76639011889346476
-0.069456999582480528 0.24255919425758438 0.76271410193422917
-0.070900190069441482 0.25341951415237507 0.75344840539081592
-0.10160556488995542 0.25845820801851488 0.75596167140396298
-0.27653071819736125 -0.081036063082942852 0.76099127919896192
-0.26468426234704279 -0.089635688755900847 0.76211577950767584
-0.27106636975631632 -0.077414787017748704 0.7656416966979851
-0.28987256983469822 -0.073285244517799872 0.76015474773202696
-0.28179650593707717 -0.084311013794229908 0.75476936549376483
-0.27017406728278215 -0.092487401225663401 0.75620541932476937
-0.25902696309944695 -0.086499990779288161 0.7664653526388745
-0.28468450489584501 -0.069177718116241696 0.76504226871705772
-0.29482688223746434 -0.076963026987428296 0.75368498673771644
-0.40327127836927823 0.22330446444769914 0.67140526563247716
-0.40735355761024428 0.2173568406397885 0.7013266995767331
-0.4107186246076705 0.25067679875629134 0.67491772219260704
-0.39947852649162519 0.22997870615847393 0.6430690859663768
-0.4033519672499371 0.20013806310890903 0.66811051037490943
-0.4058105481973367 0.19568157714581935 0.69805377827152104
-0.41706678867336178 0.24250524296702675 0.70504202127184468
-0.40259054675365696 0.2618238773493643 0.64587458206827608
-0.40209046829830508 0.20488368029359599 0.63985334481395473
-0.44622125002446728 0.14870356624601686 0.66054283120573309
-0.47643885929863777 0.13652077013603187 0.65696402786172658
-0.44702830079600375 0.14844322764668355 0.69119361476365593
-0.42456836263963038 0.16328871375377557 0.66301171738822151
-0.44619629942387273 0.1488340261326202 0.63139172813114453
-0.47743945981435054 0.13181301184479699 0.62571636196591851
-0.47693104706252332 0.13851907503978686 0.68847293071329929
-0.42557785911276097 0.16134743766708204 0.69326099743642455
-0.42449436225498816 0.16597114191652432 0.63454237893277798
-0.48253515522481638 0.35223856834167722 0.6889683328827183
-0.49345107021506929 0.34071981045978977 0.71773513985335891
-0.51043999604453716 0.38869582601060004 0.69400969408527291
-0.46630910106756573 0.370237577280284 0.6634558270813149
-0.45271175544369885 0.31611219209024671 0.68378794079246741
-0.46266237019724277 0.30462145361778914 0.71337299029257695
-0.52222302950667754 0.37855259560443189 0.72203178033858073
-0.4928199700189082 0.40249560967885722 0.67057106883796536
-0.43790877331516459 0.33450932173115761 0.65604017844718432
-0.61606073172447873 0.12025075176835617 0.63913490038251419
-0.66736929895203778 0.116027829199745 0.63062223954016039
-0.61763038118460756 0.12496780119688483 0.67055390903904133
-0.56375005716765891 0.12321104290216611 0.64631554431222193
-0.61742795376573789 0.10768767433290699 0.60837087866834905
-0.6640847183491112 0.10492617643768931 0.60321378209306298
-0.67109584615402096 0.11987773135013013 0.66082886376547756
-0.56430937597936526 0.12803278083311737 0.67844642425449031
-0.56650735655940221 0.11110546290377438 0.6135655065379404
-0.53315183233976804 0.49735931063387895 0.70374827133999274
-0.54733078050921757 0.49081137550127485 0.73272997306542265
-0.51721469148607946 0.53061105482825077 0.70549384054901632
-0.5110948573241515 0.5014041059517288 0.67789046267516251
-0.53803310662415904 0.46189293624149297 0.70149242589336169
-0.55167822593116622 0.45453652416197543 0.72984054312173563
-0.53090002029024075 0.52506474900272448 0.73430499297504492
-0.49712583934155352 0.53232448603964189 0.68051936564603954
-0.51680570935019665 0.46786569300543523 0.67722249786271282
-0.78028848620448066 0.067910106001827869 0.59308457174376938
-0.80019029223785354 0.03888892087257817 0.57982144572696104
-0.78975212086412494 0.069546474197899166 0.62207355049979696
-0.7514639589704275 0.091019331295706413 0.60708029967555976
-0.76444773301055458 0.061167410968242339 0.5683777957834848
-0.78378072847194813 0.034223481579526469 0.55738970731559068
-0.81017008708367599 0.039771409561045162 0.60793694129796161
-0.7596210956767725 0.093192944005356049 0.63614647352538767
-0.73824607350714666 0.083085599932598328 0.58245553037687525
-0.40632355212512433 0.61254668226404296 0.69706180565476461
-0.41624392418115402 0.6115006678759245 0.72697096945374473
-0.35443019382364738 0.63814921170448702 0.6894011626207639
-0.39635867543723041 0.6040340181374495 0.66967957526504907
-0.45247235268687375 0.58750939832537818 0.70256233940993673
-0.46369074261954968 0.5848797472658267 0.73161140439400052
-0.36337315563062711 0.63822102212511467 0.72027761058952167
-0.34590656604002845 0.62788325703580039 0.65928989889519451
-0.43951623099413545 0.58242453706444519 0.6775375800921859
-0.80343765419248914 -0.077416000498274296 0.54478829808589824
-0.79357836905859935 -0.12479356270315317 0.53355318045939759
-0.81458761795582768 -0.080608159516945221 0.57183134618815346
-0.81028622949169249 -0.034209490984062958 0.55589049267188373
-0.78425143241557882 -0.069895099624535467 0.52419562209589454
-0.77358039353648844 -0.11511158788816279 0.51088327587643545
-0.80488703736557798 -0.12884332894641465 0.56113046634091512
-0.82098540532687603 -0.035945168283048126 0.5827468339804931
-0.79255739198524877 -0.030986636670203072 0.53635826936239717
-0.19377979057330186 0.73271618940597871 0.65692106708736464
-0.1994290089987619 0.73274242919511146 0.6896091065532084
-0.14526239462761056 0.76614932029297012 0.64487898859471393
-0.18705403546377278 0.72904643580017292 0.62162335740936725
-0.24583702596459062 0.69855706476907464 0.66882628241613573
-0.25277451553813884 0.69882541051269986 0.70115860074962155
-0.14942134005741581 0.76681979025683866 0.67775829097064988
-0.13996183121993741 0.76273247812427925 0.60884157866280009
-0.23837385171704609 0.69183152574759688 0.63458501705615888
-0.77794373933477834 -0.2819848419304315 0.49508468011157447
-0.77794794512802812 -0.33278267337505496 0.4823926408841665
-0.78621945142863692 -0.28652853067649742 0.52492020159000652
-0.77965058203189741 -0.22873398936756004 0.50848995010399989
-0.76543769758696634 -0.27559973447386832 0.4647753268403278
-0.76677723403139364 -0.32599041383029165 0.45098765996065465
-0.78558371200619459 -0.33815918085891888 0.51249816866440212
-0.78927225407095414 -0.23313655266094557 0.53765108825406727
-0.76368545800622734 -0.2206752636938884 0.48042150692708813
-0.028932366012001963 0.84889545055013615 0.61233434508364004
-0.029802692929947659 0.85200673309201302 0.64428100872137684
0.0064789953107128664 0.86288845538082781 0.59634301282677438
-0.028061544458633562 0.84196073965890506 0.57686938972976542
-0.063847627099273163 0.82622538052365913 0.62370611815958643
-0.065529151963255761 0.82871308673394362 0.65623415516093875
0.0062682042332591684 0.86641633497996262 0.62746860746166644
0.0061126532197274611 0.85527137551141752 0.56183845824899903
-0.061664639109920448 0.82037553708464428 0.58758768339660339
-0.78156374278423513 -0.45823270807209698 0.45416614346665968
-0.77337682282197151 -0.49145937269955287 0.44783178763005521
-0.78856406470849294 -0.46577368084225251 0.48333645751366849
-0.782098326046751 -0.42123627507903416 0.46178860814008255
-0.77070079962535298 -0.44780407007767542 0.42343332027731712
-0.76298865669207017 -0.48038880949325136 0.41771005527698102
-0.78003061906975646 -0.49912501498683698 0.4763742341357568
-0.78930828883212312 -0.42835720412216061 0.49148595685910373
-0.77112695219166216 -0.41181073897336762 0.43045656525725012
0.1408427252733718 0.82928042213440034 0.49917731642381535
0.1425872903731647 0.83279261076961419 0.52685980049380521
0.18835739920010391 0.79442299202981403 0.46173497181975393
0.13674593047379163 0.82381261533408823 0.46806182049528805
0.091857827561104888 0.85355681360124769 0.53821127082283904
0.092922226955417908 0.85724340703444024 0.56706766543727483
0.1907605509333373 0.79772634870260906 0.48855257879930636
0.183264870030762 0.79050333485142954 0.43116521144497694
0.088972239837616207 0.84672768241590712 0.50607649267100863
-0.66705794830855425 -0.57340926590205277 0.43504575775299065
-0.60938096562778432 -0.59046861879814694 0.43677782222372752
-0.67101222731125587 -0.5797926406093733 0.46199195110277486
-0.7163161038651038 -0.54975454614675601 0.43753775982357151
-0.66231547309693961 -0.56353264727916041 0.40443309476689882
-0.60730461507928368 -0.58194947222388571 0.40509614658081478
-0.61209732402583616 -0.59605341347215812 0.46366596515966052
-0.72143084181996386 -0.55680135510439077 0.46486259446298334
-0.70904431536051749 -0.53894381785545498 0.40758240061449319
0.28523767408506873 0.64552152429713949 0.41110400456096169
0.28912847454492985 0.64873878204399249 0.43898209017751633
0.30131837713986853 0.58838173047520226 0.41289607424052904
0.27951323708310472 0.6443512589589051 0.37747874430812933
0.26198163999737645 0.70045163351628437 0.41633973018953035
0.26548369459040322 0.70361629170188589 0.44335479139490341
0.30546933100553797 0.59157442019943651 0.44154173115274309
0.29590006555556203 0.58736618436984134 0.37784844332995138
0.25609415983249567 0.6988069555241252 0.38434380386347911
-0.42343912528795818 -0.58438812955917918 0.48058140425208223
-0.36392308018442743 -0.56604997374706711 0.50217016349899579
-0.42316615250999584 -0.58744561133498308 0.50991815378220906
-0.48496437338849757 -0.59599188130616354 0.46028075381683281
-0.4268374368608735 -0.58153282853203403 0.44416093571581833
-0.36814666771901661 -0.56500103527617962 0.46463786927444817
-0.36289483378925375 -0.56827171357781947 0.53236810335596263
-0.48552810441466904 -0.59988169964426941 0.48850492881910074
-0.48710192779574996 -0.59113929279393029 0.42546726797857798
0.31930736860638709 0.42338970383921515 0.43006434615182376
0.32329902836942437 0.42530262045148709 0.45661933235860541
0.31711347150030178 0.3701775028289937 0.43804682881646279
0.31420300044144533 0.42129163627299682 0.3976507812584712
0.31754909388179819 0.47673059061925316 0.42372363059838974
0.32176423561552525 0.47916501676753054 0.45180944617453944
0.32069072420535816 0.37191673287169069 0.46256627124876909
0.31201386056566394 0.36622892369762339 0.40972955740081024
0.31246765649469893 0.47543429478850696 0.38890862849881358
-0.20673832074721457 -0.48930587285313032 0.54610153021498897
-0.1599159237005072 -0.45743200405094075 0.55336766870374676
-0.20369988364665212 -0.48904023547350561 0.57397377617459444
-0.25557164953718275 -0.51769553570099935 0.53596855769333063
-0.21119826260340105 -0.49029147693278852 0.51188685315497628
-0.16263222767615976 -0.45725185723053663 0.5231831347068121
-0.15688773323383068 -0.45664209724584953 0.57903595582357936
-0.25305014891662969 -0.5181948707048607 0.56550633963228347
-0.26052947144262401 -0.51878532565001023 0.49927488151865823
0.461127573292065 -0.22033208848849958 0.28720039684408755
0.44960851413035757 -0.25652571996041806 0.29534911354844867
0.44016086090270079 -0.20672175335084558 0.27057057863084222
0.46932914221162125 -0.18335884925372059 0.28272974264008627
0.48760780827164341 -0.23721974723946487 0.30093167708239654
0.47616091244760334 -0.27125839924230222 0.30791545792389069
0.42850260357251208 -0.24538224074266377 0.28007775321485967
0.4477725950609508 -0.16768425992946839 0.26547367444837361
0.49638390874581029 -0.20200518902397394 0.29699780294708777
0.3882101873095819 -0.3467343459031812 0.3303484484481059
0.36184873545483942 -0.34248457195762833 0.31497884039322571
0.41267799717841452 -0.32054475003090693 0.31726605218839993
0.41947615066081645 -0.35531904218915411 0.34353839021408344
0.36231207933211507 -0.36887634535138902 0.34573898273019216
0.33369441960967383 -0.36545360052328568 0.32977208197234131
0.38866831761212006 -0.31443841553756191 0.30274500768786511
0.44181278779092092 -0.33079552896051184 0.32945119483919577
0.39559604836689588 -0.3767104052581543 0.35974213496849938
0.60502559690153224 -0.30452193479070067 0.32024192439940907
0.59390394584823458 -0.33643981784016053 0.32795442531385899
0.56020535166404462 -0.28023020108829838 0.31678534716379442
0.61423246196531522 -0.27067511772228819 0.31430169377027156
0.65276475219310115 -0.32843205239366663 0.32347133870654887
0.64169976964169517 -0.36071004732208267 0.33285316693094197
0.54895798666988915 -0.31212305520415101 0.32344362450586583
0.56948980916136516 -0.24655387896194436 0.3122475929027882
0.66185787371175187 -0.29420327833296067 0.31551227073655003
0.54210211234508554 -0.41355513321048532 0.36881654075009512
0.49717859055073055 -0.38945552018468382 0.36206349332028204
0.56246889220033813 -0.39090989333080356 0.35229869022446553
0.58890011626211936 -0.4390807545901898 0.3762246633706855
0.51971458651228064 -0.43445632817085544 0.38687118641128004
0.47509533718790498 -0.41014181316796489 0.37971943715766437
0.51741546022541751 -0.36678649525448892 0.34617168049015745
0.60981854991313555 -0.41594647175180505 0.35927604568737487
0.56580872521090886 -0.46061711839771957 0.39441402629902828
0.79302253230875064 -0.38218858149280671 0.34995070239501391
0.78115523539969101 -0.41498424378799947 0.36650403351302985
0.74871410478031175 -0.36839304948710094 0.33750278411236961
0.80274971922662808 -0.34818792157378603 0.33335949673657561
0.83244725737103231 -0.39109160882989308 0.36545968525472955
0.82000133930260111 -0.42380710647958908 0.38443127534397342
0.73729297835236918 -0.40120943268769871 0.35149576690981138
0.75801757492591693 -0.33400667687680119 0.32401717585409673
