# XYZ point cloud file
-0.002678658142645729 -0.0028833422343360476 0.57918104052104002
-0.0071859577786630713 -0.01043286119324642 0.57115829846938082
0.00039976526782981026 -0.016328436995057538 0.57674192195991025
0.070481216172955108 0.09487443956203756 0.56334975696478695
0.06646747568964162 0.097865858474969841 0.55925798527293891
0.072348771121797634 0.097773955238155352 0.56728139402937328
0.073145164985964378 0.089851820034345775 0.56748302999030797
0.069001710455076332 0.09256273901792475 0.55999883266098127
0.064998601068521761 0.095816754292037315 0.55626028852953935
0.068374461601624942 0.10076950672738519 0.56297690801972955
0.07504254534395613 0.092845064163443375 0.57161248673038267
0.071580888026626238 0.087232487024481831 0.56372096119570336
-0.0087112822744327134 0.011672664229110591 0.56252669861484939
-0.0069764044229430611 0.014426456466976073 0.56641772355771836
-0.0076480347351946948 0.019889592448732576 0.55780648857544135
-0.010330006048997004 0.0092212174011371828 0.55921166628263852
-0.0084233587225502615 0.0042769296514749422 0.56740546107233458
-0.0064866459775422963 0.0073048536731029623 0.57149596143420966
-0.0061967955643996292 0.022306933836818574 0.56147301916905379
-0.0088872474362557963 0.018086887464403678 0.55484309146657618
-0.010384633257379733 0.0012492310158896403 0.56369614905657672
0.048550639557770475 0.090874974843532075 0.55182472891559819
0.042275353611847949 0.084296408131766504 0.55167391643619079
0.051608865115662317 0.094729501228243057 0.55557146938012802
0.055097070238429829 0.09577740704002885 0.5531997096479444
0.045572506681285929 0.088315294303266262 0.54828853075082185
0.037973192654883609 0.080300696775542663 0.54776104638662504
0.046015589329243628 0.08887898337857561 0.55556889956193367
0.057587987384968314 0.099127225970754101 0.55681805861562772
0.052976740398525096 0.09380475212854858 0.55008424008116275
0.0052022647441470476 0.045146874010568661 0.55021250744210137
0.0053550298462588658 0.045931239273343985 0.55381743462114941
0.011526768030545614 0.051847953442863581 0.55045451164340742
0.0053204568010937897 0.045856885870155364 0.54681326915548856
-0.0005068536035765514 0.037155233464022136 0.55134572614148591
0.00015015894797895668 0.038564628212294394 0.55485954259810888
0.011104497597960505 0.052034594500801723 0.55416367703246472
0.012689603440264097 0.05362179660714067 0.54677385706350745
-0.00098172885807720767 0.036921005602581436 0.54830873147423786
0.033106188427962674 0.065285441574778585 0.55852768658034802
0.032071708174693542 0.061222521186322765 0.56097360018712794
0.036197284855673167 0.069439598194967894 0.5622817737754664
0.034524869483114284 0.070735662206291516 0.55548160514938605
0.03015326352870365 0.061683640233799047 0.55569611455172518
0.030192566428869944 0.059648052156181214 0.55840595588538167
0.034447699661361436 0.064295481444188923 0.56470348748377197
0.038314383514143457 0.075613554116110954 0.55936013685795438
0.030194718616300631 0.065827088695059183 0.55202257254495124
0.025882013010868538 0.05765637842309515 0.55820882373804381
0.026117330217927448 0.05879614787790205 0.56184200035349918
0.028753616414041422 0.05771817558137593 0.56082355730310041
0.026390014595564698 0.057709454030526963 0.55552924241517665
0.022218342413999198 0.057742970035302793 0.55495569709296566
0.021807378849020176 0.058186152423729015 0.55865683947065659
0.029685085375441261 0.059265798013418219 0.56449207716713889
0.028490816945023201 0.0578504430922753 0.55832843346962757
0.023650601499064672 0.058917714199028665 0.55174277990811782
0.051785861091023372 0.02544043190031986 0.58394746344428861
0.050511311215691773 0.019873023465639628 0.58228947462872171
0.058115066661210163 0.036209893394962112 0.58184747348309518
0.053374132929419199 0.029997311995310555 0.58657837376753297
0.044899025350286031 0.015411112761356038 0.58556894949900595
0.043656203729327853 0.0099957648334645932 0.58402404878890879
0.056993569381304815 0.030787828441940224 0.57976332495690863
0.059678315824979455 0.040740018204997466 0.58465837028720913
0.046452116577587022 0.019869462927904036 0.58815299520524966
0.022264045984688119 -0.005327103599958305 0.58520176934148949
0.014857930094639593 -0.0088894711885782463 0.5835820972395761
0.021290388172716751 -0.010553449863284936 0.58370266158094675
0.029932744423071811 -0.00018358011838043309 0.58622555481423211
0.023628030827759106 -0.0010206479513908961 0.58773888214933867
0.016367045293652488 -0.004439222083177638 0.58624679823570713
0.01340360434705469 -0.01461616901406608 0.58177432846064414
0.028997497693136476 -0.0052645948958223443 0.58475212911448105
0.031317401495116581 0.0040910971053018108 0.58876405201345139
0.056447875453446927 0.04142081527995739 0.59325930662447957
0.055826922674880902 0.037672726145511481 0.59159900079941408
0.06240116171331106 0.051260203373513558 0.5917045042421587
0.056896692233680463 0.04541873062587061 0.59443248991248432
0.049849465902940038 0.031875324516944081 0.59463152730557534
0.049046839706325701 0.027746993365358144 0.59307984867880048
0.062021254563852796 0.048126734742171162 0.58987685842652238
0.062424090653905778 0.054057500448582457 0.59309946348128451
0.050486142527767314 0.036466871634260045 0.5956402933136109
0.028017250739852589 0.011738686997952746 0.59414267244554853
0.021265724151657117 0.0083040252149660793 0.59291910538005621
0.026666946184425389 0.0072427992207944741 0.59259145561103854
0.035332215385573129 0.016721212701081858 0.59509521072917759
0.029109819374061902 0.016394152544668153 0.59520350523971366
0.022857608734733526 0.012721876330533538 0.59415891580796132
0.019602572379673583 0.0038478596712430424 0.59123933182878208
0.034202524109706228 0.012258894619984056 0.59360138937437967
0.036170056915041243 0.021514477691816927 0.59604513484385657
0.044474028418977768 0.077666587509951535 0.57507086864077062
0.041659419963022998 0.071258033436346041 0.57776398651134331
0.04738473214649927 0.079123161577789813 0.57898660070671748
0.047113171400930687 0.084315145802339592 0.57195996090476686
0.041845285784922359 0.07585627252708349 0.57085880519234589
0.039293280063759567 0.069885307256295159 0.57337144182147992
0.044315489758370658 0.071841454501810287 0.58222722604754296
0.049753786320651389 0.085483279526330225 0.57569293054352433
0.044473126666144419 0.08254567190492082 0.56780902713747583
0.028937114747453946 0.06127774815275186 0.57450061378527928
0.029299799216600197 0.060063832124436584 0.57842889641800599
0.033883734801860355 0.063056275620480134 0.57748007957711622
0.027979561336197195 0.061222116558552836 0.57029572776195125
0.02384329138864863 0.059768584882314263 0.57109696937957288
0.024307420861960999 0.058658430380723853 0.57486199347566758
0.03493657956155552 0.061958769851644308 0.58194730987331778
0.032499975932125197 0.062715026952658959 0.57309356572675618
0.022976050207786425 0.059858481062414287 0.56694612330231176
0.058556885256490165 0.10115389634457339 0.56803740406763037
0.0540653719352088 0.096490682648236153 0.56805777153969794
0.05993908477862997 0.10031936179453996 0.57233782377309561
0.063231081795329797 0.10433323633859468 0.56913964140799722
0.056740560055460382 0.10055212363280966 0.56373154514909918
0.051872111264101822 0.095458184378615557 0.56379047191056664
0.055849314302104602 0.096181271372524885 0.57218791922970724
0.064056265717081978 0.10313594980732441 0.57315832402284683
0.061878982084712458 0.10410523821977588 0.56495515949847996
0.0090783262379280083 0.048979131467627168 0.56632141904685962
0.011277322164066989 0.049032396880600904 0.57081771822053973
0.013704373067364606 0.053918933189322671 0.56658701643728393
0.0072646274703584007 0.048362134513439792 0.56190377406835423
0.0051440246997184608 0.043110878422965015 0.5673136271988366
0.0076989942335470296 0.043764305480022858 0.57155942865127374
0.015336874175205323 0.053472003026092951 0.57085025865023442
0.012317033914314865 0.053721299054830945 0.56225447644668769
0.0029346050435210685 0.041960244023837967 0.56298390496401685
0.075312484454949369 0.10170594383484935 0.5792537716975763
0.071915905526705931 0.10463364129087457 0.57505689934539328
0.074308542686882334 0.10045497122876437 0.58234777685809824
0.077663671883991453 0.097196365441873434 0.58333745581866214
0.075152773384969923 0.10166119108859301 0.57553475642018492
0.071440484719310221 0.10469416620904951 0.57119677262675916
0.071462414182464767 0.10326462980929826 0.57835940925396312
0.076295280079660799 0.096077186004116466 0.58622371720158994
0.077714281926866607 0.096951107739473658 0.57979530977130778
0.00083573005108700249 0.023463006498267241 0.57850396207411925
0.0046006707443429634 0.027229646639261751 0.58169577078197721
0.00096584303318462961 0.029997779714595108 0.57372836988385967
-0.0023248407174479568 0.020257178875237508 0.57470253683956718
0.0016229605025200045 0.017416526007853955 0.58324199732375748
0.0056191064255807083 0.02192836701013659 0.5861503221301847
0.0043013472361669025 0.03263043582105235 0.57720246579673873
-0.0019435644524580936 0.02748437009656253 0.56973901928727244
-0.0016503455624692354 0.013681185039468496 0.57967431354891952
0.075564679115600136 0.077704528127169353 0.5893198823479735
0.077828842466531406 0.084988597664927529 0.58844340292567532
0.074092558497101862 0.077404353669696169 0.5915311183616353
0.072098953970997776 0.06966469975398773 0.58979089470871837
0.075784164593596853 0.076417058432515977 0.586620487259085
0.078070981597422345 0.084125420766227976 0.58541803766100031
0.076207816405922169 0.084273433034894984 0.59089653648247209
0.071036543303294342 0.070084868821705948 0.59172712126374483
0.072182196995584508 0.067846409352039339 0.58742641416755459
0.007604366907978069 0.0066215729600637291 0.59061097516278149
0.011198514842986229 0.01161080202194123 0.59266169223051168
0.0050320880601784079 0.0087839591749793583 0.58942752876550597
0.0047565591277319574 0.0021386163438802119 0.58804585760469008
0.010995631379801224 0.0057981491262553975 0.59122729126040041
0.013969839138230716 0.010423284041651701 0.59298089601945136
0.0089636431495996455 0.013875001857452496 0.59176697485727636
0.0019199257777875178 0.004416565104319467 0.58649169561158354
0.0085311460575410308 0.0013334094436163318 0.58902501255210926
0.062227189152246259 0.089918754519254601 0.58524645534253938
0.062110154004993312 0.083991078740609959 0.58909179990894645
0.067582509605462221 0.094309921178694384 0.58540528290834948
0.061801346140798186 0.094643187871669504 0.58103320719287055
0.0564394890374805 0.085234139725688052 0.58421734403114978
0.05484930769244814 0.078149532579483733 0.58813147762890217
0.068425321607189921 0.089273022236633137 0.58916004353823637
0.066228105031719137 0.098083624952167853 0.58133022963987013
0.057153281475191497 0.090638151833277641 0.58024727467714576
0.019491129855980394 0.045005311379366003 0.5847134128744087
0.014158545984009618 0.038183935539672309 0.58486706597023863
0.022600519800126673 0.042521553507430865 0.58893358043766386
0.024506953856033437 0.051653077994495408 0.5836848527071814
0.016539910158777982 0.04702064240145705 0.58012523303492636
0.012250161466243206 0.041312526902583163 0.58038825278381934
0.016238676542245922 0.034514237525936825 0.58905503903302447
0.029162194052544221 0.051170785050235867 0.58791764876709762
0.020609848241355172 0.052169499635667471 0.57939559987384459
0.05977853826717533 0.063061755678987391 0.59520176451950124
0.052333856535907913 0.055050871124143669 0.5956077361192984
0.058566602847976434 0.05622802160455298 0.59547293555554559
0.066153493210287545 0.069963287995781831 0.5944392298002521
0.06079816710704003 0.070188069960988753 0.59416822777280198
0.052644576984594793 0.062519908596564311 0.59404793339547968
0.051754566497778404 0.04805348252158273 0.59622794700739057
0.064296268918429739 0.063293995184451224 0.59451265677835097
0.067668408451838136 0.076753912570790561 0.59375022091737217
0.028656245886043236 0.030495574283241955 0.59570465712505993
0.029485762975823421 0.025817242220324457 0.59606383163375132
0.036321866385178175 0.038295513214247998 0.59586339655485077
0.027343859892380334 0.035154892554226019 0.59453926913326005
0.021727032625575099 0.023478603703825401 0.59517323872618166
0.023123225774500572 0.020238112751267676 0.59534833561342104
0.036724000555847347 0.032335355891594308 0.59653339236303249
0.035391431715922378 0.044451223267694573 0.5942333485273541
0.020118623925773654 0.026964326749648437 0.59430814234011686
0.042344861788702726 0.10518307096045562 0.53781793735397265
0.042165629432053819 0.094880032034787176 0.54154042755151433
0.053271562638470688 0.10911255907537934 0.54445385066736196
0.043820188150053674 0.11913795352041065 0.53328622378937884
0.030670904721385783 0.098154066462832312 0.53197076344631933
0.031958418216133017 0.086526060034762403 0.53830519627581797
0.051648625867658532 0.099841901179627351 0.54596907252629046
0.056926368149854162 0.12228180367687674 0.54240907765712099
0.029669939490237801 0.11318166065675545 0.52403391098241148
0.0021560140507675407 0.062705657847279689 0.53580598727777173
-0.0045317819331121278 0.048069188496057055 0.54188215850668608
0.0043522343778588379 0.054971540253295731 0.5400113829940052
0.010080498176405384 0.07638086897604382 0.53087489603069327
-0.0019879645327624124 0.070595168404308378 0.53019941668114901
-0.0093232197091533825 0.052171120868321375 0.53853416621020478
-0.002307062269004817 0.042930842396004476 0.54400312485994262
0.012498892278544199 0.06598120836530505 0.53747518369531633
0.0062736033101727234 0.088369672819324036 0.52233958475076703
0.071034703677074124 0.096107668195851231 0.55496338083345731
0.069303580098735107 0.093383027851824757 0.55638646608892706
0.072962965406045827 0.087105946125832112 0.55590723479068938
0.073053281431825073 0.098606633933966237 0.55179531081278754
0.067764672659348962 0.10406144094462749 0.55338232595127157
0.065436353230902272 0.098726766859223603 0.55381243927087853
0.071572733322726872 0.086114857454582777 0.55847494297450573
0.074353174330998556 0.087448476615975185 0.55153831344322157
0.071376083943375551 0.11100358852254091 0.55171506036984541
-0.017183854687805672 0.003415291447751323 0.55399661837117165
-0.019326358831364937 -0.0096738667760967317 0.55608746493328587
-0.014051642058308972 0.0058105054643652898 0.55553437070636325
-0.014122435813842094 0.017847400125965113 0.55139243561528972
-0.022259007913113499 -0.0015499036594845694 0.5506833587336637
-0.024934457694667456 -0.016647941501192393 0.55187425782941513
-0.015417410702502105 -0.0051201926513549656 0.55856595793200459
-0.011446461416925846 0.017822993454063921 0.5522038483809748
-0.019298164245179564 0.015458641071545237 0.5490148033338863
0.074378751533064363 0.061010325155243267 0.56062597111786006
0.071814061507172317 0.060757127719338305 0.56484250865729035
0.074403798805346866 0.052225680464791119 0.56366317807326882
0.076894531327552196 0.061017200237103136 0.55477309137252029
0.074310262170504099 0.06939508009040396 0.55838121686001452
0.072575251629475729 0.069603370184037533 0.56242928023023553
0.07046556979007676 0.050781572123914848 0.56786161050108941
0.077878483516051172 0.053127511147153222 0.55775581730330892
0.076125724086457958 0.068951769393012008 0.55271242440628665
-0.019249561400641102 -0.036662978825865514 0.56401597406511284
-0.017511197907734102 -0.043475155068905758 0.56815077375337009
-0.012614543671729234 -0.027367259998191396 0.56759375301745951
-0.020301224261289358 -0.029471701955027248 0.56075124832858658
-0.027396087910522046 -0.047729519086297745 0.55885769352761294
-0.026641869953827849 -0.055645718615684278 0.56318695351037029
-0.0095625586087340342 -0.032598429422043738 0.57141969743276722
-0.01464476076875057 -0.021578551176883967 0.56436991377509527
-0.027575621009694115 -0.039370712081745848 0.5555793343365969
0.078332398154604688 0.019629567692555749 0.57822401714048788
0.071783238940013039 0.014220585529226948 0.58287015738603265
0.08089281482485941 0.0054829841774529375 0.58446592842869283
0.083940135077997774 0.023633606087545458 0.5716570997788688
0.076250619889124988 0.031904183104755068 0.57252506445662221
0.070146675172657158 0.027569469757796228 0.57686648544946828
0.07404798609910751 -0.00047950718122415081 0.58951603685447063
0.08682841216085932 0.010094947998536496 0.57748503331741563
0.081374303820636956 0.034991605483133875 0.56630896850317525
-0.012272175077910938 -0.073901650541309302 0.58770189535514328
-0.010994191480815207 -0.088976749956232865 0.59655780913369283
-0.0017580974403723915 -0.061723869528615014 0.59038853334213037
-0.013790848422091981 -0.061365630981478472 0.57993848900851097
-0.023846881449859816 -0.087606518710867873 0.58311048356128525
-0.023162334260482587 -0.10296237791696336 0.59204185111447116
3.5672440763218072e-05 -0.076578478353033608 0.59916525612653015
-0.0038135153529383209 -0.049083740869500757 0.58269635690272015
-0.024684762666184343 -0.074828738681603876 0.57529720025554121
0.089794894495589 0.023606021825664819 0.53551957667084171
0.08704412967544875 0.019611232903385678 0.51915983501278862
0.086057265994460425 0.032865070392478102 0.53066015440231951
0.090057824560442423 0.025736341777146066 0.55023597744558184
0.093587156606848659 0.011830563406778766 0.54088024632042719
0.090871271512804497 0.0083352464360663125 0.52439311312136538
0.083253877986276342 0.028404690663471496 0.51447722578620925
0.08659853677062887 0.035594182783060757 0.54529507049652448
0.09361916475603696 0.01341009084542738 0.55564059880658745
-0.064494799605444672 -0.13561743723988826 0.55197277616335483
-0.063697643265850035 -0.12215788439844774 0.54362185919360695
-0.077673354522290558 -0.15042513413099393 0.53640081451494126
-0.065169081510158683 -0.15138802068962423 0.56166470005558011
-0.050441656050581818 -0.11923874367788689 0.56532504938145967
-0.050062515869511569 -0.10586754918647662 0.55716589836628971
-0.07655435026302479 -0.1370610889553513 0.52808514309497967
-0.078617093322376611 -0.16598924081046951 0.54613060810473202
-0.050772371480767318 -0.13501013161466577 0.57473386510102986
0.077557215767054155 0.05297474028271737 0.52001928932072816
0.07473415619348725 0.047583245614084752 0.50450553247716079
0.075630523206533545 0.059198589730952822 0.51805347719121697
0.078853280263285558 0.057223749500188992 0.53435512003498731
0.079858594766556462 0.046886881368227329 0.52282545350812237
0.077017717972505978 0.041778570459555353 0.50711181733289434
0.072811237751835456 0.053352797410755409 0.50260330644320539
0.077134620247845009 0.064044692220040916 0.53241558724823568
0.080931822473467863 0.050656754984089697 0.53723560939403714
-0.061326908484111868 -0.091748724017519698 0.52605641527509417
-0.060116983842956481 -0.082490891260193003 0.5224819450735797
-0.073249060102578742 -0.10662661226991525 0.51090558929286622
-0.062174005992658946 -0.10084243321587505 0.53072481945888494
-0.048930837650446361 -0.075946064052975049 0.53982798425230127
-0.047978406066901541 -0.066565442566732386 0.53636687294795848
-0.071893043291666694 -0.097680362488521522 0.50735506611605452
-0.074359952888275238 -0.11568398712312336 0.51544374516741698
-0.049412529216311424 -0.084922392559651561 0.54444176580583936
0.072118562525936125 0.084381050533294782 0.51699344597038932
0.074108755313505664 0.0969662813668625 0.5162888216728786
0.073959903629131768 0.092912383757939726 0.53263391772659152
0.072429671643262278 0.074307747187450923 0.5169403339133708
0.069105344863804458 0.074946607181118979 0.50031459684480961
0.071254290184229629 0.085772770683661764 0.49901487033027148
0.075287151588467466 0.10791709956602064 0.53299983708663179
0.07434890814046588 0.081143693485393881 0.53188605205537243
0.069460705597692102 0.066443955146215622 0.50086969699415396
-0.054175617266089951 -0.048144214611155464 0.51670024220400756
-0.041323877721425345 -0.028139066834346665 0.53186265827463397
-0.05570189369987693 -0.039564143824028057 0.51401090641621461
-0.066694032748085288 -0.067481076985886623 0.50045100380687568
-0.055690253521765501 -0.059863038654617839 0.51833973009489553
-0.043562088720609335 -0.042385081933945259 0.53286594494041351
-0.041065716912970535 -0.014597225382391832 0.53008713400209706
-0.068927985219150306 -0.061544897242727367 0.49731541426451631
-0.067735415790066686 -0.077191896496220241 0.50261698435446345
0.064689126506526445 -0.15110024212073778 0.64738001539227152
0.065992271179900058 -0.14719007918106891 0.64745047557572077
0.057901606112440718 -0.15945390029146567 0.65042646006391791
0.062924988288033501 -0.15499472206536899 0.64609253481192486
0.070598888974667123 -0.14446519330300361 0.64457468481103875
0.072537161016327706 -0.1401603591947804 0.64400500198744992
0.058859581418528789 -0.15581449392720945 0.65080320115514323
0.05634490630404479 -0.16309763886851486 0.64890637636556492
0.068553773020000125 -0.1485765359929031 0.64363764182126193
0.036348202074689251 -0.17923185298743274 0.65740367129684563
0.043346345844963441 -0.17390837551929644 0.65553101164650662
0.036218820257494039 -0.17676123734786992 0.65787151435801716
0.030011719834921957 -0.18471820323501481 0.65914650681903764
0.035647144851401608 -0.18205418287033917 0.65584513141270118
0.042258763466396065 -0.17707665322366795 0.65390844394256631
0.043794348066500371 -0.17078693024830061 0.65601381616929078
0.028768990820803059 -0.18358155283506528 0.65963495118974957
0.029872466245437851 -0.18692079814729332 0.65763951817826549
0.07795489034566036 -0.15211670038560265 0.64252891210085994
0.080269473998820035 -0.15113305610009589 0.64113803454950791
0.077373470331783073 -0.14480927222564977 0.64204914216756959
0.075619725522310416 -0.15445406571885498 0.64194747909010297
0.077090015489939906 -0.16180264237031539 0.64364693964086461
0.079266759869142528 -0.16179423054339173 0.64231364057940232
0.079877522610314194 -0.14211867748290063 0.64065259205693492
0.075025927000635734 -0.14808164973669363 0.64150879704904118
0.074762372686216549 -0.16340948825557974 0.64297069483980263
0.020242023137126447 -0.20901443959478003 0.6653829374838629
0.021807096698491651 -0.19972682019424226 0.66320039032668965
0.017212886631447127 -0.21323760309500631 0.66649214373553245
0.019945121794144705 -0.21799645845968513 0.6671788046688174
0.021032879090274986 -0.20828801734625646 0.6634488327487964
0.022480934804292946 -0.20001450769323734 0.66150041806174498
0.018941608571760193 -0.20231222217350503 0.66404069897792417
0.016905811666745735 -0.22304211128912341 0.66846567547678126
0.020759156430072284 -0.21654426190508638 0.66501969477995881
0.068118819472532344 -0.19255278609407517 0.64784947357646039
0.07006517079630184 -0.19331346378521949 0.64696676652552954
0.071916152162899788 -0.18281740877687006 0.64645792743238983
0.065881899322810827 -0.1931292992848937 0.64677526669802621
0.063898389849362996 -0.20148031172457367 0.64927647096102314
0.065722192541636359 -0.20227613645779802 0.64860464925059369
0.073934100926186158 -0.18350746729223882 0.6453862833041315
0.069624192276164676 -0.18358177753131399 0.64551953152413932
0.061764829172116537 -0.2019223848145294 0.64807618723874039
0.024169502340457255 -0.2355056127318241 0.66761251480822636
0.022101990998659171 -0.23158483653813802 0.66833681243913667
0.021629953629709792 -0.24058126298563118 0.66917994596150843
0.026732287231112678 -0.23774952233722954 0.66632811719315055
0.024684940850246223 -0.23342835777293058 0.66507055336815113
0.022762451234187075 -0.2294973460837014 0.66585861938048985
0.019332594819003041 -0.23688556571000766 0.66984565055158951
0.024477534266521606 -0.24246729247305995 0.66789307240510731
0.027073162324038197 -0.23580833371562968 0.66379259014180036
0.051274845489525434 -0.22160634368888962 0.65405354371838165
0.052094953635535513 -0.22324135339552531 0.65403809279506553
0.055338172748479436 -0.21603119421308331 0.6523711164005781
0.049871337402482757 -0.22131677197655894 0.65259450950971476
0.047340489405748282 -0.2262780377916053 0.6558004189383444
0.04766459432232531 -0.22840948403056799 0.65601892825171548
0.056599928923551535 -0.21723779387401757 0.65213479528589491
0.053628475132121461 -0.21605792967691606 0.65098457690364153
0.046263151235261063 -0.22565364674693555 0.65425212461029081
0.036241223653244253 -0.23623350699467968 0.66122485083617222
0.032847476767035283 -0.23792904810698265 0.66300276726214036
0.035118958329209193 -0.23973647663049363 0.66227286368483651
0.03981155630473851 -0.23360026339184933 0.65941092139824109
0.035983626746516478 -0.23484148594682924 0.65914110110383539
0.032801009400888564 -0.23635533649704696 0.66071226032788211
0.031306966494115268 -0.24183085648249622 0.66430182421309458
0.039142641443051102 -0.23668692436504005 0.66017366095599495
0.039318592996038709 -0.23241364860137415 0.65754386048791547
0.041851163678460895 -0.22594624108489283 0.64036207566025694
0.044893879708514856 -0.22420140302062946 0.64540014129914902
0.045207896087473304 -0.22119542152017782 0.63866561378942399
0.039288695343437818 -0.22617755447037419 0.63524336463263786
0.038588240900158582 -0.22990903705777929 0.64202533492214087
0.041613094409626544 -0.22818328904188337 0.64704445369544561
0.048306396852005468 -0.21935119316959581 0.64375051988891951
0.042689777239673626 -0.22142868287810297 0.63348549975098489
0.035906841901091835 -0.23028537243311584 0.63695669124261789
0.028914191145656715 -0.23857371831296481 0.64628016892434981
0.025803622432166329 -0.24014696337668837 0.64747057327455937
0.031987118404862541 -0.23678676382138059 0.65138491271976728
0.032119472154933243 -0.23622092194805774 0.64499882637585904
0.02579307699630487 -0.23937276214222131 0.64127654816313484
0.022563227847338135 -0.24111575697600557 0.64242925881929258
0.028914566095945088 -0.23827302527544561 0.65266129986124455
0.03516612405534722 -0.23446699052384329 0.65005020241750122
0.029135622072879314 -0.23690423967487784 0.63999485547804658
0.056121973379036044 -0.2007847077051656 0.63403134429035546
0.059684945033657705 -0.19784729866344192 0.63935942581218952
0.059579524325716754 -0.19233894314658084 0.63288243552584789
0.053063195669953656 -0.20264923577179203 0.62877525267228385
0.052426301946257248 -0.20858021452459113 0.6354300697472155
0.055809027524749005 -0.20612091407817573 0.64070220763395436
0.06326491923908717 -0.18891750228394832 0.63812323328890552
0.056383399359845321 -0.19491546061431031 0.62806710939820043
0.04961402055909217 -0.20968022176212123 0.63008893529105592
0.017728813479956224 -0.23840031499178665 0.65071056023533402
0.015931947510080091 -0.23516074081359192 0.65148148223032298
0.020972950660694906 -0.23575420049372009 0.65630893553193093
0.020092835649646701 -0.2402201813913809 0.64971871563767569
0.014428132661090137 -0.24053072234597972 0.64538086254558591
0.013016886769606023 -0.23748392056271694 0.64640334582331205
0.019089594713490643 -0.23223843797875884 0.65706319341043429
0.023318348940417538 -0.23789304955871407 0.65519791259856541
0.016695298320302893 -0.24192554582566098 0.64443092253770318
0.065477559120662471 -0.16775308237482389 0.63011300183766683
0.069400412084133362 -0.16245108243842921 0.63518644353807208
0.065109963333424697 -0.16270546338738051 0.63005377857551159
0.061458110692123175 -0.17369028478019263 0.62527912266440422
0.064527183741788646 -0.17508871736600723 0.63082283152877971
0.068400532509190315 -0.17043975419012522 0.6359283685110404
0.068993187822439184 -0.15692440725409762 0.63498464256004639
0.060988847302445082 -0.16948778886883009 0.62529162920237225
0.060823921109910889 -0.179787244345505 0.62622915727529649
0.014366926229349819 -0.21815298166434463 0.65028056024589587
0.015819760026003993 -0.21139184242453296 0.64899373741436994
0.017501396279067466 -0.21363126494827431 0.65564813029132107
0.014096994297184223 -0.22472846398049062 0.65128218455520792
0.011369034674161033 -0.22307658332934652 0.64508468399403052
0.012798158720828484 -0.21707324803517114 0.64390041414970223
0.018919835915505862 -0.20639399290214885 0.65416277473337003
0.017192191132987505 -0.22083993995292966 0.6567413330482903
0.011348779296327688 -0.22849175056257276 0.64627251045505074
0.053760139235300292 -0.17056707759060399 0.6346025381946887
0.057399845110548353 -0.16441990103785281 0.63934079973573532
0.047459497231116171 -0.17824799330094002 0.63713480832153935
0.049903205134613132 -0.17792936791481212 0.63009883727120619
0.059149726403421726 -0.16432489308177212 0.63238351066617904
0.06287079900640366 -0.15814551127670495 0.63711077686995754
0.05100892367687837 -0.1722129167501053 0.64191515072905148
0.04376953343056697 -0.18541701723360002 0.6325930871300911
0.055156189505217168 -0.17175250600068567 0.62787418513616577
0.028105715522089791 -0.1959793292276428 0.64400947736819303
0.034207892847554738 -0.19137816324009335 0.64196904756145856
0.03130606237479297 -0.19027854251817086 0.64883774818986129
0.022788829362413193 -0.20032231841083795 0.64583976125103526
0.02495357377838156 -0.20262938756162538 0.63933197225802729
0.030889548942075434 -0.1981719770357635 0.63733788652267886
0.037528936471992791 -0.1855758683000592 0.64679390386682811
0.025896294927741426 -0.19476479355006751 0.65070398405099517
0.019757564385794679 -0.20677952260498458 0.64108516152072692
0.039868621892685807 -0.2076328637519318 0.62552328455299455
0.035136373148112104 -0.21342844415053835 0.6276377822286302
0.038153821544505861 -0.21695188255251346 0.62740835766208836
0.044108695690341426 -0.2021863039940483 0.62350412106891162
0.042639204763486122 -0.19707534961658302 0.6252215367817695
0.037311888369592844 -0.20360037428054736 0.62750786137206105
0.034005526791101082 -0.22201760624180322 0.62935424045768218
0.042012678046148166 -0.21183075403235521 0.62548712687510788
0.047294955794170285 -0.19130441358555653 0.62309593178877209
0.020688961219078955 -0.2265394022840562 0.63313348474155917
0.021410461176704559 -0.23341234451792434 0.63432993179205865
0.025310244226218276 -0.22311617246524873 0.63152945556586537
0.020999443527012274 -0.21845058135313261 0.63353303842141828
0.016520295210299712 -0.22937545356393249 0.63448844495781298
0.017640775429170169 -0.23578948788607737 0.63556961153206903
0.025485411363015936 -0.23039410534706337 0.63287503127994293
0.026179947151432098 -0.21459851329723856 0.63176947231386138
0.016394104995839098 -0.22181689168530558 0.63503101946625828
0.051592121175111832 -0.1939257256679498 0.62029725533552538
0.049993661188142219 -0.19529586565008544 0.62037616828831244
0.050900764151149136 -0.19840010143907846 0.62124510648064812
0.053995545235351633 -0.1879544776146079 0.61994699041979784
0.053050589703919737 -0.18634327608053303 0.62011326212231754
0.048219661147321818 -0.20300838581988814 0.62216335145691848
0.053959116175390204 -0.19192276176439257 0.6213202987686065
0.0092993572776029487 -0.23555257167567314 0.63747320477400238
0.0096752014446022661 -0.23892707894285131 0.63830011119569052
0.010312733761656229 -0.23436953217643883 0.63638374281657151
0.00852635237133062 -0.23274106583026927 0.63820647224475247
0.0089374886564249634 -0.23621074549410412 0.6397614064820677
0.01156194499358533 -0.23903851405376567 0.6373685777596938
0.0098641744308737289 -0.22892657357088977 0.63717155119442448
0.065409788468665547 0.2422114579425981 0.49358529894834158
0.060242532104201801 0.23444875566168652 0.49172302697674436
0.068505093947080514 0.23863572417125403 0.49662906200534274
0.069032367203905071 0.24777311207164723 0.49497660187396603
0.062710073861130339 0.24671673802380503 0.49042961816821962
0.05732863243301925 0.23934363371502734 0.48836952909557818
0.063586909240706896 0.23053559475441796 0.49501534531556562
0.071885573168379124 0.24426350992585158 0.49790847311041003
0.066595361831919025 0.25220311631322112 0.49195562760473205
-0.055207454116688634 0.11181084900201219 0.46925206258419033
-0.056348074533544699 0.10381196470457146 0.47242362057796844
-0.050607541079143288 0.1146329317710674 0.46951841445490594
-0.054603290229164124 0.11972972683191799 0.46576932192255022
-0.058408369326996126 0.10996454180617568 0.4690721166188706
-0.059322427265460088 0.10254119644193971 0.47224209292025771
-0.051895523804841109 0.10586350552207885 0.47283041379147017
-0.049849414460309709 0.12334716426875422 0.46596363724927614
-0.058040676046846325 0.11726423584290258 0.46559677727306059
0.057099724643408817 0.2657225904622198 0.47970565978858998
0.051120737464183857 0.25952847130088863 0.47733568764757395
0.058503171425892203 0.25846122193804744 0.48347909122153265
0.0617443637344397 0.27080015213783704 0.48163357638231058
0.056300605546869803 0.2739602827714932 0.4758618121429084
0.050208232615510134 0.26822268750990008 0.47346588318333266
0.052707061424274476 0.2518698419305615 0.48116977186018256
0.062916943126472363 0.26372635330434513 0.48528021587089926
0.061125617675795579 0.27875789263554862 0.47791321845441681
-0.056660457474610085 0.14206066119029762 0.45252150901329447
-0.055266372169641025 0.13497224740378566 0.45744378474581782
-0.051339820651928152 0.14815208485119793 0.45286668638989763
-0.058846881046016972 0.14859583846322746 0.44712704895252287
-0.060765203903611162 0.13762320373386069 0.45233212662317074
-0.059174060993058615 0.13119240747306693 0.45726141404739085
-0.050132517767304687 0.14025464708673552 0.45769700977454503
-0.053409370382200533 0.1554028500573589 0.44755657692317963
-0.063083864074418128 0.14353431659872026 0.44696063109220929
0.058506006274696071 0.30460429727706351 0.46486575792538731
0.052806910527881418 0.30094494758081725 0.46250507234915678
0.056928909970579838 0.29351457732137276 0.46835088877656778
0.063380295531368758 0.30775685097833483 0.46730079810010255
0.060987785410794471 0.31621695141172435 0.46167564750802548
0.055612472355465487 0.31348347574754187 0.45928959919684598
0.050976380064663429 0.28903379509053384 0.46597697090381179
0.061875998838509028 0.29734631673663381 0.47065142636044766
0.06570869874001467 0.31861025594518089 0.46425948971980641
-0.07069497839076265 0.16327141149428537 0.42842843999711722
-0.065846636913715867 0.15941760017040463 0.43502538741930985
-0.065769404524907968 0.1711775583324594 0.4287073330555865
-0.076405646202232558 0.16570740026620848 0.421581115327122
-0.074682374608079652 0.15678606071056186 0.4287178355503421
-0.070036206295217979 0.15330747378415205 0.43508396918347564
-0.060593731424898864 0.16713640067726987 0.43545058478806536
-0.071930093091118294 0.17368860091515551 0.42159073569311278
-0.080081391153236828 0.15897766705956984 0.4221875191665091
0.080639496193014443 0.23387680026543592 0.50557741212384777
0.076858527324467657 0.22540236322939397 0.50495546362068033
0.086754258502272613 0.23489263352633946 0.50813567301919527
0.083498161801448839 0.2397242125629632 0.50678934219967542
0.075880552958712683 0.2343335077966078 0.50268177363495825
0.071652440257398115 0.22585980241628631 0.5017250601882719
0.083465111238539252 0.22653586826797614 0.5077512885845421
0.089431722755722504 0.24080078560625676 0.50939234313141379
0.078890929633262386 0.24010533794040892 0.50387127999393422
-0.063075774082115649 0.079165353384598458 0.48072947959433387
-0.067916525495312019 0.068567940488240053 0.48252620720309647
-0.059193350688333576 0.079015196176613067 0.48190257118633256
-0.059980302882804051 0.087927792524703813 0.47825405236080043
-0.065461730485702571 0.079308478631343687 0.48066807050322702
-0.070062895256467222 0.069214495233007767 0.48251961387308029
-0.064393735599038535 0.067635172305202745 0.48389261232887287
-0.055855548571446853 0.088511621003834473 0.47915190331463259
-0.062560842816409445 0.087626131808447943 0.47813417633494787
0.11665514735201413 0.2489400055543888 0.51205201118709009
0.11496261385539527 0.24162843932314379 0.51120453171063462
0.1288549236567875 0.25722198200517121 0.51184781080930231
0.11830443066240307 0.25479798059240821 0.51345704130082148
0.10497174276553534 0.24236544736570068 0.51148156691793978
0.10273531635287642 0.23458959822020589 0.51098435029607825
0.12771859556798701 0.25049747180844217 0.51055648017509569
0.13004214647798931 0.26290996247270981 0.51332671515254957
0.1070463502488494 0.24829857790725304 0.51283531977393437
-0.097982828945532091 0.018878062774184162 0.48121272372692875
-0.11164499448996315 -0.00041700931190019608 0.47819154154047183
-0.096617213304038246 0.015040538566760062 0.4820351447806388
-0.085509159375352695 0.038007144845857946 0.4829253126998852
-0.098856028306268093 0.021871233866260026 0.48124466901198909
-0.11194373099979521 0.0034885314311154519 0.47826605913034054
-0.11125383465353246 -0.0052828776160241259 0.47851131295855903
-0.083252935892916463 0.035214633339110124 0.48412662874312773
-0.086901342406995291 0.040092764665088654 0.48295482844661947
0.16079722502697177 0.29117738377157065 0.50642862747231532
0.16140226548912809 0.28698347277162695 0.50394759845577819
0.16979575824104712 0.30565592449982248 0.50323508884706492
0.16066436593731673 0.29553502643807483 0.50836285223478805
0.15120380978903822 0.27835379841044039 0.50899849577115419
0.1512180125783171 0.27318999394737109 0.50684202523638255
0.17099598550661546 0.30254631024146739 0.50052833010626263
0.16921766498523025 0.30924269069849974 0.50531406506775256
0.1514958369611791 0.28331082436862287 0.51075579508357016
-0.15155260850731181 -0.043709568895775833 0.46097528465194199
-0.16429224607000747 -0.052903986112330256 0.45232269973541134
-0.15398925433789537 -0.050924533966959944 0.45955986189224285
-0.13874403118271739 -0.032304870499467828 0.46812214569278948
-0.15006778658758652 -0.037843884910017098 0.46172380037827981
-0.16221701788425708 -0.046686873452066763 0.45343900945247434
-0.1675463482209022 -0.060569079809215554 0.45034750476584434
-0.14029274392734292 -0.038897885052998619 0.46728680201459583
-0.13785015027028424 -0.026927692442518858 0.46855241127967556
0.19577657574449855 0.35898843821398774 0.49112144061657614
0.19873018864983574 0.35968326155806296 0.48846021097748504
0.20317655310798036 0.37774618224538059 0.48695854313675896
0.19355447157139236 0.35922402887307303 0.49310055590266372
0.18738478371739273 0.34002632924611564 0.49539725399288559
0.18977311583601972 0.33939354684140932 0.492612807304457
0.2066437084579518 0.37975065870577196 0.48446975711137669
0.20039722661228307 0.37672846196866538 0.48879602675416811
0.18574951180177832 0.34151052882798372 0.49749599268585165
-0.20413610493862203 -0.072246961703660684 0.41743685530924385
-0.21632656339831907 -0.075427905689544716 0.40455875070928532
-0.20931639199804347 -0.080202894194401991 0.41403537056099138
-0.19084251404691355 -0.067109187581061311 0.43020463088821825
-0.20029114366411754 -0.065604777538883871 0.41968351673650905
-0.21194396184875239 -0.068805552648866092 0.40719585248664364
-0.22197873766625617 -0.083202879464441548 0.40072982053420952
-0.19547085608704251 -0.075131009848936517 0.42723932913277385
-0.18757704964436184 -0.060520496434069079 0.43207829638895223
0.21481812520786384 0.42350970970118773 0.47739749149345889
0.2193037552675314 0.42880301282891264 0.47534026597010348
0.21529219997134832 0.43445148556918234 0.47515834756356751
0.21099985545767105 0.41955179785092811 0.47908303440582356
0.21282820186147774 0.41047783150919126 0.48002744676879566
0.21707412396681594 0.41482391763835025 0.47784995864490754
0.21991478906741665 0.440506310983101 0.47323099443039535
0.21136848920917337 0.42986633611885761 0.47686292942148628
0.2092295554699671 0.40731934329286601 0.48170887469173529
-0.23913166988202514 -0.069440830354690758 0.37213507323340395
-0.24218696535137965 -0.063136697738658168 0.36402029202170749
-0.24575895770762662 -0.076303152731651697 0.36694649354351444
-0.2340540970915661 -0.073976901174872864 0.38155378132551582
-0.23360842347231131 -0.063228966000143175 0.37614747417919325
-0.23649514554161069 -0.057200993709417794 0.3684553615740418
-0.24894014749927254 -0.069590114475303472 0.35848430042071067
-0.24043924494773652 -0.081191436282987681 0.37680967578993407
-0.22881420232797525 -0.067568620258725065 0.38509130770581185
0.20971318661289148 0.45532953007750887 0.46975210140768797
0.21408203116523936 0.46231982156188456 0.4684068151171869
0.20478940968913564 0.45768889193091666 0.46848125175019095
0.20609632081871773 0.44984142698577922 0.47140393026144095
0.21281597171772118 0.45046531348997298 0.47135097680071053
0.21739657333670334 0.45737131492193361 0.46981475455455191
0.20877809653197496 0.46456387178018033 0.46719750398908044
0.20152068651627644 0.45224099555830588 0.47021115310720368
0.20898716519802299 0.44511331676222632 0.47301889415057286
-0.2420690426663917 -0.03808435439805883 0.34730709090776424
-0.23805141370775104 -0.026494967079018432 0.34510104158082622
-0.24829574066141188 -0.04287375871030287 0.34178920506139954
-0.24373746491650553 -0.047548461751263753 0.35144848835519338
-0.23666180768398268 -0.033573583784696007 0.3523070533880106
-0.23297538282508043 -0.022658005267776754 0.35016807149150281
-0.24383400016330031 -0.030519742683706948 0.33973601566243466
-0.25029075304558801 -0.052980936492191807 0.34577290030564567
-0.23810563432601342 -0.04245886889718218 0.35636785679630378
0.17614157108300313 0.44785703911989583 0.46707536958405133
0.17780945515425781 0.45347995525900953 0.46450349761528076
0.16374587084275491 0.44069953753617908 0.46654850909641177
0.1748308884934445 0.44357278940043532 0.47009066537563093
0.1877462825150791 0.45366449583052704 0.46730053499219315
0.19034450509248871 0.45979703267279037 0.46536808729280343
0.16447315539214716 0.44584561936216716 0.46334884539549892
0.16320737491744361 0.43691980306819855 0.47009651213041304
0.18566436519089932 0.44886481692983582 0.46974484538662381
-0.20834790241590548 0.026275049057137026 0.35243913275213684
-0.19507051880954276 0.046925856012134892 0.35742413445776494
-0.21234721681953869 0.025431448469788204 0.34659265123790961
-0.22080794054116332 0.0060975771345490176 0.34801145388604859
-0.20472459302567225 0.027597724593133949 0.35816105139618326
-0.19200421365070797 0.047306946818854889 0.3633554954104532
-0.19842046383456016 0.047330044975232174 0.35130458703115969
-0.22544917251830718 0.0040618115810945182 0.34247285041185138
-0.2166462090779229 0.0083255631184175338 0.35345361374912571
0.13027108765856518 0.41891746166544919 0.45999664387511335
0.12904658765901403 0.42358794897855323 0.45635144325255861
0.121115665959807 0.41205285317119544 0.45695749993542656
0.13131682037302009 0.41575967145715376 0.46381126910245329
0.14037550251388106 0.42586948244425393 0.46295435876775631
0.13963218419513349 0.43054541597980989 0.45919585283185194
0.11950004601525102 0.41673304011581958 0.4535254712264582
0.12247801505780928 0.40891428722893108 0.46054324687099152
0.14103370429215187 0.42265972982661659 0.46691344324108275
-0.16169944170651501 0.097792509039232506 0.36674969903362653
-0.15312722471202073 0.11027313087893462 0.36841277596294614
-0.16332145107031282 0.10173329625432295 0.36114127562701459
-0.17128781820440281 0.083304548987506832 0.36479235223007789
-0.16017408372403513 0.09538115336656941 0.37209014804779689
-0.15205341344765996 0.10703491513394212 0.37327384730646862
-0.15425043513191022 0.11520446668624254 0.36331743271174932
-0.17343967912645014 0.086143108665628604 0.35877436067735247
-0.16928242387259013 0.081791897399015712 0.37053443269204978
0.098465265820166459 0.39029340779596022 0.45189811805643149
0.095681758955009161 0.39415079853368962 0.4486732424308334
0.092034538781703229 0.38199914224124021 0.45179588387826164
0.10080492126846829 0.38781071402960487 0.45524220819543343
0.10533953780497501 0.3979280990286308 0.45271049831472993
0.1029670865789204 0.40224823997742165 0.44951538919114586
0.088837841705633525 0.3852213945116697 0.44853161359804944
0.094745327800756507 0.37999352418038024 0.4551819728680328
0.10732615355796027 0.39508830445420684 0.45603447683233195
-0.12987029017421275 0.13889761274310264 0.37734206440214985
-0.12223291525453514 0.14613388736920252 0.38209461409093792
-0.12956622613351076 0.14590316989807342 0.3735485043910225
-0.13747487971378713 0.13059124968447816 0.37342631657482495
-0.13003064418504934 0.1338585559007385 0.38109912497207976
-0.12282247302072989 0.14067817497668447 0.38555457880203736
-0.12141996098929501 0.15354037788443725 0.37869395364745484
-0.13765013584536953 0.13706118119853655 0.3692591037771179
-0.13723084954013881 0.12603941017179043 0.37747679093160952
0.074054324657232745 0.35154490008744543 0.45464307345763488
0.06972651414181838 0.35198054384278954 0.45175176536838957
0.068851170646602733 0.33995286577861017 0.45652135589690301
0.077910322132250742 0.35154172237167525 0.45778513608426252
0.079803168163622679 0.36259517329113167 0.45322954388696896
0.075831544846448079 0.36407423652976645 0.45012576237632812
0.064177189552128061 0.33930359354232897 0.45385769002441928
0.073051110600582253 0.3407377060746315 0.45947150839391498
0.083284894027892048 0.36184864144655626 0.45652884902360669
-0.098185782744864225 0.16224189189205987 0.40048568302184495
-0.090303478829019387 0.16518976300412228 0.40747169297488472
-0.095532353992461669 0.17019947661206281 0.39884431584832414
-0.1063194146597362 0.1578896737588312 0.3938006467687053
-0.10037418394887573 0.1557291026449476 0.40256589392440106
-0.093055894153075969 0.1584547333081982 0.40899800081348903
-0.086994271197346179 0.17318335500590226 0.40649327937878971
-0.10432414455560846 0.16575295146076338 0.39148338241497471
-0.10793248031037761 0.1516915307139628 0.39642325799365213
0.085579352922877383 0.35079291281566438 0.46257150009616921
0.083649170401130457 0.35131559091073883 0.46195952047997685
0.08145109321850233 0.34146873364936647 0.46349330036483549
0.08713402932445144 0.35010704272881221 0.46259356110027661
0.090073363204457052 0.35967109341484493 0.46194804030700848
0.088383140851616221 0.36060037689366087 0.46107712044241911
0.079334558668049254 0.34158255724078401 0.46318337315093155
0.083157327334960923 0.34114022965585022 0.46318452050111308
0.091419753160082134 0.35861944261461198 0.46225810290153652
-0.10553003624448065 0.1411932012341604 0.40525552430862788
-0.09958466594304477 0.1430630968685187 0.41011481720460918
-0.10395128453333839 0.14548264255111384 0.40518377617970247
-0.11163886961412471 0.13831103457033153 0.40062630125695908
-0.10702500584300384 0.13723731448840654 0.40483263898075872
-0.10148077718264185 0.13885036293658604 0.40914416529951914
-0.09758323667936826 0.14762065120771006 0.41058232961412233
-0.11051255826211279 0.1422391161273715 0.40003412728040094
-0.11269937607216469 0.13470251848065612 0.40073329939287611
0.10492304407934441 0.38218932317786702 0.4611018900238974
0.10398873240582129 0.38410955618050757 0.46000172423490548
0.099716223843945712 0.3753396029098921 0.46114048345069142
0.10559439776062771 0.38024096780134931 0.46169034877232451
0.11061168584301359 0.38871115262046996 0.46165272818792369
0.10992740906315693 0.39085216666403522 0.46067149598576612
0.098536220376347322 0.37698162722482553 0.4600132588793952
0.10060984820277905 0.37364262938057013 0.46175261863598882
0.11104951058935117 0.38656095069923135 0.46209879330117953
-0.1302755680258354 0.12383997849932285 0.38808801723744424
-0.12402224577068927 0.1296207314020125 0.39194902430962592
-0.13019807246258697 0.12675821260564571 0.3865867231860905
-0.13664831701081703 0.11710353652322042 0.38483271700002158
-0.13035064608677138 0.12117517533533195 0.3890918729773723
-0.12434905814369272 0.12668221776883071 0.39280281899248337
-0.12366803231322188 0.13283965740667059 0.39061613618642937
-0.13679269516159626 0.11972079538911251 0.38328683873060942
-0.13653414547198561 0.11470262745149909 0.38583509389289183
0.13203656302566225 0.40839053659386271 0.46849622164487709
0.13221825444413479 0.41087910216444856 0.46830951102708712
0.12410816123571336 0.40175663832513031 0.46556087957667835
0.13160191355762924 0.40588188865578689 0.46785785128980567
