# XYZ point cloud file
-0.3114103376865387 0.043889883905649185 0.63774079084396362
-0.35931497812271118 0.052547451108694077 0.63002294301986694
-0.40831261873245239 0.052830647677183151 0.62051814794540405
-0.45347034931182861 0.029620174318552017 0.63275247812271118
-0.45050135254859924 0.014470841735601425 0.65592479705810547
-0.44733318686485291 -0.0012918077409267426 0.67804819345474243
-0.23328208923339844 0.37889900803565979 0.73195570707321167
-0.23259919881820679 0.41275939345359802 0.73067241907119751
-0.22473868727684021 0.4463362991809845 0.72856563329696655
-0.22382274270057678 0.48684743046760559 0.70573747158050537
-0.23641225695610046 0.49526682496070862 0.68410676717758179
-0.24809297919273376 0.50361406803131104 0.66125750541687012
-0.27956926822662354 0.46878090500831604 0.64082717895507812
-0.29077246785163879 0.42329657077789307 0.64291590452194214
-0.29255175590515137 0.37727239727973938 0.6443750262260437
-0.50133174657821655 0.027166973799467087 0.59545916318893433
-0.54193580150604248 0.0020640008151531219 0.58069056272506714
-0.57679295539855957 -0.02972465381026268 0.56570696830749512
-0.59361904859542847 -0.075819730758666992 0.57926815748214722
-0.58225834369659424 -0.084631875157356262 0.60658496618270874
-0.57003211975097656 -0.093581855297088623 0.63293057680130005
-0.53559523820877075 -0.074747338891029358 0.66789513826370239
-0.50913476943969727 -0.050763774663209915 0.67851859331130981
-0.47820043563842773 -0.031576167792081833 0.68898826837539673
-0.16854956746101379 0.38682833313941956 0.78771346807479858
-0.16845065355300903 0.40787938237190247 0.78630715608596802
-0.16356712579727173 0.42892321944236755 0.78420323133468628
-0.16438084840774536 0.45447012782096863 0.77077418565750122
-0.17833736538887024 0.46148410439491272 0.75795364379882812
-0.19410541653633118 0.46964988112449646 0.74291187524795532
-0.54125040769577026 -0.11217473447322845 0.68076878786087036
-0.52601331472396851 -0.12114067375659943 0.70130258798599243
-0.51254421472549438 -0.12889344990253448 0.71894687414169312
-0.48919215798377991 -0.11661572754383087 0.73943829536437988
-0.47232908010482788 -0.10120145976543427 0.74606257677078247
-0.45255452394485474 -0.088919252157211304 0.75268512964248657
-0.14004984498023987 0.46817657351493835 0.77822107076644897
-0.12232204526662827 0.48487010598182678 0.77446812391281128
-0.10162248462438583 0.49852755665779114 0.77026373147964478
-0.081529147922992706 0.51919680833816528 0.7539290189743042
-0.085387609899044037 0.53366690874099731 0.73951977491378784
-0.089734606444835663 0.55024898052215576 0.72266095876693726
-0.12905555963516235 0.55294245481491089 0.71051245927810669
-0.16083636879920959 0.53260326385498047 0.71649295091629028
-0.18817350268363953 0.50740325450897217 0.72151082754135132
-0.57079821825027466 -0.1339508593082428 0.64899724721908569
-0.57830595970153809 -0.16708372533321381 0.64193350076675415
-0.57886958122253418 -0.20084376633167267 0.63713699579238892
-0.55549609661102295 -0.23003615438938141 0.66075319051742554
-0.53885394334793091 -0.22594417631626129 0.68389832973480225
-0.52416467666625977 -0.22220610082149506 0.70375251770019531
-0.51757878065109253 -0.19822689890861511 0.72071725130081177
-0.51707988977432251 -0.17643769085407257 0.72358918190002441
-0.51198816299438477 -0.15494281053543091 0.7278522253036499
-0.097715370357036591 0.58374685049057007 0.68254727125167847
-0.10095285624265671 0.59938794374465942 0.66002470254898071
-0.10388951748609543 0.61458367109298706 0.63651508092880249
-0.15257298946380615 0.61110466718673706 0.62096565961837769
-0.19431647658348083 0.58444297313690186 0.62794703245162964
-0.23040002584457397 0.55093157291412354 0.63353294134140015
-0.6238400936126709 -0.10887138545513153 0.53892976045608521
-0.63436269760131836 -0.15340988337993622 0.52892297506332397
-0.63580071926116943 -0.19899401068687439 0.52227479219436646
-0.61495006084442139 -0.24189193546772003 0.54970091581344604
-0.60166144371032715 -0.2396729439496994 0.57916271686553955
-0.58758461475372314 -0.23708178102970123 0.60777533054351807
-0.056941606104373932 0.57511806488037109 0.69574946165084839
-0.01930544525384903 0.57610428333282471 0.68759101629257202
0.017379947006702423 0.57052654027938843 0.67971605062484741
0.038838259875774384 0.62900233268737793 0.58099466562271118
-0.0089525803923606873 0.63814598321914673 0.59174299240112305
-0.058130450546741486 0.63845270872116089 0.60250997543334961
-0.61018311977386475 -0.28650420904159546 0.52237153053283691
-0.5841134786605835 -0.32519111037254333 0.52910727262496948
-0.55093199014663696 -0.3584459125995636 0.53918582201004028
-0.51273840665817261 -0.31696707010269165 0.64710777997970581
-0.53835278749465942 -0.29309803247451782 0.64050406217575073
-0.55851924419403076 -0.26505133509635925 0.63637107610702515
-0.054329045116901398 0.51347994804382324 0.76067036390304565
-0.029521308839321136 0.51421582698822021 0.75566798448562622
-0.0053136125206947327 0.51079684495925903 0.75098568201065063
-0.47227925062179565 -0.27090105414390564 0.72666019201278687
-0.48971733450889587 -0.25629323720932007 0.72272807359695435
-0.50363105535507202 -0.23891982436180115 0.72026693820953369
0.0094149187207221985 0.49097874760627747 0.7701261043548584
0.011578954756259918 0.4945395290851593 0.76416224241256714
0.013689585030078888 0.49787119030952454 0.75690513849258423
-0.077464543282985687 0.50258040428161621 0.77444356679916382
-0.076888538897037506 0.49925157427787781 0.78115171194076538
-0.076066769659519196 0.49566569924354553 0.78661173582077026
-0.053471989929676056 0.49401548504829407 0.78701299428939819
-0.032936312258243561 0.49517717957496643 0.78261202573776245
-0.013112254440784454 0.49149677157402039 0.7791370153427124
-0.45944130420684814 -0.25563898682594299 0.75700682401657104
-0.4748041033744812 -0.2446063905954361 0.75336676836013794
-0.48603862524032593 -0.23030231893062592 0.75183552503585815
-0.50105899572372437 -0.21608470380306244 0.74474138021469116
-0.50466752052307129 -0.21717779338359833 0.73820161819458008
-0.50770235061645508 -0.21798251569271088 0.73039704561233521
-0.44913482666015625 -0.27674835920333862 0.74192565679550171
-0.44736969470977783 -0.27359169721603394 0.74928516149520874
-0.44538956880569458 -0.27021721005439758 0.75538545846939087
-0.14915972948074341 0.44648915529251099 0.79018044471740723
-0.14676159620285034 0.44492968916893005 0.79716730117797852
-0.14390575885772705 0.44333639740943909 0.80273586511611938
-0.12641122937202454 0.45683178305625916 0.80375707149505615
-0.11209291964769363 0.47109493613243103 0.79987257719039917
-0.094137601554393768 0.48168143630027771 0.79589694738388062
-0.49894696474075317 -0.19632066786289215 0.7527472972869873
-0.49985426664352417 -0.17840968072414398 0.75512272119522095
-0.4951014518737793 -0.16075433790683746 0.75946974754333496
-0.49276292324066162 -0.14107003808021545 0.75815302133560181
-0.49560564756393433 -0.13947165012359619 0.75155645608901978
-0.49791580438613892 -0.13778021931648254 0.74367314577102661
-0.15787756443023682 0.36839839816093445 0.79707354307174683
-0.15478640794754028 0.36928144097328186 0.80401688814163208
-0.15130928158760071 0.37013676762580872 0.80936747789382935
-0.1496654748916626 0.38904637098312378 0.81283360719680786
-0.15089055895805359 0.40636786818504333 0.81162309646606445
-0.1463434100151062 0.4235781729221344 0.80977094173431396
-0.47580820322036743 -0.12830717861652374 0.76988118886947632
-0.46226906776428223 -0.11520117521286011 0.77516257762908936
-0.4450685977935791 -0.1057235449552536 0.78084766864776611
-0.42783656716346741 -0.092989593744277954 0.78112620115280151
-0.42881736159324646 -0.089676558971405029 0.77523332834243774
-0.42938056588172913 -0.086334198713302612 0.76801067590713501
-0.098401390016078949 0.31090429425239563 0.7931179404258728
-0.096953608095645905 0.31352266669273376 0.80005377531051636
-0.095437102019786835 0.31611135601997375 0.80550181865692139
-0.11005605012178421 0.3298039436340332 0.81105011701583862
-0.1253560483455658 0.3410179615020752 0.8121752142906189
-0.13649502396583557 0.35552099347114563 0.81301993131637573
-0.40502247214317322 -0.094125345349311829 0.79072350263595581
-0.38429939746856689 -0.09251856803894043 0.7945854663848877
-0.36416417360305786 -0.095563873648643494 0.79819345474243164
-0.34195032715797424 -0.096473097801208496 0.79748362302780151
-0.34027177095413208 -0.09371437132358551 0.79213082790374756
-0.338492751121521 -0.090932607650756836 0.78530561923980713
-0.010601185262203217 0.30815079808235168 0.78473848104476929
-0.011632882058620453 0.31136754155158997 0.79185837507247925
-0.012691996991634369 0.31445252895355225 0.79757940769195557
-0.034400127828121185 0.31475988030433655 0.80487275123596191
-0.054195336997509003 0.31264889240264893 0.80673086643218994
-0.073546536266803741 0.31526067852973938 0.80832380056381226
-0.32782638072967529 -0.11024920642375946 0.80459791421890259
-0.31348007917404175 -0.12116795778274536 0.80720031261444092
-0.30342954397201538 -0.13529913127422333 0.80915790796279907
-0.28992766141891479 -0.14925841987133026 0.80688530206680298
-0.2863946259021759 -0.1481926292181015 0.80182093381881714
-0.28284657001495361 -0.14719107747077942 0.79518908262252808
0.057690449059009552 0.36068370938301086 0.76619619131088257
0.054849393665790558 0.36225089430809021 0.7738603949546814
0.051922105252742767 0.36359444260597229 0.78013819456100464
0.035040877759456635 0.35029751062393188 0.79037779569625854
0.021376155316829681 0.33702284097671509 0.79456305503845215
0.004338584840297699 0.32725158333778381 0.798728346824646
-0.29189038276672363 -0.1681983470916748 0.81047272682189941
-0.29097366333007812 -0.1853487640619278 0.80958366394042969
-0.29550081491470337 -0.20247673988342285 0.80755633115768433
-0.29816067218780518 -0.22182364761829376 0.80049502849578857
-0.29525676369667053 -0.22319050133228302 0.79519420862197876
-0.29235875606536865 -0.22464631497859955 0.78851252794265747
0.069024376571178436 0.44085940718650818 0.75245338678359985
0.065503917634487152 0.43991979956626892 0.76001924276351929
0.061798147857189178 0.43858352303504944 0.76621633768081665
0.059203274548053741 0.41865751147270203 0.77436864376068115
0.059667624533176422 0.40081074833869934 0.77715420722961426
0.054701320827007294 0.38304725289344788 0.781322181224823
-0.31518012285232544 -0.23552177846431732 0.80016392469406128
-0.32927793264389038 -0.24966932833194733 0.79515975713729858
-0.34671086072921753 -0.26025521755218506 0.78973937034606934
-0.36422669887542725 -0.27401852607727051 0.77904319763183594
-0.36334228515625 -0.27738907933235168 0.77369970083236694
-0.36231815814971924 -0.28060868382453918 0.76716339588165283
0.023125581443309784 0.4764496386051178 0.77336901426315308
0.037719450891017914 0.46587160229682922 0.77150791883468628
0.047959707677364349 0.45202520489692688 0.77144277095794678
-0.38538843393325806 -0.2729351818561554 0.77763718366622925
-0.40470325946807861 -0.27436941862106323 0.77159816026687622
-0.42349034547805786 -0.27092155814170837 0.76643049716949463
-0.001139618456363678 0.47314873337745667 0.78374236822128296
-0.010967068374156952 0.45665693283081055 0.79236096143722534
-0.02372162789106369 0.43548688292503357 0.80161774158477783
-0.0035107210278511047 0.41534918546676636 0.80035370588302612
0.021889783442020416 0.42417922616004944 0.7900775671005249
0.041413448750972748 0.43109354376792908 0.78068292140960693
-0.41290134191513062 -0.21587324142456055 0.78907096385955811
-0.42528542876243591 -0.23677720129489899 0.77901226282119751
-0.43496909737586975 -0.25294080376625061 0.76973825693130493
-0.36941015720367432 -0.25614666938781738 0.78897088766098022
-0.37463054060935974 -0.23920176923274994 0.79385954141616821
-0.38155722618103027 -0.21721853315830231 0.79816967248916626
-0.0069462880492210388 0.38710305094718933 0.80569493770599365
0.016231365501880646 0.377797931432724 0.7991567850112915
0.033955372869968414 0.37074759602546692 0.79247486591339111
-0.31588497757911682 -0.21435976028442383 0.80693316459655762
-0.33344781398773193 -0.207132488489151 0.80778002738952637
-0.35649687051773071 -0.19773359596729279 0.80666959285736084
-0.031836815178394318 0.36814555525779724 0.81227630376815796
-0.024339072406291962 0.34715136885643005 0.81000590324401855
-0.018609486520290375 0.33108043670654297 0.80658882856369019
-0.30953952670097351 -0.15560464560985565 0.81200212240219116
-0.32853555679321289 -0.16178964078426361 0.81173020601272583
-0.35335326194763184 -0.16985063254833221 0.80923479795455933
-0.063752390444278717 0.36873576045036316 0.81577527523040771
-0.076183117926120758 0.34790670871734619 0.81512469053268433
-0.085750095546245575 0.33205190300941467 0.81302756071090698
-0.35152691602706909 -0.1127728670835495 0.80445230007171631
-0.36097818613052368 -0.12874962389469147 0.80597054958343506
-0.37343764305114746 -0.14957551658153534 0.80582046508789062
-0.084862060844898224 0.38931187987327576 0.81702512502670288
-0.11074689775705338 0.3816055953502655 0.81740939617156982
-0.13068088889122009 0.37581348419189453 0.81609129905700684
-0.42103821039199829 -0.11040051281452179 0.79120916128158569
-0.4144996702671051 -0.12696906924247742 0.7956206202507019
-0.40609747171401978 -0.14845351874828339 0.79914319515228271
-0.082107223570346832 0.41746905446052551 0.81436449289321899
-0.10640143603086472 0.42736059427261353 0.81328690052032471
-0.12502804398536682 0.43508520722389221 0.8107953667640686
-0.47387486696243286 -0.14920260012149811 0.77258938550949097
-0.45531412959098816 -0.15693806111812592 0.78129059076309204
-0.43118703365325928 -0.16698060929775238 0.79042589664459229
-0.056281782686710358 0.43698319792747498 0.80787187814712524
-0.064044348895549774 0.45951047539710999 0.80268490314483643
-0.070027105510234833 0.47699210047721863 0.79715359210968018
-0.48001649975776672 -0.20955988764762878 0.76126211881637573
-0.45992493629455566 -0.20334257185459137 0.7725866436958313
-0.43394502997398376 -0.19526682794094086 0.78533035516738892
0.84655213356018066 -0.42712828516960144 0.51158654689788818
0.86211752891540527 -0.39591571688652039 0.48822909593582153
0.87576103210449219 -0.36545261740684509 0.46430984139442444
0.88880038261413574 -0.32678413391113281 0.46263980865478516
0.88558351993560791 -0.31869009137153625 0.48466303944587708
0.87857991456985474 -0.31244316697120667 0.50697362422943115
0.85861825942993164 -0.33265706896781921 0.54522532224655151
0.84688609838485718 -0.35867863893508911 0.56225818395614624
0.83314752578735352 -0.38588851690292358 0.58021605014801025
0.82340121269226074 -0.4248301088809967 0.58421647548675537
0.82765567302703857 -0.4362177848815918 0.56901627779006958
0.82964956760406494 -0.44753885269165039 0.55229449272155762
0.80009651184082031 -0.44061911106109619 0.61573690176010132
0.78173744678497314 -0.46656224131584167 0.63220685720443726
0.76327884197235107 -0.49053826928138733 0.64741688966751099
0.74542492628097534 -0.53293180465698242 0.65058565139770508
0.74501872062683105 -0.55142867565155029 0.63741010427474976
0.74349188804626465 -0.56736481189727783 0.6214328408241272
0.76327049732208252 -0.55168616771697998 0.58799111843109131
0.78634113073348999 -0.52136236429214478 0.57173138856887817
0.80842936038970947 -0.49023899435997009 0.55365175008773804
0.89851188659667969 -0.30834469199180603 0.41774371266365051
0.90684950351715088 -0.28222602605819702 0.3970998227596283
0.91172933578491211 -0.25790977478027344 0.37989968061447144
0.91257941722869873 -0.23222106695175171 0.39777418971061707
0.90644067525863647 -0.23064565658569336 0.43010154366493225
0.89462387561798096 -0.23079855740070343 0.46356755495071411
0.88117897510528564 -0.2502579391002655 0.50047034025192261
0.88014388084411621 -0.26824533939361572 0.50717377662658691
0.87561792135238647 -0.28743651509284973 0.51710730791091919
0.72943347692489624 -0.52953183650970459 0.67286550998687744
0.71398675441741943 -0.54343074560165405 0.68324571847915649
0.69832193851470947 -0.55312681198120117 0.69265282154083252
0.67712914943695068 -0.59104108810424805 0.69199919700622559
0.6708865761756897 -0.62076848745346069 0.67955619096755981
0.66256606578826904 -0.64627009630203247 0.66379231214523315
0.67331045866012573 -0.65271151065826416 0.63642972707748413
0.69507414102554321 -0.63287872076034546 0.62681293487548828
0.71728050708770752 -0.60840499401092529 0.61550086736679077
0.906810462474823 -0.21522551774978638 0.36087778210639954
0.89578598737716675 -0.19603234529495239 0.35977187752723694
0.87884819507598877 -0.17699307203292847 0.36353966593742371
0.86411005258560181 -0.15571196377277374 0.404532790184021
0.85962599515914917 -0.15572632849216461 0.44103872776031494
0.84528893232345581 -0.15768963098526001 0.47930413484573364
0.84263134002685547 -0.17900633811950684 0.50894147157669067
0.85824334621429443 -0.196658656001091 0.50228112936019897
0.87025582790374756 -0.21467432379722595 0.49819004535675049
0.66272926330566406 -0.55850082635879517 0.71031743288040161
0.6423037052154541 -0.55449163913726807 0.71866875886917114
0.62066435813903809 -0.54691088199615479 0.72623533010482788
0.59375059604644775 -0.57465618848800659 0.72251397371292114
0.58657526969909668 -0.60831063985824585 0.7076992392539978
0.57531434297561646 -0.63437879085540771 0.68751013278961182
0.58528375625610352 -0.66344583034515381 0.65850538015365601
0.60900682210922241 -0.67112874984741211 0.65499985218048096
0.63085538148880005 -0.67230367660522461 0.65037769079208374
0.82662355899810791 -0.1355404257774353 0.38351178169250488
0.79174822568893433 -0.11262664198875427 0.39802196621894836
0.75178289413452148 -0.088865593075752258 0.4140210747718811
0.72311317920684814 -0.067836984992027283 0.46294331550598145
0.72674691677093506 -0.074557751417160034 0.49716126918792725
0.72123199701309204 -0.084524884819984436 0.53140568733215332
0.74726015329360962 -0.11482150852680206 0.55044716596603394
0.77785062789916992 -0.13085587322711945 0.53817564249038696
0.80291688442230225 -0.14633414149284363 0.52720528841018677
0.57536113262176514 -0.5237002968788147 0.7376207709312439
0.55041623115539551 -0.50813519954681396 0.74122649431228638
0.52169865369796753 -0.4891255795955658 0.7436225414276123
0.47281771898269653 -0.49691370129585266 0.73411542177200317
0.45621263980865479 -0.5236736536026001 0.71754735708236694
0.43688058853149414 -0.54303908348083496 0.69440025091171265
0.45525753498077393 -0.58097505569458008 0.66521972417831421
0.4932979941368103 -0.60770374536514282 0.66498368978500366
0.52783691883087158 -0.63097107410430908 0.66352438926696777
0.65883159637451172 -0.040632385760545731 0.4458954930305481
0.60888713598251343 -0.017790254205465317 0.46024534106254578
0.55993568897247314 0.0026421733200550079 0.47302937507629395
0.52356302738189697 0.016444031149148941 0.51934027671813965
0.52472567558288574 0.0083437301218509674 0.55538439750671387
0.51979893445968628 -0.0039705894887447357 0.59006971120834351
0.56009846925735474 -0.037396278232336044 0.60893261432647705
0.61225688457489014 -0.057227190583944321 0.59444087743759155
0.66334843635559082 -0.077706396579742432 0.5791129469871521
0.44620800018310547 -0.43835330009460449 0.74532556533813477
0.40110018849372864 -0.4081156849861145 0.74481171369552612
0.35554993152618408 -0.3774833083152771 0.74344766139984131
0.29614153504371643 -0.37601688504219055 0.72529995441436768
0.27896112203598022 -0.40048900246620178 0.70330888032913208
0.26162555813789368 -0.41931429505348206 0.67569822072982788
0.28250229358673096 -0.45872095227241516 0.64949524402618408
0.32512816786766052 -0.48943689465522766 0.65551108121871948
0.3697875440120697 -0.52081143856048584 0.66044771671295166
0.20572903752326965 0.11002473533153534 0.6862834095954895
0.23231223225593567 0.11250291764736176 0.63505637645721436
0.25084143877029419 0.11286731064319611 0.58696115016937256
0.2657279372215271 0.14745508134365082 0.53727275133132935
0.27547734975814819 0.19206894934177399 0.52459096908569336
0.28792273998260498 0.24277009069919586 0.51039981842041016
0.2893223762512207 0.29942291975021362 0.52909141778945923
0.27279511094093323 0.30398967862129211 0.5634225606918335
0.25256618857383728 0.30922800302505493 0.59669023752212524
0.21538445353507996 0.26240292191505432 0.64872163534164429
0.19739267230033875 0.21038322150707245 0.67653340101242065
0.17907264828681946 0.15870252251625061 0.70676720142364502
-0.03293580561876297 -0.1952025294303894 0.75792902708053589
-0.074128217995166779 -0.24291251599788666 0.73912495374679565
-0.11533919721841812 -0.2897828221321106 0.72160696983337402
-0.14386796951293945 -0.35262969136238098 0.68648195266723633
-0.13197252154350281 -0.37166795134544373 0.66223222017288208
-0.12295430153608322 -0.38867369294166565 0.63569259643554688
-0.074818037450313568 -0.36250627040863037 0.61316448450088501
-0.034072078764438629 -0.32438027858734131 0.61677581071853638
0.0024574175477027893 -0.29171943664550781 0.61958682537078857
0.032553188502788544 -0.2512364387512207 0.65732020139694214
0.029571615159511566 -0.22570697963237762 0.69793647527694702
0.024285398423671722 -0.19271019101142883 0.7392997145652771
0.30807819962501526 0.34924516081809998 0.48854473233222961
0.31236237287521362 0.40222859382629395 0.48231053352355957
0.31249222159385681 0.45571747422218323 0.47741967439651489
0.29909497499465942 0.51492804288864136 0.50081503391265869
0.28388893604278564 0.51839166879653931 0.52947825193405151
0.26518133282661438 0.51891487836837769 0.55684924125671387
0.24938589334487915 0.46665635704994202 0.58657366037368774
0.24811577796936035 0.41693910956382751 0.59501755237579346
0.24190038442611694 0.36605623364448547 0.6075475811958313
-0.20067098736763 -0.37306958436965942 0.69275593757629395
-0.24534508585929871 -0.40732395648956299 0.68079590797424316
-0.29114252328872681 -0.43641489744186401 0.66886705160140991
-0.33285844326019287 -0.48035910725593567 0.64060294628143311
-0.32438522577285767 -0.49785107374191284 0.62290138006210327
-0.3152458667755127 -0.51133102178573608 0.6026766300201416
-0.25687497854232788 -0.49507158994674683 0.59305626153945923
-0.20853522419929504 -0.46741166710853577 0.60111474990844727
-0.16252142190933228 -0.43626070022583008 0.60594213008880615
0.29940792918205261 0.56623369455337524 0.46632266044616699
0.28478622436523438 0.62192964553833008 0.46276140213012695
0.26319277286529541 0.67546790838241577 0.46583417057991028
0.22398126125335693 0.7203209400177002 0.50896292924880981
0.20972859859466553 0.71076405048370361 0.53941947221755981
0.19331136345863342 0.69705069065093994 0.56833153963088989
0.20220771431922913 0.64430540800094604 0.58287507295608521
0.22188594937324524 0.60440921783447266 0.57824444770812988
0.23634088039398193 0.56098121404647827 0.57808965444564819
-0.38546213507652283 -0.47839632630348206 0.64027070999145508
-0.43315804004669189 -0.49085012078285217 0.62405085563659668
-0.48032647371292114 -0.49726912379264832 0.60875880718231201
-0.53404861688613892 -0.51984143257141113 0.57427680492401123
-0.53844070434570312 -0.54087871313095093 0.54962760210037231
-0.54013901948928833 -0.55793899297714233 0.52351999282836914
-0.48001837730407715 -0.56725722551345825 0.51484346389770508
-0.42080557346343994 -0.55744850635528564 0.53699558973312378
-0.36319279670715332 -0.54090255498886108 0.55998045206069946
0.19434139132499695 0.76872402429580688 0.50780892372131348
0.14981341361999512 0.80450057983398438 0.54447180032730103
0.10377714782953262 0.83023512363433838 0.58328914642333984
0.058041639626026154 0.8320307731628418 0.64000791311264038
0.055299572646617889 0.81320881843566895 0.65749067068099976
0.052631102502346039 0.78961473703384399 0.67009294033050537
0.081669129431247711 0.75297868251800537 0.6548113226890564
0.1146828755736351 0.73501038551330566 0.63158053159713745
0.14738002419471741 0.71038758754730225 0.61019992828369141
-0.57041895389556885 -0.49096605181694031 0.58759003877639771
-0.61073565483093262 -0.4795057475566864 0.58310455083847046
-0.64531064033508301 -0.46453455090522766 0.58233004808425903
-0.69453895092010498 -0.46217164397239685 0.56692922115325928
-0.71374279260635376 -0.47532626986503601 0.54482823610305786
-0.72814005613327026 -0.48529919981956482 0.5199732780456543
-0.70108413696289062 -0.51794618368148804 0.48847407102584839
-0.65416443347930908 -0.54161703586578369 0.48610129952430725
-0.59912604093551636 -0.55918353796005249 0.48842912912368774
0.022857405245304108 0.84316170215606689 0.64250475168228149
-0.011367760598659515 0.83097779750823975 0.65948992967605591
-0.045785568654537201 0.81000298261642456 0.67180806398391724
-0.080750741064548492 0.7745283842086792 0.70694059133529663
-0.07557041198015213 0.76133847236633301 0.72632533311843872
-0.069191344082355499 0.74476891756057739 0.73915219306945801
-0.02894284576177597 0.74688708782196045 0.72958022356033325
-0.0010982528328895569 0.76018959283828735 0.71408283710479736
0.024309687316417694 0.76582235097885132 0.69693762063980103
-0.68946373462677002 -0.43013176321983337 0.5908549427986145
-0.69926244020462036 -0.40978935360908508 0.59926831722259521
-0.70375889539718628 -0.38411033153533936 0.60962015390396118
-0.72473818063735962 -0.3542136549949646 0.60510331392288208
-0.7415471076965332 -0.35525918006896973 0.58188790082931519
-0.75389736890792847 -0.35420039296150208 0.55416858196258545
-0.76309818029403687 -0.39268922805786133 0.5149390697479248
-0.76286709308624268 -0.42884752154350281 0.50672030448913574
-0.7552521824836731 -0.46102884411811829 0.49966788291931152
-0.12824168801307678 0.75259494781494141 0.69368022680282593
-0.1777685284614563 0.72063827514648438 0.70533138513565063
-0.23046422004699707 0.68884354829788208 0.71651005744934082
-0.2845340371131897 0.64808541536331177 0.75311189889907837
-0.27963006496429443 0.63383102416992188 0.77482229471206665
-0.27012118697166443 0.61792957782745361 0.78959304094314575
-0.20611053705215454 0.63333982229232788 0.78463923931121826
-0.15478116273880005 0.66642141342163086 0.77218526601791382
-0.10580480843782425 0.69836848974227905 0.75852131843566895
-0.7054976224899292 -0.3070119321346283 0.63365751504898071
-0.70561408996582031 -0.25722882151603699 0.64622229337692261
-0.70618033409118652 -0.20537909865379333 0.65848445892333984
-0.72908812761306763 -0.15216650068759918 0.6541251540184021
-0.74644988775253296 -0.14954772591590881 0.63034158945083618
-0.75861084461212158 -0.14754714071750641 0.60156029462814331
-0.75964617729187012 -0.19908125698566437 0.55923753976821899
-0.75784158706665039 -0.25244817137718201 0.54726070165634155
-0.75819861888885498 -0.30395960807800293 0.53545683622360229
-0.33827251195907593 0.63272416591644287 0.73459523916244507
-0.38908225297927856 0.60834115743637085 0.74075192213058472
-0.43445444107055664 0.58400273323059082 0.74493598937988281
-0.46661990880966187 0.54729843139648438 0.77408307790756226
-0.45253840088844299 0.53485536575317383 0.79638969898223877
-0.43100434541702271 0.52181828022003174 0.81171196699142456
-0.3760620653629303 0.53103095293045044 0.81492668390274048
-0.34196162223815918 0.55259078741073608 0.81036990880966187
-0.30180329084396362 0.57574254274368286 0.8039061427116394
-0.71151262521743774 -0.11175078153610229 0.68010503053665161
-0.71496224403381348 -0.073436662554740906 0.689433753490448
-0.71622633934020996 -0.039983335882425308 0.69839984178543091
-0.73948442935943604 0.0037860237061977386 0.69343775510787964
-0.76094430685043335 0.016834694892168045 0.67106503248214722
-0.77611762285232544 0.027363438159227371 0.64318543672561646
-0.78488671779632568 -0.0046248361468315125 0.60139590501785278
-0.78001141548156738 -0.048142384737730026 0.59113091230392456
-0.77204489707946777 -0.09550359845161438 0.58114689588546753
-0.49876552820205688 0.52823728322982788 0.74723678827285767
-0.51473551988601685 0.4955802857875824 0.74580121040344238
-0.51932913064956665 0.46050533652305603 0.74328792095184326
-0.50434911251068115 0.41739663481712341 0.76764106750488281
-0.48739469051361084 0.41203227639198303 0.79102414846420288
-0.46325111389160156 0.40764898061752319 0.80788707733154297
-0.43899253010749817 0.43384495377540588 0.81768560409545898
-0.43530601263046265 0.4610343873500824 0.81882953643798828
-0.42330145835876465 0.48616483807563782 0.81893819570541382
-0.70407569408416748 0.014752563089132309 0.71712517738342285
-0.6881328821182251 0.036545973271131516 0.72711580991744995
-0.66494548320770264 0.054500546306371689 0.7372090220451355
-0.6531183123588562 0.088843539357185364 0.73744040727615356
-0.66857904195785522 0.10773278772830963 0.71930420398712158
-0.67942792177200317 0.12329818308353424 0.69496577978134155
-0.7229769229888916 0.11832837760448456 0.65330410003662109
-0.75232464075088501 0.09635084867477417 0.63935190439224243
-0.77255028486251831 0.068202972412109375 0.62554055452346802
-0.49263590574264526 0.38540217280387878 0.73696595430374146
-0.46601405739784241 0.34741035103797913 0.73366338014602661
-0.43734976649284363 0.31107613444328308 0.73029285669326782
-0.40551996231079102 0.27356624603271484 0.75398522615432739
-0.39296317100524902 0.27132090926170349 0.77704155445098877
-0.37615972757339478 0.2716204822063446 0.79408943653106689
-0.37776613235473633 0.3065066933631897 0.80714291334152222
-0.39977329969406128 0.33945226669311523 0.81054884195327759
-0.41967248916625977 0.37251091003417969 0.81342023611068726
-0.59483921527862549 0.078521370887756348 0.75674968957901001
-0.55087637901306152 0.08590976893901825 0.76544302701950073
-0.50558024644851685 0.092102274298667908 0.77272528409957886
-0.46956074237823486 0.11495940387248993 0.77009260654449463
-0.47733229398727417 0.1297868937253952 0.75384718179702759
-0.48420536518096924 0.1415473073720932 0.73117786645889282
-0.53520137071609497 0.14682766795158386 0.69743221998214722
-0.58635389804840088 0.14534591138362885 0.68891173601150513
-0.63767039775848389 0.14180028438568115 0.67857283353805542
-0.39430856704711914 0.24923060834407806 0.7234310507774353
-0.38481086492538452 0.22479920089244843 0.72013074159622192
-0.3830263614654541 0.20418673753738403 0.71714454889297485
-0.38196328282356262 0.18154726922512054 0.7406354546546936
-0.36924606561660767 0.17406722903251648 0.76236945390701294
-0.35047191381454468 0.16463471949100494 0.77863448858261108
-0.32289433479309082 0.18896301090717316 0.79031115770339966
-0.33035218715667725 0.21802933514118195 0.79409438371658325
-0.34158480167388916 0.24607791006565094 0.79860138893127441
-0.42480319738388062 0.10655830800533295 0.78098541498184204
-0.39071983098983765 0.11684085428714752 0.78266435861587524
-0.35809731483459473 0.12996716797351837 0.78433519601821899
-0.40169024467468262 0.17289057374000549 0.71279376745223999
-0.42236495018005371 0.1618170440196991 0.71087461709976196
-0.45120576024055481 0.15378656983375549 0.70815819501876831
-0.33814084529876709 0.28181728720664978 0.80232775211334229
-0.31938743591308594 0.29091978073120117 0.7952236533164978
-0.30130863189697266 0.30097615718841553 0.78551995754241943
-0.29468894004821777 0.33323019742965698 0.77775901556015015
-0.3022383451461792 0.35635283589363098 0.777973473072052
-0.30669319629669189 0.37931948900222778 0.77767586708068848
-0.33607375621795654 0.40122702717781067 0.78853803873062134
-0.36804142594337463 0.40148386359214783 0.80174767971038818
-0.40142369270324707 0.40244373679161072 0.81228631734848022
-0.61223351955413818 0.048668626695871353 0.74627166986465454
-0.58962053060531616 0.029737647622823715 0.73877769708633423
-0.56801795959472656 0.012188408523797989 0.72870641946792603
-0.52785623073577881 0.0084765218198299408 0.72755199670791626
-0.50349920988082886 0.018920104950666428 0.7348284125328064
-0.47705766558647156 0.027516093105077744 0.74146181344985962
-0.45143502950668335 0.049327794462442398 0.75664478540420532
-0.45390814542770386 0.065401583909988403 0.76756531000137329
-0.45737585425376892 0.081895917654037476 0.77597337961196899
-0.30536782741546631 0.4217894971370697 0.77617627382278442
-0.29925370216369629 0.44092240929603577 0.77508324384689331
-0.28937563300132751 0.45915952324867249 0.77369779348373413
-0.30432528257369995 0.48286160826683044 0.78461188077926636
-0.3371376097202301 0.49014988541603088 0.79954260587692261
-0.37114289402961731 0.49894121289253235 0.81212908029556274
-0.68384861946105957 -0.025895986706018448 0.7103390097618103
-0.6535956859588623 -0.040829766541719437 0.70616525411605835
-0.62490010261535645 -0.054881896823644638 0.69908565282821655
-0.59199655055999756 -0.048365321010351181 0.69936865568161011
-0.58101427555084229 -0.031616959720849991 0.70592790842056274
-0.56688040494918823 -0.016776766628026962 0.71284973621368408
-0.25794002413749695 0.49446603655815125 0.76986616849899292
-0.23630982637405396 0.51281899213790894 0.76679885387420654
-0.21077057719230652 0.53284269571304321 0.76219767332077026
-0.19884565472602844 0.56495451927185059 0.76547932624816895
-0.21856087446212769 0.57579368352890015 0.77860426902770996
-0.23840358853340149 0.58812558650970459 0.79014408588409424
-0.6842949390411377 -0.15976749360561371 0.67483752965927124
-0.65999102592468262 -0.16447964310646057 0.67309516668319702
-0.63674360513687134 -0.16926376521587372 0.66900962591171265
-0.6130218505859375 -0.14158245921134949 0.67505365610122681
-0.60980820655822754 -0.11346563696861267 0.68173283338546753
-0.60580319166183472 -0.088883519172668457 0.68757230043411255
-0.14806053042411804 0.58151847124099731 0.74610179662704468
-0.11302924901247025 0.60832709074020386 0.73499888181686401
-0.078368358314037323 0.63312280178070068 0.72315102815628052
-0.048900358378887177 0.66968679428100586 0.71990817785263062
-0.052548997104167938 0.68787997961044312 0.73069685697555542
-0.057144053280353546 0.7069694995880127 0.74005550146102905
-0.6843295693397522 -0.34420666098594666 0.62792688608169556
-0.66349512338638306 -0.33596548438072205 0.62857323884963989
-0.64373397827148438 -0.32705554366111755 0.62679010629653931
-0.62666946649551392 -0.28568780422210693 0.63481289148330688
-0.62436461448669434 -0.24865460395812988 0.64539855718612671
-0.62049376964569092 -0.21037261188030243 0.65653735399246216
-0.018621616065502167 0.66568577289581299 0.70108389854431152
0.0057185813784599304 0.67154616117477417 0.69149714708328247
0.028197415173053741 0.67157900333404541 0.68242472410202026
0.050849191844463348 0.68770527839660645 0.67478305101394653
0.05063917487859726 0.71155041456222534 0.67741596698760986
0.050341792404651642 0.73715466260910034 0.67907875776290894
-0.64840066432952881 -0.43325480818748474 0.59777575731277466
-0.62464207410812378 -0.41943207383155823 0.60689598321914673
-0.60242938995361328 -0.40630796551704407 0.61401128768920898
-0.60019499063491821 -0.38084593415260315 0.61837798357009888
-0.61296308040618896 -0.36478015780448914 0.61825472116470337
-0.62160784006118774 -0.34449413418769836 0.62072968482971191
0.073049210011959076 0.65751922130584717 0.66447955369949341
0.095808617770671844 0.64382094144821167 0.65592700242996216
0.11747396737337112 0.62508136034011841 0.64853084087371826
0.1450832188129425 0.61878514289855957 0.63446903228759766
0.15398117899894714 0.63906365633010864 0.62448936700820923
0.16449269652366638 0.65999799966812134 0.61128634214401245
-0.51454180479049683 -0.47609949111938477 0.61353999376296997
-0.50069481134414673 -0.45626369118690491 0.62760883569717407
-0.48668569326400757 -0.4381900429725647 0.63913083076477051
-0.50764793157577515 -0.42099413275718689 0.63925755023956299
-0.53691095113754272 -0.41521325707435608 0.6312720775604248
-0.56214511394500732 -0.40589335560798645 0.62508636713027954
0.15358284115791321 0.57069951295852661 0.63982915878295898
0.16681236028671265 0.53651010990142822 0.63901960849761963
0.17652076482772827 0.50018841028213501 0.64035642147064209
0.19598981738090515 0.47592619061470032 0.63109630346298218
0.21097138524055481 0.49045446515083313 0.61724913120269775
0.22746819257736206 0.50436544418334961 0.60100936889648438
-0.33674991130828857 -0.43858173489570618 0.66835480928421021
-0.33195000886917114 -0.41694995760917664 0.67900031805038452
-0.32604897022247314 -0.3966103196144104 0.68831723928451538
-0.35908222198486328 -0.39524364471435547 0.68510210514068604
-0.39829400181770325 -0.40846467018127441 0.67266255617141724
-0.43736699223518372 -0.41772490739822388 0.66036731004714966
0.18446293473243713 0.42875275015830994 0.64882707595825195
0.1815817654132843 0.39516326785087585 0.65598815679550171
0.1729484498500824 0.36249148845672607 0.66535180807113647
0.17309549450874329 0.32647004723548889 0.66854161024093628
0.19074290990829468 0.32272058725357056 0.65863394737243652
0.21016952395439148 0.31880411505699158 0.64496934413909912
-0.17085611820220947 -0.31753867864608765 0.71816790103912354
-0.18425622582435608 -0.30364346504211426 0.72534430027008057
-0.19714924693107605 -0.29202675819396973 0.72971731424331665
-0.23131811618804932 -0.31294941902160645 0.72534745931625366
-0.25753772258758545 -0.33857953548431396 0.71673458814620972
-0.28768652677536011 -0.36029049754142761 0.70736348628997803
0.13487955927848816 0.29840025305747986 0.69144821166992188
0.1072673425078392 0.26823624968528748 0.70653408765792847
0.077549099922180176 0.24150119721889496 0.72053682804107666
0.066031001508235931 0.19834288954734802 0.73354822397232056
0.089899212121963501 0.17168030142784119 0.73753565549850464
0.12008409947156906 0.14064319431781769 0.74120479822158813
-0.046142213046550751 -0.1369347870349884 0.77525037527084351
-0.093626566231250763 -0.13489294052124023 0.76830947399139404
-0.13355526328086853 -0.1351458877325058 0.76163727045059204
-0.16904163360595703 -0.17054116725921631 0.75430905818939209
-0.17792555689811707 -0.20825929939746857 0.74871957302093506
-0.19135734438896179 -0.24664285778999329 0.74154657125473022
0.02263263612985611 0.20484109222888947 0.73795276880264282
-0.00075084716081619263 0.19539034366607666 0.74098455905914307
-0.022615067660808563 0.1903156191110611 0.74216645956039429
-0.041708402335643768 0.16113679111003876 0.74059277772903442
-0.039160840213298798 0.12644945085048676 0.73925471305847168
-0.036656938493251801 0.085198596119880676 0.73837393522262573
0.020039521157741547 0.055459801107645035 0.7427411675453186
0.063914544880390167 0.072143211960792542 0.74802815914154053
0.10834894329309464 0.086644694209098816 0.75054675340652466
-0.0011716857552528381 -0.096189379692077637 0.77625095844268799
-0.014009080827236176 -0.057968448847532272 0.76460093259811401
-0.024874649941921234 -0.01955350860953331 0.75119537115097046
-0.087182112038135529 0.00073611363768577576 0.7430189847946167
-0.12771621346473694 -0.02160784974694252 0.74604862928390503
-0.1621086597442627 -0.04018377885222435 0.74857717752456665
-0.17838472127914429 -0.070129066705703735 0.75367075204849243
-0.17021167278289795 -0.087901756167411804 0.75615882873535156
-0.16546532511711121 -0.1095578521490097 0.75783532857894897
-0.23844611644744873 0.25248381495475769 0.77002209424972534
-0.25588661432266235 0.26999768614768982 0.77282518148422241
-0.2712574303150177 0.28951320052146912 0.77517169713973999
-0.28355240821838379 0.17833127081394196 0.7844616174697876
-0.25804415345191956 0.20054438710212708 0.77840721607208252
-0.2366945743560791 0.22029091417789459 0.77187365293502808
-0.33481919765472412 0.055962461978197098 0.7624935507774353
-0.32933121919631958 0.081154003739356995 0.77118664979934692
-0.32391899824142456 0.11072172224521637 0.78002136945724487
-0.421356201171875 0.037986267358064651 0.75100970268249512
-0.39346027374267578 0.039509665220975876 0.7536889910697937
-0.36620816588401794 0.038481179624795914 0.75525230169296265
-0.15417817234992981 0.20635488629341125 0.75725430250167847
-0.17662721872329712 0.21457310020923615 0.76055073738098145
-0.1984541118144989 0.22477628290653229 0.76378613710403442
-0.27937930822372437 0.13459281623363495 0.77914029359817505
-0.24727892875671387 0.12161175906658173 0.77073079347610474
-0.21701842546463013 0.10919056832790375 0.76283645629882812
-0.17095321416854858 0.12537340819835663 0.75490981340408325
-0.1557370126247406 0.15297673642635345 0.75393325090408325
-0.14241719245910645 0.17824427783489227 0.75333279371261597
-0.23793146014213562 0.018426064401865005 0.75282001495361328
-0.22193080186843872 0.042219903320074081 0.75361865758895874
-0.20480543375015259 0.068730577826499939 0.75475996732711792
-0.3156624436378479 0.028541270643472672 0.75587111711502075
-0.29283386468887329 0.020056847482919693 0.75529336929321289
-0.27158060669898987 0.0098746903240680695 0.75433576107025146
-0.15762358903884888 0.084017336368560791 0.74858129024505615
-0.12507873773574829 0.069912895560264587 0.74291735887527466
-0.087549380958080292 0.053663771599531174 0.73916518688201904
-0.065368108451366425 0.18866840004920959 0.74478965997695923
-0.087155081331729889 0.19075064361095428 0.74741047620773315
-0.10921872407197952 0.19451798498630524 0.75054246187210083
-0.23364171385765076 -0.013640087097883224 0.75191229581832886
-0.21704882383346558 -0.02652474120259285 0.75097239017486572
-0.20221918821334839 -0.040210958570241928 0.75070667266845703
0.85498428344726562 -0.30786976218223572 0.55380982160568237
0.84032708406448364 -0.3092292845249176 0.57690376043319702
0.82575637102127075 -0.31180986762046814 0.5974237322807312
0.80939829349517822 -0.33045285940170288 0.61898148059844971
0.80416786670684814 -0.34581387042999268 0.62559473514556885
0.79740405082702637 -0.36068198084831238 0.63321894407272339
0.79602599143981934 -0.38241562247276306 0.63396573066711426
0.80327069759368896 -0.39170140027999878 0.62378823757171631
0.81061911582946777 -0.40224170684814453 0.61169999837875366
0.78060382604598999 -0.38851350545883179 0.6505921483039856
0.77082645893096924 -0.4010474681854248 0.65999090671539307
0.76003760099411011 -0.41222837567329407 0.6696961522102356
0.74796736240386963 -0.44067230820655823 0.67798727750778198
0.747214674949646 -0.46345806121826172 0.67453068494796753
0.74628591537475586 -0.48789325356483459 0.66897106170654297
0.85781359672546387 -0.23625291883945465 0.53064799308776855
0.83605730533599854 -0.24092522263526917 0.5616612434387207
0.8150947093963623 -0.2460649311542511 0.58861243724822998
0.80686527490615845 -0.26663351058959961 0.60743814706802368
0.81220918893814087 -0.28258028626441956 0.60752695798873901
0.81393933296203613 -0.29867565631866455 0.60968250036239624
0.73514425754547119 -0.42923378944396973 0.68952059745788574
0.72075569629669189 -0.4341256320476532 0.6992638111114502
0.70479130744934082 -0.43579825758934021 0.70856142044067383
0.68672454357147217 -0.45880535244941711 0.71611124277114868
0.6859557032585144 -0.48963901400566101 0.71332734823226929
0.68435275554656982 -0.52363085746765137 0.70855283737182617
0.7986484169960022 -0.16946431994438171 0.55371582508087158
0.77120327949523926 -0.17948532104492188 0.58750766515731812
0.7436225414276123 -0.19187770783901215 0.61834865808486938
0.74231982231140137 -0.21286235749721527 0.63255757093429565
0.76384586095809937 -0.22289347648620605 0.62228792905807495
0.78249830007553101 -0.23604735732078552 0.61467128992080688
0.66728699207305908 -0.42704984545707703 0.72481650114059448
0.64729392528533936 -0.4161587655544281 0.73114991188049316
0.62882065773010254 -0.40111073851585388 0.73578697443008423
0.60741817951202393 -0.41779762506484985 0.74142736196517944
0.60409426689147949 -0.45661601424217224 0.74163460731506348
0.60134446620941162 -0.49661752581596375 0.73887890577316284
0.49911093711853027 -0.037894483655691147 0.64763540029525757
0.48617774248123169 -0.057741697877645493 0.66912728548049927
0.47281038761138916 -0.078278928995132446 0.68648266792297363
0.50798153877258301 -0.11713230609893799 0.69152390956878662
0.55765348672866821 -0.13591203093528748 0.68124425411224365
0.60460555553436279 -0.15368624031543732 0.67082637548446655
0.66112244129180908 -0.14921198785305023 0.6424902081489563
0.6783440113067627 -0.13023409247398376 0.61973810195922852
0.69490724802017212 -0.11279115080833435 0.59355860948562622
0.50116163492202759 -0.43443772196769714 0.75086849927902222
0.51406645774841309 -0.40296736359596252 0.75257337093353271
0.52657592296600342 -0.37259390950202942 0.75073784589767456
0.50309395790100098 -0.32229068875312805 0.74823504686355591
0.46106410026550293 -0.29641413688659668 0.75038683414459229
0.4163818359375 -0.2694222629070282 0.75217998027801514
0.35884970426559448 -0.26784661412239075 0.7556387186050415
0.34432709217071533 -0.29370170831680298 0.75522923469543457
0.32899051904678345 -0.3208804726600647 0.75084859132766724
0.67279303073883057 -0.18128019571304321 0.65526670217514038
0.69235444068908691 -0.19093286991119385 0.65102434158325195
0.70584917068481445 -0.19924581050872803 0.64844208955764771
0.59954297542572021 -0.3756386935710907 0.74041867256164551
0.58476293087005615 -0.36948803067207336 0.74232339859008789
0.56542122364044189 -0.35950705409049988 0.74413758516311646
0.41803637146949768 -0.081493645906448364 0.70598036050796509
0.38144570589065552 -0.065431535243988037 0.70997244119644165
0.3494989275932312 -0.04995742067694664 0.71345674991607666
0.32049000263214111 -0.058302279561758041 0.7263561487197876
0.31811040639877319 -0.079878941178321838 0.73208993673324585
0.31293186545372009 -0.099791809916496277 0.73706400394439697
0.32323905825614929 -0.1269901841878891 0.73850840330123901
0.34873908758163452 -0.13859933614730835 0.73663109540939331
0.38061845302581787 -0.15303471684455872 0.73497790098190308
0.42845970392227173 -0.15344777703285217 0.72628408670425415
0.43831747770309448 -0.13593699038028717 0.71937823295593262
0.44865337014198303 -0.11772480607032776 0.71095389127731323
0.38518303632736206 -0.22330358624458313 0.7494162917137146
0.39702704548835754 -0.20462216436862946 0.74438905715942383
0.40812134742736816 -0.18728043138980865 0.73859941959381104
0.29207590222358704 -0.13453605771064758 0.74652785062789917
0.27610105276107788 -0.14986267685890198 0.75108712911605835
0.25673383474349976 -0.16451777517795563 0.75502043962478638
0.26411136984825134 -0.19217145442962646 0.75424200296401978
0.29688382148742676 -0.2062205970287323 0.75343120098114014
0.33283424377441406 -0.22329090535640717 0.7534138560295105
0.60299074649810791 -0.23177266120910645 0.70096749067306519
0.61587607860565186 -0.21065875887870789 0.69000667333602905
0.62953072786331177 -0.18975535035133362 0.6772228479385376
0.46227031946182251 -0.19114117324352264 0.72789007425308228
0.50797665119171143 -0.21306130290031433 0.72222065925598145
0.55193221569061279 -0.23430763185024261 0.71630764007568359
0.55175739526748657 -0.31888985633850098 0.7391783595085144
0.56464207172393799 -0.29572919011116028 0.73068666458129883
0.57755887508392334 -0.27400228381156921 0.72112005949020386
0.61957252025604248 -0.26701962947845459 0.70726913213729858
0.64099669456481934 -0.27738714218139648 0.70453810691833496
0.65614879131317139 -0.28488269448280334 0.70235127210617065
0.67695891857147217 -0.26876881718635559 0.69001400470733643
0.68633437156677246 -0.24683451652526855 0.67905813455581665
0.6975400447845459 -0.22613631188869476 0.66607004404067993
0.62236261367797852 -0.35088381171226501 0.73076510429382324
0.63650697469711304 -0.32952508330345154 0.72142225503921509
0.65213268995285034 -0.30997142195701599 0.71096611022949219
0.30566602945327759 -0.010714944452047348 0.71829056739807129
0.29346680641174316 0.0049761570990085602 0.71928286552429199
0.28059694170951843 0.017287690192461014 0.72113066911697388
0.26374471187591553 0.026414219290018082 0.73299264907836914
0.26299262046813965 0.027688924223184586 0.74263191223144531
0.26281341910362244 0.029502827674150467 0.75237560272216797
0.27450093626976013 0.021367181092500687 0.76058375835418701
0.2827475368976593 0.0096555836498737335 0.75899851322174072
0.28802508115768433 -0.0044435523450374603 0.75781381130218506
