# XYZ point cloud file
-0.20317236748229467 0.52115581000180444 0.77351457633178533
-0.21558134531049863 0.52711347563433675 0.7715987694343851
-0.25985974506095255 0.48753319206042278 0.7774381938802144
-0.23274340450298231 0.47982267006913004 0.77933343553256951
-0.1942909689029711 0.51600396758541567 0.77770593846496927
-0.60372769422475814 -0.15621513940402026 0.69788986003363351
-0.59909825849315146 -0.13350769407425103 0.70123564013020834
-0.61756349574610547 -0.15056143924356225 0.69244129243436447
-0.60774668832770706 -0.1819328385499917 0.69332414849176582
-0.59353586714051998 -0.16058700677467758 0.70464264964682677
-0.58872901943952005 -0.13883439076555024 0.7067295810304044
-0.61329530383037667 -0.12672348294621233 0.69722842339846747
-0.62110865914108027 -0.17764801173527234 0.68659477592138363
-0.59777144874113042 -0.18517143445461834 0.70119260690403984
-0.28064114704315801 0.43273466659591187 0.77957694171654512
-0.29895020572683512 0.43407801326037343 0.78143180288215841
-0.28658988477166164 0.41544073664221953 0.78088665080031272
-0.26698705873112799 0.43159352334563389 0.7803229606157539
-0.27170418388077267 0.44959259165326787 0.77836578772431064
-0.28948979257675772 0.45196674566593692 0.78011264638426892
-0.30505479414001918 0.41562459211319591 0.78263443050094772
-0.27259391401058281 0.41526202865597805 0.78163716927818228
-0.25858797965417579 0.44759234056077513 0.77926301285760768
-0.57577346256638473 -0.080186257535067418 0.71435703209845924
-0.56366472991525163 -0.066094810597898235 0.72032555080835803
-0.58933124471541642 -0.07060057930505978 0.71322840321485981
-0.58555105286974551 -0.095852357798855314 0.70900920815596213
-0.56594418511093103 -0.087961655654115511 0.71740267823505421
-0.55449014945056441 -0.074641305738318758 0.72295625496664806
-0.57624973968927828 -0.055706067295092844 0.71967483258549192
-0.59968161077515525 -0.087142682840852331 0.70724186178705362
-0.5753122692814 -0.10284040618320303 0.71258454321650688
-0.28788106620383941 0.35844677996467078 0.78336267620300892
-0.3045632680415043 0.35418253350062223 0.7847116062611148
-0.28236526487275676 0.33878538792596458 0.78329782457296759
-0.27393048326225028 0.36200672653085181 0.78388488453574012
-0.29025021619871633 0.37817133657644297 0.78292878909680197
-0.3078410248067161 0.3755275136421099 0.78437716096218624
-0.29801350869106707 0.33287098635635098 0.78451718536461201
-0.2688172750036385 0.34372648653965143 0.78369541215077343
-0.27610231771726529 0.38036637051157512 0.78359990494940013
-0.51151290998272869 -0.030189520053110562 0.73927049506738707
-0.48948610358177086 -0.02114847769008233 0.74499016703688514
-0.5186743656655084 -0.017918619445157193 0.74008927422804394
-0.53146879784357748 -0.041038051194116097 0.733060388551941
-0.50581458293082071 -0.040962912311285522 0.74030125014208059
-0.48533197758683871 -0.032526135725673831 0.74547614082175706
-0.49437190422235894 -0.0083661935745794128 0.74623132410751125
-0.54078644865707859 -0.029315643266518039 0.73336490587377079
-0.52438310900118124 -0.051105021316203418 0.73469596830439576
-0.24437334863394997 0.36990233207961254 0.78075590152778174
-0.25261883994107814 0.36761073339981837 0.78327015656671606
-0.23964403054872982 0.35474543912401363 0.77926947298634464
-0.23709271954905925 0.37199044264580389 0.77735968716016268
-0.24681188720732561 0.38504956638700855 0.78178351763686094
-0.25501037810595245 0.38372921179293634 0.78376351667365152
-0.24773770921743124 0.3515309152761627 0.78232143106482743
-0.23252919690151891 0.35768465469133698 0.77527101405715604
-0.23955279398151982 0.38622438449753604 0.7789798857619491
-0.49384222698008751 -0.063609014208512837 0.73863436195270593
-0.4764045652091809 -0.056674340387870538 0.74161415927569507
-0.4972600993942648 -0.057516664158926069 0.7406664813662428
-0.50972297239798048 -0.071828963691522085 0.7353005243965095
-0.49076873221710221 -0.068827989146815871 0.73571718151881405
-0.47419391367042901 -0.062253466953194399 0.73784762228773559
-0.47890262178049675 -0.050168349333003077 0.74445231100039477
-0.51397173132857421 -0.066291403597377091 0.73651383396037351
-0.50585651738767035 -0.076543614729975062 0.7332384317261873
-0.24023342813883786 0.42863562970318803 0.78014679709852941
-0.24773446094579937 0.42959040830776418 0.78144358106552547
-0.24477557057680618 0.41441312242072481 0.7813295933084915
-0.23358165686338639 0.4276993712101903 0.7781070360528638
-0.23326398877467933 0.44286046706051341 0.77910187149503018
-0.24032860116417895 0.44429894418045418 0.78049245171393378
-0.25258469652037985 0.41475934593843472 0.78266805214287782
-0.23784430205453036 0.41402793379970176 0.779249958564742
-0.227025021552161 0.44150566495404303 0.77690842758330614
-0.54606077156667021 -0.10283688695670185 0.72224021069633471
-0.53582931134741785 -0.091382503919001878 0.72689374323959532
-0.55190242001473733 -0.099002679158151585 0.72203345258986007
-0.55474525302707256 -0.11581547530755396 0.71807430271112793
-0.54069244185388732 -0.10599576570078509 0.72160339599205281
-0.53078458457243705 -0.095039529127718458 0.72603495025652232
-0.54131531375354125 -0.087004141855211631 0.72693861840177587
-0.56075440375212893 -0.11255035952530776 0.71780264818315864
-0.54924423581149273 -0.11844571778159244 0.71741137780153696
-0.19706408066198389 0.48808925622098431 0.78041132981885564
-0.20176389545505458 0.49051370718941711 0.78251866965398043
-0.21181312352531484 0.47224087248584734 0.77975324932237955
-0.1931509653032438 0.48600512554860453 0.77684189834285267
-0.17935218336486083 0.50532772418898919 0.77912883512195419
-0.18307395879665522 0.50818549084196663 0.78151052893778827
-0.21745436404061982 0.47435239280354691 0.78158384446117146
-0.20697280621524486 0.47037744020576011 0.77674022638449258
-0.17638560027062278 0.50289096011460044 0.77503357870267653
-0.57393105057217864 -0.16682439538959859 0.71225318632587487
-0.56847559967065564 -0.14756801068127842 0.71356778367996099
-0.57938633982664633 -0.16571702981675868 0.71257895585310826
-0.57865810569117426 -0.18856947320165005 0.70947378020655327
-0.56912396924479369 -0.16734796039515312 0.71020860586488388
-0.5633291394576927 -0.14889343889087855 0.71212386690218044
-0.57422410170724769 -0.14564839244594668 0.71361644463277563
-0.58390488792657613 -0.18836800834953393 0.71005300161051121
-0.57408679404626184 -0.1882118733597121 0.70689224307089804
-0.10816998360110452 0.56740244673062612 0.75116782134085869
-0.10946345028781648 0.57302691590750976 0.75406460500152761
-0.13420429641364695 0.54582763532879375 0.76426094140455902
-0.10729651197235279 0.56226557946472566 0.74648008430264157
-0.0819778334643258 0.58699682470794745 0.73711967676453127
-0.082630767396369598 0.5937274095793279 0.74004772927818074
-0.13619776559875613 0.55032111326886157 0.76705450470517245
-0.13278029021197149 0.54182658689593477 0.75958657535143215
-0.081580733587225229 0.58074613779703432 0.73253365006882387
-0.58912763967248072 -0.26833766706935291 0.68061533214322423
-0.58656475845431821 -0.24023614364693199 0.693265618850748
-0.5953774847039407 -0.27133013248080634 0.6811573462024797
-0.58973434424895677 -0.29528785191048323 0.66806150376511131
-0.58341003043403938 -0.26504977543136105 0.67800992650535385
-0.58151515741026338 -0.23793385723178229 0.69039583197519994
-0.59222614069204005 -0.24212163710300685 0.69395560641681364
-0.59658151972816786 -0.29932812484048599 0.66841827052349034
-0.58332902091800054 -0.29109308980039644 0.66580885257317657
-0.016108602993419201 0.61555116317271841 0.70739968411788845
-0.014820954887140213 0.62392769833068595 0.70994446169476166
-0.035569470385159611 0.61165128734754948 0.71461220501126232
-0.017227659357944757 0.60774009171413645 0.70334820593661829
0.0019994106212633603 0.61515018789915321 0.70172575127902359
0.0040550899548585442 0.62348042460609931 0.70396209081825878
-0.034967221480457826 0.61981578770325818 0.71736978801950657
-0.036120453099565401 0.60400464659990216 0.71035131435241694
0.00019152430292974226 0.60743218542166832 0.69796625749859298
-0.57313162711024868 -0.35226762194037448 0.65107772969177957
-0.58197849754375275 -0.33775174931215174 0.65262747206409044
-0.58023161797160216 -0.35846971827464208 0.65128341840729809
-0.56135632028864435 -0.36364191971058502 0.65228648312057513
-0.56634002568694108 -0.34632795915049291 0.64922815342600004
-0.57495481338635024 -0.33223155051386188 0.65079425156435644
-0.58932631679151315 -0.34340530386372831 0.65279204805690261
-0.56792179396210341 -0.37029650202377262 0.65259298523637876
-0.55510395361418485 -0.35735230743686758 0.65034112663674315
0.055325139424880605 0.59636471186055828 0.68677593682609428
0.060370563704425818 0.60354437844979913 0.68751413097001979
0.03757976220745244 0.60539682051113908 0.69152566597495679
0.050503729023275275 0.58979374758647019 0.68462613333549183
0.072261754379282672 0.5836729420977862 0.68312063506267817
0.078256023678539954 0.59019066504807438 0.68334600411347612
0.041564176820113853 0.61309910282085534 0.69282220471476597
0.033861364310871174 0.5983374181452652 0.68875299918800603
0.066453883726959095 0.57769194610942531 0.68152674631833576
-0.51077753738563436 -0.3871007019280549 0.66370640834047168
-0.53017411608707965 -0.38097394285246411 0.6589164890436825
-0.51438824130053751 -0.39495708406106766 0.66445541502940209
-0.48847106954197439 -0.39042737326759175 0.66998770353466874
-0.50753771549275695 -0.37967070730534147 0.66146283760438118
-0.5257694648871114 -0.37392115094841705 0.65676320177733616
-0.53493817141552125 -0.38847165750111323 0.65950528535812447
-0.4908676991205802 -0.39848168473253298 0.67091800921265865
-0.48642173990232446 -0.38276291343809504 0.66762348906853763
0.11258228639715134 0.51925184821276693 0.68400339087458495
0.11967701819216184 0.52299489470598992 0.68361877442082941
0.10136885759417313 0.54464040084610621 0.68166947087494856
0.10583716185188166 0.51560434315681603 0.68276358925315672
0.1210718181577054 0.49210864965552659 0.6876885616394034
0.12806858255609546 0.49476364646829862 0.68736728945574932
0.10839988804731274 0.54941762870096311 0.6813195131696923
0.094584528122956257 0.54013154881877268 0.6805413262819654
0.11453698695864326 0.48938081381937126 0.68623170615847473
-0.403319084244253 -0.3768626903090751 0.70019318065567981
-0.43401344709795259 -0.38534867085718866 0.68855462375770127
-0.40240856682664355 -0.3838531906456909 0.70181431299867592
-0.37262812161119402 -0.36540894619845654 0.71203181266731486
-0.40412609716354825 -0.37020026279201967 0.69706001273386919
-0.43400580237604752 -0.37806734865149683 0.68573676386086369
-0.43412235974218211 -0.39296777866174193 0.68992836287206216
-0.37074400658834117 -0.37162749115662697 0.71388803002821344
-0.37419811606634429 -0.35951834659133014 0.70858574514679484
0.12616573133075151 0.41418232049750114 0.7025224537815572
0.13278438825875524 0.41365474054501805 0.70255196651594842
0.1283869797270569 0.43903980733657921 0.69704995049189944
0.12018251444631517 0.41437074153237485 0.70056028174456209
0.11912737391056419 0.38970712982968297 0.70893650481542514
0.12548706104237903 0.38822850357655647 0.7091638753448114
0.13513782712500375 0.43952955189284137 0.69694576090651339
0.12225496543150235 0.43825355666652843 0.69521511323997065
0.11337514801607973 0.39083530764383573 0.70680950668850129
-0.29613706802001249 -0.31926222436284724 0.7399075115373599
-0.31819871633729624 -0.336593971863763 0.73219685795830003
-0.29144746099117436 -0.3231323107166808 0.74223233898963004
-0.27743251170381145 -0.29901888209043859 0.74658818163989082
-0.30018806767366463 -0.31572386450245482 0.7359225644132833
-0.32140001958988312 -0.33229802165556521 0.72832123342947075
-0.31440162475825023 -0.34122702440758146 0.73440591279236445
-0.27199205340596827 -0.30208447505827651 0.74901431920721817
-0.28224471122756811 -0.29626400842196537 0.74251180259007266
0.065323990197568599 0.31517170136149031 0.73547733622846345
0.069476124062187339 0.31140025709572561 0.73692092934229858
0.08790697374308501 0.33969612758086354 0.72583611819459526
0.061428508111343212 0.3186352114795219 0.73218098436880907
0.041123841233856741 0.29305065756595067 0.74436942065096401
0.044335822729687509 0.2887487460992938 0.74631953688643426
0.093000782839896046 0.33658111647430888 0.72678410764536316
0.083218249039136938 0.34248435738532801 0.72303505769805088
0.0380200645511738 0.2970655061294537 0.74057460713250645
-0.24098356290615511 -0.21681154439927591 0.76365753852863016
-0.24986075471024394 -0.24691978281485633 0.75850942246694919
-0.2347232894992452 -0.21691535092814046 0.76647779041305919
-0.23544308312652509 -0.1872894968654929 0.76759240208252122
-0.24686153264948613 -0.21679489455371714 0.75908840814027911
-0.25559473140937788 -0.2459538464196703 0.75414654855437158
-0.24363977921380076 -0.24806930468928418 0.76117643891596709
-0.22926701595579513 -0.18643672676015913 0.77058039333281692
-0.24134167386224523 -0.18813227284943534 0.76280907313425839
-0.021417219320451396 0.25421419711695503 0.75707635358039549
-0.019754103909019265 0.24913170276056673 0.76010808670802377
-0.0030344997010530936 0.26226425248093799 0.75528552688215267
-0.023202378718389226 0.25905507281461182 0.75237242310525454
-0.038263716311111855 0.24979862255805585 0.75765076488740102
-0.036831348646821881 0.24460062893882695 0.76093345142795277
-0.0010831903907578475 0.25733000765397995 0.75803945704433251
-0.0050734433217459393 0.26694701601199022 0.75078054967953956
-0.039831296865292819 0.25475496183016233 0.75277269858775808
-0.23881590720974258 -0.12338744022349132 0.76829404148448444
-0.23456968885723062 -0.13988210105276402 0.76979846955469078
-0.23289412424432279 -0.12107048931596345 0.77184614231999193
-0.24555710327106661 -0.11026034517536226 0.76602509692951826
-0.24461394966632055 -0.1255204341110524 0.76304439844285998
-0.2404030059220838 -0.14179367702384923 0.76467914658591774
-0.22859264434179521 -0.13782240192918721 0.77315018711887307
-0.23969217968858772 -0.10775708962078201 0.7698035480041111
-0.25129644333402829 -0.11255361181366022 0.76062333695243678
-0.21205478751896931 0.31153853250593783 0.77453768711889914
-0.21796618512230378 0.3067347529803483 0.77837247113710906
-0.19901422135673394 0.29881518117006117 0.77300400673236758
-0.20705135079196618 0.31574380384941092 0.76956626943343009
-0.22334856176563458 0.32530110324367473 0.77605029425638361
-0.23024329471782173 0.3208191830476872 0.77977701752869233
-0.20387267080687452 0.29378968888322876 0.77689374932914113
-0.19499756684363684 0.30315056365480475 0.76790932136434564
-0.21740661447927503 0.32930190621405375 0.77125015974472744
-0.41740975606280067 -0.045278269173832562 0.74986662562840434
-0.39682631500322324 -0.044882320379676134 0.75231422751763499
-0.41700568393756682 -0.03910736357689195 0.75399441974576198
-0.43783794938729198 -0.047398465557516832 0.74719795921052856
-0.41775862813566855 -0.050369602654019068 0.74465857558315296
-0.39797317456301645 -0.049518123717943903 0.74691479710169195
-0.39549600934744644 -0.039155722386017271 0.75657090161554319
-0.4383939952693317 -0.04086841138593001 0.75110417922426287
-0.43736245479473373 -0.052892154876132309 0.74226540976533828
-0.15220056273091523 0.26947269023803677 0.76774569675104487
-0.15465703346047202 0.26369108220458071 0.7720882590978152
-0.13528833515549815 0.26265527604620259 0.76581649622232129
-0.15025941398665124 0.27461373221576013 0.76194444857772969
-0.16874307829272495 0.27769255990410158 0.76961671792023323
-0.17184027651895631 0.27218754237409959 0.77375798411889052
-0.13716988118175241 0.25665498922512764 0.77031944120225893
-0.13380464638914019 0.2681126233566497 0.75978172185448078
-0.1662843639197866 0.28248488375194936 0.76410602718445797
-0.33841072679620493 -0.054033735523499181 0.75746951714660649
-0.32090166162500905 -0.059802872217657128 0.75853555875755851
-0.33470919755728507 -0.049114486056764044 0.76225626586378536
-0.35701443447934028 -0.049405677361069676 0.75612971297108877
-0.34178349941715269 -0.058123423998256492 0.75126122442198773
-0.3249065213506509 -0.063880367448353348 0.7520734028551963
-0.31659251937398109 -0.055045051585713621 0.76348675377533126
-0.35401942168861517 -0.044325687555199146 0.7607027497839175
-0.35968453496648883 -0.053523799214291505 0.75023560670379563
-0.086011709572847289 0.24968982932555489 0.76024103603476234
-0.085979918213748674 0.24387564790249366 0.76441513271500916
-0.070134556605067927 0.24808193351650554 0.75884636812567885
-0.086224484210040947 0.2551926349930318 0.75450848145586025
-0.10205898051538784 0.25275085217744386 0.76196660014489437
-0.10269858851210359 0.24673728800453698 0.76639135942405034
-0.069488484687595775 0.24251349052641724 0.76270907472636296
-0.07093507378431399 0.25337574166313492 0.75344514327060275
-0.10164658706590504 0.25839649383258401 0.75596435785105409
-0.27650065713619637 -0.081205661515337951 0.76098791959121392
-0.26464990419956547 -0.08979907952101493 0.76210932490717309
-0.27103649170110233 -0.077582471049131158 0.76563759639893481
-0.28984678864242569 -0.073461993514540941 0.76015464747503503
-0.28176633944845403 -0.084481981481228541 0.75476680324031598
-0.27013975833654397 -0.092652362868167193 0.75619983760589127
-0.25899262006427104 -0.086661287381386842 0.76645808018330253
-0.28465908788263189 -0.069352762368496079 0.76504152209162957
-0.2948008331524718 -0.07714091090924402 0.75368559271745761
-0.40334878106083893 0.22309415187292619 0.67146091090395099
-0.40742981565241976 0.21713599210729811 0.70138139053716253
-0.41080513659413337 0.25046193062635247 0.67497756900147277
-0.39955751928869848 0.22977835305316757 0.64312576196354443
-0.40342282370292054 0.19992808114890565 0.66816375105332149
-0.40588034106698911 0.19546200519738824 0.69810593689202693
-0.41715176090016531 0.24227845247340185 0.70510106834607078
-0.40267917789496183 0.26162171238753223 0.6459351986701144
-0.40216264610282587 0.20468216131213918 0.63990785475607848
-0.44628388554789167 0.14847023152760833 0.66059836702726338
-0.47650262769260804 0.13627103482022224 0.65702375267235602
-0.44709082546324758 0.14820113930780482 0.69124820786987828
-0.42463187419272214 0.16306728714411578 0.66306489499290222
-0.44625912028308906 0.14860859394532921 0.63144828037845546
-0.47750218720909593 0.13157105835748184 0.62577682981766281
-0.47699530280729635 0.13826058234374966 0.68853187387416126
-0.42564080849679814 0.16111721413050673 0.69331309857373313
-0.42455878347691817 0.16575751789982623 0.63459681966614057
-0.48266185234187808 0.35198152156429535 0.68905162581946899
-0.49357596919712526 0.3404485495749397 0.7178181298561831
-0.51058144354044599 0.38842243670313703 0.69410178305475456
-0.46643863403951952 0.36999701296564164 0.66353907058537975
-0.45282350461103255 0.31587261837446523 0.68386213598705836
-0.46277217730720971 0.30436799126939307 0.71344668494364127
-0.52236321183204848 0.37826473358038282 0.72212389735753568
-0.49296281917062273 0.40223883723641646 0.67066232867536357
-0.4380237024886427 0.33428603876672497 0.65611469910492015
-0.61614127397179008 0.11992647616612495 0.63921840076802305
-0.66745652150969026 0.11567673079504748 0.63071473672163003
-0.61771235960290172 0.12463424331322753 0.67063712057058034
-0.56382340880947879 0.12291448936864527 0.64638977686208765
-0.6175052449933276 0.10737066766814377 0.60845431205863909
-0.66416838159695191 0.10458410386483369 0.60330542529843822
-0.67118459142586706 0.11951643891799818 0.66092140440957114
-0.56438403562405082 0.12772732645057963 0.67852017435295719
-0.56657781209719726 0.11081593916469312 0.61364003898013653
-0.53332801820712739 0.49707285161154302 0.70385596087682467
-0.54750709895343685 0.49050890843597195 0.73283847853681305
-0.51739801099495009 0.53033388041428553 0.70560225858455994
-0.51126896730085458 0.5011372118815004 0.67799554759602454
-0.5381998311899665 0.46160353709319019 0.70159718767125978
-0.55184477168987711 0.45423157243980256 0.72994595897154591
-0.53108368634591618 0.52477191424781078 0.73441425417392037
-0.49730670778014335 0.53206547219463618 0.68062524521409529
-0.51697103230802666 0.4675950027420267 0.67732495915287494
-0.78037932079351635 0.067504199641937157 0.59319327362659269
-0.80027587896582908 0.038474696197076448 0.57993098750375793
-0.7898447247178485 0.069127407799166762 0.62218312062287395
-0.75155696834695795 0.090626462353747439 0.60718589627221486
-0.76453432857359149 0.060777001109836019 0.56848378422753765
-0.78386257587725061 0.033824506020161134 0.55749658260123347
-0.81025730937693807 0.039343952313680271 0.60804739125038976
-0.75971582876724686 0.092787645334129282 0.63625276107191964
-0.73833490165630766 0.082706694749988624 0.58255874897365267
-0.40651355410077028 0.61233635506522577 0.69715966591765655
-0.41643498757692593 0.61127661366266062 0.72706945449833271
-0.35461967090076874 0.63797088841077154 0.6894928175434033
-0.39654484157818465 0.60383654710299772 0.66977567049131725
-0.45266217445156859 0.5872709145180558 0.7026655153317104
-0.46388137259530143 0.58462699945120244 0.73171529350589037
-0.36356386161960974 0.63802928805325454 0.72036980452279631
-0.34609193682412326 0.62771767365442044 0.65937994876111794
-0.43970273461609982 0.58220004043218243 0.67763875004764829
-0.80349040521445914 -0.077825171371718765 0.54488691403839851
-0.79361601699925666 -0.12519516897580585 0.53364524356871235
-0.81464101505114284 -0.081031025547534469 0.57193067087983995
-0.8103524215406227 -0.034624579688818088 0.55599467227618227
-0.78430352123873115 -0.070287676860138995 0.5242923444261498
-0.77361788857982483 -0.11549553127299064 0.51097360836985628
-0.80492510576090048 -0.12925888375316391 0.56122315432680747
-0.82105259513059237 -0.036373614196202719 0.58285180748997123
-0.79262190083796147 -0.031386338761656155 0.53646030913379184
-0.19397209922513048 0.73263965424245059 0.6569954878202281
-0.19962201989364978 0.73265385587695586 0.6896834104427001
-0.14545697435862864 0.7661042381016876 0.64494881440193608
-0.18724444074432806 0.7289831728570928 0.62169739446911876
-0.24602739682777108 0.69844709458908116 0.66890585570023664
-0.25296585743413719 0.69870277484884979 0.70123832604912506
-0.1496165785897132 0.766763475727267 0.67782779757677403
-0.1401548024356935 0.76270006745960728 0.60891132855247443
-0.23856132028519159 0.69173489133614829 0.63466370438380149
-0.77793389751116571 -0.282370690109645 0.4951580933002559
-0.77792353183984742 -0.33316621988482986 0.48246093937973911
-0.7862094117842785 -0.28692723311205642 0.52499356594073943
-0.77965627671815174 -0.22912324577239421 0.50856902716613328
-0.76542793921194008 -0.27597016566501942 0.46484825094579241
-0.76675323159136966 -0.32635899349149944 0.45105579023159637
-0.78555876155953375 -0.33855531107946518 0.51256620364203953
-0.78927800111352686 -0.23353923933817694 0.53773039560475222
-0.76369117734250158 -0.22104771485044514 0.48049958265346121
-0.029133154692347167 0.84892683362433152 0.61239356289168667
-0.030004345280420279 0.85202905115007732 0.64433961898660497
0.0062795110372226084 0.86294451186026833 0.59639798764572194
-0.028260385911614914 0.84200205475116696 0.57692891846824479
-0.064047167858390069 0.82623342762474949 0.62376870120226902
-0.065729497834250639 0.82871143869717101 0.65629618730291006
0.0060678329167292502 0.86646393098865138 0.62752293083293853
0.0059151284489272274 0.85533638902969622 0.56189385720880058
-0.061862347827336038 0.82039445954506707 0.58765048416932186
-0.78150387950101741 -0.45861345377228097 0.45422234707250975
-0.77330616471505931 -0.49183451117692922 0.44788311498952016
-0.7885029481516258 -0.46616644583796812 0.48339207975438703
-0.78204916598559737 -0.42161856276208548 0.46184868882990149
-0.77064243867316717 -0.44817012405909812 0.42348978498485301
-0.76291975538483592 -0.48074967592570061 0.41776177762084132
-0.77995862199143029 -0.4995118096171749 0.47642492628588928
-0.7892580258848112 -0.42875176294874551 0.4915455213532185
-0.77107899192364471 -0.41217813379152102 0.43051679870411519
0.14067298525144606 0.82943804160441847 0.49920797259782745
0.14241694920224679 0.83294380718647265 0.52688957314092233
0.18820478143684474 0.79461684993903414 0.46175462307919057
0.13657697727399293 0.82397621208191296 0.4680936850806432
0.09167379760519942 0.85367669699453641 0.53825198273472707
0.092737447595098527 0.85735616884862731 0.56710759384203469
0.19060748850113116 0.79791438551431293 0.48857123593127716
0.18311244340588831 0.79070249341798882 0.43118639938390607
0.08878956906808036 0.8468544738768814 0.50611808301683503
-0.66694746923170656 -0.57372260957396615 0.435069576805034
-0.60925673400561087 -0.59075017517166883 0.43678941433383955
-0.67090037389523172 -0.58011565268296772 0.46201484807862003
-0.71621996738879545 -0.55009590955718379 0.43757287728778049
-0.66220727341217323 -0.56383480711808431 0.40445820363327423
-0.60718268529200181 -0.58222109432590785 0.4051093932201062
-0.61197175902032763 -0.59634390434662465 0.46367650339413652
-0.72133331547020085 -0.55715316070468868 0.46489691151963841
-0.70895033691573339 -0.53927272332451781 0.40761843554554966
0.28514252894170267 0.64578058536077998 0.41109182042656367
0.28903314274632735 0.64899257497972818 0.43896860016500316
0.30124216813825855 0.5886481354444868 0.41287470887235556
0.27941737820137597 0.64461615077583723 0.37746861582217756
0.26186713379382404 0.70069734052364285 0.41633752465681384
0.26536895290308132 0.70385674290238931 0.44335137347081049
0.30539298623635464 0.59183549606413299 0.44151898424778524
0.29582313768950302 0.58763898150310157 0.37782914496271613
0.2559790601159791 0.69905794974236712 0.3843435749712561
-0.42328795909049011 -0.58457618939566658 0.48055893635103281
-0.36376797700980507 -0.56620979016235984 0.50213832449744511
-0.42301391095163687 -0.58764152041461482 0.50989428982032536
-0.48481938559770615 -0.59620952015759421 0.46026870768318484
-0.42668780293578679 -0.58171289583301677 0.44414064461552705
-0.36799270838022674 -0.56515306551760891 0.46460819538460063
-0.3627387760097468 -0.56843916626196067 0.53233479502317949
-0.4853819352584291 -0.60010737871200182 0.48849158349263666
-0.48695884650531673 -0.59134861604046784 0.42545733632625948
0.31928154686838378 0.42365797563697027 0.43002113628426442
0.32327340439794472 0.42556601009994866 0.45657470168260439
0.31710268931109248 0.37044119108756568 0.43799791749380346
0.31417683352744746 0.42156574128023039 0.39760937300754662
0.3175075991552867 0.47700076847523398 0.4236867854845901
0.32172283053902129 0.47943003642197257 0.45177114449013084
0.32068011582340616 0.37217585126270913 0.46251606443786147
0.31200328847622411 0.36649729865449587 0.40968210307964348
0.31242557657482112 0.47571098625201502 0.38887375148757802
-0.20658104639353791 -0.48938692794494693 0.54604848890205671
-0.15976063014212399 -0.45748782286942224 0.55330949801183549
-0.20354207588545936 -0.48912710501457912 0.57391925873108962
-0.25541372109503702 -0.51780211195622039 0.53592148486639601
-0.21104156473009184 -0.49036582224397163 0.51183568217348374
-0.16247755870254033 -0.45730104393438115 0.52312651119060394
-0.15673207037037765 -0.4567031284757056 0.57897644425464401
-0.25289153708909251 -0.51830802144507437 0.56545774186094511
-0.26037217854910166 -0.51888480557215966 0.4992298421644642
0.46130821214949108 -0.21995923554691066 0.28706641091071339
0.44979786201846356 -0.25616239361673115 0.29521294667966302
0.44033428226908428 -0.20635596289287039 0.2704423999498381
0.46950035875359802 -0.18297932443482784 0.28259848842609003
0.48779743781900836 -0.23683600091274526 0.30079064087349916
0.47635863502674985 -0.27088377565692173 0.30777250371991438
0.4286854305862231 -0.24502647795058394 0.27994710185171118
0.44793590573644415 -0.16731191604626866 0.26534858015021101
0.49656471349066961 -0.2016146300320335 0.29685918502523467
0.38841631480828381 -0.34641723301488059 0.33021217725680824
0.36204952370672588 -0.34217812300187445 0.31484827313732405
0.41288025464536254 -0.32020967162450065 0.31712872570389927
0.41968960589325816 -0.35498799702828576 0.34339514039299268
0.36252070358031813 -0.3685785416654544 0.3456043851265474
0.33389759450545703 -0.36516759420147121 0.32964352150539644
0.38886506519701297 -0.31411285864348137 0.30261313874987228
0.44202252168920908 -0.33044748938443635 0.32930712293104647
0.39581209713302318 -0.37639773075367527 0.35960025227262654
0.6052526920788398 -0.3040784702074486 0.32007189054918483
0.5941385764969922 -0.33600544194551518 0.32778262207425179
0.56041856898573283 -0.27981062188538491 0.31662609409902276
0.61445118197220516 -0.2702240844117324 0.31413392101247373
0.65300606082582868 -0.32796298090744636 0.3232900522727486
0.64194873486945114 -0.36025049202619047 0.33267000397122803
0.54917870752860332 -0.31171235009295323 0.32328266364613434
0.56969471961055806 -0.24612707029463143 0.31209052000198612
0.66209066920283666 -0.29372614788242657 0.3153333771835094
0.54235124884268815 -0.41316283569317724 0.3686441481400704
0.49741387160930101 -0.38908627904383897 0.36190199276875096
0.56271453448370057 -0.39050110024092227 0.35212570595758808
0.58916380942422841 -0.43866454896887536 0.37604086536390746
0.51996641336170657 -0.43408204655500759 0.38669988400464361
0.47533329116832507 -0.40979030313584608 0.37955900972434886
0.51764722358743587 -0.36640100086490979 0.34600959246847485
0.6100786901293388 -0.41551333102293325 0.35909162583130216
0.56607518472903262 -0.46021937750318526 0.39423137012250636
0.79330093621222753 -0.38164850649083493 0.34973757211601947
0.78144135956000282 -0.4144560903789285 0.366288865778156
0.74898168704162738 -0.36787437139042545 0.33729950613360271
0.80301972788878084 -0.34763709887390426 0.33314891922147533
0.83273434152211101 -0.39053361951610266 0.3652380041777743
0.82029604462296579 -0.42326201852538303 0.38420758542146249
0.73756834181777986 -0.40070173160382672 0.35129045792813229
0.75827660209267156 -0.33347832233637903 0.32381646125208174
0.84303863529721801 -0.35701632813774048 0.34573663944835203
0.72443105431830346 -0.50103045797949264 0.41720021645138905
0.68190140612930883 -0.48416584881425406 0.39978685573192735
0.7470475728785253 -0.47407611438610808 0.40007295759243605
0.76204824564271989 -0.51305248273283899 0.43740016401420578
0.69950964918771452 -0.52706623118927953 0.43408186510254398
0.65739553705062892 -0.50836990963921047 0.41732036014402141
0.70407991494425981 -0.45875631695754471 0.38257889869755968
0.78497366470670793 -0.48448448628802088 0.42035586018127219
0.73690448793448304 -0.54097669630894063 0.4536448977621923
0.90632913911267332 -0.38428312443766621 0.42541226256858328
0.91664449614497756 -0.37439498124804382 0.44743346175288645
0.89173078866448152 -0.41720255587435962 0.44870309303475975
0.88962413004259944 -0.39133702827269623 0.40375085457875703
0.91889153074290608 -0.35165301819863154 0.40109632184450439
0.92984986830841099 -0.34195575253010713 0.42297452472698815
0.90143060419951382 -0.40740882298567288 0.47104551698599612
0.8757541226318365 -0.42411643366603458 0.42618787615573783
0.90142003184796282 -0.35853349304610604 0.38026264634454127
0.83081299771877493 -0.51515534508422145 0.50754770210604128
0.85387380449530192 -0.48280980016192521 0.48995055463595499
0.84020723686922605 -0.50686156204733368 0.53101100835638881
0.80611107667545345 -0.54710457235349508 0.52340550618923509
0.81549272247419669 -0.51981256478896432 0.48343315949012783
0.83864027102119965 -0.4884390623482141 0.4661586017347249
0.8630501909034386 -0.47392208859977913 0.51307465021629317
0.81600276487161127 -0.53925473442206384 0.54713494391913819
0.79046383693269573 -0.55083016365744075 0.49914041751022181
0.94811773385030862 -0.25872026461386649 0.32917990818108311
0.96016326730976476 -0.25128910048432723 0.35203855920629279
0.94045617855914132 -0.28836284312671867 0.35164948780421157
0.92935314585617623 -0.26399628041242051 0.3105323540048166
0.9510566881556114 -0.23140045719074723 0.31100580122764315
0.9639524245290646 -0.22456748873715174 0.33353931221461597
0.95216006193865321 -0.28004001953987095 0.37415929233728507
0.92193487161472321 -0.29402290009076781 0.33188419556027471
0.93209560439926897 -0.23730597383965199 0.2952074012406935
0.72976454893695519 -0.63714866870783282 0.56200881352651599
0.75513158106014522 -0.60954613374099142 0.55072869561284099
0.74233875714530628 -0.62879560371140419 0.58598172734026499
0.70458275678430438 -0.65857474782031955 0.57117599662248131
0.71295184276069767 -0.63905395600500448 0.53820803916507398
0.7382965354440324 -0.61229095504696751 0.52656709065334428
0.76672842715717404 -0.60140256170538153 0.57466476760813268
0.71794822548895521 -0.65092085408290501 0.59530594693088268
0.68931286188733998 -0.65809792178663717 0.54812311442446371
0.91232668744518486 -0.16592422535848939 0.2912873896156169
0.9361756165735895 -0.15921494515933798 0.31314207095206609
0.93378163471064179 -0.18548752598914181 0.29176057329120003
0.88519636059127216 -0.17662480700806973 0.27696309424601245
0.88366973318766551 -0.14674107216233168 0.29631022354635278
0.91319242409651147 -0.14020276975417875 0.31779004428550062
0.95255585505736551 -0.17887535401800647 0.31369620868490322
0.91093938900881899 -0.1946500267113655 0.27836908563635243
0.85109079448516856 -0.15781736517360417 0.2817957418485047
0.6227453295353319 -0.66787926680985732 0.57902134843168718
0.65173954797415889 -0.67434648599876867 0.57945014744508561
0.64270969832630009 -0.66788513135449445 0.60955299657699114
0.59127345575672297 -0.65361108397000722 0.57740472878558191
0.60650086232796208 -0.65973042524145087 0.54884468381122808
0.63742180779919011 -0.66874988283620052 0.55317235911343998
0.66866428636630848 -0.67092509957688595 0.60689720182268148
0.61463022406792311 -0.65773669892528153 0.61099456286320597
0.57194713391780216 -0.64173847573712739 0.54387290646566511
0.76761998944066245 -0.083859018700548321 0.33223299714364174
0.80898408307732528 -0.077615133494976285 0.35474954036088313
0.81014108299619891 -0.10588645581059314 0.31792081411772655
0.72378175430990177 -0.095171948965059955 0.31536859038263398
0.722596813335875 -0.061503882448386747 0.34749003548107232
0.76488315059087342 -0.055041552743933554 0.37126653865889053
0.84897382654375686 -0.099690278507042263 0.33956184442022197
0.76849992222659513 -0.11693936620911341 0.30243873969961244
0.6782341475361513 -0.073229073296502439 0.32877433942468337
0.47982040188751213 -0.58289602672276686 0.57283977729362168
0.51962560283711845 -0.60958319197334254 0.57406417352391192
0.50977349842544328 -0.59640583751984455 0.61355019432628732
0.43827989696788439 -0.55455206853703709 0.57142965416317437
0.45427898424713031 -0.56251376865901792 0.53213025326052943
0.49507679607210681 -0.59103067780051988 0.53527944781656334
0.54834860852593204 -0.62088267954693899 0.61286597448301505
0.46832909508512571 -0.56927975377788376 0.61352384088328338
0.41288430620777283 -0.53341718499081736 0.5292800091695008
0.64149160042221554 -0.16696952837181664 0.30043344375280889
0.68908466137737445 -0.18903284638873674 0.29415113137501225
0.63055822549060447 -0.20031416187607834 0.30396168871466234
0.59613501277323688 -0.14451635942559959 0.30568729152552065
0.65856426161823822 -0.1371187473826895 0.30008693980046225
0.7058137997541678 -0.15882108656071048 0.29127571405124703
0.67818082819096415 -0.22286863468552359 0.30030153734541459
0.58551623783292872 -0.1771926100034302 0.30633163305609773
0.61293837814744223 -0.11520909368811552 0.30831898152613524
0.45207603693135018 -0.49547081858597808 0.44300117280518531
0.47237714206169701 -0.47464381522689514 0.42335057117687214
0.49559821800879339 -0.52455804527272165 0.44978132599115872
0.43956186854053197 -0.51692587292336967 0.46629837602419377
0.40955391705134819 -0.46813527973191837 0.43669111934292693
0.42902240488052673 -0.44862694789495455 0.41641015290890748
0.51680432465869586 -0.50270759854894387 0.4305802983327558
0.4821639569620923 -0.54664574026897006 0.47231041585762434
0.39776517825826557 -0.48841517285002911 0.46091104543501266
0.8302015143412379 -0.24561678841572271 0.28406542855196293
0.84267323596942667 -0.21654385594354017 0.27399959615020553
0.8699976393216825 -0.25791733239800868 0.28792739026930436
0.82029475717015665 -0.27839500871851286 0.29906837203994752
0.78528027927397692 -0.22927190626930799 0.28460886342816322
0.80005416328761059 -0.19930749037766948 0.27667402469605501
0.87816838007669473 -0.23047317484789054 0.27697483699128811
0.86127307834928424 -0.28948125323693569 0.30533406442840033
0.7748183969215221 -0.26287533325102808 0.29658654158584746
0.62314263807176407 -0.60455890598581685 0.48192672085490629
0.65963491803075514 -0.62255250537739171 0.49759015014810248
0.60602379930284223 -0.62678202607018429 0.49990057744282868
0.58243561959019086 -0.58094510804286525 0.46874161442212553
0.64668448354513131 -0.57934949380464384 0.46589765837184471
0.68382718552407173 -0.59705691929716387 0.48339024883174569
0.64070551228444594 -0.64208910600847968 0.51238565970507122
0.56674489010221418 -0.6037951633488724 0.48889734185474143
0.60528893545041018 -0.55678574235594203 0.45122083508833521
0.48617789742886558 -0.081592868306759075 0.3025378536807673
0.49742831725730979 -0.053972837334874575 0.31950778232548727
0.51782915051607536 -0.10117016526215039 0.30699689094909133
0.47986980696415166 -0.11272444133295656 0.29011714742652012
0.45935570148207067 -0.064257085998869895 0.29601892405980806
0.46756786031228931 -0.037023564255970413 0.31914732926833195
0.53167759466770947 -0.073051698446637309 0.31828075807504341
0.50952585594139088 -0.13264753849777472 0.29972216724591716
0.45537694375085969 -0.095233473747835057 0.2779695928716322
0.29591504188928236 -0.41168808046619187 0.41209799694870369
0.33072150954245333 -0.42576672745363642 0.42149138466996994
0.28475653989746824 -0.4229444527201125 0.44276525737201333
0.26511742334421351 -0.40127115367090016 0.40216347555186449
0.31414418965266361 -0.40024789713109887 0.3859848034951544
0.34911903473329736 -0.41092248792869923 0.39807507969977551
0.31961400573555548 -0.4409373739020086 0.44931868217653648
0.25369322059354005 -0.40810727877847891 0.43613990036480965
0.28338668646787141 -0.39364290263732671 0.37279084495054349
0.58302516235071167 0.0017741094164345286 0.3894334502201382
0.61771507970565154 0.0099428827105809345 0.41814125015251175
0.62904979483295331 -0.018018272354670094 0.3766623829669748
0.54733684213249734 -0.011813279815198162 0.36341967346202575
0.53949411486704946 0.019219495571504285 0.40086642861122745
0.56943721753686327 0.027979350703240903 0.43109340234937105
0.6677749959275906 -0.010528506809592601 0.40367441368076185
0.58900430567278439 -0.030953730041997231 0.35322293986569286
0.5088662595736031 0.0051148751747119789 0.37240086016292717
0.31111667312493657 -0.46990830839233588 0.56310196812417546
0.3527473161097206 -0.49727335691430441 0.56660052716672815
0.33403541874508513 -0.48213398924856743 0.60591116627513275
0.27247403383242769 -0.44402886591297286 0.55925802484068532
0.29293954014953805 -0.45314342627297449 0.5195825415354296
0.33124052568708356 -0.47807989687181945 0.52307551331187241
0.37908918980909639 -0.51123518519526168 0.6097224791170327
0.29159616987621284 -0.45402063718345786 0.60132049868618831
0.25793624424799461 -0.43023710170554796 0.51610942484451605
0.35317503015011303 0.075201956112243756 0.45561439501191253
0.37000319219414673 0.069657358253531532 0.44712817121592258
0.34347905307745258 0.079122574085234876 0.42810358486731243
0.33771148540922363 0.07988289973333404 0.46390971801087522
0.36164543158663603 0.07634747149354193 0.48326343151525097
0.37998159583601337 0.072680855474990341 0.47727836584881511
0.35885977602276903 0.069355193241988106 0.41453669268147753
0.32936039312357268 0.085870228123870268 0.4405056094401778
0.34481511183386604 0.079871133506676906 0.48949413503363592
0.12401961608045975 -0.32251320481849433 0.54932565656239241
0.10987440656587039 -0.32632644731744725 0.52039703978955965
0.13713465271258041 -0.33448927694014041 0.54617784927831303
0.13322754534350148 -0.32008033498391225 0.57844603099396696
0.11235394849806493 -0.31125346090599887 0.55283935744003787
0.098093838562942209 -0.31553362531397167 0.52858132791549495
0.12451792391395808 -0.3373586249461526 0.51119392399863972
0.14634903941499244 -0.33278415395651223 0.57850639502543444
0.12118023051405125 -0.30826975707104148 0.57939137693170784
0.43653607293226454 0.051677687070560051 0.42653556181423941
0.46590211947989119 0.043933252451451084 0.41932354801951255
0.4196813020444668 0.03871662544198564 0.3927443075051319
0.41105434117677603 0.05802744895003057 0.43278168541763762
0.45348807859315682 0.060140671708596362 0.45893425118076786
0.48659045497857317 0.053015831454972344 0.45137473173612941
0.44521199492001917 0.029694800100142187 0.3871198982617361
0.39665090750118465 0.048264477747855632 0.39692598978649418
0.42510168685989247 0.065087095234232506 0.46543814563091912
0.1880647128186414 -0.37948630199437677 0.54838236144416741
0.18123336172869134 -0.37506282134913094 0.50736868716018835
0.21084707202705119 -0.39862675438479833 0.55167158821387585
0.19836758479005157 -0.38255090591226359 0.58660162766360857
0.16867223783189073 -0.36259270991881354 0.5456565498072905
0.16068760833022847 -0.36122623623466671 0.50447596339913758
0.20268251790626141 -0.39114337771872071 0.51005800108774169
0.22327151462009678 -0.40387260068854475 0.591287580201033
0.17804292605079453 -0.36364037938893862 0.5826517597730595
0.2944532170125711 0.093900777440860672 0.48629276401883786
0.29674352320709246 0.092625832279323139 0.50938391699586405
0.3077300823847447 0.087340899383607035 0.47989832920725323
0.29072048919570276 0.099920552225064019 0.46908596832956762
0.28502447102788714 0.10716293675897198 0.48990124658707118
0.28567108825369175 0.10554884356374006 0.51274326767323597
0.31175651101467561 0.086319309583868076 0.5032977489387771
0.30225784550643126 0.09375249073065034 0.46147254275136179
0.28333840574642327 0.11313275544251061 0.47362791188207792
0.078457687126640363 -0.28102125145121049 0.56284472796501694
0.090966109074656271 -0.28890116578040026 0.55981140954469411
0.084499046414025947 -0.2757797846418123 0.58555692245041246
0.061820731860435803 -0.28028246576289467 0.5653928298724975
0.068228822421387142 -0.28628289610253177 0.54591830513591355
0.079064777178366241 -0.29365863549451765 0.54125270698348815
0.098076231003014686 -0.28456530188329376 0.58329448221964053
0.06695354006086715 -0.27410683528532176 0.58743469284003236
0.053083116724842887 -0.28655738807964559 0.54992147197894659
0.29180333835219457 0.21081165891801379 0.47307512466137708
0.28408933069211056 0.16567275007976354 0.48319863608752073
0.28853101643628282 0.20837953124210701 0.45768501155521557
0.3018029724494628 0.26243009699411718 0.4605382400272936
0.29284935803373618 0.211171435763221 0.49400913451480782
0.28413533444534961 0.1649376069489093 0.50472869511674368
0.28254561639682668 0.16711623156016375 0.46843583503330105
0.29746257687111077 0.25766716554782743 0.44183127211458573
0.30385823670988882 0.26355833975558407 0.48187275525639767
-0.028277813971725872 -0.34485282450371352 0.565954023598367
-0.03011304916170942 -0.34479496961920147 0.54926512143036132
0.0086111638721423703 -0.31254656508914652 0.56724819298375928
-0.025381901619567875 -0.34128279940550899 0.58698661235699945
-0.069922285181088645 -0.38291196659399596 0.56296889942848061
-0.070680460227230568 -0.38145963852976106 0.54244410647849994
0.0043592910567354717 -0.31580682597683235 0.5523608323327952
0.012104261361209796 -0.30729472310841721 0.58826310259106018
-0.067203626505892344 -0.38062967898383915 0.58486890526914903
0.074163912286333428 0.027447413929507093 -0.65790892483969365
0.031459205815865705 0.088161492311693679 -0.68737346104451802
0.10907197192204543 0.097843560498024895 -0.63879437257064753
0.11367000682045555 -0.022085658315617089 -0.61928585536792724
0.034467424982798152 -0.047205456536951039 -0.67028807370810384
-0.010671868178924952 0.015349508511678052 -0.70317139898674352
0.069951080276333011 0.15529665319164415 -0.66425178451100586
0.14567063208628039 0.052248339383244587 -0.60383725174482661
0.075909765342628943 -0.098826359054100643 -0.62847236289358654
-0.092339181458682418 -0.26165751273899601 -0.62352503984595042
-0.1315448444730617 -0.31995029149796861 -0.58994018273597792
-0.13790408657753525 -0.20594553775985719 -0.66177080323906279
-0.050612278496308442 -0.19493043549928024 -0.65255219089044547
-0.05134580733232371 -0.30857863674899466 -0.5777768746946973
-0.093140889892152662 -0.36237199685641275 -0.5452441025492778
-0.17515784309007715 -0.2703438984804436 -0.62743229547604151
-0.097142050991801759 -0.13480791106303402 -0.69005285283565942
-0.0083397602299492488 -0.24509712642332851 -0.60698418505934082
0.22178048789585353 -0.13156345138299808 -0.44532114296006375
0.18714178044375537 -0.10043225960515778 -0.5133028965589741
0.24703455422481513 -0.05396131783723275 -0.43876062885812139
0.25456613974031189 -0.15614983141011365 -0.36693704142793748
0.18971279565168869 -0.20827656858784305 -0.44628698352414486
0.15301135974797711 -0.17854549865799274 -0.51683182945693129
0.21451610339024579 -0.021989640553839569 -0.50402685928975055
0.27757377344784567 -0.080735323957301625 -0.36316895928729231
0.2248031436613028 -0.23033663491395909 -0.36536996386266329
0.066962788979847671 -0.40028908691735221 -0.38924012675555658
0.021711155115979951 -0.44507476726134965 -0.35940803629410051
0.027278300233366838 -0.37793651952873386 -0.46104397719799106
0.1109234339408478 -0.34503302680385939 -0.41729363434012368
0.10618658374167383 -0.41368149828679668 -0.30829788952220866
0.061277397754781006 -0.4561517190650578 -0.27986474116492771
-0.017823179551348746 -0.4253101774986523 -0.4303312588084679
0.071588620598370734 -0.31988522325353125 -0.48976394069050122
0.14935873283954751 -0.36127885354221179 -0.33511884851302254
0.33831647140496512 -0.18498204486780651 -0.074749396335115861
0.31322022396353122 -0.18213247672068414 -0.17774152791289585
0.35260702487136025 -0.11985615330728955 -0.080102172738820782
0.36001645593405157 -0.18419060774068408 0.023005350114408935
0.31710699576870732 -0.24708910810059814 -0.065497925175242167
0.2890156824010115 -0.24869194315827095 -0.17074493962942905
0.33058075455235819 -0.11338591352272895 -0.18075891075728026
0.37177075644313456 -0.12231174337777789 0.018558456841623161
0.34152462749891294 -0.24201979191455936 0.033198455092613349
0.21525735417258463 -0.39853069298003324 -0.017006951861983477
0.17130450305792544 -0.43448760093830885 0.0027045997324184473
0.18112986551982788 -0.41136492654329215 -0.11844775230704979
0.25491995028268788 -0.3550025573306389 -0.0358653271040556
0.24574172747677797 -0.38248806704036281 0.078641418097555357
0.20265865489469886 -0.4157780519034982 0.098745205231952154
0.13685589176533683 -0.44958796729002509 -0.095989084696084845
0.222088715631235 -0.3648377328891998 -0.14026340799069115
0.2839276566460423 -0.34196503719022903 0.061670381468597435
0.40142718818728756 -0.1855763200401005 0.204161136078015
0.3907824532183154 -0.18317636025665171 0.16430233377571923
0.40869295253036386 -0.13945208019750419 0.19970395680165842
0.41183138260269947 -0.18958192701464688 0.23141621535539242
0.38824957774802804 -0.23141358349438046 0.21567658009933768
0.37635285110293248 -0.23264228045052573 0.17543257402086265
0.39899574839786939 -0.13135706742268999 0.16101043941970922
0.41880371485844764 -0.14654164281371895 0.22620208375080544
0.39944774797544003 -0.23287556526463471 0.24278588369004958
0.30832666406824211 -0.34711680696944841 0.25326176414928198
0.27439358811259035 -0.3724816310003593 0.26970059865873691
0.29170847141774175 -0.35508564270145493 0.21538939578298349
0.34062985561245102 -0.31403969500039136 0.24095790694509767
0.32357412128290025 -0.34271803111307941 0.27888951180116073
