# XYZ point cloud file
0.2625921782998667 0.5658117503642488 -0.30091352551157519
0.26014699566978677 0.57066984551667943 -0.29195034411866999
0.25812320449365689 0.56634966259531683 -0.28000652779078161
0.26124191243799733 0.55053127261665458 -0.27930499994987745
0.26379977269787908 0.55919667003872386 -0.29871498231562182
0.26162391648378075 0.57545499997765914 -0.30091515462852098
-0.47191819610453317 -0.64855108961091001 -0.13273584324099924
-0.46756858367256826 -0.6507802449594926 -0.127147689891771
-0.46739349227823979 -0.64244097533340694 -0.12199828012916947
-0.47752155816477948 -0.64599480139423948 -0.13737823364380386
-0.47606751579011913 -0.65304681521094432 -0.14087446025592112
-0.47165942731866223 -0.65487814550042411 -0.13468556307928914
-0.46308610449484461 -0.64532731098134954 -0.11627383047827877
-0.47294820075965882 -0.63943080924022733 -0.12685118630743036
-0.48187270616153061 -0.65072425262992339 -0.14605348553674172
0.27835207218100338 0.56574428236963348 -0.27626055036016378
0.27893138022484859 0.56195269064377418 -0.26400579566594579
0.28772402691101245 0.58060521400904785 -0.27539339164268001
0.27745638486602525 0.56987028890339286 -0.28638002713534894
0.27073817632637714 0.55616425392694679 -0.28139803103328781
0.27064226634423683 0.55231448253344684 -0.26948480126443292
0.28880849254784041 0.57674144508805347 -0.26311331340794319
0.28625436606665888 0.5848978343339013 -0.28608893320686585
0.2707653565798262 0.56055488348659344 -0.29005298639868143
-0.47093020982281814 -0.67205842977114794 -0.10059924551456917
-0.47933122393199246 -0.68656189957088232 -0.095528400660286145
-0.46630794748688853 -0.66938077452906874 -0.08732076483311646
-0.46641607803814583 -0.66147206675628123 -0.10980816308574456
-0.47531532580027297 -0.67340981873240868 -0.11259703942880317
-0.48395108255509495 -0.68711607214009107 -0.10884278280719523
-0.47461736934712434 -0.68469749227948984 -0.081589236440270052
-0.46188365148866267 -0.6578251830339531 -0.09758399299328252
-0.47064138986272269 -0.6638906247582651 -0.11950513794261206
0.23185163586807311 0.89295090753591921 -0.26602470621598828
0.22863140650831754 0.89435303105920905 -0.2520132186283584
0.22660097382390071 0.87072420273013451 -0.25603670175340171
0.23554445054881029 0.89242362001106101 -0.27813278026749283
0.23873727848303189 0.91638414282546432 -0.27758733480889369
0.23546682007771469 0.91791790522044403 -0.26373191425391451
0.22349823804690644 0.87204899353897569 -0.24197671441157859
0.23021470670976624 0.87021608826587804 -0.26855436061319232
0.24238307057280628 0.91570913675187415 -0.28918060790383265
-0.66558565790832314 -0.56130885936320729 -0.32184264964834147
-0.65192648158919231 -0.55373311293566185 -0.30276886263195341
-0.66568583555574179 -0.55429481979216633 -0.31286757450028385
-0.68004179180077273 -0.57169440405408023 -0.34192548382408078
-0.66604198462456432 -0.56910638344018238 -0.32906230812890852
-0.65243346972202432 -0.56145358944185997 -0.31051599244589562
-0.65195792504847927 -0.54690226655523799 -0.29350182152170118
-0.68023711331548198 -0.56459738021439454 -0.33333538865670126
-0.68037054976204991 -0.57936603269350173 -0.34853954005937082
0.27171887530448663 0.99486855012633024 -0.31631798089985536
0.26890473803743903 0.99750815008322091 -0.30359452015290295
0.25877830237275679 0.96856842316018066 -0.30315022773912081
0.27411723844621638 0.99230192724592448 -0.32593452707639564
0.28586467133351762 1.0174709906405717 -0.32939967984048829
0.28334155896882002 1.0206508338870992 -0.31726737058724724
0.25571685049177767 0.97072134727227621 -0.28993868544214413
0.26174932523174821 0.96692416702394191 -0.31351186244989382
0.2876742525590405 1.0136497159981208 -0.33810263970995619
-0.72880577065678698 -0.62407549910227189 -0.40079234001947012
-0.71233600140157971 -0.60304170530030865 -0.38274452186532915
-0.72967807269636764 -0.61764355067244059 -0.39402684419887418
-0.74333445152699451 -0.6480647017300033 -0.41447038608271614
-0.72788670066317795 -0.62960275804963128 -0.40520485688897523
-0.71200462414594989 -0.60952033845661824 -0.38802913898667996
-0.71291847978950429 -0.59624575999718865 -0.37526335973595421
-0.74451948677273749 -0.64205267988755865 -0.40850189657148073
-0.74164262535388703 -0.65266644893641867 -0.41763767971121796
0.32970911398066111 1.0390849781339999 -0.36674148507302889
0.32818267445183358 1.0423543981622978 -0.35628220909719982
0.31545462126043955 1.0407451706464372 -0.35458427325778108
0.32995289517900633 1.0336721917248313 -0.37316583831279365
0.34279175151470193 1.0290641683865895 -0.37892122751422047
0.34161502549076256 1.0318274539193006 -0.36898639568086417
0.31358444965030458 1.0443069023987206 -0.34360801845304384
0.31617960233328191 1.0353179196623536 -0.36164369271226054
0.34256642115674285 1.0240657077655571 -0.3847352071740468
-0.76171841202514934 -0.73173875193586368 -0.4138214041702229
-0.76048009752899492 -0.70279140867311474 -0.42122597358479191
-0.76289457599215782 -0.72733990982268015 -0.40863630594774097
-0.75825671557253893 -0.76006124824125298 -0.40108465811137928
-0.75901478050723326 -0.73367289821741621 -0.41531930129652811
-0.75779182082711716 -0.70561124254097773 -0.42275744573243801
-0.76185601576510009 -0.69780168008848453 -0.41611573590527834
-0.75910574790440555 -0.7562887590879821 -0.39563151263859048
-0.75576979232627783 -0.76107391960512039 -0.4028861567475579
0.36919698062633177 0.95371840035424993 -0.41604217717885794
0.36907672345301251 0.95445805192260846 -0.40790708893795957
0.36299932355228764 0.98544934018752517 -0.40429004629680926
0.36749633761824801 0.95131648342194119 -0.41964732148738743
0.37236708835465948 0.91735168561445812 -0.4249436076329407
0.37259720278979519 0.91740821998802413 -0.41724428967603455
0.36252782427388247 0.98689051580021825 -0.39555903275313697
0.36179360071068395 0.98204116175353151 -0.40865313732121455
0.37021703561670055 0.91601268247796486 -0.42798061337056476
-0.72155080440283492 -0.82866618639446521 -0.34393203763329744
-0.73780661867014741 -0.80979307078652008 -0.36517932370978917
-0.72110269620150691 -0.8268323031125876 -0.33739698212051344
-0.70206166049765051 -0.84184508953935544 -0.32119393820870595
-0.72047381210734018 -0.82655751296682056 -0.3474723491914814
-0.73617484243108355 -0.80874424439062931 -0.36805098028905653
-0.73781398232164841 -0.8073226191760644 -0.35903391878700169
-0.70114490245723238 -0.84060134780202156 -0.31414148171300832
-0.70160446220117356 -0.83880099138869713 -0.32554513202372726
0.36161195111604877 0.79511854046637942 -0.41943929595824853
0.36285826315005026 0.79350950220520267 -0.41111630177022845
0.36835106707683735 0.83664928045484133 -0.427508483238282
0.35871036626859049 0.7967423458927495 -0.42324463767436732
0.35273702988144218 0.75455869729537239 -0.40505254868687296
0.35425484688211217 0.75249623735184534 -0.39602357272626915
0.36927659487365522 0.83552772691323951 -0.41971781818620296
0.36558584539579075 0.83736009767742992 -0.430614584474801
0.34980382918995162 0.75700563426725198 -0.40987396317278596
-0.6302423054127676 -0.83687222295817298 -0.24842349332654684
-0.65574904349619934 -0.84601332815903074 -0.27336845546438543
-0.62790093205259456 -0.83686961224784318 -0.23849864711245483
-0.60413762201392107 -0.82176810173261683 -0.22227430985303681
-0.63186331724350453 -0.83272900568972241 -0.25633361150712758
-0.65665691526881542 -0.84191458799479313 -0.27992552429184064
-0.65388162618459844 -0.84570710095534263 -0.26459761955131056
-0.60132294086150417 -0.8219419484227668 -0.21115887623401075
-0.60646802186722193 -0.81786185409052659 -0.23159427494914375
0.32046246339396472 0.65065112469403485 -0.32801503153931183
0.32226228042227628 0.64725732027006189 -0.316865019793451
0.33164207853702882 0.68162763837546259 -0.35708297719327914
0.3179757420328333 0.65489283053472358 -0.33675389266943939
0.30923144110566814 0.62343803052330482 -0.30165952388514744
0.31091140211730267 0.6197161463357449 -0.28998372718622761
0.33345076823626102 0.67865748284748995 -0.34656969166171603
0.32892594160237887 0.68540928942852675 -0.36450467908821388
0.30703689606658696 0.62794504394719108 -0.31149786520400774
-0.52968990638906954 -0.75294910472667276 -0.13658676156079599
-0.55304312824610347 -0.77824935510344184 -0.16481507140952462
-0.52550111124141319 -0.75273643147189395 -0.12280579196315353
-0.50901320316395737 -0.72791948270914109 -0.11331689562575004
-0.53390043980948265 -0.75105844302810831 -0.14960172469229713
-0.55670781340513009 -0.77552604982398676 -0.17679635313901937
-0.54928117427527179 -0.77831941289437778 -0.15169356015137325
-0.50449264612283529 -0.72728281042726406 -0.099155361502222428
-0.51360630022025855 -0.72690777925909966 -0.12698907094112072
0.2582981394989648 0.63812088856540539 -0.30858465636051785
0.25438887125423804 0.62155712747943281 -0.30539594877681953
0.26485288970154192 0.63270038434878983 -0.31149487902278816
0.2624922581573112 0.65753672422832066 -0.31081327919346102
0.25061861453417589 0.64096597121163734 -0.3045501810092201
0.24696594998607208 0.62489723210511372 -0.30163082807719105
0.26063399774008605 0.61560605922250577 -0.30837903636785691
0.26942462525767624 0.65265087244005093 -0.31391254462127366
0.25452867550648811 0.65989583526875273 -0.30636180643594729
-0.52051971584284951 -0.64216048435571971 -0.18541146635480354
-0.5176854545641375 -0.65468594406291336 -0.17843099698520737
-0.51019671723491589 -0.6359381734028049 -0.17873110091957342
-0.52162883507151159 -0.62756758594931894 -0.19131597224833546
-0.53237793740844086 -0.6483498143590064 -0.1924688003581507
-0.52987947149201686 -0.66153403920212417 -0.18536576396689022
-0.50706408578466611 -0.64798437450740021 -0.17201816589609492
-0.51164261078034923 -0.62183205207264314 -0.18475502720709946
-0.53314086689142437 -0.63319577226997359 -0.19815677357626771
0.27250144500009427 0.72271522638368324 -0.31777662490978514
0.26978175642255303 0.70051617472196936 -0.31520468703630511
0.28060417572078883 0.71893279487980022 -0.32411577159903276
0.27475265235936303 0.74503844699241806 -0.32020762446741791
0.26393734999874729 0.72423204103758398 -0.3110516497550827
0.26136149576865125 0.70220606897863103 -0.30935750754550911
0.27750384082512231 0.69643400014603241 -0.32006992551971974
0.28324184878537317 0.74161415608094472 -0.32807307298154809
0.26607598634922158 0.74640907220953856 -0.31266202837718732
-0.57202008742919774 -0.66154584550860362 -0.22211540067649388
-0.57069648499455339 -0.67760608770035069 -0.21671819380227392
-0.55850464030760061 -0.65826865257070744 -0.2107113997332376
-0.57195171712253712 -0.64483448130639132 -0.22620263362107723
-0.5855650925119571 -0.66388385948654915 -0.23433538896756484
-0.5847104223847569 -0.68103353048680193 -0.22993119462115602
-0.55675915238865314 -0.6732604029612006 -0.20441387195851446
-0.55867092706671506 -0.64202122595249689 -0.21546183717206152
-0.58528424153544456 -0.64677079761903022 -0.23777790235576202
0.27996014382013418 0.81024486094018411 -0.32418686821354048
0.27829901029744375 0.7890062720295834 -0.32346966352502254
0.28966641142581601 0.8090016044479672 -0.33470589429271019
0.28188759433432253 0.8307958239428529 -0.32453481804606915
0.27098100404400516 0.81091123808252474 -0.31567111287467842
0.26941020926646109 0.78993182479253565 -0.31498250707664344
0.28761958712301 0.78687195983309954 -0.3335276822730765
0.29186423690940416 0.83042820466840617 -0.3351581191037421
0.27286433054881887 0.83130960504890727 -0.31622953895784417
-0.62449667080152382 -0.6670354461796596 -0.27087177442154037
-0.62537611219090217 -0.68687853188302583 -0.26843776686511817
-0.61192712396482452 -0.66629355534319912 -0.25910013399067244
-0.62362904981133671 -0.64916238873562171 -0.27349672466487479
-0.63660096340830996 -0.66817715048291848 -0.28191386357924691
-0.63801303945605392 -0.68843536634447378 -0.27973950664441971
-0.61220357458846242 -0.68541675613794739 -0.25624185810720795
-0.61122920693917671 -0.64858577528226957 -0.26175706558841277
-0.63565627635229982 -0.65026213323904691 -0.28474165708606286
0.29156242322942222 0.88803911631219934 -0.32596629747746092
0.28755694838674062 0.86925797206926392 -0.32484388418313903
0.30093710846100546 0.88871891351166366 -0.33522857487876234
0.2963594798283139 0.90787276118824756 -0.32904108639724022
0.28291324731996276 0.88955267590589326 -0.319231918559921
0.27870208781615963 0.87018615031247903 -0.31751385877710531
0.29744778390955384 0.87005420477668305 -0.3348079962715606
0.3047837168966489 0.90761184833252251 -0.33736644486472894
0.28795223667799658 0.91011735046249354 -0.32280562852684241
-0.67037438388492065 -0.67878764486293985 -0.31007060304207584
-0.67217576138116042 -0.69749333944923309 -0.30802838793101944
-0.65923865013315552 -0.67379604239791213 -0.30083307227101741
-0.67014219326208668 -0.66160697537032986 -0.31478224882164241
-0.68224752478976658 -0.68521072293708352 -0.32129384566998065
-0.68336958378019186 -0.70214997315746275 -0.3188473426726352
-0.6612199544739451 -0.69358078403465273 -0.29889074581922076
-0.65861942761044201 -0.656255697503348 -0.3047653797063799
-0.68246568933525431 -0.66839625624126875 -0.32678372011346518
0.25585555092234258 0.89255607454988917 -0.30280797666015641
0.24746572328294086 0.89249600306306154 -0.29626330319070604
0.25110753238910111 0.87146753271721 -0.29733355635812958
0.26504177671461321 0.89241030490245776 -0.3084984801514345
0.26132424841328328 0.9138699394300559 -0.3093875861095241
0.25351037730702497 0.91457683357076924 -0.304641833993331
0.24240986884268095 0.87086207780880709 -0.28905551693953113
0.26055046092281703 0.87179197123112218 -0.30465529004204023
0.27017868264879186 0.91352292290544357 -0.31362799612870523
-0.66886222378907567 -0.60903208660665831 -0.33095363438593467
-0.65615471392813396 -0.60266488052797862 -0.31657538897516535
-0.66783991080912564 -0.59279564463515277 -0.33365170891942436
-0.68174738574335736 -0.61666960879985555 -0.34609943219566247
-0.66980000206159629 -0.62674232813812703 -0.32636487591008861
-0.65745283681402744 -0.62090740026848423 -0.31362937886244902
-0.65471724220044014 -0.58579780896808942 -0.31753599220059697
-0.68128592807615063 -0.60152772262973508 -0.35048601089869286
-0.68248178649547953 -0.63368728022204612 -0.34030082594279737
0.24178655918724207 0.80888474504388597 -0.28813800860070066
0.23991494182251172 0.78803837957512834 -0.28712178466838961
0.25185578278889587 0.81008832709438539 -0.29835242319716576
0.24413448639546437 0.82969735498725683 -0.29005018551508471
0.23259593168018017 0.80767416325625907 -0.27710103962967719
0.23065527747465825 0.78693893926631375 -0.27608336106709003
0.25009561808066505 0.78914456784505616 -0.29739349717708802
0.25401788065772368 0.83081072607333406 -0.29978503638590909
0.23508507814568957 0.82853256139033549 -0.27943795162724144
-0.61877421243567932 -0.59243500892676815 -0.27751469860770284
-0.6207671928936026 -0.61196462316816569 -0.277315584885443
-0.60641589212682057 -0.59126293556796838 -0.26583199927067847
-0.61679592687328677 -0.57447115782499958 -0.27591691142719765
-0.63115069062594109 -0.59446945997260392 -0.28987843756280368
-0.63305033766107988 -0.61361905563654739 -0.28934682790658633
-0.60836378071414265 -0.61101606096877081 -0.26551770769099309
-0.6044873582893785 -0.57313988704653041 -0.2643688505232023
-0.62924164445324993 -0.57681558672716948 -0.28857121288500404
0.23510751086797771 0.72471259337475269 -0.28759913502334289
0.22636182403429544 0.72469559296938979 -0.27850535825784772
0.23323242876520739 0.70323156500476414 -0.28848953094028112
0.24487073246420155 0.72467692468144773 -0.29603204580769488
0.23675229868287395 0.74599356581468468 -0.28700274861808334
0.22771598912748331 0.74559181370658623 -0.27701293365445101
0.2248439845267029 0.70335428972473879 -0.28040675316946134
0.24265396808735368 0.70299515018627834 -0.29591826279649774
0.24678082349515318 0.74637854525603697 -0.2963101791759945
-0.56900072054250572 -0.58921198472502123 -0.23504551660887624
-0.55633885943087735 -0.58806419162981072 -0.22630267155345746
-0.56785524552076538 -0.57212086076331425 -0.23549798807367578
-0.58155983366372799 -0.5899661898784293 -0.24457092442630612
-0.57010452350183327 -0.60806452953525902 -0.23279035535768983
-0.55721562122995805 -0.60616220920699837 -0.22333009860202613
-0.55537031399368952 -0.57173670970004875 -0.22743760225844006
-0.58010956386052082 -0.57227654678588236 -0.24426098382609002
-0.58300024244269899 -0.60938811289327433 -0.24310076565772948
0.22536198593301576 0.63906270049436709 -0.29119452984578487
0.23358472237224798 0.64081410208629264 -0.29574785070794912
0.22822555347838447 0.65958651210652619 -0.29072160748528902
0.2182801617241934 0.6372281820191974 -0.28594401075927434
0.22280413742048361 0.62161912966207655 -0.29022676271792136
0.23049952515951749 0.62401440287984944 -0.29401528181467906
0.23688078741093899 0.66037690324430709 -0.29615011137677621
0.22059665876955797 0.65844538111945194 -0.2846049301705445
0.21662754934774725 0.62026875628496214 -0.28577609568521217
-0.51851062703994355 -0.5804655959025995 -0.20466223000359313
-0.53065923220464473 -0.58361109482028539 -0.21130662910535331
-0.52022119364865593 -0.59573261383879306 -0.20115588990857147
-0.50799678476480548 -0.57724364934208627 -0.1980199882420742
-0.51668333142648792 -0.56707910039190002 -0.20623607092753127
-0.5291420556804437 -0.56904586093849363 -0.212952395328598
-0.53191298838667178 -0.59990221725060677 -0.20770987106652283
-0.50998292298619274 -0.59136124539223045 -0.19466177402563906
-0.50656168743311247 -0.56556509893837492 -0.19964132671808271
0.2746088660945637 0.59889836857080225 -0.3077242457101918
0.27566998315176111 0.58633434449861543 -0.30209250999350507
0.28140503563914848 0.61754251357673828 -0.30924555927495823
0.27289133752327938 0.61224893085292043 -0.31129851623973465
0.26893268767991141 0.58382923850799295 -0.30737914476255762
0.26991357904276392 0.5740303896434702 -0.30278832470955513
0.2831967777619821 0.60340589231979591 -0.30313266163225278
0.27882120485685519 0.63195323580692853 -0.31330422958199872
0.26767971596485074 0.59559720543435557 -0.30973377174690492
-0.4966343295107814 -0.67287389529159136 -0.14864401649567466
-0.5078202504604723 -0.68339952209955679 -0.15099845572641496
-0.48808278309913522 -0.67394232701587786 -0.13650030349563164
-0.48775484992440671 -0.66431342673890781 -0.14780108574694384
-0.50528629836032724 -0.66998153354052625 -0.1599791632516219
-0.51721691189326391 -0.67906996512319262 -0.16449334427522505
-0.49822251291868241 -0.68571153618542002 -0.13663812471032802
-0.48104326175157713 -0.66533166685742773 -0.13809503230611594
-0.4952307409124605 -0.66198488880488082 -0.15660645544220619
0.30307135050909845 0.68672468928948516 -0.34069348984005504
0.31000327887847406 0.71331567612371882 -0.35671451337832322
0.29598410985493723 0.70035997995601806 -0.33604732297648249
0.29596066204160704 0.6619061022635403 -0.32575379078375266
0.30931792681396192 0.67313056123835091 -0.34306022119539054
0.3180976130376944 0.70144584066588767 -0.36412728542873135
0.30103820826801247 0.72523021737292848 -0.34698575324624598
0.2906235622070189 0.67651597982497547 -0.32565291484012115
0.30047781073869467 0.64735969987485487 -0.32363899710231203
-0.55394976745043856 -0.72392581270329948 -0.18809506825865455
-0.56140480097558199 -0.70916577054326591 -0.19965500891676485
-0.57235469140029505 -0.73811919227294143 -0.20825834023186868
-0.54612734835640186 -0.73655288011242748 -0.1754384696135996
-0.53675294850257271 -0.70947931061051905 -0.1704683946015883
-0.54557562225937584 -0.69907366664580384 -0.18417041154199659
-0.5779128898938275 -0.71870665606373374 -0.21692522441239209
-0.56643069955313163 -0.75534433408849844 -0.19850402052382904
-0.52758155394128659 -0.71779768166925173 -0.15570626507275018
0.3289441168081057 0.80294661325972339 -0.38877477506611152
0.33380120972155691 0.8340529648907844 -0.39229507773076072
0.31460412046776631 0.80521353012821606 -0.36804481941060452
0.32313356652084946 0.77186459333496493 -0.38187165183425437
0.34222698679254154 0.80066354821174823 -0.40732762272611145
0.34813311903991007 0.83596765373844195 -0.41235924145676339
0.31834127580613414 0.83210270379936213 -0.37014047383414378
0.31039070463126744 0.77799466636477932 -0.3636868298027453
0.33489358516245543 0.76575005414470521 -0.39779634602812902
-0.63022994963214429 -0.77076387337951524 -0.26580849389255462
-0.62833565987003703 -0.73984391854969023 -0.2661441253411207
-0.6488911947253041 -0.77652042326175164 -0.28253385601162573
-0.63176670800978196 -0.79924738842977849 -0.26471239430746918
-0.6109509819761989 -0.7621814120036553 -0.24801588841881211
-0.61170017215404882 -0.73429905027584508 -0.25087727052061637
-0.64436184235176852 -0.74382301696097308 -0.2803628158339439
-0.65307498983914414 -0.80669717605252911 -0.28410522759434514
-0.60984283032762865 -0.78771993155736086 -0.24424347981511102
0.33942554876361686 0.91881092138586229 -0.38596847635198883
0.33753693565105242 0.94162780245360833 -0.38019719228443011
0.32532420419165403 0.90457408560581809 -0.36629460575307277
0.33930582172870066 0.89279200672517545 -0.39038536220349174
0.35242990190526224 0.9333672997906014 -0.4039107574247004
0.34881930306497622 0.95941061495325008 -0.39574984474913594
0.3255525180727426 0.92475774812996758 -0.36370232242227624
0.32388507527767413 0.88223901683559691 -0.36873696978357479
0.35351053609324068 0.90339892568590641 -0.41003550038454911
-0.69677995914769597 -0.77327476000969175 -0.32849133393897983
-0.68578463204697437 -0.74571091310121562 -0.3179187538403489
-0.70886002759819233 -0.76492290780007066 -0.34263471465077061
-0.70772135201364306 -0.79846787020026477 -0.33901580693326322
-0.6825491572297322 -0.77798099235991913 -0.31375670685400631
-0.67327890749442798 -0.74689006205891229 -0.30593462218841205
-0.69691297922035722 -0.74243273621730799 -0.33011680257631909
-0.72119769641413067 -0.78582674340538672 -0.35579866073633432
-0.69156776188363278 -0.8064520338659914 -0.32123647742093453
0.31688216257007129 0.98064818817221366 -0.35734118425269723
0.30678255010995936 0.98443440286506145 -0.34967633606599063
0.30943837116337719 0.95492973521642754 -0.34555197892765649
0.32600684405542196 0.97276896256972512 -0.36543697372238487
0.3234394304424168 1.0044072168934539 -0.36779234913664255
0.31187647858048334 1.0074158214722828 -0.35865264519130763
0.3004129265306687 0.95857623645402779 -0.33893376185622648
0.31753830401826605 0.94977520046084785 -0.35306941349869797
0.33395372236790116 0.99543925209491746 -0.37713146711243739
-0.72690897312950931 -0.71562552952547209 -0.3765916166610791
-0.71101414013184228 -0.70436533699632398 -0.35544274658544078
-0.7275609737538512 -0.69481520901321225 -0.38447264915989854
-0.74154363323188832 -0.72537676240720783 -0.39617414863737382
-0.72396077285813776 -0.7354367368742456 -0.36697141090515023
-0.70938586296137618 -0.72155654935268176 -0.34878703119622745
-0.71183196740785615 -0.68589108559836942 -0.36268012288157953
-0.74146139713459014 -0.70161217083388228 -0.40404244036949677
-0.7382770583301953 -0.74832114599743904 -0.38496510202669759
0.27955255019693998 0.97308828067000297 -0.33191751465971397
0.27406436629579523 0.95745134501994045 -0.32550280291311579
0.28667472078610973 0.97956583450128232 -0.33668628482560031
0.27806337989835311 0.98110655842960581 -0.33313638022454356
0.26874699847381517 0.96048506085834462 -0.323625486729053
0.28187185797195385 0.95845211356117821 -0.32878284979115419
0.28861650405097822 0.99576611153682892 -0.3416286320147302
-0.71773820176111636 -0.64334320684882285 -0.39052421692191774
-0.72223147942582211 -0.6561206344000533 -0.39193874914841681
-0.708173325212761 -0.63503815455665669 -0.37893320188105273
-0.72217191551720727 -0.63931550267441561 -0.39927269106125779
-0.73175075721562355 -0.6575491325636007 -0.40647527234351771
-0.7095675238917647 -0.6498616960653415 -0.37419089718925524
-0.70934437949109375 -0.62439403881474043 -0.38519507773555445
0.32543746895622577 0.54715916655442254 -0.3481753432725373
0.33185031865406606 0.5447311351405868 -0.31922045205124833
0.30550815560948313 0.50299512585689887 -0.31400226687078397
0.31444325044987353 0.56359294086292011 -0.37290355006181225
0.34438775481310829 0.59790891641327093 -0.38444598955949466
0.35033683576285291 0.59520769510964333 -0.35733876582654428
0.3122985334959576 0.50027778725581029 -0.28320360599462457
0.29455887964911098 0.5201704227910583 -0.34147102634270893
0.33355398048653589 0.61394347416949613 -0.40648018481897102
-0.47028565326651584 -0.77369719264315684 -0.10202158170181519
-0.43754629047421206 -0.73104831640682522 -0.078364012831011798
-0.46249753894087031 -0.77448687974188468 -0.067431509275279411
-0.50732540367841239 -0.81463137655281281 -0.13280035944324931
-0.48529343386393481 -0.76182659010366938 -0.14526797059148727
-0.45373160823194097 -0.72054237560795753 -0.12324678467242625
-0.42909879488328395 -0.73165840850863362 -0.042021550470888569
-0.49994169855593901 -0.81561604848737812 -0.099884483887608538
-0.5212829117900124 -0.80160866644600437 -0.17432158953303567
0.39565760772962111 0.78533631778226254 -0.45455341034385782
0.39859899745590843 0.77981610902071963 -0.43343378244300829
0.38013667260231998 0.71836987434041355 -0.44055664567765085
0.38744525455310214 0.80078202418458622 -0.46958510411137294
0.4076438963167543 0.85340018038245569 -0.45895792389177598
0.40925363249914021 0.84703129547892886 -0.43968200382635741
0.38434464135365881 0.71392511197799635 -0.41741386999082641
0.37068913667085507 0.73412634413527655 -0.45761790938506014
0.40089056067229628 0.86800979497401543 -0.47250576805882244
-0.63065589053136206 -0.90842550467272898 -0.22986163536540832
-0.58887032435828957 -0.88398953304109873 -0.19856833668053056
-0.62362107203909023 -0.90783841489049388 -0.20354873677533808
-0.67130219817755465 -0.9231706529614272 -0.26088152376386875
-0.64194319906497299 -0.89592064126378468 -0.26430528934808545
-0.60104673419007482 -0.870532308619551 -0.23576154721674297
-0.58177396727284836 -0.88433830021992621 -0.16974354213824325
-0.66443324218388655 -0.92145051512119425 -0.23719388637195143
-0.68151596661498393 -0.91230204959194905 -0.2922003955974139
0.40964365607027786 1.0391592221089645 -0.41669842742393187
0.40821956330033804 1.033961217051188 -0.40046669666931245
0.41511708092497152 0.98263514924073936 -0.43833217325750434
0.40751296125052977 1.0453707285783076 -0.43042863627811206
0.39871372847657821 1.087485745530808 -0.39226501680959058
0.39677023628705216 1.083951039468686 -0.3760615300074126
0.41446506205228201 0.97634280127678752 -0.42157915148951952
0.41154087590331795 0.99277542671870378 -0.45127105805795303
0.39770824042971481 1.0886544284754831 -0.40716628203772498
-0.77334573414860452 -0.89198763011291249 -0.35701793755001754
-0.74373477402813748 -0.91499723633735297 -0.32446856893041159
-0.76863160120995189 -0.88723081513701485 -0.34049000853139377
-0.79746623057700072 -0.85910081005585559 -0.38925990133949084
-0.77790703471117273 -0.88908727656246433 -0.37680695486760479
-0.75067947888414266 -0.90916544852552961 -0.34844271119041481
-0.73798612875796132 -0.91108195296436245 -0.30578077960648686
-0.79405238087067809 -0.85375740063414229 -0.37457692523930464
-0.79908194649428765 -0.8588826756294472 -0.40455100920714965
0.34124369631126039 1.1682321528600967 -0.3349578816516976
0.33725913750984382 1.1678315511815558 -0.31425810413748939
0.36358286437523707 1.1532787017646404 -0.35013192683876143
0.34643745481916921 1.1608515224224074 -0.35853573111177128
0.31717358711554239 1.1699604572846849 -0.32203570953946598
0.31271475240666829 1.1704428268237628 -0.29898594235608839
0.36035247205428977 1.1522272574314001 -0.33161275627018072
0.3663173967483771 1.1474919416136069 -0.37011895794786126
0.32419383823967529 1.1605106104629139 -0.34893349687599884
-0.83217431443877865 -0.725771546145908 -0.47823664773496594
-0.8273101809687905 -0.77358459659427559 -0.45175787124794359
-0.83119556586732135 -0.71741750323031594 -0.46392118802346388
-0.82983037627221512 -0.67771459849945082 -0.49685114588841989
-0.82931082146509028 -0.73853040360528643 -0.48688984254976936
-0.82515123143790958 -0.78141467990913149 -0.4613328986804684
-0.82580320511228866 -0.76640265644291217 -0.43818321558614032
-0.82948499932816377 -0.66860049352146989 -0.48147212902491016
-0.82594720875691308 -0.69427519490133482 -0.5048648486690519
0.24715290777004345 1.0961349677368759 -0.28729382261383857
0.24295678162419665 1.1000201399382057 -0.25783281225291727
0.26923694270945547 1.1320963506390462 -0.29880455407762307
0.2560605834314022 1.0803908025975066 -0.32180679951152685
0.22690208402118434 1.0542107342026705 -0.2756300043075795
0.2232871217502776 1.0593708414288348 -0.24482901574560428
0.26468598216345152 1.1347646133151825 -0.27120254020197443
0.27806163682459795 1.1183086366833133 -0.3312894486729544
0.23547143137610244 1.0366586472509585 -0.31142176525149895
-0.7812890568211307 -0.55668417870329601 -0.48042985893856532
-0.80334431696325648 -0.59191620168261971 -0.49781135290076567
-0.78310480150697648 -0.54789171353349631 -0.46069957640178066
-0.75620216627128678 -0.52622546425829708 -0.45573308267427154
-0.77399497097888925 -0.57767205694139645 -0.49030512448596913
-0.79716162308463112 -0.61253276348505037 -0.50648857984568108
-0.80441663339049962 -0.58259230646872151 -0.47958432832205161
-0.75878241873364394 -0.51834116136378694 -0.43473567571844191
-0.74781641516309239 -0.54669614647372755 -0.46687850742511555
0.18097585175284847 0.92904441367138901 -0.23974346995657764
0.18009470893246388 0.9381989445359521 -0.20913079710283683
0.19363194015935786 0.96864629179503081 -0.25117615210231958
0.18689022167710012 0.90699039750784682 -0.27391698361104144
0.17087811115599133 0.89155856667060396 -0.23087137819808023
0.17099845509867784 0.90209519004808325 -0.20063415273891116
0.19173531520353593 0.97644801319767249 -0.21998141261404774
0.2006301434315238 0.94793730109386176 -0.28656333649386628
0.17558515853129653 0.86831298726568573 -0.26402273215476418
-0.68199815301680633 -0.46120643750471657 -0.37021589700555896
-0.70546152855530619 -0.47861999183205894 -0.39816081606834158
-0.68695732142755117 -0.45775454663597537 -0.34837491971675771
-0.65988451727017428 -0.44803920279953791 -0.34481361191322918
-0.67049074479129167 -0.47646381404690408 -0.38271122965684773
-0.69493542182317569 -0.49603241188469699 -0.41055206668243721
-0.70963038422116331 -0.47353177722420714 -0.37621306154813877
-0.66558824428765595 -0.44609444150131422 -0.32289975164614687
-0.64754853964496095 -0.46102095621032102 -0.35774819439919253
0.24702678862433664 0.7314913162046639 -0.36733686119704967
0.26429656414185299 0.77759430029289256 -0.38925788456469285
0.27389128874388707 0.65904981976795762 -0.38386869283679376
0.23064063194478929 0.69034454699582282 -0.34805552840339138
0.22097164086620763 0.80477794696915739 -0.34104447829780055
0.2370825173918823 0.84899804529297584 -0.35902670479793952
0.29213249505267075 0.70693393255765546 -0.40999217375551594
0.25583937651700911 0.61724294707657279 -0.36018202313195841
0.20642654274784911 0.76431215333958258 -0.32586107109270318
-0.58076851077360148 -0.62195650100623245 -0.30553662434254453
-0.54249949480835258 -0.68334208732603907 -0.25149673069568274
-0.6107644782391638 -0.65222134456851899 -0.33251292928690618
-0.61839830143721841 -0.55994608487677844 -0.35034395155760706
-0.55394197042245519 -0.59306457801781676 -0.28369768955511948
-0.51404766030694105 -0.64920279242863066 -0.23044971285147658
-0.57479362618125696 -0.71758271756286285 -0.27855533288651352
-0.64614505371041975 -0.58610285824671338 -0.37756426345800248
-0.59310242738381269 -0.53641937743837664 -0.32734572507464249
0.32197716189353637 0.93939815281514993 -0.43260130429582971
0.29465392469257945 0.9989660377932178 -0.39778953467304107
0.3403533071189202 0.99173975008183668 -0.43664589494360651
0.34929007517498195 0.8802011191975444 -0.45915281554442494
0.30231476894736398 0.88364045642635081 -0.42375102686306326
0.27437416122656044 0.94817833104035887 -0.38891019856203096
0.31469819133527471 1.0451653709543409 -0.40342180111471776
0.36596951546754658 0.939054300028488 -0.46190760514605195
0.33042543006774833 0.81949281252370731 -0.44987430420496227
-0.71037072291346737 -0.74271368747100674 -0.40991763148965155
-0.74116390394781539 -0.76880794455168144 -0.42870075602555369
-0.73728498368870654 -0.67405294629712387 -0.45439952534405531
-0.67700173669011099 -0.71367822052412699 -0.38701674831359534
-0.68298257615697966 -0.81010831332554445 -0.35818059207892766
-0.71732433641590421 -0.83228032798459872 -0.37965726644114545
-0.76483615701118413 -0.70410822671884021 -0.47118546081834206
-0.7069077418610189 -0.6438507232157793 -0.43204075595936958
-0.64652443314697172 -0.78238044424456266 -0.33406010893371246
0.37421122687592751 1.0883136123600985 -0.42613144377886686
0.36541972872118128 1.1168748111343989 -0.40903244569268876
0.38780104946718391 1.0743341475738126 -0.43488865752682432
0.36807847239585917 1.070458116307597 -0.43269085920578504
0.35010420892660704 1.1076426419312828 -0.40733328353887854
0.38040625975973313 1.107427038120314 -0.41432493071066401
0.38678236494652596 1.0367737186568722 -0.44960649748246317
-0.79687437525522653 -0.81446785461348592 -0.45111096017438906
-0.79170329712047638 -0.84534537573976942 -0.42975405302959119
-0.81009946810596556 -0.78920053861016171 -0.47090160977788559
-0.78679262977891151 -0.80672897659744136 -0.45025950005984899
-0.77212510757976549 -0.85263065136878369 -0.41401498684557697
-0.80740081368235095 -0.82157771122476664 -0.44856375324641379
-0.80298885723256819 -0.76068088783579535 -0.48108306306974163
0.15331401737757772 0.79555679676688695 -0.22940078122478846
0.14699131367533186 0.77788545820527433 -0.22964259636873907
0.15584001635803901 0.80996225488922891 -0.19360098037365042
0.15807684963806928 0.82292032637109647 -0.22690362883203202
0.15396497696918193 0.769483685892841 -0.26736988263539241
0.14573399297622408 0.75074575542804911 -0.27457101162698477
0.15071163435282814 0.79233030113607705 -0.18791966637050878
0.15979912039073835 0.83632885220805042 -0.19462217831210241
0.1602245827706586 0.79774568296522019 -0.26118334820607125
-0.60423420567347064 -0.42984808808843156 -0.29693500079567448
-0.61140218180283401 -0.43038954857408745 -0.26890696765298627
-0.59412309425788712 -0.421415318460301 -0.29120137543486174
-0.59074143411866298 -0.43676150437392591 -0.31858772000571806
-0.61994125217990381 -0.43439346422087377 -0.30758088311018666
-0.62686600582051244 -0.43420648551084806 -0.28327936493916034
-0.60102216002911668 -0.42350847424874216 -0.25644311110174783
-0.58022435251289284 -0.4255432615890764 -0.32063636274054275
-0.60669153404668708 -0.44335644025944487 -0.32443192943534666
0.18419636338632317 0.59802368503810477 -0.3426261742033731
0.16985239719020406 0.66754549603705227 -0.32756678499183606
0.19969240404984451 0.62394754197537383 -0.33467649607568672
0.19993266818614658 0.52951749319221542 -0.34551776276755092
0.16771471648824748 0.5757089113093653 -0.35731165207465887
0.15641822075970069 0.64577441566598759 -0.34258839478947378
0.18166465374926005 0.69517153337928894 -0.31836599242063995
0.21906219417435707 0.55330876505765636 -0.33979796214322594
0.18018601906050952 0.50848230065163258 -0.3585086669814127
-0.49878018647777617 -0.51983374779359925 -0.28045365316996052
-0.51305671782075324 -0.54258832057258488 -0.27028502332882692
-0.53668387822969577 -0.48373035274057319 -0.31164075634873339
-0.487236530951277 -0.4961140696966343 -0.29923820635039505
-0.45987384384735169 -0.55549005523636796 -0.23771877555800153
-0.47305306697076688 -0.58522060570890266 -0.22302844382156506
-0.55194647049290591 -0.4997098859884016 -0.30664670678934142
-0.5250671108056526 -0.46478569036022532 -0.32624530415056868
-0.44926428351679615 -0.52608767673599155 -0.26054906660872701
0.23889375902798088 0.40924272870155887 -0.27179000577843754
0.2161123685823847 0.38512781438896021 -0.27557376667746525
0.22811248521652616 0.43170265011767683 -0.30764457525519617
0.26192819098394748 0.43521784780949591 -0.27466806123168558
0.24774204980307613 0.40149672508843559 -0.23358949959527425
0.22655235963316478 0.37492483471614052 -0.23115192001362844
0.2048766587559554 0.4101862652625457 -0.31540591074142726
0.25122917900639335 0.45540926239458945 -0.30747788696912526
0.26976920287218842 0.42974646728673555 -0.23993546216480516
-0.37506402512602416 -0.60966472538342575 -0.084023948492707057
-0.39574521586283168 -0.60168498808798521 -0.13519099791445477
-0.3621402696083374 -0.57387575055295303 -0.10482656352358244
-0.36246299819522687 -0.61207619280044057 -0.038561957250976275
-0.39040583890961938 -0.64797329628567868 -0.069560121319688306
-0.40939484339801058 -0.63960117302727892 -0.11807537774362681
-0.38477489016206567 -0.5657477033645657 -0.15987414809011602
-0.34712840675760692 -0.57753568668398148 -0.051972194042850209
-0.3796337099022461 -0.64934641004333638 -0.028508501382866022
0.10555619048754124 0.50152466053703948 0.64577226909846153
0.098516554678876753 0.48827639071345186 0.6646196696684894
0.092195752798300876 0.47652216177093581 0.68085002091287117
0.09899648904578455 0.45838935073439008 0.69230801683273491
0.10806195914005258 0.44636722856296801 0.69177750750080902
0.11431503973215344 0.4319165638522614 0.69232864434580965
0.12507105910698757 0.41792340482137869 0.68069080602494902
0.13518578087194422 0.42128600498275715 0.66402828525572999
0.14640929760844007 0.42510291762408359 0.64460347732334
0.15260789267521874 0.45562306478701031 0.62062641119572692
0.14329875603328585 0.47943984434304832 0.62027880291043114
0.12979971248239575 0.49951080127225012 0.62176583256808682
-0.35098084579746475 -0.28441805175971058 0.63744049611195286
-0.32675722234149868 -0.28846377997756101 0.64936122431567078
-0.30100345102432641 -0.28675235771072105 0.66126274409440611
-0.2745183505439282 -0.26441583182630829 0.68826951386001189
-0.27486909398820397 -0.24993404437647149 0.70197424083902105
-0.27541460288690323 -0.2371870553696761 0.71356511123942701
-0.29268859883604725 -0.23282821249788643 0.71605387474195181
-0.30916310169095357 -0.23429241792564587 0.70876142079191951
-0.32475428011299307 -0.23206314175859577 0.70154623470602551
-0.34530297045308894 -0.23542632373574585 0.68186432195480418
-0.35360152134370654 -0.24747107687272857 0.66574896853008636
-0.36301674367407855 -0.26100657956829271 0.64700516915539819
0.12869964137262868 0.54936187947583959 0.55522247193495589
0.12383551988847195 0.53856567956610957 0.57927817382936464
0.11851066630939273 0.52718795444875866 0.60262430886400398
0.1666045508400989 0.43244599133380018 0.59976556615801369
0.17460261777209929 0.43565345881038586 0.57533022584127513
0.18176103844856278 0.43867382767800989 0.55008799863639335
0.18322923809885189 0.4778127398029941 0.52204317665435318
0.17198465665694129 0.51036993981592804 0.52261331405345512
0.15520632317056282 0.53810907103810646 0.52568982419199495
-0.37950567472393593 -0.33420261421513076 0.54732328189824275
-0.34853840331151653 -0.34087409684015324 0.56323050117769968
-0.31552912351976825 -0.33972841346938615 0.5787577945879796
-0.27937139500792313 -0.31843695415040107 0.61422856921745894
-0.27731989186776435 -0.30598452566985729 0.63488143905471639
-0.27568759968112067 -0.29300628247376215 0.65446155386108695
-0.38184208775093303 -0.28705809323528719 0.6039258242312715
-0.39055382277378248 -0.29851433311054842 0.58053415062489311
-0.39898453584050908 -0.3093430324602312 0.55640211547156859
0.15713302915970778 0.40035169163811202 0.62755334675287844
0.15221156899324007 0.37094574236950822 0.63380200270014475
0.14282936661603257 0.34189469304198228 0.64122250596678065
0.13567666722369814 0.30708743249616532 0.6287762928828371
0.14081522186240131 0.30025029514481594 0.60679553027941546
0.14508275947340155 0.29369438407496368 0.58384738654157675
0.16721468590691047 0.32419976434054609 0.54905193833591315
0.18014411510040479 0.36325422667825241 0.53873946992986244
0.18735490307914321 0.40290152792184342 0.5302727123258848
-0.24800462334953355 -0.31342335313899755 0.60521794369677306
-0.21591386160420467 -0.2892849753961797 0.61520348379567991
-0.18662919580263954 -0.25937837129614016 0.62291391207813263
-0.16565808782573122 -0.21874771163163109 0.64825474972992914
-0.17036447760365503 -0.21252041931297233 0.66757830629593151
-0.17600535313278365 -0.20607706903040651 0.68557140393053562
-0.20197800750091766 -0.22504410823079113 0.69686702026729597
-0.22420378857841217 -0.24751909092301982 0.69036238060531785
-0.24876139554548843 -0.26587147521787913 0.68217740801207194
0.11719292518761217 0.39729796870077722 0.69689271711657019
0.113780696166401 0.37838646445665414 0.70069855329057362
0.1074819001979239 0.35955798655831728 0.70517167646404944
0.10445407877556755 0.3365673349609366 0.6984681174920031
0.11236849635186801 0.32982122854414297 0.68435023567572162
0.12104517756941201 0.32216962371454938 0.66789584031690508
-0.19196442184765017 -0.19211478321511166 0.71490292165280178
-0.20140267210504409 -0.18513445127579725 0.72601159201985377
-0.210017616035309 -0.17901702795106933 0.73532803373415101
-0.22872596295944986 -0.19113650039204588 0.73962795016501826
-0.24316582517607233 -0.20603209671379574 0.73495817696312571
-0.25909654367553231 -0.21840522700950682 0.72939459512499671
0.087259084807669987 0.32560233856717646 0.71507184790968559
0.074071040788431394 0.3117352834882986 0.71989602232132577
0.059466687605523191 0.30047256351065266 0.72418174895895082
0.043950394630425951 0.28197973355680056 0.71791241119873206
0.044022540706303584 0.26845537972063671 0.70638593567356889
0.043908714824846831 0.25318843382726974 0.6929538519327143
0.067915883423941656 0.25044238061725288 0.6722150003442533
0.090952022054876971 0.26791868781591188 0.66535487130479609
0.1116650993127609 0.2894544808166421 0.65753262830755066
-0.16838681028586766 -0.17118405380862167 0.70434292259932385
-0.15826329929388927 -0.1418201813155518 0.70533348010862684
-0.15295189423451588 -0.11237528625426003 0.70468369804244801
-0.16496472173877813 -0.089150131552219347 0.71636094036818743
-0.17755312125545614 -0.09436629277146015 0.72804631614978454
-0.18891187788798036 -0.099030981432885593 0.73792601931844004
-0.19740923221620826 -0.11994687609438093 0.74738042275729955
-0.20065730083858152 -0.13816809526279397 0.74719925986411084
-0.20705634922961857 -0.15653711139479337 0.74582450461464944
0.042206985077290107 0.22362664361020845 0.6601421158727514
0.040551365806974021 0.21054057916726027 0.64121131692052158
0.038573978290413424 0.19813334581158515 0.62126942431777121
0.068257774411805014 0.20245550689992448 0.5930002266608001
0.098341053553580707 0.22543515450070362 0.5831500479036047
0.12559175136135348 0.25403397635620434 0.57203429558279861
-0.14155552777280361 -0.18691875173101274 0.63117363745565336
-0.12746226392353249 -0.14715233946134881 0.63198574135155305
-0.1195661314016102 -0.10719017878089947 0.63104825013740351
-0.12569266811836272 -0.072054966844439752 0.64870912403618286
-0.1335756699147605 -0.075632582443171656 0.66809318562387121
-0.14242624208065696 -0.079558325251148629 0.68624184434918578
0.018167525893133571 0.2304808929277411 0.68083049425040709
-0.0067384455908972712 0.22871011244324863 0.68246931468867111
-0.030355205638788851 0.23242945634561435 0.68291334855542307
-0.060834755477001998 0.22868061958759506 0.66566584262592099
-0.069404642578503276 0.21691815611156873 0.64732665945206036
-0.077598361947728303 0.20595988227634687 0.62804974396313162
-0.0582198797904422 0.18197588319270191 0.60919067474228017
-0.027972578094839273 0.17589637710819728 0.60851122341833475
0.0039684892738018895 0.17723593908970098 0.60585761050523224
-0.12406976979508159 -0.033159425038265897 0.62530818213988648
-0.13631101482122132 -0.0016863488502252971 0.62081806077851431
-0.15443072077428588 0.024795781266722813 0.61520217358869145
-0.18282248748485042 0.034731428479234966 0.62825057169010567
-0.18809554145855628 0.023771196516516643 0.64759872719812406
-0.19395619488368859 0.012047565901646878 0.66599961962590437
-0.18232481012683088 -0.015482589249452963 0.68899910071115245
-0.16788832115998042 -0.034764040402084875 0.69443741645475998
-0.15786464292353569 -0.057870992489201772 0.69903572094798316
0.027910638312891506 0.28735034774320134 0.7297754955010991
0.012015707763061587 0.28592180145554918 0.73102832360003211
-0.0031836911815589924 0.28795616241248467 0.73163159767029851
-0.023569471788704222 0.28376374401754428 0.72226003660013438
-0.032120072722929813 0.2708072625276966 0.71086529241680907
-0.041812855689155895 0.25623138907390558 0.69765472240510773
-0.2086185844470439 -0.015216183466877337 0.69806067407737071
-0.21669950001917904 -0.029561031620707737 0.71128134906589935
-0.22392825175475678 -0.042278528924383524 0.72267675040198998
-0.21714042805782752 -0.060707254204478159 0.73671982902875732
-0.20760018120927742 -0.072439542305186969 0.740725597433324
-0.20094722777767698 -0.086530502733573531 0.74402199325287266
-0.029176779149935494 0.30254612635928496 0.73202902931901681
-0.03896799050487855 0.31457905903907279 0.73196428446907502
-0.046060702437138598 0.32902848313771349 0.73153298455785198
-0.059264223622280884 0.34144840021504641 0.72049211216730358
-0.071487764310312077 0.33633649136876731 0.70838435696247881
-0.085315110168482186 0.33072464943547175 0.6942169110848313
-0.094138597733515364 0.29906521962244853 0.67965518098797051
-0.084109585533067535 0.27580373323752255 0.68098852503288998
-0.069790672447045135 0.2563882924231522 0.68196380459475914
-0.22253820668525948 0.0084246033226118705 0.67663027139910747
-0.2468391301705235 0.012224599480464879 0.66976903886155381
-0.27259971892606383 0.010551215002670283 0.66220537246824951
-0.29732715953665195 -0.011822495983929981 0.67153404072129153
-0.29597048453561126 -0.026670485021258059 0.68728957315868522
-0.29481700748295359 -0.03972414709971489 0.70084677459614064
-0.27682154740494297 -0.044959995499200461 0.71765700856965453
-0.25985742480878249 -0.043854120386565457 0.72284401490707895
-0.24377140273292541 -0.046152530537611258 0.72768706030695984
-0.1122371630818924 0.32089120715092301 0.65950819638047986
-0.12423566774315055 0.31715560208946225 0.63945773659282779
-0.13564976643162319 0.31389234200362981 0.61832831367157737
-0.14034590102172576 0.27494088265075184 0.60008607346412624
-0.12747250784384961 0.24298742928285905 0.60340219644411075
-0.10895690856600267 0.21610791030520821 0.60625757046100981
-0.20596458664805561 0.058885869460986159 0.60046107768774082
-0.23746229978402539 0.065319745231769005 0.59123167013894351
-0.27100712717037262 0.064409158646525924 0.58067098485461388
-0.30361385677028829 0.043493427732780518 0.59113113289526242
-0.30197691881902744 0.030760659570741575 0.61308667808628226
-0.30037304026071382 0.017479842633088813 0.63411465865962846
-0.099258701138769487 0.35378073388449988 0.67582902399064504
-0.094139020649117569 0.38325487294475669 0.67328056645249856
-0.084309216590460714 0.41261369393075226 0.67026013151522634
-0.079749299292107709 0.44751385705107061 0.64771812061320655
-0.088665432108274475 0.45421818050319163 0.62708979692891775
-0.097075651023838389 0.46085721087184728 0.60538293991692682
-0.12464516797088264 0.42953876498009208 0.58692940257762949
-0.13839179400083451 0.38974393687993703 0.59029938387488623
-0.1459432224955618 0.34965944277461758 0.593470156699206
-0.33891099342664216 0.0397466187705336 0.55528178044260046
-0.37079947808098773 0.016812243942337296 0.54126655024395887
-0.39979069485812929 -0.011830471691660439 0.52754717018984554
-0.41651459686771991 -0.052074383039923643 0.54123525350254531
-0.40804193961925678 -0.059048011604130396 0.56704000165664259
-0.39908269240150412 -0.066140764497156029 0.591993753436304
-0.37066321184895629 -0.048443025378095861 0.62452806316355125
