# XYZ point cloud file
0.36668303608894348 0.69682687520980835 -0.34790477156639099
0.34197559952735901 0.70909827947616577 -0.33844396471977234
-0.48525002598762512 -0.73740619421005249 -0.22487238049507141
-0.47685319185256958 -0.75100475549697876 -0.21877340972423553
-0.4819340705871582 -0.73068374395370483 -0.21483173966407776
-0.49155262112617493 -0.72193813323974609 -0.23086649179458618
-0.48936092853546143 -0.74255186319351196 -0.2346605509519577
-0.48123657703399658 -0.75639462471008301 -0.22879059612751007
-0.47328180074691772 -0.74350202083587646 -0.20796370506286621
-0.48815295100212097 -0.71699672937393188 -0.22160162031650543
-0.49550756812095642 -0.72645056247711182 -0.24033471941947937
0.38477510213851929 0.65769505500793457 -0.34628531336784363
0.38172203302383423 0.65241795778274536 -0.33320316672325134
0.38858044147491455 0.6498265266418457 -0.34533339738845825
0.38676580786705017 0.66330766677856445 -0.35543188452720642
0.38037967681884766 0.66865533590316772 -0.34492087364196777
0.37686619162559509 0.66317194700241089 -0.33183678984642029
0.38615971803665161 0.64468210935592651 -0.33251228928565979
0.39025318622589111 0.65550887584686279 -0.35359230637550354
0.38251438736915588 0.67457437515258789 -0.35462024807929993
-0.44842284917831421 -0.77002102136611938 -0.2041713148355484
-0.44166660308837891 -0.77277553081512451 -0.19848015904426575
-0.44441616535186768 -0.7631990909576416 -0.19214075803756714
-0.45736870169639587 -0.76692932844161987 -0.20868963003158569
-0.45263165235519409 -0.77504068613052368 -0.21322321891784668
-0.44597360491752625 -0.77735006809234619 -0.20683945715427399
-0.43755826354026794 -0.76672720909118652 -0.18634530901908875
-0.45338642597198486 -0.75956892967224121 -0.19686180353164673
-0.46175968647003174 -0.77220582962036133 -0.21833926439285278
0.40841004252433777 0.66254174709320068 -0.32930895686149597
0.40880641341209412 0.65769237279891968 -0.31604310870170593
0.41885533928871155 0.67998570203781128 -0.327943354845047
0.40714415907859802 0.66770553588867188 -0.34015455842018127
0.39979365468025208 0.65143805742263794 -0.33514773845672607
0.39918732643127441 0.64652556180953979 -0.32221251726150513
0.42006433010101318 0.67505615949630737 -0.31469446420669556
0.41671302914619446 0.68535822629928589 -0.33937069773674011
0.3997165858745575 0.65687036514282227 -0.344419926404953
-0.44438460469245911 -0.79860508441925049 -0.17037919163703918
-0.45417132973670959 -0.81582522392272949 -0.16520301997661591
-0.43958297371864319 -0.7958834171295166 -0.15579876303672791
-0.43907538056373596 -0.78586286306381226 -0.18014350533485413
-0.44935369491577148 -0.79981756210327148 -0.18345536291599274
-0.45956495404243469 -0.8160625696182251 -0.17966108024120331
-0.44908115267753601 -0.81407636404037476 -0.14995867013931274
-0.43455266952514648 -0.78197246789932251 -0.16665202379226685
-0.44378921389579773 -0.78840070962905884 -0.19076019525527954
0.24132993817329407 1.0443415641784668 -0.28927969932556152
0.23404625058174133 1.0454665422439575 -0.2733694314956665
0.23805120587348938 1.0179532766342163 -0.27948349714279175
0.24886387586593628 1.0441792011260986 -0.30304756760597229
0.24704644083976746 1.0722119808197021 -0.30085930228233337
0.23966661095619202 1.0734955072402954 -0.28510820865631104
0.23096814751625061 1.0189871788024902 -0.26353445649147034
0.24550828337669373 1.0178264379501343 -0.29369822144508362
0.25448140501976013 1.0718585252761841 -0.31406340003013611
-0.75358843803405762 -0.66347604990005493 -0.39222320914268494
-0.73669064044952393 -0.65513360500335693 -0.37154337763786316
-0.75689244270324707 -0.65558362007141113 -0.38171762228012085
-0.77081596851348877 -0.67507749795913696 -0.41417548060417175
-0.75116658210754395 -0.67235052585601807 -0.40079686045646667
-0.73430216312408447 -0.66390049457550049 -0.38069260120391846
-0.73987257480621338 -0.64746487140655518 -0.36073318123817444
-0.77424347400665283 -0.66707581281661987 -0.40408340096473694
-0.76830732822418213 -0.68382436037063599 -0.42207735776901245
0.28181549906730652 1.1656583547592163 -0.34042361378669739
0.27498835325241089 1.168278694152832 -0.32587999105453491
0.26716575026512146 1.1343185901641846 -0.32680788636207581
0.28756457567214966 1.1630122661590576 -0.35148084163665771
0.29939767718315125 1.1926834583282471 -0.35432103276252747
0.29295274615287781 1.1959588527679443 -0.34041494131088257
0.26002353429794312 1.1363506317138672 -0.31174042820930481
0.27365255355834961 1.1327825784683228 -0.33866634964942932
0.30445590615272522 1.1885327100753784 -0.36441412568092346
-0.82517361640930176 -0.73480391502380371 -0.47970002889633179
-0.80752193927764893 -0.71066009998321533 -0.45934942364692688
-0.82924270629882812 -0.72752422094345093 -0.47163087129592896
-0.83949875831604004 -0.76253414154052734 -0.49557867646217346
-0.82159137725830078 -0.74110615253448486 -0.48509207367897034
-0.80448329448699951 -0.71805083751678467 -0.46573618054389954
-0.81133043766021729 -0.7029762864112854 -0.4504808783531189
-0.84383845329284668 -0.75572121143341064 -0.48840174078941345
-0.83512270450592041 -0.76778918504714966 -0.49957838654518127
0.36717513203620911 1.2196903228759766 -0.39754435420036316
0.36249125003814697 1.2231380939483643 -0.38556632399559021
0.34268108010292053 1.2210679054260254 -0.38280859589576721
0.36992207169532776 1.2135841846466064 -0.40510767698287964
0.3921906054019928 1.2085247039794922 -0.41285291314125061
0.38826856017112732 1.2114022970199585 -0.40152299404144287
0.33730617165565491 1.2248363494873047 -0.37020748853683472
0.34627225995063782 1.214971661567688 -0.39111557602882385
0.39400255680084229 1.2028772830963135 -0.41967040300369263
-0.84487581253051758 -0.86059051752090454 -0.49981978535652161
-0.8501511812210083 -0.82647287845611572 -0.5059206485748291
-0.84864389896392822 -0.85563695430755615 -0.49363645911216736
-0.83306610584259033 -0.89411276578903198 -0.48812106251716614
-0.83987689018249512 -0.86277306079864502 -0.50184190273284912
-0.84492170810699463 -0.82969015836715698 -0.50804638862609863
-0.85439133644104004 -0.82082784175872803 -0.49975946545600891
-0.83617663383483887 -0.88989758491516113 -0.48171374201774597
-0.82862973213195801 -0.89520961046218872 -0.49039259552955627
0.45989102125167847 1.1219637393951416 -0.46188277006149292
0.45843818783760071 1.1225475072860718 -0.45278781652450562
0.43963518738746643 1.1586015224456787 -0.44592705368995667
0.45835903286933899 1.119261622428894 -0.4659346342086792
0.47632011771202087 1.0797760486602783 -0.47479215264320374
0.47566875815391541 1.0795794725418091 -0.46626058220863342
0.4373537003993988 1.1599817276000977 -0.43608960509300232
0.43926545977592468 1.1547539234161377 -0.45093587040901184
0.47370627522468567 1.0782926082611084 -0.47809696197509766
-0.76326632499694824 -0.97592836618423462 -0.43280979990959167
-0.79145050048828125 -0.95329397916793823 -0.45367550849914551
-0.76392602920532227 -0.97400397062301636 -0.42545145750045776
-0.73179352283477783 -0.99192255735397339 -0.41010698676109314
-0.76170766353607178 -0.97332984209060669 -0.43666207790374756
-0.78880500793457031 -0.95195204019546509 -0.45691016316413879
-0.79295706748962402 -0.95061653852462769 -0.44666534662246704
-0.73161530494689941 -0.99070119857788086 -0.40225628018379211
-0.73137032985687256 -0.98820841312408447 -0.4147392213344574
0.4932313859462738 0.93654060363769531 -0.47719112038612366
0.49457058310508728 0.93438547849655151 -0.4681742787361145
0.49314722418785095 0.98545181751251221 -0.48349758982658386
0.48869571089744568 0.93854063749313354 -0.48106321692466736
0.48885878920555115 0.88852554559707642 -0.46363148093223572
0.49066230654716492 0.8858187198638916 -0.45388701558113098
0.49391230940818787 0.98388183116912842 -0.47500920295715332
0.48899379372596741 0.98636162281036377 -0.48667415976524353
0.48417219519615173 0.89152276515960693 -0.46856588125228882
-0.62952291965484619 -0.98787671327590942 -0.33458226919174194
-0.66387569904327393 -0.99796867370605469 -0.36097067594528198
-0.62712240219116211 -0.98819118738174438 -0.32374998927116394
-0.59607064723968506 -0.97084712982177734 -0.30644795298576355
-0.63222229480743408 -0.98277628421783447 -0.34291771054267883
-0.66561472415924072 -0.99295938014984131 -0.36786362528800964
-0.66215789318084717 -0.99789315462112427 -0.35135892033576965
-0.59302926063537598 -0.97140401601791382 -0.29434487223625183
-0.59963750839233398 -0.96598255634307861 -0.31631073355674744
0.45742762088775635 0.76403969526290894 -0.38355138897895813
0.45977681875228882 0.75970584154129028 -0.37157675623893738
0.47004216909408569 0.80137670040130615 -0.41431877017021179
0.45344439148902893 0.76927495002746582 -0.39273133873939514
0.44401943683624268 0.73119622468948364 -0.35550257563591003
0.44620451331138611 0.7264595627784729 -0.34296011924743652
0.47236818075180054 0.79756033420562744 -0.40301910042762756
0.46565720438957214 0.80602633953094482 -0.42205402255058289
0.44056382775306702 0.73678255081176758 -0.36590534448623657
-0.50938785076141357 -0.89255887269973755 -0.21190889179706573
-0.53535449504852295 -0.92141193151473999 -0.24334603548049927
-0.50463706254959106 -0.89274132251739502 -0.19692535698413849
-0.48691746592521667 -0.86387902498245239 -0.18578618764877319
-0.51486694812774658 -0.88994330167770386 -0.22587966918945312
-0.54034328460693359 -0.91785269975662231 -0.2561485767364502
-0.53111040592193604 -0.92190670967102051 -0.22908267378807068
-0.48181334137916565 -0.86357539892196655 -0.17037381231784821
-0.49266532063484192 -0.86227267980575562 -0.20052364468574524
0.3605511486530304 0.74808400869369507 -0.35807862877845764
0.35866484045982361 0.72856515645980835 -0.35550057888031006
0.37278398871421814 0.74191242456436157 -0.36223632097244263
0.36195522546768188 0.77090781927108765 -0.35939526557922363
0.34712949395179749 0.75119376182556152 -0.35278216004371643
0.34554225206375122 0.73226577043533325 -0.35048523545265198
0.37056952714920044 0.72177255153656006 -0.35975548624992371
0.37465602159500122 0.76537185907363892 -0.36375141143798828
0.34816953539848328 0.77343213558197021 -0.35365086793899536
-0.51994526386260986 -0.76123273372650146 -0.2583414614200592
-0.51284456253051758 -0.77609074115753174 -0.25177398324012756
-0.50631284713745117 -0.75408089160919189 -0.25125917792320251
-0.52505314350128174 -0.74397635459899902 -0.26369166374206543
-0.53595590591430664 -0.76834869384765625 -0.26571944355964661
-0.52921366691589355 -0.78398478031158447 -0.25904002785682678
-0.49884310364723206 -0.76836621761322021 -0.24497529864311218
-0.51179802417755127 -0.73739302158355713 -0.25675278902053833
-0.54070532321929932 -0.75044012069702148 -0.27081349492073059
0.36019101738929749 0.84746760129928589 -0.36292147636413574
0.36185154318809509 0.82139241695404053 -0.36155214905738831
0.37484291195869446 0.8433452844619751 -0.37088075280189514
0.35773932933807373 0.87367838621139526 -0.36408823728561401
0.34540316462516785 0.84892255067825317 -0.35467121005058289
0.34735503792762756 0.82308143377304077 -0.35427412390708923
0.37579765915870667 0.81686496734619141 -0.36786866188049316
0.37309631705284119 0.87003129720687866 -0.37374433875083923
0.34270921349525452 0.87493306398391724 -0.35492956638336182
-0.59081435203552246 -0.78316497802734375 -0.29652979969978333
-0.58488810062408447 -0.80211746692657471 -0.29187169671058655
-0.57193362712860107 -0.77958691120147705 -0.2846800684928894
-0.59490227699279785 -0.76348185539245605 -0.29979321360588074
-0.60990142822265625 -0.78561699390411377 -0.30921107530593872
-0.60427701473236084 -0.80581414699554443 -0.30570164322853088
-0.56576168537139893 -0.79731661081314087 -0.27897396683692932
-0.57617402076721191 -0.760425865650177 -0.28869661688804626
-0.61385190486907959 -0.76548409461975098 -0.31174477934837341
0.34801840782165527 0.95011907815933228 -0.3639245331287384
0.35131487250328064 0.92524164915084839 -0.36462309956550598
0.36501935124397278 0.94912612438201904 -0.37645414471626282
0.34528806805610657 0.97418248653411865 -0.36288955807685852
0.33258533477783203 0.95051378011703491 -0.35371926426887512
0.3359544575214386 0.92594122886657715 -0.35443684458732605
0.36790058016777039 0.92318695783615112 -0.37667906284332275
0.36248070001602173 0.9742199182510376 -0.37548920512199402
0.32985588908195496 0.97440552711486816 -0.35292616486549377
-0.6655881404876709 -0.78844332695007324 -0.34695550799369812
-0.66167783737182617 -0.81174004077911377 -0.34570309519767761
-0.64752793312072754 -0.78785228729248047 -0.33481761813163757
-0.66893541812896729 -0.76744389533996582 -0.34856966137886047
-0.68289721012115479 -0.78952217102050781 -0.35835069417953491
-0.67967462539672852 -0.81330090761184692 -0.35737651586532593
-0.64292645454406738 -0.81031554937362671 -0.33308643102645874
-0.65109157562255859 -0.76704680919647217 -0.33646658062934875
-0.68610858917236328 -0.76846599578857422 -0.36019280552864075
0.34452417492866516 1.0412693023681641 -0.36085695028305054
0.3433811366558075 1.0192276239395142 -0.36073428392410278
0.36029630899429321 1.0424785614013672 -0.37181875109672546
0.34686926007270813 1.0646169185638428 -0.3631279468536377
0.32960206270217896 1.0427192449569702 -0.35258984565734863
0.32822337746620178 1.0199705362319946 -0.35183480381965637
0.36002412438392639 1.0206023454666138 -0.3725065290927887
0.36128908395767212 1.064684271812439 -0.37304744124412537
0.33218613266944885 1.066941499710083 -0.35537764430046082
-0.72943735122680664 -0.80130636692047119 -0.38776913285255432
-0.72724974155426025 -0.82326894998550415 -0.38679236173629761
-0.71450841426849365 -0.79567337036132812 -0.37800648808479309
-0.73331904411315918 -0.78105133771896362 -0.39170241355895996
-0.74486541748046875 -0.80855256319046021 -0.39978745579719543
-0.74215984344482422 -0.82845652103424072 -0.39828005433082581
-0.71228611469268799 -0.81889617443084717 -0.37720903754234314
-0.71798324584960938 -0.7750205397605896 -0.38107761740684509
-0.7492520809173584 -0.78870362043380737 -0.40457725524902344
0.28401169180870056 1.045390248298645 -0.33201363682746887
0.26996758580207825 1.0450091361999512 -0.32409778237342834
0.28178772330284119 1.0204930305480957 -0.3271791934967041
0.29925766587257385 1.0455093383789062 -0.33905959129333496
0.28745022416114807 1.0705962181091309 -0.33811387419700623
0.27432939410209656 1.0711798667907715 -0.33218100666999817
0.26718831062316895 1.019411563873291 -0.31735709309577942
0.29751628637313843 1.0212208032608032 -0.33601975440979004
0.30204254388809204 1.0704267024993896 -0.34353986382484436
-0.74407362937927246 -0.71900230646133423 -0.40572923421859741
-0.72772455215454102 -0.71192151308059692 -0.39027884602546692
-0.74670505523681641 -0.6999126672744751 -0.40756180882453918
-0.76024389266967773 -0.72754412889480591 -0.42211475968360901
-0.74113750457763672 -0.73987966775894165 -0.40191757678985596
-0.72499239444732666 -0.7333683967590332 -0.38830295205116272
-0.73010551929473877 -0.69214993715286255 -0.39016735553741455
-0.76323020458221436 -0.70968210697174072 -0.42586120963096619
-0.75734007358551025 -0.74765115976333618 -0.41692325472831726
0.28361251950263977 0.9468989372253418 -0.32103079557418823
0.28642776608467102 0.92246764898300171 -0.32135102152824402
0.30045372247695923 0.9487605094909668 -0.33306363224983215
0.28167301416397095 0.97132635116577148 -0.32174482941627502
0.26805037260055542 0.94500988721847534 -0.30815437436103821
0.27072522044181824 0.9207078218460083 -0.30845907330513
0.30347943305969238 0.92421847581863403 -0.33346357941627502
0.29818493127822876 0.97306406497955322 -0.33323779702186584
0.26637539267539978 0.96950697898864746 -0.30934736132621765
-0.67680919170379639 -0.70092058181762695 -0.34906986355781555
-0.67445147037506104 -0.72378528118133545 -0.35018673539161682
-0.65919160842895508 -0.6998257040977478 -0.33698126673698425
-0.67898011207580566 -0.67994892597198486 -0.34607729315757751
-0.69412314891815186 -0.70300078392028809 -0.3619789183139801
-0.69176900386810303 -0.72543156147003174 -0.36270496249198914
-0.65671467781066895 -0.72295510768890381 -0.33799090981483459
-0.661468505859375 -0.67866367101669312 -0.33412203192710876
-0.69627785682678223 -0.68238228559494019 -0.35932713747024536
0.29682445526123047 0.84838354587554932 -0.32634845376014709
0.28187733888626099 0.84796154499053955 -0.31557223200798035
0.30006077885627747 0.82327562570571899 -0.32883307337760925
0.31330332159996033 0.84873151779174805 -0.33647486567497253
0.29332011938095093 0.87326514720916748 -0.32418748736381531
0.27790799736976624 0.8723595142364502 -0.31242343783378601
0.2857678234577179 0.8230554461479187 -0.3191961944103241
0.3159281313419342 0.82335090637207031 -0.33783358335494995
0.31021121144294739 0.87413793802261353 -0.33527305722236633
-0.60483670234680176 -0.69810402393341064 -0.30558398365974426
-0.58635330200195312 -0.6969333291053772 -0.29678383469581604
-0.60780680179595947 -0.67809092998504639 -0.3048684298992157
-0.6231682300567627 -0.69878667593002319 -0.31523057818412781
-0.60153663158416748 -0.72023856639862061 -0.30443668365478516
-0.58300197124481201 -0.71820783615112305 -0.29480034112930298
-0.58929765224456787 -0.67779147624969482 -0.29687032103538513
-0.62592625617980957 -0.67809677124023438 -0.31364697217941284
-0.62013542652130127 -0.72156345844268799 -0.31497177481651306
0.30616071820259094 0.74825090169906616 -0.3361276388168335
0.31920537352561951 0.75053954124450684 -0.34169092774391174
0.30480590462684631 0.77226388454437256 -0.33425697684288025
0.29484596848487854 0.7458527684211731 -0.32988622784614563
0.30693930387496948 0.72779351472854614 -0.33618763089179993
0.31887230277061462 0.73080331087112427 -0.34081155061721802
0.31891688704490662 0.77346324920654297 -0.34089896082878113
0.29232126474380493 0.77064120769500732 -0.32695835828781128
0.29701694846153259 0.72599822282791138 -0.33086776733398438
-0.5317312479019165 -0.68840563297271729 -0.27514544129371643
-0.54911339282989502 -0.69197946786880493 -0.28180953860282898
-0.53056275844573975 -0.70639657974243164 -0.2722877562046051
-0.5169450044631958 -0.68475914001464844 -0.26834991574287415
-0.53243470191955566 -0.67267906665802002 -0.27601125836372375
-0.55062925815582275 -0.67487519979476929 -0.28264078497886658
-0.54694759845733643 -0.7111663818359375 -0.27896562218666077
-0.51651626825332642 -0.70140361785888672 -0.26554712653160095
-0.51777702569961548 -0.67103207111358643 -0.26936841011047363
0.39721769094467163 0.70235520601272583 -0.36140063405036926
0.40171161293983459 0.68748027086257935 -0.35619425773620605
0.40284618735313416 0.72427892684936523 -0.36219495534896851
0.39120098948478699 0.71807235479354858 -0.36421197652816772
0.39249461889266968 0.68466395139694214 -0.36172601580619812
0.39621523022651672 0.67305755615234375 -0.35745710134506226
0.40887311100959778 0.70755594968795776 -0.35663202404975891
0.39522817730903625 0.74124360084533691 -0.36539497971534729
0.38749897480010986 0.69849330186843872 -0.36334109306335449
-0.4784088134765625 -0.79816877841949463 -0.22175320982933044
-0.49274396896362305 -0.81051039695739746 -0.22429589927196503
-0.46621271967887878 -0.79974853992462158 -0.20902633666992188
-0.46695446968078613 -0.78809672594070435 -0.2208578884601593
-0.49138355255126953 -0.79448497295379639 -0.23343531787395477
-0.50701802968978882 -0.80507940053939819 -0.23820680379867554
-0.47883591055870056 -0.81360983848571777 -0.20928587019443512
-0.45735439658164978 -0.78955262899398804 -0.21068865060806274
-0.47824540734291077 -0.78514724969863892 -0.22986745834350586
0.42148151993751526 0.80648148059844971 -0.39350220561027527
0.42695578932762146 0.83819806575775146 -0.40979209542274475
0.40586230158805847 0.82219409942626953 -0.386747807264328
0.41536468267440796 0.77687293291091919 -0.37826290726661682
0.43546974658966064 0.79073011875152588 -0.39765778183937073
0.44402039051055908 0.82465553283691406 -0.41956087946891785
0.40820717811584473 0.85170453786849976 -0.39738127589225769
0.40281522274017334 0.79389941692352295 -0.37661561369895935
0.4263177216053009 0.75983613729476929 -0.37738198041915894
-0.54912590980529785 -0.85709595680236816 -0.26495763659477234
-0.56354224681854248 -0.83951449394226074 -0.2760750949382782
-0.57148528099060059 -0.8731878399848938 -0.28698131442070007
-0.53487634658813477 -0.87221717834472656 -0.25248855352401733
-0.5284121036529541 -0.84063321352005005 -0.24563524127006531
-0.54347336292266846 -0.82808399200439453 -0.25935623049736023
-0.58460462093353271 -0.85024595260620117 -0.29468050599098206
-0.55854916572570801 -0.89360535144805908 -0.27793657779693604
-0.51352918148040771 -0.85077452659606934 -0.23060533404350281
0.43559607863426208 0.94430625438690186 -0.44000145792961121
0.43490603566169739 0.98085188865661621 -0.44190937280654907
0.40968486666679382 0.946097731590271 -0.41569796204566956
0.43433934450149536 0.90766298770904541 -0.43426260352134705
0.4595649242401123 0.94241029024124146 -0.46180716156959534
0.45953574776649475 0.98392724990844727 -0.46515342593193054
0.40823882818222046 0.97765147686004639 -0.41625955700874329
0.41018089652061462 0.91407585144042969 -0.4126133918762207
0.45665264129638672 0.90118056535720825 -0.45332524180412292
-0.64594340324401855 -0.90997332334518433 -0.34882158041000366
-0.65165948867797852 -0.87378549575805664 -0.34697723388671875
-0.67153739929199219 -0.91632014513015747 -0.3663642406463623
-0.64045166969299316 -0.94333457946777344 -0.34966352581977844
-0.62031376361846924 -0.90035229921340942 -0.32992660999298096
-0.62900686264038086 -0.86765670776367188 -0.33091095089912415
-0.67393112182617188 -0.87811315059661865 -0.36180809140205383
-0.66938996315002441 -0.95159679651260376 -0.3700890839099884
-0.61183607578277588 -0.93033474683761597 -0.32777997851371765
0.41897770762443542 1.0798053741455078 -0.42884454131126404
0.40880373120307922 1.1062691211700439 -0.42054596543312073
0.39824572205543518 1.0623365640640259 -0.40699422359466553
0.42671856284141541 1.0495302677154541 -0.43572759628295898
0.43766716122627258 1.0975772142410278 -0.44866266846656799
0.42355933785438538 1.1277140378952026 -0.43733033537864685
0.39256224036216736 1.0858521461486816 -0.40259107947349548
0.40261125564575195 1.0362879037857056 -0.41130074858665466
0.44863659143447876 1.0627546310424805 -0.45783731341362
-0.74191868305206299 -0.91143321990966797 -0.41337448358535767
-0.73376643657684326 -0.8794521689414978 -0.40039250254631042
-0.76147210597991943 -0.90130364894866943 -0.42748740315437317
-0.75066256523132324 -0.94064319133758545 -0.42612597346305847
-0.7200855016708374 -0.91729801893234253 -0.39849480986595154
-0.71529102325439453 -0.88111543655395508 -0.38816067576408386
-0.75063836574554443 -0.87531280517578125 -0.41280889511108398
-0.77328574657440186 -0.92542135715484619 -0.44273096323013306
-0.72526895999908447 -0.95042610168457031 -0.40826830267906189
0.36227959394454956 1.1509015560150146 -0.39057713747024536
0.34430995583534241 1.1549623012542725 -0.38098996877670288
0.35630083084106445 1.1203455924987793 -0.37887725234031677
0.3799268901348114 1.142059326171875 -0.40087941288948059
0.3672427237033844 1.1791110038757324 -0.40087249875068665
0.34699729084968567 1.1821968555450439 -0.38959333300590515
0.34019804000854492 1.1242899894714355 -0.37054643034934998
0.37148889899253845 1.114659309387207 -0.38824895024299622
0.38754752278327942 1.1690528392791748 -0.41274675726890564
-0.79943585395812988 -0.84267306327819824 -0.45999160408973694
-0.78032803535461426 -0.83007079362869263 -0.43690192699432373
-0.80532574653625488 -0.81807368993759155 -0.46709573268890381
-0.81718873977661133 -0.85355180501937866 -0.48132607340812683
-0.79043757915496826 -0.86614060401916504 -0.45106056332588196
-0.7737652063369751 -0.85038602352142334 -0.4309573769569397
-0.78590190410614014 -0.8082268238067627 -0.44345727562904358
-0.82275915145874023 -0.82549065351486206 -0.48824754357337952
-0.80700910091400146 -0.88073456287384033 -0.47089627385139465
0.30233278870582581 1.1408056020736694 -0.36001637578010559
0.29727968573570251 1.1222435235977173 -0.35366335511207581
0.31233572959899902 1.1486170291900635 -0.36537107825279236
0.29787817597389221 1.150208592414856 -0.36063921451568604
0.28780439496040344 1.1256722211837769 -0.35093149542808533
0.30971771478652954 1.1236064434051514 -0.35783836245536804
0.31145355105400085 1.1677511930465698 -0.36976927518844604
-0.80362594127655029 -0.75757515430450439 -0.47064384818077087
-0.80690610408782959 -0.7725139856338501 -0.47283941507339478
-0.79241287708282471 -0.74816441535949707 -0.45789268612861633
-0.81061375141143799 -0.7526097297668457 -0.47969838976860046
-0.8196101188659668 -0.77378171682357788 -0.48833730816841125
-0.7910315990447998 -0.76567608118057251 -0.45365411043167114
-0.79645538330078125 -0.73551404476165771 -0.46393671631813049
0.49713864922523499 0.64376306533813477 -0.41423255205154419
0.50417232513427734 0.63999342918395996 -0.38278400897979736
0.47381159663200378 0.590739905834198 -0.37812298536300659
0.47838178277015686 0.66371852159500122 -0.43956014513969421
0.51733338832855225 0.70454943180084229 -0.45208975672721863
0.52395355701446533 0.7005191445350647 -0.42267647385597229
0.4812828004360199 0.58657246828079224 -0.34467974305152893
0.45527100563049316 0.61165720224380493 -0.40643903613090515
0.49859312176704407 0.72394704818725586 -0.47447040677070618
-0.41444575786590576 -0.91740328073501587 -0.17978288233280182
-0.37801036238670349 -0.86801016330718994 -0.15282632410526276
-0.40643969178199768 -0.91943687200546265 -0.14206227660179138
-0.45721587538719177 -0.96459037065505981 -0.21417531371116638
-0.43583348393440247 -0.9021880030632019 -0.22569818794727325
-0.40065458416938782 -0.85434645414352417 -0.20057001709938049
-0.36924368143081665 -0.86988729238510132 -0.11319868266582489
-0.44957455992698669 -0.96679842472076416 -0.17829608917236328
-0.47749882936477661 -0.94807636737823486 -0.25816994905471802
0.55416584014892578 0.92665690183639526 -0.5195765495300293
0.55762207508087158 0.91950523853302002 -0.49678894877433777
0.5468437671661377 0.84770816564559937 -0.50794947147369385
0.53881287574768066 0.94515174627304077 -0.53443551063537598
0.55436789989471436 1.0065228939056396 -0.52019691467285156
0.5562058687210083 0.99842870235443115 -0.49941620230674744
0.55172860622406006 0.84175765514373779 -0.48293325304985046
0.52972066402435303 0.8666236400604248 -0.52494049072265625
0.54135680198669434 1.0240039825439453 -0.53358709812164307
-0.61234736442565918 -1.0721919536590576 -0.31942185759544373
-0.55750489234924316 -1.0442667007446289 -0.28609186410903931
-0.60484433174133301 -1.0723385810852051 -0.29072362184524536
-0.66817128658294678 -1.088782787322998 -0.35179629921913147
-0.62919580936431885 -1.0564996004104614 -0.35580992698669434
-0.57566654682159424 -1.027375340461731 -0.32538914680480957
-0.54996573925018311 -1.0455933809280396 -0.25468215346336365
-0.66090953350067139 -1.0875155925750732 -0.32591208815574646
-0.68327128887176514 -1.075100302696228 -0.38492545485496521
0.49951556324958801 1.2223116159439087 -0.45924147963523865
0.49663910269737244 1.2156603336334229 -0.44151243567466736
0.52692186832427979 1.1570138931274414 -0.48800435662269592
0.4961828887462616 1.2300256490707397 -0.47383838891983032
0.46547111868858337 1.2778713703155518 -0.42757132649421692
0.46130993962287903 1.2731608152389526 -0.40970578789710999
0.52550315856933594 1.1490727663040161 -0.46984085440635681
0.52009928226470947 1.1692800521850586 -0.50130927562713623
0.46548810601234436 1.2797402143478394 -0.44394174218177795
-0.82523667812347412 -1.0500537157058716 -0.44812279939651489
-0.77631485462188721 -1.077777624130249 -0.41607502102851868
-0.82129943370819092 -1.0450115203857422 -0.42978399991989136
-0.86834454536437988 -1.0107342004776001 -0.47950372099876404
-0.83067584037780762 -1.0460281372070312 -0.46950718760490417
-0.78579413890838623 -1.0702043771743774 -0.44169357419013977
-0.7707902193069458 -1.073783278465271 -0.39548438787460327
-0.86638176441192627 -1.0049557685852051 -0.46306589245796204
-0.86896920204162598 -1.0099697113037109 -0.49633172154426575
0.34470418095588684 1.3697361946105957 -0.35329264402389526
0.3358597457408905 1.3685152530670166 -0.33003723621368408
0.38608041405677795 1.3530000448226929 -0.37302637100219727
0.3580261766910553 1.3619694709777832 -0.38043218851089478
0.30463331937789917 1.3710670471191406 -0.33693435788154602
0.29448771476745605 1.3707928657531738 -0.31096610426902771
0.37889030575752258 1.3511005640029907 -0.35229995846748352
0.39461332559585571 1.346948504447937 -0.39586612582206726
0.32184717059135437 1.3610135316848755 -0.36805984377861023
-0.94917523860931396 -0.85211658477783203 -0.56534123420715332
-0.9314265251159668 -0.90888899564743042 -0.53999114036560059
-0.95185112953186035 -0.84282994270324707 -0.54889035224914551
-0.95666003227233887 -0.79525595903396606 -0.58250832557678223
-0.93993651866912842 -0.86670970916748047 -0.57614517211914062
-0.92457163333892822 -0.9176938533782959 -0.55138611793518066
-0.93284320831298828 -0.90094202756881714 -0.52449357509613037
-0.96068620681762695 -0.78512358665466309 -0.56476950645446777
-0.94482338428497314 -0.81430619955062866 -0.59297335147857666
0.21073167026042938 1.282827615737915 -0.29854145646095276
0.19920682907104492 1.2863147258758545 -0.26521775126457214
0.23683461546897888 1.3255012035369873 -0.31029471755027771
0.23368456959724426 1.2656947374343872 -0.33874800801277161
0.18918189406394958 1.2331944704055786 -0.28721779584884644
0.17803815007209778 1.2381323575973511 -0.25235489010810852
0.22533595561981201 1.3276257514953613 -0.27909964323043823
0.25884085893630981 1.310585618019104 -0.34809431433677673
0.21227891743183136 1.2139880657196045 -0.32895553112030029
-0.91656386852264404 -0.65379524230957031 -0.55882453918457031
-0.93908345699310303 -0.6946219801902771 -0.57908439636230469
-0.92446637153625488 -0.64421063661575317 -0.53611171245574951
-0.88886785507202148 -0.61877083778381348 -0.53104805946350098
-0.89786207675933838 -0.67792373895645142 -0.5719611644744873
-0.92239248752593994 -0.71836888790130615 -0.59077596664428711
-0.94577085971832275 -0.68435680866241455 -0.55805754661560059
-0.89788186550140381 -0.61029970645904541 -0.50693845748901367
-0.86842858791351318 -0.64223974943161011 -0.54564034938812256
0.14759495854377747 1.0851250886917114 -0.25336763262748718
0.13965162634849548 1.0947682857513428 -0.21862223744392395
0.15781053900718689 1.131956934928894 -0.26401790976524353
0.16757398843765259 1.0605713129043579 -0.29344582557678223
0.14114198088645935 1.040881872177124 -0.2455977201461792
0.13443365693092346 1.0521644353866577 -0.21124169230461121
0.14857499301433563 1.1399877071380615 -0.22865043580532074
0.17927344143390656 1.1090289354324341 -0.30542507767677307
0.15942403674125671 1.0148873329162598 -0.28453812003135681
-0.80147230625152588 -0.54492276906967163 -0.4369695782661438
-0.8298790454864502 -0.56456410884857178 -0.46748039126396179
-0.81308889389038086 -0.54168796539306641 -0.41207665205001831
-0.77366101741790771 -0.53017318248748779 -0.40950000286102295
-0.77741599082946777 -0.56221705675125122 -0.45290568470954895
-0.80677247047424316 -0.58439213037490845 -0.48338893055915833
-0.84072756767272949 -0.55941158533096313 -0.4424055814743042
-0.7860335111618042 -0.52871102094650269 -0.38458320498466492
-0.7488863468170166 -0.54478287696838379 -0.4258144199848175
0.32401248812675476 0.85917454957962036 -0.41526174545288086
0.3410150408744812 0.91401642560958862 -0.43741661310195923
0.38894683122634888 0.77530622482299805 -0.44125407934188843
0.30734220147132874 0.81022804975509644 -0.39572668075561523
0.2588488757610321 0.94370359182357788 -0.3784351646900177
0.27404829859733582 0.99619650840759277 -0.39627176523208618
0.40752020478248596 0.83238542079925537 -0.46801289916038513
0.36926892399787903 0.72541940212249756 -0.4167497456073761
0.2454165518283844 0.895713210105896 -0.36354029178619385
-0.60497570037841797 -0.73409044742584229 -0.38540381193161011
-0.53435230255126953 -0.80734097957611084 -0.33311736583709717
-0.64016222953796387 -0.76885986328125 -0.41531118750572205
-0.67596566677093506 -0.66042029857635498 -0.42744541168212891
-0.57372665405273438 -0.70078212022781372 -0.3610551655292511
-0.50192475318908691 -0.76785266399383545 -0.30937352776527405
-0.57202327251434326 -0.84678018093109131 -0.36324033141136169
-0.70873987674713135 -0.69035440683364868 -0.45748543739318848
-0.64576041698455811 -0.63344138860702515 -0.40210071206092834
0.39172044396400452 1.1053053140640259 -0.47766053676605225
0.32733491063117981 1.1734861135482788 -0.43232861161231995
0.40638473629951477 1.1668388843536377 -0.47958415746688843
0.45491442084312439 1.0372738838195801 -0.51379549503326416
0.37537360191345215 1.0395985841751099 -0.47056379914283752
0.30860665440559387 1.1135838031768799 -0.42477115988731384
0.34656879305839539 1.2279088497161865 -0.43661478161811829
0.46489837765693665 1.1063604354858398 -0.5136566162109375
0.44116833806037903 0.96577143669128418 -0.50666451454162598
-0.76141190528869629 -0.87303417921066284 -0.50034582614898682
-0.80009496212005615 -0.90321648120880127 -0.52077841758728027
-0.81744873523712158 -0.7914891242980957 -0.54235637187957764
-0.72003746032714844 -0.83952778577804565 -0.47531974315643311
-0.70592689514160156 -0.95334345102310181 -0.45022332668304443
-0.75095856189727783 -0.97888278961181641 -0.47306758165359497
-0.85016477108001709 -0.82633894681930542 -0.56112909317016602
-0.78104555606842041 -0.75663018226623535 -0.51760852336883545
-0.65947580337524414 -0.92137646675109863 -0.4241853654384613
0.43103727698326111 1.2797541618347168 -0.46317753195762634
0.40689980983734131 1.3124749660491943 -0.44132691621780396
0.4575272798538208 1.263846755027771 -0.47503000497817993
0.42727774381637573 1.2590372562408447 -0.47134339809417725
0.38516995310783386 1.3014642000198364 -0.43894842267036438
0.43385908007621765 1.3017618656158447 -0.44909664988517761
0.4684508740901947 1.220420241355896 -0.49415835738182068
-0.872017502784729 -0.95640814304351807 -0.54478287696838379
-0.85791027545928955 -0.99319720268249512 -0.52384603023529053
-0.89742529392242432 -0.92631566524505615 -0.56377995014190674
-0.85843849182128906 -0.94728487730026245 -0.54403495788574219
-0.8270566463470459 -1.0020579099655151 -0.50846731662750244
-0.88691508769989014 -0.96491730213165283 -0.54167568683624268
-0.89297175407409668 -0.89254271984100342 -0.57345521450042725
0.14043544232845306 0.92838996648788452 -0.24993410706520081
0.1355060338973999 0.9076693058013916 -0.25105932354927063
0.13570100069046021 0.94402986764907837 -0.20929670333862305
0.13987542688846588 0.96035093069076538 -0.24544230103492737
0.15375350415706635 0.89921331405639648 -0.2941204309463501
0.14702221751213074 0.87746530771255493 -0.30290177464485168
0.1318737268447876 0.92316371202468872 -0.20393842458724976
0.13461300730705261 0.9749377965927124 -0.20872312784194946
0.15481860935688019 0.93211328983306885 -0.2855822741985321
-0.69736671447753906 -0.50997936725616455 -0.35932540893554688
-0.71213448047637939 -0.5116497278213501 -0.32769820094108582
-0.68457043170928955 -0.50021225214004517 -0.35310822725296021
-0.67135632038116455 -0.51718133687973022 -0.38494214415550232
-0.71943867206573486 -0.51508891582489014 -0.37025919556617737
-0.73354637622833252 -0.51577675342559814 -0.34273120760917664
-0.6993480920791626 -0.5039258599281311 -0.31415101885795593
-0.65769970417022705 -0.50388509035110474 -0.38718101382255554
-0.69385373592376709 -0.52485507726669312 -0.39068451523780823
0.2595990002155304 0.70160955190658569 -0.3931272029876709
0.21539933979511261 0.7822420597076416 -0.36997249722480774
0.27564296126365662 0.73180902004241943 -0.38353404402732849
0.30412730574607849 0.62176036834716797 -0.40280848741531372
0.24185511469841003 0.67585194110870361 -0.40984305739402771
0.20234474539756775 0.75716292858123779 -0.38725835084915161
0.2249983549118042 0.81435137987136841 -0.35857221484184265
0.3267856240272522 0.64957982301712036 -0.39613774418830872
0.28066006302833557 0.59740751981735229 -0.41729012131690979
-0.5079805850982666 -0.61469626426696777 -0.35617092251777649
-0.52534806728363037 -0.64180034399032593 -0.34550806879997253
-0.57384145259857178 -0.57179230451583862 -0.38505607843399048
-0.4940733015537262 -0.58619511127471924 -0.37610858678817749
-0.44216349720954895 -0.65746426582336426 -0.31451341509819031
-0.45641633868217468 -0.69287025928497314 -0.2994515597820282
-0.59400701522827148 -0.59080600738525391 -0.37954092025756836
-0.55901050567626953 -0.54901802539825439 -0.40072548389434814
-0.43080991506576538 -0.62218838930130005 -0.33843356370925903
0.38994082808494568 0.47897627949714661 -0.33322980999946594
0.36137187480926514 0.4506743848323822 -0.33749067783355713
0.37125730514526367 0.50636333227157593 -0.37046191096305847
0.41924563050270081 0.50968503952026367 -0.33624020218849182
0.40111571550369263 0.4686947762966156 -0.29211714863777161
0.37494197487831116 0.43732213973999023 -0.28978565335273743
0.34175336360931396 0.48123237490653992 -0.37890306115150452
0.40093851089477539 0.53431564569473267 -0.37027302384376526
0.42864036560058594 0.50217252969741821 -0.29872366786003113
-0.31319707632064819 -0.72523468732833862 -0.15471404790878296
-0.34139308333396912 -0.71435481309890747 -0.2092738002538681
-0.30026751756668091 -0.6825365424156189 -0.17607635259628296
-0.29856154322624207 -0.72948944568634033 -0.10542777180671692
-0.3284008800983429 -0.77068579196929932 -0.14039044082164764
-0.35438647866249084 -0.75942099094390869 -0.19210948050022125
-0.33107900619506836 -0.67136967182159424 -0.2347787618637085
-0.28244015574455261 -0.68848085403442383 -0.11886967718601227
-0.31636771559715271 -0.77359336614608765 -0.095776557922363281
0.034948334097862244 0.55396890640258789 0.70264458656311035
0.025165364146232605 0.53775668144226074 0.72310054302215576
0.016431182622909546 0.52338880300521851 0.74070978164672852
0.030783921480178833 0.50186014175415039 0.75150740146636963
0.048529073596000671 0.48791256546974182 0.74928939342498779
0.062391608953475952 0.47105923295021057 0.7483062744140625
0.084795922040939331 0.45520606637001038 0.73347747325897217
0.10193394124507904 0.4598146378993988 0.71444964408874512
0.12104766070842743 0.46506074070930481 0.69230389595031738
0.12528704106807709 0.50163817405700684 0.6675417423248291
0.10393689572811127 0.52940577268600464 0.66970646381378174
0.076809510588645935 0.55268722772598267 0.67394888401031494
-0.46073096990585327 -0.36946728825569153 0.6690143346786499
-0.42298248410224915 -0.3743608295917511 0.68003928661346436
-0.38444957137107849 -0.37250593304634094 0.69136345386505127
-0.3525543212890625 -0.34704452753067017 0.72097301483154297
-0.35897758603096008 -0.3305848240852356 0.73731875419616699
-0.36494311690330505 -0.31608304381370544 0.75120103359222412
-0.39370265603065491 -0.31124797463417053 0.75564873218536377
-0.41828897595405579 -0.3128775954246521 0.74873256683349609
-0.44253858923912048 -0.31018176674842834 0.74211549758911133
-0.47139880061149597 -0.31364750862121582 0.72162222862243652
-0.47897383570671082 -0.32726281881332397 0.70346450805664062
-0.48754546046257019 -0.34254235029220581 0.68236291408538818
0.069604590535163879 0.61325919628143311 0.60399341583251953
0.061879441142082214 0.59975731372833252 0.63024711608886719
0.053685188293457031 0.58559519052505493 0.65570485591888428
0.15658710896968842 0.47539588809013367 0.64152038097381592
0.17144274711608887 0.48006865382194519 0.61401951313018799
0.18513356149196625 0.48454192280769348 0.58567452430725098
0.1800132542848587 0.53128939867019653 0.55742728710174561
0.15302459895610809 0.56922656297683716 0.56143057346343994
0.11835850775241852 0.60138678550720215 0.56828033924102783
-0.47989878058433533 -0.42487591505050659 0.56742024421691895
-0.43130394816398621 -0.43290817737579346 0.58214104175567627
-0.38165435194969177 -0.43176546692848206 0.59687817096710205
-0.33532729744911194 -0.4077184796333313 0.63504457473754883
-0.33829388022422791 -0.39384636282920837 0.65875864028930664
-0.34193029999732971 -0.37932664155960083 0.68135499954223633
-0.50424408912658691 -0.3717169463634491 0.63403105735778809
-0.51169335842132568 -0.38439804315567017 0.60787487030029297
-0.51878154277801514 -0.39631685614585876 0.58092296123504639
0.14714448153972626 0.43681320548057556 0.67064774036407471
0.14689882099628448 0.40216150879859924 0.67571890354156494
0.13937577605247498 0.36783894896507263 0.68246686458587646
0.13956615328788757 0.32749131321907043 0.66655063629150391
0.15244053304195404 0.32030454277992249 0.64122951030731201
0.16398905217647552 0.31347104907035828 0.61492443084716797
0.19472768902778625 0.35056599974632263 0.57690691947937012
0.20538339018821716 0.39672195911407471 0.56743669509887695
0.20662608742713928 0.44344931840896606 0.56050789356231689
-0.28617826104164124 -0.40122553706169128 0.62297213077545166
-0.24375845491886139 -0.37301447987556458 0.63338935375213623
-0.20709414780139923 -0.3380085825920105 0.64194226264953613
-0.18883979320526123 -0.29115357995033264 0.67153382301330566
-0.20051677525043488 -0.28458419442176819 0.69382524490356445
-0.21355418860912323 -0.2777259349822998 0.714729905128479
-0.25055879354476929 -0.30055925250053406 0.72784864902496338
-0.27836373448371887 -0.32684409618377686 0.72064995765686035
-0.3107890784740448 -0.34827420115470886 0.71208405494689941
0.076121211051940918 0.43044957518577576 0.75049853324890137
0.075601577758789062 0.40816923975944519 0.75354301929473877
0.070426002144813538 0.38593348860740662 0.7575603723526001
0.073027059435844421 0.35924854874610901 0.74859869480133057
0.089228421449661255 0.35192620754241943 0.73179399967193604
0.10718907415866852 0.34363314509391785 0.71226727962493896
-0.24643690884113312 -0.2625705897808075 0.74960136413574219
-0.26471441984176636 -0.25488641858100891 0.76320326328277588
-0.28121897578239441 -0.24814124405384064 0.77468562126159668
-0.30781283974647522 -0.26265236735343933 0.77999532222747803
-0.32573679089546204 -0.28005775809288025 0.77480340003967285
-0.34660616517066956 -0.29449790716171265 0.76892900466918945
0.04689575731754303 0.34567970037460327 0.76753389835357666
0.029422014951705933 0.32916334271430969 0.77285969257354736
0.0090511143207550049 0.31569647789001465 0.77789795398712158
-0.0093437284231185913 0.29412862658500671 0.77073979377746582
-0.0039122253656387329 0.27871078252792358 0.75690662860870361
0.0019660592079162598 0.26131883263587952 0.74083995819091797
0.043238550424575806 0.25906607508659363 0.71573317050933838
0.075465157628059387 0.2799735963344574 0.70765292644500732
0.10301005840301514 0.30563750863075256 0.6989971399307251
-0.21385484933853149 -0.23749078810214996 0.73763656616210938
-0.20634280145168304 -0.20308412611484528 0.74018967151641846
-0.20621956884860992 -0.16857545077800751 0.74130499362945557
-0.23321874439716339 -0.1419408917427063 0.75698220729827881
-0.25308340787887573 -0.14857096970081329 0.7705378532409668
-0.27093344926834106 -0.15448150038719177 0.78203535079956055
-0.27962684631347656 -0.17935192584991455 0.79159367084503174
-0.2795664370059967 -0.2006862610578537 0.7902531623840332
-0.28427201509475708 -0.22218456864356995 0.78782320022583008
0.011897057294845581 0.2278611809015274 0.70229494571685791
0.015443086624145508 0.21319286525249481 0.68041276931762695
0.018421515822410583 0.19934983551502228 0.6574854850769043
0.067611299455165863 0.20567944645881653 0.62411737442016602
0.10976769030094147 0.23319719731807709 0.61258780956268311
0.1460382342338562 0.26730051636695862 0.60030519962310791
-0.15766747295856476 -0.25310000777244568 0.65312397480010986
-0.14682184159755707 -0.20648224651813507 0.65596401691436768
-0.14556458592414856 -0.15963864326477051 0.65736222267150879
-0.16743665933609009 -0.11922244727611542 0.6801307201385498
-0.18135185539722443 -0.12415316700935364 0.70198798179626465
-0.19653235375881195 -0.12945841252803802 0.72252321243286133
-0.030581429600715637 0.23491929471492767 0.72766244411468506
-0.069517076015472412 0.23253791034221649 0.73129534721374512
-0.10781994462013245 0.23663081228733063 0.73392128944396973
-0.15252649784088135 0.23252896964550018 0.71687781810760498
-0.1603204756975174 0.2193174809217453 0.69629478454589844
-0.1676279753446579 0.20708249509334564 0.67470288276672363
-0.12788347899913788 0.1798827052116394 0.65042030811309814
-0.078440427780151367 0.17310573160648346 0.64683353900909424
-0.028171896934509277 0.17508964240550995 0.64149057865142822
-0.17284634709358215 -0.07291761040687561 0.65700685977935791
-0.20044231414794922 -0.036084402352571487 0.65538907051086426
-0.23573900759220123 -0.0051087699830532074 0.65260016918182373
-0.28495308756828308 0.005770999938249588 0.67006456851959229
-0.2926657497882843 -0.0077649019658565521 0.69111299514770508
-0.30096521973609924 -0.022166896611452103 0.7110975980758667
-0.27784320712089539 -0.05503222718834877 0.73360788822174072
-0.25036019086837769 -0.077619031071662903 0.73703873157501221
-0.22863627970218658 -0.10469551384449005 0.73959016799926758
-0.03766043484210968 0.29983708262443542 0.78557264804840088
-0.062451481819152832 0.29796117544174194 0.78809809684753418
-0.087042167782783508 0.30016413331031799 0.79011297225952148
-0.11674745380878448 0.29537579417228699 0.78098678588867188
-0.12507340312004089 0.28052937984466553 0.76801824569702148
-0.13450497388839722 0.26384016871452332 0.75299990177154541
-0.32050248980522156 -0.055300828069448471 0.7457435131072998
-0.33088609576225281 -0.072612568736076355 0.75995218753814697
-0.34015128016471863 -0.087949797511100769 0.77219271659851074
-0.3260701596736908 -0.10991351306438446 0.78583765029907227
-0.3082471489906311 -0.12367330491542816 0.78863942623138428
-0.29421237111091614 -0.14019633829593658 0.79069936275482178
-0.1321551650762558 0.31694614887237549 0.79370474815368652
-0.15096919238567352 0.33091941475868225 0.79531967639923096
-0.16616925597190857 0.34775856137275696 0.79650139808654785
-0.1890442967414856 0.36252704262733459 0.78623104095458984
-0.20528039336204529 0.35684090852737427 0.77335870265960693
-0.22363406419754028 0.35062459111213684 0.75828778743743896
-0.22669091820716858 0.31401360034942627 0.74039506912231445
-0.20449182391166687 0.28686878085136414 0.73931050300598145
-0.17657768726348877 0.26427757740020752 0.73778700828552246
-0.34633171558380127 -0.027060996741056442 0.72485649585723877
-0.38478812575340271 -0.022629562765359879 0.71943414211273193
-0.42390468716621399 -0.024589281529188156 0.71292793750762939
-0.4577299952507019 -0.051325898617506027 0.72350573539733887
-0.45343682169914246 -0.069216698408126831 0.73975038528442383
-0.44968602061271667 -0.084935873746871948 0.7537083625793457
-0.42204326391220093 -0.091452896595001221 0.77055644989013672
-0.39631167054176331 -0.090164899826049805 0.7750701904296875
-0.37095579504966736 -0.092854887247085571 0.77901029586791992
-0.25875470042228699 0.34004446864128113 0.72112059593200684
-0.27399632334709167 0.33624318242073059 0.69952058792114258
-0.28831121325492859 0.33303734660148621 0.67671334743499756
-0.28232917189598083 0.288068026304245 0.6538548469543457
-0.25344967842102051 0.25071990489959717 0.6540834903717041
-0.21705940365791321 0.21937857568264008 0.65374720096588135
-0.32462781667709351 0.034736011177301407 0.64288079738616943
-0.37485620379447937 0.04225539043545723 0.63559496402740479
-0.42605933547019958 0.041211266070604324 0.62643003463745117
-0.47285249829292297 0.016060192137956619 0.63899195194244385
-0.46951940655708313 0.00043241307139396667 0.66225767135620117
-0.465963214635849 -0.015804622322320938 0.68445467948913574
-0.24973002076148987 0.37807577848434448 0.74073457717895508
-0.24967096745967865 0.41268199682235718 0.73975992202758789
-0.24210028350353241 0.44721773266792297 0.73788392543792725
-0.24186605215072632 0.4888509213924408 0.71517777442932129
