# XYZ point cloud file
0.25602584423035862 0.037080638564339914 0.73683989621975154
0.12113050866522568 -0.15266661053084005 0.78525939443105031
0.12108573849897589 -0.15121926948603892 0.79424470584980744
0.10823693469022938 -0.13974082584327566 0.7819065014563078
0.12087433548747797 -0.15421148265467649 0.77772395509209347
0.13723340784324201 -0.16290332165644442 0.78760979628375216
0.13731932802636923 -0.16109115047568578 0.79701364260330831
0.10789630198398431 -0.13881731568807643 0.79048488696631702
0.10794590552751326 -0.1404668052659932 0.7752534326508953
0.1370001992743054 -0.16510820811229704 0.77911362012304497
0.16508934767877467 0.014488223536960311 0.75271204960250815
0.15598950265585798 -0.00084955749769271421 0.7556150369896889
0.16760025136034504 0.019094506469617308 0.76036553956092168
0.17858046975290998 0.027723890139206071 0.75026368976962465
0.16008334030458884 0.010893785087899184 0.74684585022443573
0.14921670152300365 -0.0074000959147994747 0.74952434733450934
0.15944207560996854 0.0053121936442786302 0.7632671561086638
0.18009380743156631 0.031125155977413034 0.75801929954125946
0.1754247398126848 0.025594337406102265 0.74456145023616271
0.10292042193205264 -0.091169966865070812 0.77115180448048926
0.10128045770666619 -0.093618517959645597 0.77995875667502712
0.11192723134776839 -0.075736296321879698 0.76850962235986942
0.10234463746608433 -0.087234771607061307 0.7640217788150363
0.098730383242505104 -0.10797630191414526 0.77444128541035062
0.097631399749001035 -0.10901618843272629 0.78288796942210825
0.1094251142103766 -0.079695642965829899 0.77785648893674486
0.11297821011085668 -0.068989435145617062 0.76016506326815303
0.097926338101138599 -0.10610902406228978 0.7680812892039659
0.16167885990237157 -0.037663364235279988 0.76544651734161828
0.16616154076393225 -0.044968618930358327 0.76821667513014824
0.1636713658456489 -0.03276170917827511 0.77339541973005077
0.15574510507448044 -0.028032492860519308 0.76221212790513415
0.15888269923550163 -0.042740637025600318 0.75997641830216334
0.16296586983724001 -0.046890550337026625 0.76379635151005532
0.16782461638472773 -0.042084733750468582 0.7761107263745467
0.15875248937464281 -0.021530753121903605 0.7700731150596003
0.15074750829308026 -0.035810023252388211 0.75618164625742768
0.15134325045784369 -0.055232058076983136 0.76839632046245487
0.14924615715580325 -0.057279022317791799 0.77752459434896071
0.16141549691503479 -0.053034897596397616 0.76956305944288739
0.15349878750808113 -0.051891901930205313 0.7615112723439329
0.13812803248407302 -0.057974176577856328 0.76728041696859284
0.13512208837685044 -0.061694152518751953 0.77687608868026903
0.16101123663669822 -0.053666089862972437 0.77805253783766382
0.16053256589482548 -0.05102725295737303 0.76448520249019636
0.14138029101898875 -0.051732001531347514 0.75887602396124232
0.3117267728985037 -0.064737964737842629 0.74726053188870079
0.3191357009528793 -0.069871051675891666 0.73943427489866476
0.31242640512983622 -0.043730650551574206 0.74382690602337964
0.30748474541739784 -0.060850981670048841 0.7556411196929097
0.30746405281864625 -0.085571900047706206 0.75137283392842003
0.31464925211037131 -0.090632629275384874 0.74391957169871392
0.32015287584262109 -0.048103302524858831 0.73493647531013362
0.30812256769129404 -0.04007287271005424 0.75262875299953869
0.30330917650440314 -0.081779598904893197 0.75959639625362885
0.26824141751941416 -0.13856559441681807 0.76558085980746082
0.24876034875402575 -0.15182560010217755 0.77041748549743472
0.27600968560745265 -0.14308263484510772 0.75798851358253305
0.28540916779983488 -0.12301594908673671 0.7607110069142794
0.26371979166564735 -0.13515750642129612 0.77384729646420602
0.2444486673961121 -0.1481849359560185 0.77888940710620413
0.25586786605006523 -0.15723875377495947 0.762376469425743
0.29300558523609993 -0.12737447738880453 0.75327430900887726
0.28103129299102264 -0.11960272848266987 0.76891028888442792
0.29349002871392155 -0.052631820937722916 0.77837551367818747
0.29943248527362132 -0.055204972111244609 0.77147075439324309
0.29470500369016545 -0.033504643211468198 0.77577715472462394
0.28645224521630813 -0.049672326305133345 0.7847424940037252
0.28929664154407592 -0.072371697457929984 0.78197471886817804
0.29536343571634943 -0.075652017315090941 0.77519905064462036
0.30025125499866062 -0.035026154525940927 0.76877118043824266
0.28862255097489753 -0.032430278250559823 0.78202720854584951
0.28171081606082671 -0.068465465024233035 0.78831340536583716
0.25177031518031273 -0.12347258655809221 0.79522349290214545
0.23437260364674661 -0.13595143946725169 0.79999857976818078
0.25660064779728731 -0.12793189457203741 0.78896252917369658
0.26798720340241822 -0.10855431438378849 0.79060873838493173
0.24572179420701618 -0.11883546348662133 0.80098297029923193
0.23064538796051393 -0.13088350917189304 0.80505766841892068
0.23798355830822848 -0.1407564530951112 0.79401741466762299
0.27355108883609336 -0.11268761823697804 0.7841435811708759
0.26072202231318026 -0.10410494909197318 0.7966994762268933
0.17477477230019905 -0.024592458311850106 0.79766786749962082
0.17765508630769658 -0.036917585089298509 0.80138560946915505
0.1818269278441208 -0.022377485047436606 0.80327981249439628
0.17079755688610815 -0.011958829738394149 0.79356452037250658
0.16955996821899785 -0.026378401823344687 0.79051273018160706
0.17250277854140922 -0.037752986773863066 0.79386562145257589
0.18554820701914218 -0.036344315061078512 0.80769704449462698
0.17749534820225682 -0.010244810500268618 0.79889504050006444
0.16544502117891577 -0.013785450172657109 0.78661286565174682
0.15248891747661164 -0.062468645227064017 0.80429543146880611
0.15583384913223089 -0.06654935202868717 0.81125448875915174
0.16650096092073047 -0.055874439983910194 0.80470616987522314
0.14969657431892891 -0.060137051814866553 0.79629529338553195
0.13742256977747735 -0.068678935040677652 0.80346965736719744
0.14094456198108002 -0.072360062517889845 0.81000246491913386
0.17206342553809531 -0.059259350269974663 0.81185562322782556
0.16277235591025702 -0.054291083798998184 0.79669359564332087
0.13464517106544382 -0.066132343577005426 0.7956022892383583
0.17769282661993405 0.023944851289241127 0.7841341875001131
0.17106402719018787 0.01288563391714035 0.78655409184776959
0.18393405528073925 0.021458476650293941 0.79064254605851791
0.18799194360025229 0.033015680656720704 0.78230176140387575
0.17291233694396105 0.024547332689905839 0.77674375279318197
0.16580572433665863 0.012492967071921109 0.7794065390629189
0.17769281327943887 0.011634869993451598 0.79258377869139174
0.19299366731519296 0.029601374711163649 0.7887048169073424
0.18410894108176606 0.03455637062279477 0.77482108330281974
0.10667111569159249 -0.096753753705114437 0.80548622968288741
0.11400359923563486 -0.097381042888729813 0.81205230513354687
0.11316442420695397 -0.0855150956576195 0.80379758147588398
0.10194924562631125 -0.096056032834555077 0.79782042735106118
0.10452181343549291 -0.10883255880447384 0.80783048588222905
0.11192499319495014 -0.10816008371273084 0.8138964950541977
0.11950816671006773 -0.087245200686231372 0.81023165306174805
0.10910860183079005 -0.083867780406434195 0.79607382614508959
0.099464885269668041 -0.10929152846703177 0.80043662062656185
0.23665165768389146 0.040674822943003237 0.78197636659318992
0.21850602531027055 0.041603009333157005 0.78143446818687035
0.23515890058599176 0.035161459154651305 0.78930331924233466
0.25432997710567318 0.036868042355271143 0.7822598432864144
0.23670667244471144 0.043834938559410543 0.77374676548604837
0.21719325489824334 0.044479178061794723 0.77353407898097393
0.21926396352194671 0.036674178695651101 0.78817523662057687
0.25124301748175404 0.031077076534358684 0.78987639191900294
0.25556179484974895 0.040031700156605322 0.77385378615641742
0.12885425254629074 -0.14246240804920873 0.81860668969657291
0.13424047264769004 -0.13628905801666241 0.82370970265440635
0.1161125007473873 -0.13237373754604423 0.81482557295050995
0.12459157467692886 -0.14663997438925419 0.81172499087924921
0.14394386052833763 -0.15064836650326238 0.82130010115437246
0.14863644421497985 -0.14322236231224991 0.82620025790279183
0.12229003678946496 -0.12809176635686595 0.82002942718828753
0.11132817355173716 -0.13539957526273602 0.80786559188271645
0.14035939543653875 -0.15566392598214432 0.81454901171591221
0.28724541829971567 0.011719805370054494 0.77765292485609927
0.28020145450483802 0.022212436945236815 0.7799669144096133
0.28213015790809937 0.0070731237354782275 0.78482421017077053
0.29152875103062681 -0.00093994373629168598 0.77560116023704695
0.29119670613263671 0.013501116101554279 0.76971439495740213
0.28338017145687233 0.024686164897860415 0.7717228087588216
0.27538576190693692 0.01675809521674277 0.78747605099326257
0.28642985127326476 -0.0040783313795750217 0.78226010466203955
0.29605942542795083 -0.00012904881134028628 0.76806127159321258
0.18791932022240604 -0.15696508580897642 0.81591598446114899
0.19023861409616333 -0.14898513212905096 0.82007807978459535
0.17399987450346663 -0.15815939247478678 0.81997659346014296
0.18734929704324249 -0.16285704887267044 0.80989128795338694
0.20208919208852411 -0.15282382547637813 0.81067910661641907
0.20294206145808491 -0.14585884676685235 0.814805582940478
0.17730386596241898 -0.14982526609742283 0.82433920359793988
0.17226340200671492 -0.16403185015401101 0.81368435298142838
0.20284040690157487 -0.15842699693639123 0.8048526344804271
0.21263210811059047 0.0044482114362201022 0.80451151626801254
0.22426554734615731 -0.0042500054726718126 0.80683424888651134
0.22299969848450774 0.01648970105910922 0.80073866873615374
0.20161515187238532 0.011620128008855847 0.80092655481217379
0.20142376314436164 -0.0077187122972999442 0.80670908840154754
0.21008001127066259 -0.019791186031089945 0.81038206475836361
0.23628783682323057 0.010146707603311496 0.8022304092059096
0.21056415547269514 0.021262028506090748 0.79797324620261856
0.19312535623800148 0.0016088179011877549 0.80251267898061884
0.15082594081666148 -0.10055729833881666 0.82527895583502331
0.14567504146045207 -0.11487907010954945 0.82701315946851595
0.16696300034509365 -0.10159421159970358 0.82685315840204687
0.15530775554331483 -0.086072639106176352 0.82189764778492924
0.13632470497920274 -0.099317570317167897 0.82207956450860242
0.13263091764201457 -0.11115203684128067 0.82354520515447283
0.16054855412303248 -0.11851390293270919 0.82892730113759905
0.1728783492965652 -0.082990869822620328 0.82312580995132545
0.14046854354051785 -0.087866373511094581 0.81930082861191722
0.25936770725279856 -0.0310856864837789 0.8013062455574157
0.24892569642198575 -0.049996621892269159 0.80584878868666077
0.26942158443788 -0.038965531855615736 0.7963449200971856
0.26828157436674316 -0.014472185763195387 0.79652038026469685
0.24809361075384279 -0.022560501973274881 0.80518617699774786
0.23438461401820004 -0.041826002291653307 0.81011078336739761
0.2616098594147106 -0.057329527667326068 0.80043107431755978
0.27563454508995305 -0.023058869548089271 0.79238136223232702
0.25949850717618483 -0.0057580442750566271 0.79997344689445848
0.21392412987305937 -0.10826416733572095 0.818612517127285
0.22690001167336926 -0.11117777880511126 0.81281232083204724
0.22554713565538967 -0.089701458147665697 0.81474508499234566
0.19932701398561922 -0.10538700897561637 0.82337419026188752
0.20340320114054466 -0.12465551198075242 0.82126464294049639
0.21543183988637243 -0.12529699453514179 0.81569415874808959
0.23963275684638369 -0.094652941351563658 0.80894221697835234
0.20923817939170966 -0.084537066789270532 0.81947583282454683
0.19017115137930016 -0.1235070386427691 0.8258989072119014
0.1137789045953099 0.029537931591801299 0.7473123778537778
0.13452529708430999 0.01720624912764749 0.74458141164241565
0.14472055418494417 0.044054149608280503 0.748344449159423
0.090149183382691844 0.047729587933544378 0.7500918843501736
0.08657051575893579 0.01051523066911967 0.7458756786545041
0.11516414214816029 -0.003010025995693548 0.74512760641592379
0.15826850891640179 0.03233316152244687 0.74418479262417203
0.13043551583721857 0.062752861763441609 0.75222243791874832
0.052025227082304511 0.028818807496877354 0.74629137099131393
0.05639294337397855 -0.068007717385238142 0.76314126155867879
0.062025239785294874 -0.096500995420427949 0.77190029069934962
0.080353545919107705 -0.074863040966444583 0.76036651229614738
0.057200789502629974 -0.039409606677599095 0.7538262112520363
0.025125106096003942 -0.06282375381979638 0.76619060178854415
0.036108168576031947 -0.09760256354673158 0.77694861753990385
0.080866660174638422 -0.099211793470549037 0.76723683515563668
0.087307874933758356 -0.050356639777276689 0.75314496500759276
0.0188721832546783 -0.027552394321186856 0.7542250836786123
0.23638993763290966 0.051739836494120818 0.72776284556140369
0.23560251407308785 0.045390580697034673 0.73087653389073226
0.26254486453915749 0.04642797879054409 0.71661659825076174
0.23897575044236469 0.059978201552321038 0.71994841155056399
0.20761419652006491 0.054632757407863393 0.73855543397152135
0.21033312288612932 0.046077786406396627 0.73750955678264896
0.25915138561959122 0.041004706648086704 0.72368912290147158
0.267586086472687 0.052982170761011672 0.70472875769293719
0.20638381092492619 0.067719448954734335 0.73641967484564907
0.10874141973083704 -0.16512594738234757 0.77095910178125515
0.12842592804756864 -0.18139260512560962 0.76472487546353396
0.11496092039118455 -0.15956848685258457 0.77184190406496578
0.089659413278964872 -0.14579982155263976 0.77597520615485338
0.10109562746235976 -0.17427225554124576 0.76645295986476181
0.12322859935847325 -0.19222738174917325 0.75683257560611672
0.13277120878396309 -0.17367162166933689 0.76884221847662593
0.099459959793380515 -0.14231232145742334 0.77327884182341255
0.076014148648806845 -0.15382626702705915 0.7766375480510247
0.32268133286032252 0.022542540811672486 0.69584708650006477
0.31314106383693813 0.014334147938385063 0.70946891099121889
0.34104633907075066 0.012438299637956958 0.69290812258552914
0.33280755043860943 0.031986398140856138 0.67831552617948476
0.30489141775404016 0.031508654305383139 0.70021367147962421
0.29745216129514374 0.025162543019204432 0.71256830320732978
0.32898143284439674 0.0010665694243365345 0.70747691692584724
0.35280955009699122 0.024205856315297349 0.67463383936824384
0.31336728349485948 0.039291145441770238 0.6837792333930145
0.18505518684955491 -0.21113425882521586 0.75250898762128193
0.20537303840410953 -0.21788433186244296 0.75137411242149665
0.18918565369964122 -0.19613862507885071 0.75981511777104527
0.16633345274810679 -0.20378217951303501 0.7548853163072502
0.17935759599963244 -0.22854637326378938 0.74218624433223135
0.19837026221589926 -0.23796458949211211 0.74192151084624403
0.21102409496418861 -0.19919201785221111 0.757526551639502
0.16983822705570728 -0.19155219450058386 0.76237032194408361
0.16136595284421645 -0.21881938869611484 0.74436295961228505
0.42285047212315818 -0.022001290446965936 0.68301145383140494
0.40954057154600643 -0.041252096502306539 0.69857853885619869
0.4615191094236788 -0.035513981247633851 0.67709790711840578
0.4359660508323962 -0.0036383041443243322 0.66310138829952026
0.38985611300644607 -0.0097913673688257638 0.68726372979959371
0.37594364753969328 -0.027154645673582493 0.70258580931101555
0.44823883812611398 -0.056072068683101793 0.69346405471088446
0.47460928160004096 -0.015737790126415067 0.65637244059813826
0.40308826171716816 0.006710920624271817 0.66794471772154229
0.28664989354230042 -0.25305981838954777 0.75302437895898344
0.32218240796902531 -0.27181492324008366 0.75417652889203135
0.2990748137406779 -0.22865721911994019 0.75497876713878398
0.25547957372147567 -0.23781920100567344 0.75192848942092705
0.27384898723489276 -0.27865675376770438 0.74682817106744537
0.30778026504707257 -0.29866093311747455 0.74883935539857327
0.33605120233249597 -0.24633367930341626 0.75532712199570728
0.26569276198989322 -0.2142505575786173 0.75506592765358937
0.24468138422990882 -0.26208422425894579 0.74474055129062289
0.4629463630039542 0.039201650958395846 0.57109888062522562
0.46372880928383275 0.046674521050691177 0.53411574178169097
0.43014823446474248 0.045481199539678753 0.5766877194454576
0.45720522007370212 0.027737931451794547 0.60646460545151126
0.50123466316632714 0.030445529632199909 0.56375032511818557
0.50110011952007527 0.038508666241076024 0.526975973827158
0.43170274438633427 0.052317932731563925 0.5396757768594288
0.42416948559541157 0.035035621216871239 0.61206673585177052
0.49580923876087102 0.018114034795753332 0.5989910564603349
0.2308588823071786 -0.35451498812934878 0.69109101167964004
0.20634723655840137 -0.33427148939156537 0.68578510190805708
0.21611344452140646 -0.37339392659572379 0.66142343486766819
0.26055079769465844 -0.37773455023133173 0.69665897246678576
0.24580909144914936 -0.33087328069420652 0.71599297233757941
0.21991593053931424 -0.31154705169871411 0.7117290946002669
0.19298701614273692 -0.35275030267362389 0.65554834732044165
0.24436607736228344 -0.39690551934310614 0.66776208632248202
0.27681145925472972 -0.3532836910735806 0.72033749605170216
0.35751709506138873 0.058591431301448262 0.58927378881199977
0.36088461778292807 0.063999338575313813 0.55277687665966402
0.33743854463178768 0.062537935068971456 0.59499773271461209
0.35112692653537836 0.050892687170793628 0.62439552128137232
0.37856361216040224 0.054574979287161825 0.58497881010921671
0.38129143154300227 0.060376167347135586 0.54837366039243929
0.34177874442687095 0.067514013427578901 0.55813227350506389
0.3305392178808651 0.055643944284337811 0.63049424670448351
0.37236179149953863 0.046052895210956436 0.62011083167332504
0.15287702068123457 -0.28883642283028016 0.67579416792917846
0.13813709737137964 -0.2758725114223497 0.67595770465027849
0.14285229836182214 -0.30616419170570086 0.64488636915183273
0.16844381626460692 -0.30210106471884868 0.67768706752656782
0.16288213239651855 -0.26870276583288288 0.70380065398077174
0.14691425482941528 -0.25615168346327144 0.70479287578052996
0.12931159321527985 -0.29324970150039487 0.64451046918777577
0.15738807490560561 -0.31969768887423311 0.64696872888236268
0.17955435232308187 -0.28123699575642791 0.70508417336084417
0.27097827302741234 0.078928420922361464 0.62659569360228629
0.25160149805341009 0.09324574826093826 0.63567405561924528
0.25728055110436709 0.074457911916822078 0.66853757285166704
0.29360028282406031 0.071073337939742964 0.61471648734539841
0.28243221426628207 0.081743634326837816 0.58326377953373243
0.26747735206108092 0.095399255709972292 0.58876071471377966
0.23014501617910266 0.088743545436793886 0.68386422756462628
0.28390528847074081 0.065957964750750608 0.65305791590430773
0.30178052609025313 0.074704219576231606 0.57444332945061782
0.08770495378129825 -0.23240546182041641 0.69110752912144024
0.090229483361333962 -0.20933283539649283 0.72619208138327007
0.06418848714679784 -0.22518508347947819 0.69714020901933116
0.0851457898650404 -0.2533813624037175 0.65373708013170106
0.10685116700678887 -0.24611077413465177 0.6843173207187716
0.1121868246006858 -0.22570714710816028 0.71635833693789142
0.06258484073576176 -0.19598180053191475 0.73682511464946543
0.064719756533415995 -0.24907827631860946 0.65700079861737137
0.10168036612522893 -0.26514736837648828 0.64958428384237799
0.72617320978676347 -0.25027672602104706 0.67272917278846367
0.72263561896208073 -0.24500658580228404 0.67505240760326635
0.71849558558014859 -0.27087780084537805 0.68178000346631129
0.7281568957958271 -0.25513827138905332 0.6684359319076455
0.73424081828400878 -0.23273017513935251 0.66378967384293897
0.73229875599328587 -0.2255254827040141 0.66402772099447116
0.71421692804727022 -0.26666731678525857 0.68507917374721083
0.72074421096575136 -0.27498407163580757 0.6768881485202346
0.73559879280203622 -0.23854520760288042 0.66052454114755454
0.68013169275369445 -0.32816514802820873 0.71192034842119778
0.69487040516058696 -0.31084488263734489 0.70180168614899541
0.67432050575719171 -0.32674522775347198 0.7159566645852512
0.6681992433477163 -0.34444717007768189 0.72044665969562394
0.68379087910483138 -0.33018834520045548 0.70641428902271808
0.69785088039039933 -0.31371259017982134 0.69641616375276005
0.68979927661783313 -0.30797677778942373 0.70562415450225191
0.66112208095620928 -0.34593149650440802 0.72491957757453462
0.6726018993359868 -0.34510688021627545 0.71480147495538093
0.77797531720084345 -0.22549878338375792 0.638204346160131
0.7846198047306856 -0.21970213032363858 0.63223834100344811
0.76032935407894797 -0.21988589220408247 0.64624420928679327
0.77443075006371087 -0.23062645930998626 0.63821458717971002
0.79526237894162988 -0.23599035129002349 0.63140086062981093
0.80346834740242989 -0.23127983048213627 0.62471051036347014
0.76403575733874729 -0.21235892045084184 0.64184943178129306
0.75872565185942364 -0.22585108566982057 0.64532592856657178
0.79020275054227984 -0.24040889868848497 0.63199770707964076
0.68302834758306852 -0.3860514211352849 0.72399410964106004
0.66932930456421447 -0.37378905832449438 0.72675419998152013
0.68069397922287322 -0.39542574321240653 0.72691240086337749
0.70080983379171613 -0.39568075529088831 0.71855781084142911
0.68468205408383165 -0.38239129880375888 0.71907661125003763
0.67267808116675232 -0.37137819823756268 0.72143499109845233
0.6641479103307435 -0.38128756149984683 0.73061209362334589
0.7001645203328084 -0.40592201672737926 0.72097963015956623
0.70103553409946096 -0.39116969437904114 0.71389944510427628
0.8270898719680011 -0.27981709953591521 0.62178358656575816
0.83601872922000819 -0.2765329580943196 0.61564772515745281
0.82055187638985139 -0.26436109845129252 0.62307575170264573
0.82022779950399038 -0.28286267110269814 0.6224723826792905
0.83034079035738273 -0.29530606307160795 0.62218636717754416
0.83886151508623241 -0.29244209315495828 0.61669706355675036
0.8296221414689855 -0.26072870701137446 0.61646867458975663
0.81386713180899473 -0.26777700621617384 0.62395640385151374
0.82359197545332696 -0.29795793473338295 0.62256436934161952
0.75363736158961681 -0.40395705875620935 0.69289297839083364
0.73755068416659164 -0.40465200835880633 0.70239746725681695
0.75485756521322389 -0.41368796174730038 0.69507597558032563
0.76805957348458898 -0.40055536104207767 0.68315091074975598
0.75148635921745977 -0.39904490174149115 0.68856543823941085
0.73590326118756222 -0.39955958395832575 0.69798166065981326
0.73841157772910626 -0.41488220009178989 0.70458393479810133
0.76956772099158322 -0.40953206304123974 0.68524714024924926
0.7655538484571105 -0.39604059383110268 0.67898061474859728
0.82597400779343244 -0.33662263425141947 0.63188156572668863
0.83248492861955226 -0.33666581087472702 0.62864010953097327
0.82932556174605465 -0.32394217469172354 0.62742478795348378
0.82039640355631938 -0.33726179747886564 0.63125656820199505
0.82116323094599508 -0.34840419121966038 0.63727482077255537
0.82686846053805518 -0.34986825958558776 0.63484767092236816
0.83658476540895954 -0.32271988338110691 0.62341455989148453
0.82328219583929885 -0.32539992479768276 0.62712806930211096
0.81608809284336292 -0.3481619556866305 0.63627040776298682
0.80064789785885215 -0.37941363298728392 0.65721267668200622
0.79148377039448214 -0.38788148453917592 0.66508386780614248
0.80381977141716399 -0.38509430752523521 0.6575795245074787
0.80847022806625146 -0.36984926368130017 0.65000763103119297
0.79703884803127822 -0.37672905213231822 0.65446552161188565
0.78829661105998028 -0.38451731909707459 0.66171358548784887
0.79392619541881937 -0.39479370929474361 0.66628155120638233
0.81246882902285478 -0.37419615276613338 0.64942616360646166
0.80439898380316754 -0.36791185324977516 0.64792058923530726
0.80249047755586744 -0.34253932835294942 0.61182812186818403
0.80924958504283939 -0.34091545421544356 0.62008869355608087
0.80499508458288438 -0.33165833138038164 0.60761169800125514
0.79428885918022618 -0.342061582493635 0.60426239338903265
0.79865737981671592 -0.35258303206457187 0.61668973861111953
0.80539409256910766 -0.35098593367392517 0.62491609838554285
0.81174119311483761 -0.32990622755498011 0.61599545464210537
0.79697022362367309 -0.33105460206196713 0.5998295117594854
0.79031884507289119 -0.3524620570221435 0.60927657940263602
0.78081961387137633 -0.37916122103425232 0.63300659141288407
0.77252581269759557 -0.38653090075639746 0.6392019055388668
0.78759054272438034 -0.37751600845522515 0.64141466850982076
0.78781482502654554 -0.37090628916050766 0.62731433339232345
0.77175076360929751 -0.38015323485099417 0.62601124271263531
0.76338439890446308 -0.38781940799128867 0.63213275986368833
0.77923888343233083 -0.38483242574262094 0.64783821973582623
0.7945671048222438 -0.36928091914802463 0.63560864814660323
0.77900559695838112 -0.37158291285304684 0.62021577785074922
0.80243009819979572 -0.29295889734755443 0.60144111522900179
0.80852352846358233 -0.28978135308711878 0.61081321502783026
0.79735154403335773 -0.27934449070542117 0.60241929723365972
0.79589898955922433 -0.29450579444399727 0.59257882776103366
0.80520793671467394 -0.30664210011162674 0.6021572027187686
0.81166380529541349 -0.30409831548425836 0.61117296522638853
0.80287780739258729 -0.27548738477781148 0.61192645769634424
0.79176621588556051 -0.28211287644757771 0.59399594838609837
0.79796913554470272 -0.30708006456326664 0.59353864611336005
0.73854804607225222 -0.40093908295067349 0.66212724250889798
0.72490424149737165 -0.40181438713112039 0.67052157227825471
0.74404660166768644 -0.39876298683610023 0.67232620736266568
0.75129045678215689 -0.39777180900019554 0.65385788659559729
0.73170233261837181 -0.40302455280745381 0.65320914656786377
0.7198542867551555 -0.40368006272856166 0.66130972231746876
0.72949772884970576 -0.39953023910606056 0.68113653841768351
0.7574176871531707 -0.39578074222909509 0.66346176814780844
0.7431755872528869 -0.39969596876233421 0.64567233718238159
0.76711620998418628 -0.24688140980019394 0.61360016974975784
0.76953523946144542 -0.24092274203658706 0.62442392416137715
0.75501253920765476 -0.24320274147630355 0.6197146960197496
0.7656592843779807 -0.25374590426128318 0.6027751660928925
0.77913952194892222 -0.25517042371584792 0.60863460557699367
0.78276292518923984 -0.24986491342605821 0.61888647787842221
0.75628556132529601 -0.23677537567268664 0.63081561402279562
0.75497112587384574 -0.25100041295484299 0.60828159994615272
0.77617346398872955 -0.26072151220121415 0.59920351072452793
0.68306535475555963 -0.38900960923688943 0.68939972733482191
0.67420437099452168 -0.37986405580646132 0.69156646159632107
0.68419650095947893 -0.38522992236029152 0.70135097553231729
0.69593496685606127 -0.3958521147480949 0.68479736440302919
0.6832689876873147 -0.39306629408113136 0.67716003664015023
0.67592037262670035 -0.38468558128143526 0.67875462180866153
0.67422329667305125 -0.37555784030984163 0.70365566549019198
0.69825715201176475 -0.39274795561614317 0.69631674459312864
0.69455915777778188 -0.39871651625620974 0.67385366381341372
0.72924024652356079 -0.27205241803334451 0.64042078582335171
0.72886342584250285 -0.26552875160502915 0.65190309516604394
0.7220002798048224 -0.29084003940158309 0.64823271414064609
0.73137088008031226 -0.28015291880698173 0.62848256235492972
0.73614032861151313 -0.25620590400762588 0.6332523278022768
0.73599655561537114 -0.249515617522889 0.64460836301702507
0.72152321947426801 -0.2845926575114463 0.65983784874280171
0.72434039697726749 -0.29847822796470957 0.63614208325500121
0.7379072466193568 -0.26457316698066347 0.62145883321596362
0.68740161394773391 -0.34282315934296004 0.67671325465452958
0.70040030119491847 -0.32737613620177303 0.66691879687957534
0.68634257181797331 -0.33745485241953382 0.68864312915588854
0.67677966399469613 -0.35660943675998913 0.68499396540721569
0.69063914475957011 -0.34904620262073249 0.66398596341895977
0.70332444202337951 -0.33402670884012986 0.65441674351173562
0.6995705370928107 -0.32172783084738171 0.67875058449722903
0.67567809942286239 -0.35154185360284806 0.69700237665672227
0.68006334123104639 -0.36240764006997461 0.67210276465752294
0.75834133071976761 -0.31665290372739507 0.601883309816729
0.75292900132233798 -0.33098331420783755 0.60820387030288925
0.7715990203534957 -0.32890376363199336 0.5986648754170929
0.76266838271815818 -0.30348570112042839 0.59622006410909911
0.7461041831519849 -0.30315772347349468 0.6082996136018618
0.74002656212600071 -0.31920339443568679 0.61520052349348986
0.76680964581263389 -0.34153924716938511 0.60443158487475512
0.77519932117816626 -0.31670583258380303 0.59350404514219468
0.75128856812463152 -0.28895936117649229 0.60205533481104068
0.72678070784132465 -0.37002139989386895 0.63043063196292015
0.74391160583170868 -0.37571411185373305 0.62426727255948844
0.73676416536047218 -0.35831967851068486 0.62281121438705367
0.71062891113133553 -0.36315288833867421 0.63983556962881094
0.71725179690749263 -0.38028162405697197 0.63737577858823258
0.73489306203348137 -0.38484937817834541 0.63078949370026205
0.75272140752733985 -0.36535843361998971 0.61745629110710709
0.72178426554067432 -0.35005505669833453 0.63138893227187165
0.70059859674669744 -0.37468333151094041 0.64725065265819925
0.7731343304478222 -0.28170526118949979 0.58552745968631559
0.7701478864274125 -0.28546623817468225 0.5868742486659867
0.77998017872000913 -0.28741685735718453 0.58385677871074559
0.76932400731991579 -0.27257399552232175 0.58733800728933061
0.76238117337643851 -0.27288944775625029 0.59110608579381674
0.77977814712695082 -0.29638090673983397 0.58532484723132738
0.77744376595258258 -0.27721562038108527 0.58609388201877821
0.70334659730784355 -0.399700640765148 0.64944466490708708
0.71180192591567515 -0.40268354107091464 0.64692616615724963
0.70472321576864561 -0.39608938382584563 0.64658004809366609
0.69439629756961441 -0.3992676541700968 0.65554950392438505
0.70307719687499359 -0.40294942631948993 0.65451931789806506
0.71913458933494323 -0.39890761615756742 0.64150394272694677
0.6913535286591046 -0.39299613257814259 0.6551963162950063
-0.086656019535214263 0.22158088779296115 0.76074429633203833
-0.088893827414025073 0.20860847606934618 0.75657005844847869
-0.068070286800020974 0.22070284927744899 0.75845185475862542
-0.085354483835688222 0.23069546005457181 0.7639987412653545
-0.10574734267411764 0.22396781417192668 0.76315203139605658
-0.10957608260215804 0.21116282781363449 0.7593240547953708
-0.068707175084109368 0.20761497362860082 0.75404597657550521
-0.067785970248772198 0.229590921988585 0.76193410730666811
-0.10333646363223412 0.23331290272808292 0.76618554774040215
-0.24997592238709104 -0.056629592780817646 0.76343729327132892
-0.23760389369565654 -0.068059404249867478 0.76364553469890584
-0.23906609628707062 -0.047199135650843708 0.75943271379498989
-0.26410984623950978 -0.04583187594736985 0.7633375064031438
-0.25781883378330067 -0.063098960148367494 0.76636721731060853
-0.24583758651504084 -0.073686627701276375 0.76683165924219088
-0.22561613782404197 -0.059636466766496095 0.75934919456299355
-0.25431657778834071 -0.03542618767069524 0.75979663362916539
-0.27150636289112556 -0.053200959159867035 0.76599248600365011
-0.1653575216039391 0.24083600241680725 0.76944537167810123
-0.17385662462701457 0.2283502696718232 0.76723586635804764
-0.1452641806655483 0.23351347481200257 0.76755335467143138
-0.15933444383337897 0.25067628444223966 0.77165553013272925
-0.18529249920932234 0.25000027636426714 0.77124713714492654
-0.19517879092976184 0.23773876946808559 0.76967898962933512
-0.15225124222066036 0.22093138214406105 0.76473022170031091
-0.14047349593712702 0.24326023421245146 0.77007395880455332
-0.17802587746393092 0.25977970977243942 0.7731214713156972
-0.31733057122263686 -0.018190823957566486 0.76161343430040496
-0.2978098033986839 -0.026450317622270327 0.76254007872054008
-0.3107417367680102 -0.0049597367556899405 0.76021858658256614
-0.3385246174622597 -0.011216043267712118 0.76033321840704238
-0.32298324519613297 -0.02825126725771638 0.7631563746574811
-0.30413824705981429 -0.035655131069103042 0.76450003243804798
-0.29017211981090807 -0.014105915142085181 0.76034906764561871
-0.33304219510756994 0.0027195558680987511 0.75973095082600606
-0.34333840629787776 -0.022028745221045316 0.761455356725389
-0.24084199695967037 0.28927065013349673 0.77672153935352162
-0.25371207594084255 0.27933561994246164 0.77688796219300138
-0.22353904308185768 0.27427746723813551 0.77493125545974328
-0.22994452081509911 0.29740073242569509 0.77754973828551299
-0.25596666695499237 0.305866595792117 0.77823966382334764
-0.26961208675238779 0.29724271666021251 0.77883501556811208
-0.23559123448216768 0.26326621311821718 0.77457891236800358
-0.21380065238163673 0.28321465252540723 0.77608856148913841
-0.24403873656975417 0.31298123975949699 0.77881783105497171
-0.41073332794482853 -0.00048953783293628067 0.75419904675516736
-0.38561444623419805 -0.0021059256715352734 0.75671258427119681
-0.40945889329736174 0.013687242580340313 0.75534362317281434
-0.43597381254737766 -0.0011961178338159503 0.75098967002303407
-0.41165967528856329 -0.01251515700031363 0.75434796057709319
-0.38805193058140763 -0.013926353217538497 0.75709651055967175
-0.38275524034364738 0.012300053431713358 0.75742862361988816
-0.43647914893262579 0.012576600550145152 0.75236508132358881
-0.43527684703357972 -0.013223502425238003 0.75106069377247286
-0.014500503462348012 0.22775089293084061 0.75301138645133658
-0.01029229039910156 0.21524119056040825 0.74852350599512674
0.0055068027817254186 0.235960081310292 0.74964478369101739
-0.016598571234330221 0.23605385229125109 0.75746520829580977
-0.032596251683695059 0.22324160253623238 0.75496737848879514
-0.029989153704031983 0.21033123007117949 0.75047380814630404
0.011242902690414482 0.22411113700798146 0.7449984725467198
0.0026044756530675464 0.24398363792384931 0.75457354920139519
-0.033970473774518249 0.23174391826978036 0.75903013341089098
-0.21111537172525616 -0.10703275641698037 0.76637387676795954
-0.20664792096460902 -0.12524507396576057 0.76680040081861955
-0.19665115577827835 -0.10206477379844134 0.76232449230451838
-0.21800834567613436 -0.092499640017099233 0.76530216091328729
-0.22021004913899994 -0.11065556935587301 0.77041746508971254
-0.21593999979815817 -0.12811747837103157 0.7711259352248645
-0.19187065039723558 -0.12168174650459315 0.76292387040924958
-0.20417405349294901 -0.086278290586267237 0.76103737882354516
-0.22686409777863822 -0.096748913626433591 0.76904501888240828
0.085259127148373914 0.29164993534067479 0.72378550072774506
0.094724006801528843 0.2836446440913496 0.71656033329072855
0.11262909069184432 0.31817118534166694 0.71198506818105445
0.078650207283118501 0.29785678201882293 0.73072919990285545
0.05626904308459283 0.26809362995246577 0.73485943635501894
0.064665950016133567 0.25851005968125318 0.72882941201504459
0.12295951589768606 0.31195301666302855 0.70346829561134472
0.10466759592559474 0.32343197631040471 0.71968619873241324
0.051076000151263019 0.27508798134394191 0.74105322397139273
-0.21143760941784878 -0.21333508597758977 0.75910278820558785
-0.22025499887816163 -0.24837472738785998 0.75375972904875044
-0.19834490376394787 -0.21512390406851359 0.75438866446149289
-0.20645628027393895 -0.17911174966645363 0.76329199897615141
-0.22104108278594012 -0.21225923462939711 0.76398588980152615
-0.22969061886439951 -0.24566288081545296 0.75878831013031167
-0.20849018855236703 -0.25210614285901872 0.74840008194305652
-0.1923621528600668 -0.17896272127973353 0.75910223110945707
-0.21603920560626688 -0.17961679406907777 0.76803263703919289
0.15886133358892823 0.40237675723693239 0.68367624424268725
0.17039604956170443 0.40214573957290889 0.67234232730203147
0.16166170047246864 0.43174226200190496 0.67739333608037544
0.14879962664142918 0.40400366566778451 0.69315425586880053
0.15043239031847963 0.37402287790288613 0.69139106651771587
0.16180729689562698 0.37174107819488222 0.68070919498828752
0.1731138842649092 0.43357262194129287 0.66575214748142808
0.15157953392659892 0.43188307047111546 0.68709131296680426
0.14068631546618898 0.37699034625174738 0.70041907968463957
-0.27262384661320371 -0.33204066903185669 0.73366351171361044
-0.29873367793714262 -0.35196211499341629 0.72523553481479308
-0.26602512415889118 -0.34062313040073566 0.72651060897821496
-0.25074792670842388 -0.30876886617105059 0.74101940924397214
-0.27975883539964042 -0.32547993311970436 0.73940164534818886
-0.30449459052133071 -0.34450959419909971 0.73120554393972814
-0.29410767145235278 -0.36170201370561439 0.71768741944201686
-0.24228574977217893 -0.31595724165457634 0.73438062544069382
-0.25897415122297385 -0.30326105357003175 0.74648625412222869
0.14560328795971414 0.5288265843548422 0.66553838580660851
0.15540722676689259 0.53657898157827155 0.65528663583887914
0.13353235961728915 0.56011467455016295 0.66452116131036698
0.13661479173773236 0.52364789849792404 0.67404453535791053
0.15443554545642837 0.49568401544691287 0.66825674249873035
0.16500228438017928 0.5015436369983981 0.65719773884323285
0.14241369865744866 0.56961680570230444 0.65525572631244855
0.1251807699809411 0.55313508743016759 0.67224748772590381
0.14493260251131329 0.49236988447803154 0.67743754031832049
-0.39929906574011464 -0.39915613482545165 0.69159826344734143
-0.4355754711287575 -0.40926686512644661 0.67935080606988607
-0.40094608263089659 -0.41088182859933731 0.6837336573558157
-0.36310848524478712 -0.38555475942416478 0.70391712651011218
-0.3996063081898541 -0.38958033540093018 0.69762596496129992
-0.43391538415409858 -0.39921389875592433 0.68533677726522868
-0.43928525390449352 -0.42119632331394602 0.67151267209146048
-0.36264401452860817 -0.39686137069812449 0.69603922242791549
-0.36538372690735166 -0.37660010820453527 0.71001500061258538
0.080348376437224756 0.62568598483577087 0.67420479587332038
0.085913184906280582 0.63915171797108228 0.66787007861007575
0.059109270249790076 0.6376430210259677 0.68052082234264466
0.074453621904518097 0.61474139328092448 0.680058976751577
0.1003939646676138 0.60920968040801682 0.66900191918821261
0.10711112290825642 0.62161549716546671 0.66174185634689786
0.063537130693416405 0.65184130040984911 0.67509946025295775
0.054159556709739272 0.62598983485734316 0.68589655816034734
0.093606099422448297 0.59928522406148799 0.67536792681719748
-0.52765006659343761 -0.41049352108226017 0.65082290407367926
-0.55115460308735897 -0.40257008374300196 0.6445700783668864
-0.53670014268075172 -0.42195268939828301 0.64255801771702958
-0.50064815739106405 -0.41493278460624056 0.65859961236158693
-0.52111170547918861 -0.40024305924880987 0.65755206272618283
-0.54346842514172844 -0.39267377531369058 0.65166722625591456
-0.56148909855072315 -0.41356629760586427 0.63618424333191492
-0.50812026794201304 -0.42671262211366956 0.65054338237405562
-0.4955032419743568 -0.40452897194860366 0.66494679928616618
-0.0051595644711627461 0.6511867128230201 0.70093022317165077
-0.0037468471172834791 0.66522077029198423 0.69830236670478629
-0.028157539418265286 0.64649349107999809 0.7089773129453929
-0.0070456839059351781 0.63931813755733358 0.70466168502565973
0.016412738704589959 0.65058721374516415 0.69390567436756978
0.018814149555064504 0.66506537934843712 0.69039294983233868
-0.027910076217985878 0.65976895379813794 0.70700173216352424
-0.028857008332029858 0.63514032813827948 0.71234390277094128
0.013452617128658702 0.63847972732742764 0.69818287456345063
-0.60164252561058951 -0.36598001447231454 0.63434025512637504
-0.6111990007054281 -0.34787127789251526 0.63547813033386447
-0.61358429202424125 -0.37476715409148509 0.62696346731097841
-0.58823745609277467 -0.38037217980243804 0.63600782020800839
-0.59205251596050668 -0.3582493454413252 0.64161154218163619
-0.60140433848243102 -0.34129209661379339 0.64270885715562864
-0.62315503534596495 -0.35545553785146983 0.62855242887554708
-0.59998990349454662 -0.39006921263576322 0.62810633033643404
-0.57904082252597255 -0.37172642690010516 0.64336278255142054
-0.11264286079430033 0.5939839965322149 0.74312812985430554
-0.11809560509479122 0.60371554852562026 0.7407434265240157
-0.14302382537328981 0.56876695701935776 0.75485213076982705
-0.10879106024033627 0.58552592436739737 0.74741076934441963
-0.082257295318395179 0.6170958059529108 0.73054699264469058
-0.085459577920112106 0.62814021800630915 0.72861445000068747
-0.15083645707409957 0.57718585317026816 0.75209556131706434
-0.13747815951637951 0.56146471027254119 0.75960548752386603
-0.080066944675217383 0.60750985062334173 0.73425817628983514
-0.61519989347718695 -0.2633821629905298 0.66090950595805031
-0.61098032694665194 -0.22964739785320099 0.67287485644050926
-0.62728800723708122 -0.26502740136425917 0.65343054624719221
-0.61749624588951513 -0.29593804296408421 0.6493598706094087
-0.60550094522737241 -0.26182054308785285 0.66927381532512964
-0.60135976642274369 -0.22995223830787453 0.68160420181697157
-0.62329259445779595 -0.22896471885761283 0.66507204548338694
-0.62945640086126819 -0.2998852602005142 0.6423333171411808
-0.60769975988569136 -0.29250453579813196 0.65719027780944661
-0.21908369242365169 0.50338283025441533 0.77212476940328889
-0.23301470096314278 0.50871083892323976 0.77111695152326953
-0.23776900832123909 0.48590124860615536 0.77300375350453188
-0.20906057961661709 0.49887430448026393 0.77550593685070202
-0.19707302994139106 0.52252395948333319 0.76955796946198518
-0.20922446968259964 0.52872785699722491 0.76748738752596979
-0.25319447238553877 0.49041671370405104 0.77315059890028737
-0.22658550972553487 0.482125330650231 0.77535246846950745
-0.1883895952382188 0.51722096170612719 0.77386287710082424
-0.59769327041135256 -0.14275020633948005 0.69451410883820341
-0.59292376153862836 -0.12023710085181158 0.69775545805564299
-0.611245533808637 -0.13684148943974286 0.68890271262267633
-0.60188890228493697 -0.16828206524667619 0.69007917750387815
-0.58771722179842489 -0.14728876858428108 0.70138534199156854
-0.58278007781785368 -0.12573922231452972 0.7033769446914242
-0.60682321030211694 -0.11318437163094547 0.6935732408917199
-0.61498576771510849 -0.16375600358766135 0.68320158360662053
-0.59211706283863674 -0.1716796373509924 0.6980556090379072
-0.27418003008530356 0.43638642203611 0.7754389501896175
-0.29218945167998078 0.43816389705804487 0.7771082490607093
-0.28020399286305414 0.41932538711513384 0.77680104737065392
-0.26075456446170497 0.43493786516890959 0.77632204794533011
-0.26521955998728858 0.45294460826686977 0.77420666623324452
-0.28270366877919073 0.45573484979341078 0.77576648552325844
-0.29837780757364529 0.41995188474404788 0.77836930151051587
-0.26643276869893939 0.4188266211443103 0.77768575289664221
-0.25233203121026559 0.45065479974807088 0.77524116649108199
-0.56947674402781889 -0.067623777351724423 0.71074527022711242
-0.55743435131322638 -0.053839729654856901 0.71673327354582195
-0.58272515146868398 -0.057777011921742512 0.70942686466905158
-0.57924124378419406 -0.08302459173891813 0.70540968175464358
-0.55988373642194855 -0.075568044932088879 0.71393148752620017
-0.54849237720735999 -0.062539107109580078 0.71950364935196354
-0.56971849176768552 -0.043212998422657987 0.71589644991125478
-0.5930606730991993 -0.074040886258008948 0.70345334430989104
-0.56923855895513942 -0.090191013296545303 0.70912392084771669
-0.28202984067503023 0.36265827109581317 0.77962672061528804
-0.29849144488034884 0.35881388933632224 0.78084203252119855
-0.27679125216622169 0.34296382840567247 0.77974043261384507
-0.26826675304750763 0.36587926942625493 0.78025900420484062
-0.28417011055835306 0.38233850739951375 0.77904446610072042
-0.30151045260813203 0.38012855479535723 0.78034006523957289
-0.29225098584941739 0.33745228587123344 0.78084674958469991
-0.26341081294568169 0.34756770328584641 0.78023554054723099
-0.27022628746472793 0.38419775587005128 0.77983612048781292
-0.50579560569353199 -0.019186995689260668 0.73592764928410359
-0.48404057575988857 -0.010661837924709226 0.74179419483019138
-0.51272654348921742 -0.0068030001463154008 0.73659862404951015
-0.52552910104826389 -0.029562719645289205 0.72960253671139008
-0.50029347245140876 -0.030033072036524798 0.73708073312356803
-0.48006304691594903 -0.022077215682479383 0.74239215998936614
-0.48872771802450354 0.0021810695814586875 0.74290559883691998
-0.53458646020611944 -0.017678025986614158 0.72974267263110049
-0.51865583929212256 -0.039733737647041419 0.73136856769162839
-0.23909585418060703 0.37302387087761313 0.77736534829917248
-0.24723740272033981 0.37095428401400737 0.77981283055795569
-0.23458521939415466 0.35781980476545144 0.77602261825785412
-0.23190426972797529 0.37490698295560271 0.77402889284691201
-0.24135126180199662 0.38816151976594093 0.77827170357881204
-0.24943621165980753 0.38705340546390071 0.78017971802832409
-0.24258724177192145 0.35483221624620609 0.77901460363813513
-0.22754750056401152 0.36054930079073511 0.7720775104288996
-0.23419075951942506 0.3891406627117272 0.77553285505667269
-0.48872655448631352 -0.052860017485643958 0.73567488450490104
-0.47150342048353677 -0.046344044515989398 0.73877397694519997
-0.49203507521225753 -0.046702773990861084 0.73763326051779554
-0.50442921424534937 -0.060693903474703333 0.73224522397096914
-0.48574693055042339 -0.058146630280594212 0.73282348149980259
-0.46937492962531313 -0.05197516982188307 0.73506814737060555
-0.47390414332241926 -0.039790708001714949 0.74154370257226909
-0.50855935287998799 -0.055075380402022721 0.73338123910610942
-0.5006658506701599 -0.065490863876789485 0.73025238250674307
-0.23445293079925233 0.43136911208627504 0.77642078224970845
-0.24182826107952224 0.43250372052327546 0.77763840264439033
-0.23906267275130477 0.41733074891635719 0.77764990063856931
-0.22791189916213669 0.43026727795279385 0.77445271280209738
-0.22745456119867663 0.445354192085746 0.77535258519865358
-0.23439587805338333 0.44696064578053019 0.7766649839336045
-0.24674717109086108 0.41786726876445024 0.77891009963837798
-0.23224117468470942 0.41677047930723021 0.77564114617571012
-0.22132356369538378 0.4438443579390835 0.77322972162841319
-0.5404676472183918 -0.090798781631687614 0.71904928450435002
-0.5302959139329857 -0.079604795179938848 0.72372257650768845
-0.54617935649734828 -0.086848576930091986 0.71876236201295396
-0.54913250508299349 -0.1035420215925931 0.71488765419149636
-0.53521372154997793 -0.094072121273623216 0.718484659334929
-0.52536488067053266 -0.08336793152854749 0.72293629428366379
-0.53565280389234082 -0.075119540103882554 0.72368694756248964
-0.55501444579321935 -0.10015469823224737 0.71453794075431798
-0.54374283894903841 -0.10629259518299447 0.71429483311565722
-0.19139335060295132 0.48952724032106443 0.77671751269153178
-0.19599908393676477 0.49206496284538015 0.77876223540920642
-0.20606073864047464 0.47409547986597134 0.7760204627220656
-0.18755594525593758 0.48733577196988287 0.77320250803844781
-0.17379312223139387 0.50625891314980076 0.77549542643623282
-0.17743261230648283 0.50920703911081766 0.77782079974861107
-0.21159551404781995 0.47634172411483955 0.77778172665363188
-0.20130968262040963 0.47210609671892434 0.77306874614515464
-0.17088972133493083 0.5037347451084826 0.77144834482011782
-0.56849683367832904 -0.1538969821285924 0.70921536913617356
-0.56294409213823282 -0.13485227703965427 0.7104576024589021
-0.57385560519086509 -0.15266538962295229 0.7094815605397129
-0.57335413360836052 -0.17544598077654547 0.70653272073981721
-0.56376727902616475 -0.15454514824712881 0.70722220811569803
-0.55788935908520842 -0.13630188633546086 0.70907285927019692
-0.56858308727499574 -0.13280759998310901 0.71043897231615372
-0.57851690803948197 -0.17511886149183722 0.70705989050329299
-0.56884713724574076 -0.17521573773240878 0.70399526657234257
-0.10308840120879262 0.56616436286790761 0.74784679845597735
-0.1043122353414917 0.57181281986511767 0.75069225128416306
-0.12894231953835431 0.54539851228107983 0.76081549055066422
-0.10226998562023804 0.56099775016989528 0.74320510528568273
