# XYZ point cloud file
0.34724938869476318 -0.43010842800140381 0.70244336128234863
0.37549805641174316 -0.48021930456161499 0.68034887313842773
0.44475984573364258 -0.4916779100894928 0.70823204517364502
0.46286290884017944 -0.46499314904212952 0.72616851329803467
0.36548817157745361 -0.40438011288642883 0.72325038909912109
0.32820010185241699 -0.44952109456062317 0.67564189434051514
0.42439979314804077 -0.51118576526641846 0.68380928039550781
0.25581127405166626 0.20987007021903992 0.60417628288269043
0.27488738298416138 0.20760354399681091 0.56187176704406738
0.26916706562042236 0.26391443610191345 0.58328104019165039
0.23163945972919464 0.21361419558525085 0.64550065994262695
0.24552802741527557 0.16125383973121643 0.62339019775390625
0.26556313037872314 0.16090893745422363 0.5768505334854126
0.28740179538726807 0.26069813966751099 0.54490220546722412
0.24679727852344513 0.268657386302948 0.62022054195404053
0.21811716258525848 0.16108545660972595 0.67145776748657227
-0.038398310542106628 -0.29593029618263245 0.68255722522735596
-0.082227557897567749 -0.34024238586425781 0.67178225517272949
-0.030119925737380981 -0.31672036647796631 0.64765024185180664
0.0021934211254119873 -0.25704973936080933 0.69209885597229004
-0.051386266946792603 -0.27301028370857239 0.71525919437408447
-0.095709562301635742 -0.32027611136436462 0.7000809907913208
-0.072928711771965027 -0.3587760329246521 0.64094758033752441
0.0085657387971878052 -0.28084936738014221 0.65307497978210449
-0.008156314492225647 -0.22792792320251465 0.73072338104248047
0.29508346319198608 0.43177667260169983 0.5424729585647583
0.3115202784538269 0.42741715908050537 0.51208013296127319
0.29465377330780029 0.48644071817398071 0.53662395477294922
0.27491438388824463 0.43468505144119263 0.57185673713684082
0.29075896739959717 0.37640276551246643 0.55127215385437012
0.30765914916992188 0.37223568558692932 0.51898348331451416
0.31080842018127441 0.48247885704040527 0.50727725028991699
0.27480483055114746 0.48803591728210449 0.56479644775390625
0.27007973194122314 0.38012421131134033 0.58263754844665527
-0.2244446873664856 -0.4617038369178772 0.64494824409484863
-0.27493536472320557 -0.49325460195541382 0.63531458377838135
-0.21360105276107788 -0.47561666369438171 0.62293910980224609
-0.1756393164396286 -0.42561879754066467 0.65305233001708984
-0.23629379272460938 -0.44455856084823608 0.66459119319915771
-0.28580170869827271 -0.47628208994865417 0.65363669395446777
-0.26419746875762939 -0.50646597146987915 0.6144944429397583
-0.16516059637069702 -0.44076976180076599 0.62889552116394043
-0.18810646235942841 -0.40784338116645813 0.67496395111083984
0.26130431890487671 0.64404153823852539 0.52710163593292236
0.27765887975692749 0.64714449644088745 0.49600896239280701
0.23783190548419952 0.69144517183303833 0.53186988830566406
0.24184267222881317 0.63702070713043213 0.55696868896484375
0.27821582555770874 0.59324407577514648 0.52820682525634766
0.29448807239532471 0.5930514931678772 0.49816608428955078
0.25381791591644287 0.69827818870544434 0.5002521276473999
0.2191503643989563 0.68048328161239624 0.56220293045043945
0.25853300094604492 0.589832603931427 0.55697333812713623
-0.43771535158157349 -0.55883544683456421 0.58427155017852783
-0.49426311254501343 -0.56858289241790771 0.56519889831542969
-0.4321402907371521 -0.57422345876693726 0.56072425842285156
-0.38182723522186279 -0.54236781597137451 0.60434353351593018
-0.44156926870346069 -0.53906077146530151 0.60586142539978027
-0.49440979957580566 -0.54769307374954224 0.58889055252075195
-0.49190664291381836 -0.58515697717666626 0.53986978530883789
-0.37367945909500122 -0.55647307634353638 0.5825275182723999
-0.38876199722290039 -0.5239141583442688 0.62386763095855713
0.12639373540878296 0.80065995454788208 0.60235607624053955
0.13579438626766205 0.81759434938430786 0.57807576656341553
0.083185911178588867 0.82149636745452881 0.63635683059692383
0.11609059572219849 0.77901929616928101 0.62349426746368408
0.16890902817249298 0.77108895778656006 0.57044374942779541
0.18139749765396118 0.78517836332321167 0.54235208034515381
0.089131653308868408 0.84034806489944458 0.61593425273895264
0.076945260167121887 0.79782021045684814 0.65267443656921387
0.15486583113670349 0.75248467922210693 0.59628283977508545
-0.65805196762084961 -0.5503271222114563 0.5400768518447876
-0.70233088731765747 -0.53161400556564331 0.54243719577789307
-0.6673768162727356 -0.56564855575561523 0.51384258270263672
-0.60643130540847778 -0.56392651796340942 0.54222416877746582
-0.64467889070510864 -0.53118187189102173 0.56445491313934326
-0.68509525060653687 -0.51481622457504272 0.56567835807800293
-0.71495574712753296 -0.5447772741317749 0.51689994335174561
-0.61184096336364746 -0.58063668012619019 0.51549005508422852
-0.59763062000274658 -0.54321008920669556 0.56740224361419678
-0.022809281945228577 0.82024520635604858 0.71008944511413574
-0.025771453976631165 0.83721625804901123 0.69318962097167969
-0.055624350905418396 0.80061328411102295 0.72498154640197754
-0.019158706068992615 0.79899901151657104 0.72086119651794434
0.0087304264307022095 0.83125901222229004 0.69163572788238525
0.0082292109727859497 0.8499521017074585 0.6751096248626709
-0.060354933142662048 0.81564521789550781 0.70692884922027588
-0.049954965710639954 0.78174763917922974 0.73657453060150146
0.0097110271453857422 0.80795139074325562 0.70251059532165527
-0.76526558399200439 -0.45918780565261841 0.56471502780914307
-0.76807689666748047 -0.42720544338226318 0.57534253597259521
-0.78028690814971924 -0.46305733919143677 0.53862512111663818
-0.75577390193939209 -0.48604685068130493 0.55552411079406738
-0.74530190229415894 -0.4522479772567749 0.58699512481689453
-0.74930429458618164 -0.42341363430023193 0.59811925888061523
-0.78208184242248535 -0.42821753025054932 0.54832541942596436
-0.77123528718948364 -0.49318796396255493 0.53015875816345215
-0.73525786399841309 -0.47562780976295471 0.5775679349899292
-0.19302774965763092 0.70593476295471191 0.76499521732330322
-0.19824166595935822 0.71937721967697144 0.74393701553344727
-0.24887236952781677 0.66992300748825073 0.77732670307159424
-0.18491210043430328 0.69017118215560913 0.77909445762634277
-0.1402779221534729 0.7414318323135376 0.75176799297332764
-0.14592285454273224 0.75456380844116211 0.73138177394866943
-0.25381714105606079 0.68400245904922485 0.75583648681640625
-0.24004732072353363 0.65398991107940674 0.79178190231323242
-0.13260647654533386 0.72547727823257446 0.76530706882476807
-0.7693932056427002 -0.28762638568878174 0.61308979988098145
-0.77234190702438354 -0.23257061839103699 0.62613630294799805
-0.78138583898544312 -0.28592139482498169 0.58429932594299316
-0.76806503534317017 -0.3406519889831543 0.59991931915283203
-0.75255000591278076 -0.288278728723526 0.63693273067474365
-0.75505763292312622 -0.23385825753211975 0.65003120899200439
-0.78449887037277222 -0.23097175359725952 0.59720265865325928
-0.78030818700790405 -0.33895111083984375 0.5714561939239502
-0.75114274024963379 -0.34059303998947144 0.62357544898986816
-0.40716040134429932 0.58013087511062622 0.80365133285522461
-0.41681969165802002 0.59461104869842529 0.78164041042327881
-0.44973582029342651 0.5547218918800354 0.80828022956848145
-0.3908545970916748 0.56482213735580444 0.81848287582397461
-0.35828673839569092 0.60662096738815308 0.79694950580596924
-0.36542826890945435 0.62141436338424683 0.77504217624664307
-0.46218031644821167 0.5684388279914856 0.78616595268249512
-0.42995619773864746 0.54044777154922485 0.82320737838745117
-0.34533101320266724 0.59071654081344604 0.81171262264251709
-0.7929646372795105 -0.085298545658588409 0.66029298305511475
-0.79759645462036133 -0.045336484909057617 0.67077934741973877
-0.80776464939117432 -0.079727530479431152 0.63151633739471436
-0.78529292345046997 -0.1297716498374939 0.64972734451293945
-0.77191567420959473 -0.092366993427276611 0.68371522426605225
-0.77537643909454346 -0.05533868819475174 0.69373631477355957
-0.81328475475311279 -0.037259563803672791 0.64232146739959717
-0.79900640249252319 -0.12635508179664612 0.62080240249633789
-0.76570379734039307 -0.13417896628379822 0.67342507839202881
-0.52292948961257935 0.46929687261581421 0.81014037132263184
-0.54075276851654053 0.47820651531219482 0.78729462623596191
-0.52621209621429443 0.43652313947677612 0.80770742893218994
-0.49691438674926758 0.46085825562477112 0.82602608203887939
-0.5087662935256958 0.50007390975952148 0.81132006645202637
-0.52553588151931763 0.51090162992477417 0.78878653049468994
-0.54438459873199463 0.44348087906837463 0.78455233573913574
-0.50004208087921143 0.43045836687088013 0.82404410839080811
-0.48386132717132568 0.48932743072509766 0.82677602767944336
-0.76717990636825562 0.04790215939283371 0.70622766017913818
-0.7389904260635376 0.069438531994819641 0.71866738796234131
-0.78182440996170044 0.062254294753074646 0.68009161949157715
-0.78622949123382568 0.021382927894592285 0.69373869895935059
-0.74629318714141846 0.030672408640384674 0.72632348537445068
-0.72005343437194824 0.050944097340106964 0.73762023448944092
-0.75223255157470703 0.084866635501384735 0.69350099563598633
-0.8018878698348999 0.034081630408763885 0.6666419506072998
-0.7640073299407959 0.0060682371258735657 0.71498477458953857
-0.47128045558929443 0.32961881160736084 0.79664731025695801
-0.48682218790054321 0.33242589235305786 0.77309095859527588
-0.4422728419303894 0.29441273212432861 0.79227042198181152
-0.44982606172561646 0.32899388670921326 0.81383836269378662
-0.49819082021713257 0.36591356992721558 0.80072414875030518
-0.51505172252655029 0.36970466375350952 0.77717971801757812
-0.45647734403610229 0.29666352272033691 0.76883697509765625
-0.4229997992515564 0.29470488429069519 0.80947625637054443
-0.47454375028610229 0.3638908863067627 0.81775343418121338
-0.60251814126968384 0.1032862588763237 0.75053679943084717
-0.55000782012939453 0.10864406079053879 0.75807809829711914
-0.61125779151916504 0.11780387908220291 0.72717547416687012
-0.65450549125671387 0.096293039619922638 0.74124777317047119
-0.5909348726272583 0.085664458572864532 0.76735472679138184
-0.54039710760116577 0.09229625016450882 0.7745593786239624
-0.55779135227203369 0.12195124477148056 0.73503053188323975
-0.66459822654724121 0.11173219233751297 0.71748995780944824
-0.64048916101455688 0.077691718935966492 0.75853061676025391
-0.38658517599105835 0.2066112756729126 0.77832698822021484
-0.39946085214614868 0.21013396978378296 0.756050705909729
-0.3833916187286377 0.18337255716323853 0.77442550659179688
-0.36922270059585571 0.20547768473625183 0.79474711418151855
-0.39747649431228638 0.23251426219940186 0.78287303447723389
-0.41021716594696045 0.23501008749008179 0.76014506816864014
-0.39690285921096802 0.18879827857017517 0.752480149269104
-0.36398023366928101 0.17835363745689392 0.79070210456848145
-0.38062936067581177 0.23299872875213623 0.79961371421813965
-0.4292449951171875 0.13308361172676086 0.76840853691101074
-0.40474659204483032 0.14656859636306763 0.7697296142578125
-0.43835532665252686 0.14309227466583252 0.74647831916809082
-0.46134108304977417 0.12242764979600906 0.76667976379394531
-0.41882336139678955 0.1199953481554985 0.7840578556060791
-0.38919329643249512 0.13490411639213562 0.78557026386260986
-0.41623353958129883 0.15548092126846313 0.74797689914703369
-0.46914184093475342 0.13343203067779541 0.74437510967254639
-0.45296698808670044 0.10831815749406815 0.78251385688781738
-0.37157529592514038 0.33977746963500977 0.81086969375610352
-0.34599316120147705 0.34576115012168884 0.79899990558624268
-0.38448923826217651 0.36802035570144653 0.81261467933654785
-0.39822793006896973 0.33445367217063904 0.82003474235534668
-0.35589414834976196 0.31142467260360718 0.80850589275360107
-0.3343198299407959 0.31997546553611755 0.79762649536132812
-0.35460776090621948 0.37144848704338074 0.79978013038635254
-0.41567152738571167 0.36522829532623291 0.8227461576461792
-0.37832808494567871 0.30365169048309326 0.81670796871185303
-0.55035120248794556 0.031603559851646423 0.76458358764648438
-0.58582180738449097 0.020931459963321686 0.75679862499237061
-0.53764474391937256 0.015427649021148682 0.75325274467468262
-0.51285380125045776 0.040888823568820953 0.7713090181350708
-0.56392419338226318 0.048794768750667572 0.77337634563446045
-0.60493189096450806 0.038908429443836212 0.76532208919525146
-0.56765294075012207 0.0042114779353141785 0.74573194980621338
-0.50545907020568848 0.025024347007274628 0.75990808010101318
-0.52114057540893555 0.057477116584777832 0.78016781806945801
-0.38980460166931152 0.44365453720092773 0.81467592716217041
-0.35329818725585938 0.4405176043510437 0.79957354068756104
-0.37899649143218994 0.46573144197463989 0.8139578104019165
-0.42790532112121582 0.44788250327110291 0.82719945907592773
-0.39445221424102783 0.4202614426612854 0.81456947326660156
-0.35873258113861084 0.4190601110458374 0.80006790161132812
-0.342914879322052 0.46094009280204773 0.79848504066467285
-0.41657006740570068 0.47184604406356812 0.82694685459136963
-0.43176543712615967 0.42233175039291382 0.82642984390258789
-0.66066867113113403 -0.023371651768684387 0.73175883293151855
-0.67407739162445068 -0.043050169944763184 0.72350788116455078
-0.63167226314544678 -0.039386838674545288 0.72243309020996094
-0.6418309211730957 -0.0062613114714622498 0.74009871482849121
-0.69111472368240356 -0.0060180649161338806 0.73828065395355225
-0.70589298009872437 -0.027089014649391174 0.72912979125976562
-0.64385032653808594 -0.057861320674419403 0.71499013900756836
-0.6151961088180542 -0.023063227534294128 0.73006033897399902
-0.66973364353179932 0.011970914900302887 0.74745404720306396
-0.31158620119094849 0.52873939275741577 0.80492317676544189
-0.27816522121429443 0.55206412076950073 0.79879999160766602
-0.34125953912734985 0.5384947657585144 0.81780433654785156
-0.33967924118041992 0.5074385404586792 0.80930960178375244
-0.28249984979629517 0.52068066596984863 0.79011929035186768
-0.25288426876068115 0.54304534196853638 0.78459274768829346
-0.30374306440353394 0.56274443864822388 0.81128239631652832
-0.37285757064819336 0.51625299453735352 0.82246100902557373
-0.30744564533233643 0.50027376413345337 0.79401612281799316
-0.68774467706680298 -0.11975324153900146 0.69938647747039795
-0.7173846960067749 -0.11002548784017563 0.70258474349975586
-0.68724238872528076 -0.15312293171882629 0.69057726860046387
-0.65953981876373291 -0.12924882769584656 0.69354236125946045
-0.68665528297424316 -0.090782672166824341 0.70751368999481201
-0.71787667274475098 -0.078680433332920074 0.71143054962158203
-0.71489542722702026 -0.14610150456428528 0.69316244125366211
-0.6608511209487915 -0.16014927625656128 0.6855170726776123
-0.65701377391815186 -0.10233304649591446 0.70078563690185547
-0.15104867517948151 0.64264267683029175 0.76818311214447021
-0.10720399022102356 0.6735575795173645 0.75508344173431396
-0.16306455433368683 0.65766942501068115 0.7793349027633667
-0.1962306946516037 0.60996288061141968 0.78025257587432861
-0.13956217467784882 0.62871497869491577 0.75548768043518066
-0.099859640002250671 0.65744698047637939 0.74300932884216309
-0.11536015570163727 0.6906011700630188 0.76563382148742676
-0.21268679201602936 0.62321442365646362 0.79187202453613281
-0.18005076050758362 0.59803837537765503 0.76708841323852539
-0.68790102005004883 -0.28253874182701111 0.6569066047668457
-0.71034705638885498 -0.28555402159690857 0.65820407867431641
-0.68801021575927734 -0.32728102803230286 0.64482033252716064
-0.6664280891418457 -0.27919313311576843 0.65321075916290283
-0.68709737062454224 -0.23605155944824219 0.66913342475891113
-0.7109026312828064 -0.2355378270149231 0.67085695266723633
-0.70969164371490479 -0.33361053466796875 0.64543592929840088
-0.66734403371810913 -0.32037895917892456 0.64175760746002197
-0.6642952561378479 -0.23649579286575317 0.66505801677703857
-0.0091055482625961304 0.72761088609695435 0.7149355411529541
0.015367612242698669 0.73092985153198242 0.70119559764862061
-0.011922284960746765 0.75127321481704712 0.72198975086212158
-0.035969898104667664 0.71733957529067993 0.72829651832580566
-0.0071384459733963013 0.70531237125396729 0.70693397521972656
0.016905099153518677 0.70727944374084473 0.69547879695892334
0.013285502791404724 0.75622189044952393 0.7060849666595459
-0.039640247821807861 0.73888170719146729 0.73691534996032715
-0.033311188220977783 0.69687694311141968 0.71848785877227783
-0.67450881004333496 -0.41875284910202026 0.6173546314239502
-0.69830256700515747 -0.43130612373352051 0.61290359497070312
-0.66204261779785156 -0.43602582812309265 0.61258387565612793
-0.65224993228912354 -0.40602964162826538 0.61964285373687744
-0.68230724334716797 -0.39625877141952515 0.62448751926422119
-0.70489364862442017 -0.40737390518188477 0.62221193313598633
-0.68671673536300659 -0.44972974061965942 0.60577714443206787
-0.63902020454406738 -0.42259734869003296 0.61735224723815918
-0.66105657815933228 -0.38462728261947632 0.62444460391998291
0.096062570810317993 0.70451563596725464 0.65619885921478271
0.12414680421352386 0.68415725231170654 0.64242815971374512
0.10047493875026703 0.72939056158065796 0.65017151832580566
0.06747967004776001 0.71908986568450928 0.67138075828552246
0.092548072338104248 0.68115943670272827 0.6600571870803833
0.11789500713348389 0.66188907623291016 0.64959919452667236
0.13175639510154724 0.7075965404510498 0.63242042064666748
0.068923488259315491 0.74497348070144653 0.66952919960021973
0.066413044929504395 0.69495373964309692 0.67175507545471191
-0.5883069634437561 -0.47400811314582825 0.61464738845825195
-0.60858553647994995 -0.49169802665710449 0.60187625885009766
-0.55271756649017334 -0.48127096891403198 0.62082362174987793
-0.56886774301528931 -0.45779186487197876 0.62501740455627441
-0.618999183177948 -0.46322751045227051 0.61115157604217529
-0.64195126295089722 -0.47942659258842468 0.6000056266784668
-0.56985008716583252 -0.50045883655548096 0.60695827007293701
-0.53588956594467163 -0.46376961469650269 0.63211023807525635
-0.59734797477722168 -0.44817942380905151 0.62011826038360596
0.19035190343856812 0.58956867456436157 0.62003183364868164
0.20405285060405731 0.54985302686691284 0.61937892436981201
0.20514187216758728 0.60881483554840088 0.60388171672821045
0.17226359248161316 0.62604540586471558 0.62389445304870605
0.1773533821105957 0.57027405500411987 0.63316547870635986
0.18963463604450226 0.53202301263809204 0.63316655158996582
0.22017335891723633 0.56732594966888428 0.60291087627410889
0.18524086475372314 0.64666593074798584 0.60871231555938721
0.16109532117843628 0.60576844215393066 0.6358039379119873
-0.42607486248016357 -0.47133120894432068 0.65361642837524414
-0.43555128574371338 -0.49383208155632019 0.64053559303283691
-0.38118207454681396 -0.45722347497940063 0.66702520847320557
-0.41566795110702515 -0.4503498375415802 0.66473376750946045
-0.47049510478973389 -0.48032987117767334 0.64082348346710205
-0.48212951421737671 -0.50206810235977173 0.62688028812408447
-0.38841539621353149 -0.47991660237312317 0.65503299236297607
-0.3728298544883728 -0.43588519096374512 0.67742490768432617
-0.45823317766189575 -0.46027517318725586 0.65242159366607666
0.21569815278053284 0.42292964458465576 0.63451802730560303
0.20857891440391541 0.37948477268218994 0.64613509178161621
0.23388712108135223 0.43001663684844971 0.61831629276275635
0.21706561744213104 0.46585512161254883 0.62651908397674561
0.19911521673202515 0.41536387801170349 0.64796411991119385
0.19124636054039001 0.37704849243164062 0.6584089994430542
0.2276180237531662 0.38162717223167419 0.63064277172088623
0.23469348251819611 0.47729557752609253 0.61007153987884521
0.20101402699947357 0.45383867621421814 0.64048409461975098
-0.2556297779083252 -0.38787007331848145 0.70319855213165283
-0.25238361954689026 -0.40644866228103638 0.69356250762939453
-0.21872988343238831 -0.35553795099258423 0.71452760696411133
-0.25789201259613037 -0.37083271145820618 0.71108293533325195
-0.29517900943756104 -0.415413498878479 0.69195008277893066
-0.29623866081237793 -0.43608683347702026 0.68169021606445312
-0.21034635603427887 -0.37167981266975403 0.70570206642150879
-0.22632278501987457 -0.34125706553459167 0.72110819816589355
-0.29299157857894897 -0.39607381820678711 0.70076656341552734
0.1509920209646225 0.24860894680023193 0.70433318614959717
0.12320505082607269 0.20931926369667053 0.72535026073455811
0.17719529569149017 0.23345273733139038 0.69643533229827881
0.17558665573596954 0.2913355827331543 0.6822202205657959
0.12783193588256836 0.26336786150932312 0.70782577991485596
0.097826540470123291 0.23042136430740356 0.72474515438079834
0.15380649268627167 0.18563568592071533 0.72344577312469482
0.19844184815883636 0.28270745277404785 0.67046380043029785
0.15485638380050659 0.30013459920883179 0.6894460916519165
-0.12732709944248199 -0.23009341955184937 0.75330328941345215
-0.097410231828689575 -0.23880952596664429 0.75094759464263916
-0.10601764917373657 -0.18494877219200134 0.76455891132354736
-0.15571731328964233 -0.22437870502471924 0.75219297409057617
-0.15391974151134491 -0.27540877461433411 0.74008965492248535
-0.13270483911037445 -0.2868078351020813 0.73449313640594482
-0.064551547169685364 -0.18988838791847229 0.76727545261383057
-0.1422954648733139 -0.18264409899711609 0.76015222072601318
-0.17472216486930847 -0.26678037643432617 0.7421189546585083
0.025484547019004822 0.13987991213798523 0.74803948402404785
0.0092639923095703125 0.17148956656455994 0.74613618850708008
-0.0084331780672073364 0.13027471303939819 0.74579918384552002
0.045104175806045532 0.10580424219369888 0.75010049343109131
0.059602826833724976 0.15454813838005066 0.74759972095489502
0.037591442465782166 0.1840718686580658 0.74409687519073486
-0.018240541219711304 0.16436895728111267 0.74592709541320801
0.0030538886785507202 0.091509230434894562 0.74589121341705322
0.087211340665817261 0.12175720185041428 0.75129282474517822
-0.10081204771995544 -0.077406622469425201 0.76344120502471924
-0.11373679339885712 -0.050917327404022217 0.75596833229064941
-0.14149093627929688 -0.087909601628780365 0.76088893413543701
-0.092842608690261841 -0.10769835859537125 0.7694932222366333
-0.055771872401237488 -0.067717552185058594 0.76603353023529053
-0.069590538740158081 -0.033467762172222137 0.75508284568786621
-0.15248464047908783 -0.066643334925174713 0.75644373893737793
-0.13536214828491211 -0.11349599808454514 0.76424360275268555
-0.043864414095878601 -0.1036825031042099 0.77522599697113037
-0.30836188793182373 0.23455455899238586 0.79714250564575195
-0.32379591464996338 0.25830882787704468 0.80159640312194824
-0.32865220308303833 0.21982255578041077 0.80322015285491943
-0.29212647676467896 0.21270647644996643 0.79225623607635498
-0.28942298889160156 0.25018545985221863 0.788948655128479
-0.30572181940078735 0.27157056331634521 0.79259347915649414
-0.34258490800857544 0.24632304906845093 0.80810248851776123
-0.31608551740646362 0.19334757328033447 0.798514723777771
-0.27131533622741699 0.23116874694824219 0.78473770618438721
-0.40758514404296875 0.063595905900001526 0.78083550930023193
-0.40729844570159912 0.084308020770549774 0.78920471668243408
-0.44063091278076172 0.056981630623340607 0.77952611446380615
-0.4093431830406189 0.043576896190643311 0.77045536041259766
-0.37587124109268188 0.06843835860490799 0.78071689605712891
-0.37348467111587524 0.094457097351551056 0.789794921875
-0.44212877750396729 0.074777796864509583 0.78793585300445557
-0.44049447774887085 0.039346769452095032 0.76865673065185547
-0.37927263975143433 0.045196130871772766 0.77079987525939941
-0.22191815078258514 0.16762673854827881 0.77359557151794434
-0.24900352954864502 0.17926642298698425 0.78036713600158691
-0.24159832298755646 0.14158633351325989 0.77684736251831055
-0.19363740086555481 0.15779915452003479 0.76685404777526855
-0.2035839855670929 0.19110289216041565 0.77008414268493652
-0.22825078666210175 0.20171603560447693 0.77517974376678467
-0.27279776334762573 0.1538948118686676 0.7852790355682373
-0.2108091413974762 0.13064244389533997 0.76878821849822998
-0.17769226431846619 0.18250700831413269 0.76492512226104736
-0.28650909662246704 0.056400947272777557 0.77015435695648193
-0.2746347188949585 0.084696531295776367 0.7750774621963501
-0.31539392471313477 0.064927347004413605 0.77511072158813477
-0.29676222801208496 0.030650720000267029 0.7651669979095459
-0.25871375203132629 0.04575163871049881 0.76483261585235596
-0.24404890835285187 0.073410972952842712 0.76776313781738281
-0.30697041749954224 0.095040209591388702 0.78252816200256348
-0.32294690608978271 0.038629904389381409 0.76790738105773926
-0.27179884910583496 0.020473837852478027 0.76196169853210449
-0.10549812018871307 0.13360929489135742 0.74877774715423584
-0.074206635355949402 0.12800014019012451 0.74509882926940918
-0.098408207297325134 0.16445541381835938 0.7505335807800293
-0.13546118140220642 0.14083904027938843 0.75405323505401611
-0.11549358069896698 0.09955335408449173 0.74787497520446777
-0.078213930130004883 0.088855229318141937 0.74357926845550537
-0.071895837783813477 0.16171905398368835 0.7472914457321167
-0.1248222142457962 0.16918858885765076 0.75486230850219727
-0.14884169399738312 0.1100243553519249 0.75395011901855469
-0.1792885959148407 0.0065935477614402771 0.75056374073028564
-0.20394726097583771 -0.017211988568305969 0.75288236141204834
-0.15404510498046875 -0.0094112902879714966 0.74867522716522217
-0.15341769158840179 0.034274250268936157 0.74883294105529785
-0.20520663261413574 0.020772688090801239 0.75444638729095459
-0.22524119913578033 -0.003681182861328125 0.75535225868225098
-0.1844736635684967 -0.032047078013420105 0.75181722640991211
-0.11956906318664551 0.017679788172245026 0.74553525447845459
-0.18455472588539124 0.048544660210609436 0.75416696071624756
0.87548148632049561 -0.32893508672714233 0.58603250980377197
0.86366367340087891 -0.3270721435546875 0.60178232192993164
0.86511075496673584 -0.35099434852600098 0.59858369827270508
0.88740205764770508 -0.33210963010787964 0.5681387186050415
0.88397336006164551 -0.30738011002540588 0.5746147632598877
0.87038743495941162 -0.30850329995155334 0.5930323600769043
0.85519659519195557 -0.34564414620399475 0.61163520812988281
0.87514758110046387 -0.35762870311737061 0.58352267742156982
0.89765638113021851 -0.30755740404129028 0.55384945869445801
0.82547187805175781 -0.41456931829452515 0.63823163509368896
0.83976680040359497 -0.39439278841018677 0.6250770092010498
0.822304368019104 -0.39789736270904541 0.64449751377105713
0.81065714359283447 -0.43292632699012756 0.65094554424285889
0.82873415946960449 -0.43256601691246033 0.62993645668029785
0.84538173675537109 -0.40859657526016235 0.61491286754608154
0.83428585529327393 -0.38145148754119873 0.63327407836914062
0.8095058798789978 -0.41276213526725769 0.65570437908172607
0.81181526184082031 -0.45454347133636475 0.64408671855926514
0.8951224684715271 -0.25036239624023438 0.55200541019439697
0.87653064727783203 -0.25575929880142212 0.57682955265045166
0.89429247379302979 -0.26801896095275879 0.55719447135925293
0.91404688358306885 -0.24573299288749695 0.52386128902435303
0.89207977056503296 -0.23351079225540161 0.54957759380340576
0.87182676792144775 -0.23932799696922302 0.57587015628814697
0.87735557556152344 -0.27271589636802673 0.5802229642868042
0.91142618656158447 -0.26433649659156799 0.53121840953826904
0.91288018226623535 -0.22823387384414673 0.51956617832183838
0.76614940166473389 -0.4712337851524353 0.68406152725219727
0.78115350008010864 -0.46176764369010925 0.67391324043273926
0.76706087589263916 -0.4432445764541626 0.6872408390045166
0.74999922513961792 -0.47684371471405029 0.69355833530426025
0.76463663578033447 -0.50158625841140747 0.67880547046661377
0.77988362312316895 -0.48958414793014526 0.66850185394287109
0.78205317258834839 -0.4359288215637207 0.67719995975494385
0.75057470798492432 -0.4470057487487793 0.69676315784454346
0.74865388870239258 -0.50947213172912598 0.68831634521484375
0.85447788238525391 -0.1847083568572998 0.56083774566650391
0.82890403270721436 -0.19343233108520508 0.59008657932281494
0.8714214563369751 -0.2005842924118042 0.55425035953521729
0.88139086961746216 -0.17674446105957031 0.5270683765411377
0.83500510454177856 -0.17003455758094788 0.56915915012359619
0.80717593431472778 -0.18129405379295349 0.5999000072479248
0.84776103496551514 -0.20775088667869568 0.58254134654998779
0.8963477611541748 -0.19383475184440613 0.52144157886505127
0.86346328258514404 -0.16037777066230774 0.5346754789352417
0.68922030925750732 -0.46781048178672791 0.7194211483001709
0.71131360530853271 -0.47483572363853455 0.71131443977355957
0.68923890590667725 -0.43271413445472717 0.72158360481262207
0.66686201095581055 -0.45811539888381958 0.72657406330108643
0.68891513347625732 -0.50644594430923462 0.71494698524475098
0.71082693338394165 -0.51158857345581055 0.70638895034790039
0.71116864681243896 -0.44174349308013916 0.71411895751953125
0.66779482364654541 -0.42011886835098267 0.72779417037963867
0.66612923145294189 -0.49844050407409668 0.72270667552947998
0.61945855617523193 -0.077289320528507233 0.63918423652648926
0.56529343128204346 -0.059810541570186615 0.65296268463134766
0.60463690757751465 -0.098999239504337311 0.65909218788146973
0.67134857177734375 -0.094429038465023041 0.62504172325134277
0.63345324993133545 -0.056474529206752777 0.61554920673370361
0.5787091851234436 -0.038624025881290436 0.63036656379699707
0.55121219158172607 -0.081716336309909821 0.6716010570526123
0.65536463260650635 -0.11556614190340042 0.64638423919677734
0.68648737668991089 -0.074469871819019318 0.60014796257019043
0.46352541446685791 -0.34476745128631592 0.74914216995239258
0.47820287942886353 -0.31587573885917664 0.74834203720092773
0.41561472415924072 -0.31663027405738831 0.7504425048828125
0.44790148735046387 -0.37475919723510742 0.74619841575622559
0.50945097208023071 -0.37206673622131348 0.74731886386871338
0.52330732345581055 -0.34203135967254639 0.74598729610443115
0.43056237697601318 -0.28872710466384888 0.75029385089874268
0.39970815181732178 -0.34575682878494263 0.7467191219329834
0.49483323097229004 -0.40313464403152466 0.74500274658203125
0.77622699737548828 -0.13436004519462585 0.59280693531036377
0.79658889770507812 -0.14527413249015808 0.5852895975112915
0.79954969882965088 -0.11897092312574387 0.56208908557891846
0.75050437450408936 -0.12299271672964096 0.60147440433502197
0.75308406352996826 -0.15212222933769226 0.61998569965362549
0.76999950408935547 -0.16136971116065979 0.61504602432250977
0.82316434383392334 -0.13175725936889648 0.55238473415374756
0.7704734206199646 -0.10584121197462082 0.57297658920288086
0.73036485910415649 -0.14213448762893677 0.62641096115112305
0.60516977310180664 -0.4275442361831665 0.74033081531524658
0.5977904200553894 -0.46475708484649658 0.73822474479675293
0.62573623657226562 -0.43806999921798706 0.73697137832641602
0.61325478553771973 -0.39179742336273193 0.73892867565155029
0.58074235916137695 -0.41399997472763062 0.74296283721923828
0.57042443752288818 -0.44875377416610718 0.74108922481536865
0.62130975723266602 -0.47765722870826721 0.73438882827758789
0.6309887170791626 -0.3996163010597229 0.73623955249786377
0.59126472473144531 -0.38059043884277344 0.74126648902893066
0.3873443603515625 -0.094744376838207245 0.72325325012207031
0.35864949226379395 -0.082320593297481537 0.72621810436248779
0.3796851634979248 -0.11348316818475723 0.72885429859161377
0.42273068428039551 -0.10909120738506317 0.72006940841674805
0.39473086595535278 -0.07514200359582901 0.71635317802429199
0.36326014995574951 -0.061270155012607574 0.71989309787750244
0.35241073369979858 -0.10200657695531845 0.73143458366394043
0.41387253999710083 -0.12735378742218018 0.72621333599090576
0.43190759420394897 -0.090081043541431427 0.7124861478805542
0.3463670015335083 -0.16510805487632751 0.74379825592041016
0.3594433069229126 -0.14824149012565613 0.73898589611053467
0.31694644689559937 -0.15394255518913269 0.74571895599365234
0.33203047513961792 -0.18280491232872009 0.74787449836730957
0.3817828893661499 -0.17938977479934692 0.74237656593322754
0.39368182420730591 -0.16201484203338623 0.73719489574432373
0.33179020881652832 -0.13742020726203918 0.74108445644378662
0.29955083131790161 -0.17068532109260559 0.74964499473571777
0.36906462907791138 -0.19796425104141235 0.74680662155151367
0.56333160400390625 -0.16196787357330322 0.69937384128570557
0.57620298862457275 -0.14165136218070984 0.68866550922393799
0.51298785209655762 -0.14339566230773926 0.70810186862945557
0.55111312866210938 -0.18192929029464722 0.70843827724456787
0.6113131046295166 -0.17969384789466858 0.69053828716278076
0.62495630979537964 -0.15851271152496338 0.67867600917816162
0.52474534511566162 -0.12383890897035599 0.69857919216156006
0.50181961059570312 -0.16235315799713135 0.71603119373321533
0.59838634729385376 -0.20079478621482849 0.70067930221557617
0.51639091968536377 -0.2424849271774292 0.73256683349609375
0.46888625621795654 -0.21906507015228271 0.73694932460784912
0.50449502468109131 -0.26465365290641785 0.73935055732727051
0.56152784824371338 -0.26507112383842468 0.72792625427246094
0.52790188789367676 -0.22174280881881714 0.72485482692718506
0.4800647497177124 -0.19967824220657349 0.73026728630065918
0.45710742473602295 -0.23989114165306091 0.7427901029586792
0.5491938591003418 -0.28843939304351807 0.7356342077255249
0.57371115684509277 -0.24311220645904541 0.71919822692871094
0.70379596948623657 -0.21644812822341919 0.6743462085723877
0.71804428100585938 -0.22364687919616699 0.67216038703918457
0.71659040451049805 -0.19364398717880249 0.66044354438781738
0.68267375230789185 -0.20722770690917969 0.6777040958404541
0.69229161739349365 -0.23971623182296753 0.6859581470489502
0.70759499073028564 -0.24693998694419861 0.68361937999725342
0.73027801513671875 -0.20103093981742859 0.65829479694366455
0.6961597204208374 -0.18466880917549133 0.66415488719940186
0.67017477750778198 -0.23010781407356262 0.68917763233184814
0.65084004402160645 -0.30723106861114502 0.71785974502563477
0.6361459493637085 -0.33154577016830444 0.72711002826690674
0.66590476036071777 -0.31302547454833984 0.71556460857391357
0.66601657867431641 -0.2847621738910675 0.7074357271194458
0.62968361377716064 -0.29807525873184204 0.72043788433074951
0.61572837829589844 -0.322559654712677 0.72940099239349365
0.65103906393051147 -0.3368566632270813 0.72499179840087891
0.68173104524612427 -0.29127761721611023 0.70500397682189941
0.64386963844299316 -0.27520772814750671 0.71031594276428223
0.30172407627105713 0.013632781803607941 0.7398219108581543
0.29114675521850586 0.025981239974498749 0.74126863479614258
0.29998314380645752 0.015791229903697968 0.74964094161987305
0.30956077575683594 -0.0014608278870582581 0.73890352249145508
0.30470263957977295 0.012366808950901031 0.7294466495513916
0.2927398681640625 0.024891577661037445 0.73104548454284668
0.29031765460968018 0.027860544621944427 0.75120747089385986
0.3065674901008606 0.0011634752154350281 0.74853420257568359
0.31490153074264526 -0.0034776404500007629 0.72849953174591064
0.19451133906841278 -0.17056870460510254 0.78172492980957031
0.19319893419742584 -0.16767698526382446 0.79115116596221924
0.17642588913440704 -0.1711311936378479 0.78480851650238037
0.19569222629070282 -0.17492160201072693 0.77242183685302734
0.21340517699718475 -0.16665628552436829 0.77749323844909668
0.21085882186889648 -0.16326656937599182 0.78662109375
0.17593766748905182 -0.16866722702980042 0.79446291923522949
0.17661310732364655 -0.17463338375091553 0.77536666393280029
0.2167636901140213 -0.1720731258392334 0.76845455169677734
0.23918707668781281 0.045953579246997833 0.74460732936859131
0.21838034689426422 0.045568294823169708 0.74553608894348145
0.23931460082530975 0.047669224441051483 0.75364077091217041
0.25935375690460205 0.042432494461536407 0.74377143383026123
0.23915116488933563 0.044805340468883514 0.73689770698547363
0.2177668958902359 0.044315673410892487 0.73890817165374756
0.21867577731609344 0.047553099691867828 0.75402390956878662
0.25936180353164673 0.044086329638957977 0.75330948829650879
0.25972509384155273 0.041284315288066864 0.73492395877838135
0.12443239986896515 -0.15125983953475952 0.78339028358459473
0.12438693642616272 -0.14984270930290222 0.79239237308502197
0.11131341755390167 -0.13844682276248932 0.78016257286071777
0.12417539954185486 -0.15278473496437073 0.77584099769592285
0.14078091084957123 -0.16132506728172302 0.7856069803237915
0.14086590707302094 -0.15954151749610901 0.7950289249420166
0.1109713613986969 -0.13755807280540466 0.78875672817230225
0.11101724207401276 -0.13915354013442993 0.77350032329559326
0.14055012166500092 -0.16350853443145752 0.77709293365478516
0.16789458692073822 0.017290063202381134 0.75124883651733398
0.15878233313560486 0.0017549768090248108 0.75414395332336426
0.17041443288326263 0.021919034421443939 0.75891590118408203
0.18146093189716339 0.030773259699344635 0.74877452850341797
0.16284684836864471 0.013635642826557159 0.74538981914520264
0.15196454524993896 -0.0048907026648521423 0.74805808067321777
0.16224558651447296 0.0079585090279579163 0.76181066036224365
0.18297888338565826 0.034178324043750763 0.75654458999633789
0.17827628552913666 0.028614304959774017 0.74307513236999512
0.1056445986032486 -0.089714132249355316 0.76962947845458984
0.10400813817977905 -0.092229552567005157 0.77844595909118652
0.11466243863105774 -0.074085056781768799 0.76699638366699219
0.10503292083740234 -0.085743196308612823 0.76251089572906494
0.10150715708732605 -0.10665763914585114 0.77287685871124268
0.10040934383869171 -0.10774996131658554 0.78133535385131836
0.1121632307767868 -0.078131265938282013 0.7763521671295166
0.11567872762680054 -0.067264199256896973 0.75866425037384033
0.10067729651927948 -0.10476899892091751 0.76652181148529053
0.16475921869277954 -0.035165302455425262 0.76379978656768799
0.16933801770210266 -0.042448826134204865 0.76651644706726074
0.16675327718257904 -0.030248083174228668 0.77176690101623535
0.15869881212711334 -0.025565080344676971 0.76063632965087891
0.1619555652141571 -0.040279649198055267 0.75831830501556396
0.16611295938491821 -0.044404931366443634 0.76210165023803711
0.1710105687379837 -0.039561696350574493 0.77442216873168945
0.16171002388000488 -0.019027121365070343 0.76851630210876465
0.15368367731571198 -0.033418439328670502 0.75459539890289307
0.15441004931926727 -0.052957333624362946 0.7667396068572998
0.15230916440486908 -0.055077128112316132 0.77588212490081787
0.16458572447299957 -0.050617627799510956 0.76785826683044434
0.15656457841396332 -0.049547217786312103 0.75984787940979004
0.14105863869190216 -0.055887557566165924 0.76568770408630371
0.13804864883422852 -0.059701330959796906 0.77529644966125488
0.16418828070163727 -0.051290251314640045 0.77635741233825684
0.16367645561695099 -0.048594169318675995 0.76278805732727051
0.14430420100688934 -0.049542896449565887 0.75728070735931396
0.31666290760040283 -0.060213513672351837 0.74460685253143311
0.32417911291122437 -0.065234340727329254 0.73670685291290283
0.3172454833984375 -0.03909977525472641 0.74125301837921143
0.31235748529434204 -0.056402377784252167 0.75303816795349121
0.31247603893280029 -0.081204839050769806 0.74866151809692383
0.31976586580276489 -0.086157575249671936 0.74113655090332031
0.3250775933265686 -0.043348617851734161 0.73228895664215088
0.31287932395935059 -0.035521246492862701 0.75010550022125244
0.30825912952423096 -0.077486932277679443 0.75693464279174805
0.2731252908706665 -0.13500364124774933 0.76289248466491699
0.25350290536880493 -0.14860299229621887 0.7677924633026123
0.28100168704986572 -0.13940197229385376 0.75522708892822266
0.29039466381072998 -0.11913721263408661 0.75798213481903076
0.26853978633880615 -0.13167667388916016 0.7712090015411377
0.24912850558757782 -0.14504046738147736 0.77631461620330811
0.26071572303771973 -0.15390832722187042 0.75967812538146973
0.2980964183807373 -0.12337937951087952 0.75047433376312256
0.28595441579818726 -0.11580288410186768 0.76623070240020752
0.29817581176757812 -0.048432342708110809 0.77591478824615479
0.30419480800628662 -0.050906874239444733 0.76895666122436523
0.29929137229919434 -0.029202379286289215 0.77338635921478271
0.29104620218276978 -0.045582897961139679 0.78234255313873291
0.29405224323272705 -0.068322308361530304 0.77946007251739502
0.30020123720169067 -0.071505613625049591 0.77262747287750244
0.30490344762802124 -0.030626170337200165 0.76633358001708984
0.29313880205154419 -0.02823195606470108 0.77968370914459229
0.28636282682418823 -0.064529754221439362 0.78586649894714355
0.25640541315078735 -0.120193712413311 0.79272866249084473
0.23888556659221649 -0.13297994434833527 0.79755818843841553
0.2613111138343811 -0.12457969784736633 0.78641366958618164
0.2727169394493103 -0.10497525334358215 0.78807663917541504
0.25026607513427734 -0.11564397811889648 0.79854929447174072
0.23509092628955841 -0.12796303629875183 0.8026660680770874
0.24256019294261932 -0.13773086667060852 0.79152894020080566
0.27836251258850098 -0.10902302712202072 0.78155422210693359
0.26534843444824219 -0.10063203424215317 0.79423534870147705
0.17795838415622711 -0.021989278495311737 0.79603731632232666
0.18094648420810699 -0.034338302910327911 0.79969096183776855
0.18508340418338776 -0.019690655171871185 0.80162405967712402
0.17385865747928619 -0.009344048798084259 0.79200506210327148
0.17268778383731842 -0.023825846612453461 0.78889667987823486
0.17573325335979462 -0.035218261182308197 0.79218876361846924
0.18893228471279144 -0.033679105341434479 0.80596637725830078
0.18062795698642731 -0.0075521692633628845 0.79731011390686035
0.16844920814037323 -0.011224158108234406 0.78506886959075928
0.15564347803592682 -0.0603480264544487 0.80264365673065186
0.1590566486120224 -0.064426310360431671 0.80957436561584473
0.16977782547473907 -0.053536690771579742 0.8030010461807251
0.15279839932918549 -0.058014102280139923 0.79466021060943604
0.14044018089771271 -0.066786780953407288 0.80187857151031494
0.14402973651885986 -0.070459775626659393 0.80838310718536377
0.1754300445318222 -0.056886695325374603 0.8101123571395874
0.16599012911319733 -0.05196680873632431 0.79500734806060791
0.1376090943813324 -0.064237318933010101 0.79402875900268555
0.18061591684818268 0.026833854615688324 0.78267395496368408
0.17397770285606384 0.015630163252353668 0.78508889675140381
0.18694883584976196 0.024397812783718109 0.78914320468902588
0.19097848236560822 0.036089412868022919 0.78081750869750977
0.17577055096626282 0.02740209549665451 0.77530527114868164
0.16865502297878265 0.015191785991191864 0.77796196937561035
0.18069501221179962 0.014441840350627899 0.79108190536499023
0.19606302678585052 0.032705150544643402 0.78718459606170654
0.18703536689281464 0.037612266838550568 0.77335703372955322
0.10950186848640442 -0.095403499901294708 0.80395877361297607
0.11692777276039124 -0.095958337187767029 0.81048727035522461
0.11600267887115479 -0.084024399518966675 0.80227744579315186
0.10471498966217041 -0.09473777562379837 0.79631435871124268
0.10740014910697937 -0.10756896436214447 0.80626773834228516
0.11488962173461914 -0.10681594163179398 0.81230056285858154
0.1224348396062851 -0.085699483752250671 0.80867493152618408
0.11188389360904694 -0.082395918667316437 0.79457521438598633
0.10228137671947479 -0.10807020217180252 0.79889273643493652
0.24014972150325775 0.044449009001255035 0.78024077415466309
0.22179080545902252 0.045133598148822784 0.7798076868057251
0.23867858946323395 0.038864441215991974 0.78756189346313477
0.25805246829986572 0.040868975222110748 0.78040587902069092
0.24017958343029022 0.047654770314693451 0.77201449871063232
0.22043915092945099 0.048034198582172394 0.77191770076751709
0.22259213030338287 0.040169127285480499 0.78653132915496826
0.25497078895568848 0.034982658922672272 0.7880251407623291
0.25927239656448364 0.044095180928707123 0.7719961404800415
0.13221566379070282 -0.1410401463508606 0.81677436828613281
0.13763229548931122 -0.13478834927082062 0.82187783718109131
0.11926628649234772 -0.13107171654701233 0.81310498714447021
0.12792223691940308 -0.14526581764221191 0.80989193916320801
0.14752769470214844 -0.14906178414821625 0.81934893131256104
0.15223532915115356 -0.1415611058473587 0.82425856590270996
0.12549436092376709 -0.12670832872390747 0.81829702854156494
0.11443847417831421 -0.13414794206619263 0.8061521053314209
0.14392518997192383 -0.15411993861198425 0.81258976459503174
0.29148584604263306 0.016091503202915192 0.7754969596862793
0.28430265188217163 0.026519842445850372 0.77789855003356934
0.28634560108184814 0.011327885091304779 0.78268694877624512
0.29588973522186279 0.0034484788775444031 0.77336502075195312
0.29546475410461426 0.017965398728847504 0.76753365993499756
0.28749585151672363 0.02907947450876236 0.76963675022125244
0.27947038412094116 0.020948134362697601 0.78542160987854004
0.29075682163238525 0.000201396644115448 0.78004813194274902
0.30046063661575317 0.004354529082775116 0.7657933235168457
0.19203759729862213 -0.15477797389030457 0.81367635726928711
0.19434091448783875 -0.14675086736679077 0.81786322593688965
0.17796964943408966 -0.15618428587913513 0.8178175687789917
0.19148974120616913 -0.16067743301391602 0.80762326717376709
0.20634065568447113 -0.15040493011474609 0.80836832523345947
0.2071666419506073 -0.14341685175895691 0.81252384185791016
0.18126705288887024 -0.14778885245323181 0.82220101356506348
0.1762416809797287 -0.16207918524742126 0.81150352954864502
0.20712767541408539 -0.15599709749221802 0.80250716209411621
0.2160862535238266 0.0076599642634391785 0.80279040336608887
0.22790525853633881 -0.00092198699712753296 0.80501174926757812
0.22649909555912018 0.019906558096408844 0.7990032434463501
0.20489849150180817 0.014723025262355804 0.79929530620574951
0.20482239127159119 -0.0047178938984870911 0.80500471591949463
0.21365094184875488 -0.016733713448047638 0.80858111381530762
0.23997731506824493 0.013715170323848724 0.80039286613464355
0.21389119327068329 0.02453777939081192 0.79632687568664551
0.1963711678981781 0.004549078643321991 0.80089080333709717
0.15420153737068176 -0.098693110048770905 0.82350194454193115
0.14907640218734741 -0.11314929276704788 0.82520830631256104
0.17053049802780151 -0.099518530070781708 0.82497990131378174
0.15864749252796173 -0.084076106548309326 0.82015132904052734
0.1395244300365448 -0.097635187208652496 0.82038843631744385
0.13585840165615082 -0.1095731183886528 0.82182765007019043
0.16414277255535126 -0.11660163849592209 0.82702291011810303
0.17640218138694763 -0.08074546605348587 0.82129168510437012
0.14364670217037201 -0.086070701479911804 0.81763017177581787
0.26355928182601929 -0.027359910309314728 0.79916095733642578
0.25311172008514404 -0.046507216989994049 0.80369031429290771
0.2737693190574646 -0.035113297402858734 0.79410231113433838
0.27247434854507446 -0.010539181530475616 0.7943871021270752
0.25211042165756226 -0.01897110790014267 0.8031466007232666
0.23836095631122589 -0.038520790636539459 0.80807602405548096
0.26597851514816284 -0.053673557937145233 0.79816174507141113
0.27995741367340088 -0.019042588770389557 0.79016458988189697
0.26354348659515381 -0.0019247755408287048 0.79793179035186768
0.21805967390537262 -0.10553710162639618 0.81642866134643555
0.23119549453258514 -0.10826113075017929 0.81053400039672852
0.2297043651342392 -0.086725823581218719 0.81256687641143799
0.20328332483768463 -0.10286788642406464 0.82129275798797607
0.20751595497131348 -0.12214848399162292 0.81907641887664795
0.21968077123165131 -0.12260528653860092 0.81342685222625732
0.24397440254688263 -0.091480530798435211 0.80665457248687744
0.21318331360816956 -0.081783689558506012 0.81741952896118164
0.19413019716739655 -0.12119554728269577 0.82379782199859619
0.11590537428855896 0.031715460121631622 0.74620413780212402
0.13695797324180603 0.019630767405033112 0.74329781532287598
0.14711746573448181 0.046710468828678131 0.74711823463439941
0.091902554035186768 0.049643583595752716 0.74920034408569336
