# XYZ point cloud file
0.54326289406572414 -0.59871813809558805 0.68990332987583658
0.59065356697046845 -0.59466394342437501 0.70832495957704278
0.59957630916509119 -0.56163421792043566 0.72385015806548159
0.53742812827102826 -0.5234096013800581 0.7303014202783904
0.50499931212975113 -0.5739215581398911 0.69144022317372933
0.57739941720449139 -0.61968828209040883 0.68696306275946317
0.65118232655216879 -0.018236290599086734 0.52655565694098883
0.59673250992909099 0.0015423982255997684 0.54138186821760581
0.64686060955046687 -0.030983965176600813 0.5608319771180984
0.70559557153542252 -0.03976119912998493 0.51035595156433211
0.64763624667056874 -0.0096313798069740317 0.49147314484963678
0.59426527266464502 0.010263004577818098 0.50564911080473429
0.59216521462304506 -0.01152304808632431 0.5759883733367106
0.70100186846870927 -0.051679666873432388 0.54455437514777727
0.70150069531594361 -0.031687105544503123 0.47574676112751879
0.38742795650691408 -0.46500382600727175 0.71075124573351367
0.40586697552910184 -0.4391847649681111 0.73002398424473181
0.33988887783825372 -0.43371369093701273 0.7068545922525914
0.36754976769583264 -0.48408955264689713 0.68515719978155398
0.43593180000591314 -0.4963291831290455 0.71345607158907209
0.45396452989723568 -0.46992736458262219 0.73136578343329994
0.35804775142598766 -0.40825507448784792 0.72763615980920582
0.3209701049171238 -0.45289476675825452 0.6800548352763679
0.41571451377988766 -0.51557803267046176 0.68902494702012551
0.25322972028074175 0.20451967047775346 0.60552947330441742
0.27211346451522384 0.20183903064479955 0.56339529985127645
0.26676019836500392 0.25808242283216076 0.58451318658645524
0.22931754778822833 0.20873698052079073 0.6466489976455404
0.24276920588559553 0.15631491910693004 0.62486177436016688
0.26261586571987511 0.15551855615457968 0.5784952265888339
0.28480320062380143 0.25448260151296165 0.54629913170370559
0.24463914488262306 0.26325297599714592 0.62125938373849654
0.21562661109880371 0.15670576727776819 0.67271393737003005
-0.040580869116181958 -0.29494325107495017 0.68420200803444564
-0.084153529210958825 -0.33852498963526756 0.67336889897024388
-0.032483954632564635 -0.31589735900120414 0.64947050813049279
-0.00023863067089698042 -0.25673208457762636 0.69380689905285053
-0.053319517186791635 -0.27181283437753134 0.71669493550094254
-0.097393491786012601 -0.31834680015092348 0.70147322122483691
-0.07503860358406754 -0.3572296567686486 0.64270143420817938
0.0059604264802854551 -0.28067381835383837 0.65496472285095875
-0.010339109347439798 -0.22743751830851194 0.7322050488663655
0.29337485130761776 0.42475341434529662 0.54321024618813274
0.3096267802625069 0.42007047945828702 0.5129669232180194
0.29326690906418107 0.47917850930935879 0.53713980751997703
0.27342582866680454 0.42803758782536544 0.57243004730466474
0.28877602383836337 0.36969713292523376 0.55220274746180831
0.30548887423141491 0.36519223466021977 0.52006769646288153
0.30924122948978761 0.47489957753152856 0.50793806678763498
0.27362801610201948 0.48114574054551629 0.56515706950678968
0.2683255228382615 0.37380567620646982 0.58339539620312009
-0.22541814504788071 -0.45767533804993971 0.64624444661007874
-0.27550467221444047 -0.48845301759901799 0.63645993069018847
-0.21475767100043014 -0.47176442534063284 0.62438187234213871
-0.17697058619411415 -0.4223650202587021 0.65447259207702979
-0.23705212719500401 -0.44036265919272322 0.66572434774509115
-0.28616678654863204 -0.47133081053222425 0.65462695592532527
-0.26494574702775131 -0.50183736093509046 0.61578145372605619
-0.16667597798506079 -0.43769058504855418 0.63046789591342789
-0.1892139848419952 -0.40440753220569031 0.67621240454922971
0.26120462974082415 0.63655348959072244 0.5267840837266331
0.27741843333709237 0.63930108368620597 0.49581048111802073
0.23826566661067683 0.68410070377468646 0.53121469717954295
0.24189788095448628 0.62994095224563529 0.55653179510806361
0.2776328122527757 0.58573780402159181 0.52819605099571643
0.29374548603708722 0.58520848855774532 0.49828612259211724
0.2541368953446318 0.69056622653870736 0.49969907669945018
0.21970729018070634 0.67355447395203605 0.56144862154734099
0.25812898842665388 0.58271872033690031 0.5568281628619961
-0.43675743760323943 -0.55176619900343282 0.58480504775312869
-0.49269918462700835 -0.56078398958092635 0.56546765389447984
-0.43131250760307877 -0.56725920725700851 0.56138176046568544
-0.38143047133942598 -0.53604264218344255 0.6051091285240825
-0.44047407863718846 -0.53193524904305067 0.60626511694719309
-0.49274634238161874 -0.53988433655152757 0.58904387559744009
-0.49044131665178747 -0.57742168405735872 0.54025086658293686
-0.37343635461168057 -0.55028611782412384 0.58342458683046483
-0.38819845858128071 -0.51749377613116876 0.62449346852157894
0.12865681706841009 0.79465457272876372 0.60051954691126275
0.13806873690997518 0.81129827099940743 0.57625262780795683
0.086029711504955739 0.81612362582845444 0.63414317511949037
0.1183287503309028 0.77332375031526557 0.6216622383244651
0.17054766107493857 0.76450398437538414 0.56901394814295747
0.18299940483467803 0.7782575843662054 0.54096992880199668
0.092033480605910753 0.83473855122475027 0.61370153984609388
0.079710544735365499 0.79269170535489331 0.65050305803622954
0.15653530143191313 0.74626615044297162 0.59481771718617815
-0.65449470322329106 -0.54048575354077399 0.53935057976193068
-0.69816439836267108 -0.52124074257827202 0.54137407828206929
-0.6637770729563427 -0.55572150243904717 0.51315680710469758
-0.60354183617102963 -0.55471959158347062 0.54185078430945843
-0.64118683171854163 -0.52150383390022781 0.56369800081694765
-0.68105034821620292 -0.50465331260876878 0.5646180884829195
-0.71069751778141887 -0.5342797259812847 0.51584848523711235
-0.60896103690367542 -0.5713933099829025 0.51518617631102381
-0.59474596734420593 -0.53410782706412629 0.56696426349800921
-0.01883084473005818 0.81659898943597631 0.70717874944178249
-0.021647317150762915 0.83347517619308131 0.69021160514589286
-0.05139723917034407 0.79754862206872579 0.72194397826289503
-0.01535268411440642 0.79543180531650926 0.71804658928668275
0.012428784388490335 0.82706950547941671 0.68888435683304516
0.012054690249050745 0.84562888807630854 0.67229772405380372
-0.055972020105891765 0.81251305401852192 0.70382316925298471
-0.045910424614064846 0.77872826244328819 0.73363402203686223
0.013255520461065221 0.80388575025108289 0.69984818720718289
-0.7599889483546507 -0.44817035849888398 0.56296114366278216
-0.76259547674297068 -0.41623825828511574 0.57342760857171959
-0.77483772560533082 -0.45192305836635882 0.53683124654997461
-0.75075030351198213 -0.47508465592995569 0.55394721544108272
-0.74023325178755983 -0.44144158110371551 0.58530181115926538
-0.74403562896127906 -0.41262659179818123 0.59627036328573291
-0.77642228837827698 -0.4171624778588004 0.54636563358761847
-0.76605344831173872 -0.4820869246188052 0.52855204093287345
-0.73042858031255664 -0.46489922622808055 0.57604067764215594
-0.1878103511089616 0.70526877211666494 0.76150475819331054
-0.19286936133410626 0.71864488607389732 0.74038584950780317
-0.24323493292989418 0.67020653560645793 0.77364660881666769
-0.17988981605241722 0.68951461420982318 0.77569940961359463
-0.13544751198565863 0.73985678887430883 0.74845229195156771
-0.14093492491460335 0.75293210334929794 0.7280034347900104
-0.24802378429827532 0.68421163977167621 0.75209511459777167
-0.23461428089534209 0.6542752300696566 0.78820160903524061
-0.12796661138821719 0.72391623059462695 0.76208571570399086
-0.76313498543845004 -0.2770603469718117 0.61054534801700466
-0.76574786006661955 -0.22213715425836275 0.62333169797921151
-0.77495537487718469 -0.27531268464808001 0.58171265300353492
-0.76211236342718824 -0.32994018594723612 0.59761742991694655
-0.74650882330114565 -0.27784455745693282 0.63446018129396986
-0.74868940923405036 -0.22355985153693239 0.64730363895129661
-0.77773120026911902 -0.22049348282625905 0.59435538639162577
-0.77418073838358625 -0.32819192853739815 0.56911015954044797
-0.74540384627034095 -0.3300178085452406 0.62134325351858088
-0.4002545420196415 0.58302199442734681 0.79939338260514647
-0.40970147022201547 0.59748804282019863 0.7772928831799607
-0.4424937122014917 0.55830994269450873 0.80387492306467534
-0.38423519262480027 0.56761291413417836 0.81436509542775148
-0.35178086659193181 0.60871759880982723 0.79287344528347936
-0.35873695054522925 0.62346185629995587 0.77088962724880861
-0.45469835997511632 0.57205298808468907 0.78165817570752472
-0.42303434068915313 0.54388463495188044 0.81895808789802271
-0.33907672925253163 0.59276019264762558 0.80775977967794221
-0.78532668073848755 -0.075050335383598871 0.65671947135154318
-0.78968732288047305 -0.035146906800881415 0.66700130025918303
-0.79990038777527894 -0.069414315192262488 0.62786834462366081
-0.7779864338146345 -0.11948809044374312 0.64639469392204685
-0.7645789233248057 -0.082283215104038993 0.6802649960270013
-0.76779811446791035 -0.045319230440418294 0.69010104970239527
-0.80512521442054075 -0.02700186253405247 0.63845299604575656
-0.7914980905477641 -0.11601307005122077 0.61741061295988819
-0.75866692383437129 -0.12404972855067725 0.67019592231857728
-0.51534196937747578 0.47422853275265364 0.80566161549290438
-0.53289070188523302 0.48325374921200348 0.7827029829794826
-0.51877176646125589 0.44162274630263204 0.80334799609241359
-0.4896856906642465 0.46553459087734406 0.82171408952872493
-0.50116574946019044 0.50469389277827881 0.80679488708749136
-0.51766225203557292 0.5156162410324584 0.78414619629698779
-0.53667673785964998 0.44870748339915267 0.78008642777516912
-0.49294930388930075 0.43529261118755991 0.8198420116909122
-0.47661980407714083 0.49371465081599075 0.82242121289709913
-0.75911767936777397 0.057440585384819491 0.70219843134155457
-0.73113787825643783 0.078557053453180481 0.71469778716239651
-0.77348999942723706 0.07183034833228677 0.67594932071159364
-0.77809015281068183 0.031237813327352294 0.68972345611616148
-0.73858533975833618 0.040076913383179612 0.72246257771770972
-0.71253916476607027 0.059955691149471906 0.73381412427204418
-0.74411849153206056 0.094003209728973414 0.68942076433104482
-0.79347327147757829 0.043990737231360301 0.66251571988469271
-0.75622758026276815 0.015767853763285496 0.71113629699651204
-0.46506567387560327 0.33436631022834867 0.79306138959917361
-0.48039314469246419 0.3372800250670705 0.76943135451271449
-0.43658550060879392 0.2988937439720184 0.78900328855737811
-0.44387484828809798 0.33352106800085124 0.81035879898370966
-0.49146612423161307 0.37089357704538889 0.79682723610771011
-0.50809214855153573 0.37480526059326991 0.77319759158734913
-0.45059421623041146 0.30123591416868661 0.76550613430056957
-0.41754592549493019 0.29899140642433131 0.80629923240670154
-0.46811545621868078 0.36862592109783632 0.81398170380059964
-0.59605656269980234 0.11054657399663909 0.74718039368737488
-0.54412098184333502 0.11520212836868007 0.75499492066611018
-0.60459285305371679 0.12503218628733861 0.72373622153156592
-0.64748299681993804 0.10424844413971177 0.73762991977729397
-0.58472088703184966 0.092905466180095403 0.76411832039266192
-0.53472774062773099 0.098855141717969802 0.771579884096665
-0.55171922824276753 0.12847049934610077 0.73187471444479457
-0.65735136724425947 0.1196685093953371 0.71377816325973975
-0.63374794605925944 0.085600654247704827 0.75505030623244096
-0.38202051751233757 0.21064115607973541 0.77576221837077253
-0.39470939212009704 0.21423660880031356 0.7534233049415
-0.37899226952792842 0.18743832585609468 0.77197986755321735
-0.3648771105602352 0.20934161456649689 0.79226806224562629
-0.39264412202862853 0.23660406036114343 0.78013270059091722
-0.40520494975655835 0.23917317878732622 0.75734758014527137
-0.39229892693497326 0.19293894440082757 0.74995991693465924
-0.3598453816842575 0.18224092068984107 0.78837036910250791
-0.37600129584988873 0.23692421095522528 0.79694908524142094
-0.4246044231482729 0.13794997001581077 0.76591213481391929
-0.40030949563319057 0.15105415017974547 0.76731800025594055
-0.43353415276108398 0.14795547122937155 0.74391384025194218
-0.45639389466867575 0.12776448497630224 0.76404340480018607
-0.41439024395245105 0.12483507071989225 0.78165737639083355
-0.38501419200538956 0.1392885874043239 0.78327815166190384
-0.41159525657732504 0.1600006117480563 0.74548766680748146
-0.46402296726557124 0.13874249206438896 0.74167468232646705
-0.4482099362842602 0.11366093983628764 0.77996550750237492
-0.36645178272267925 0.34319115638857212 0.80780275432453341
-0.34111644017714787 0.34875827147902821 0.79607069064774449
-0.3790590610611469 0.37150088709485196 0.80935413459996552
-0.39283918546638913 0.33828517649040696 0.81682447751457443
-0.35110888924592809 0.31473216619542388 0.8056498913518142
-0.32972185842049218 0.32291402109896505 0.79487323833807866
-0.3494870668526962 0.37446081986684193 0.79669390518185268
-0.40991097834767393 0.36918134491006627 0.81930431763163192
-0.37333881248177075 0.30732612105395957 0.81374421201634806
-0.54490548832510655 0.038504409044452854 0.76180916504970586
-0.58002562346100506 0.028324786065118714 0.75387192312255924
-0.53242585974251622 0.022178008796404587 0.75063231373999284
-0.50778858735037458 0.047271246708760158 0.76870551311309909
-0.55823364590839875 0.055843752479865165 0.77044170818781166
-0.59882320198074346 0.046520535945725992 0.76220020409284428
-0.56214929435788585 0.011383739183455012 0.7429928392995222
-0.50055834449868664 0.031326604196085954 0.75742658235263904
-0.51589432508314481 0.063938900262454079 0.77743721565480106
-0.383884545973187 0.44690794983939597 0.81106957690791415
-0.34779847501910788 0.4432311316242778 0.79620973283357388
-0.37307308307763332 0.46874630183343347 0.81032366268416056
-0.42153818105360424 0.45168295971193062 0.82333978107761829
-0.38861241407558911 0.42367226296274912 0.81103292564800167
-0.35329370697983847 0.42193611743176784 0.7967606472933273
-0.33741610548955192 0.4634260488606321 0.79509827385851994
-0.41019525700804726 0.47539496318095709 0.82305421035039461
-0.42549921177234362 0.42628503131711021 0.82265437713727452
-0.65424964824668863 -0.014884324717713913 0.72861118241035372
-0.66761031267361759 -0.034333934979353338 0.72037358444142174
-0.6256666322712976 -0.03126311256372017 0.71953081786687423
-0.63553649069874973 0.0019344466478298725 0.73697961729621941
-0.6842556379798741 0.0028360276767670986 0.73487696806014169
-0.69897736703082547 -0.01798537235968433 0.72573844406903132
-0.63780446328772633 -0.049526990092407748 0.71210248529327724
-0.60929204284780991 -0.015198679595054186 0.72717703917784371
-0.66302381681939049 0.020498719001652364 0.74408903134720283
-0.30606377467953927 0.53055174938799998 0.80143016929803057
-0.27288512680761184 0.55330593057211797 0.79541162079456007
-0.33535489723419798 0.54071913547216155 0.81408360180234118
-0.3339619577497312 0.50973439893122929 0.80573659840226608
-0.27734153930190919 0.52207463675606536 0.78684583704668709
-0.24793098654995177 0.54392642261819135 0.78140517120200259
-0.2981218286703185 0.56433754902876199 0.80768671298660966
-0.36672370189050951 0.51901311764000257 0.81864346396432242
-0.30212289160312833 0.50210308155545724 0.79067778110362374
-0.68153739224774057 -0.11063523045057569 0.6965187742597212
-0.71078708469119367 -0.10053360329559502 0.69950119178414116
-0.68122318526097181 -0.14391066252122167 0.68786093174904206
-0.6537028660741373 -0.12049642617338305 0.69088435789807612
-0.68030261826942251 -0.081765135576003428 0.70452281928155758
-0.71110273705511884 -0.069274563620041557 0.70820409538477869
-0.70852336803728311 -0.1365337196694405 0.69025365191434362
-0.65516819818143956 -0.15128509629357659 0.68298874390083686
-0.6510586646364156 -0.093695776151428739 0.69802236447655841
-0.14667341166816178 0.64167847128969135 0.7651938098465213
-0.10314045101758566 0.67182377640169955 0.75223610055944501
-0.15847675780935172 0.65685022338868182 0.77620056128759551
-0.19153774282950625 0.60978937426528912 0.77712200333003811
-0.13538582840243263 0.62760226256209772 0.7526376093738445
-0.095960769565271845 0.65563204335038794 0.74028556163271442
-0.11111595983235424 0.68894970069463857 0.76265617111856576
-0.20774109763845566 0.62325500937813327 0.78857738957152312
-0.17559832579877011 0.59764302404064629 0.76411665804444107
-0.68258188176141021 -0.27292396384220297 0.65476134794550744
-0.70479044933193491 -0.27561846325748379 0.65593956878589954
-0.68293408547255319 -0.3175304203197663 0.64287374047812684
-0.66133125860440678 -0.26989673567529421 0.65118059272937634
-0.68153329964703901 -0.22658852597045739 0.66678619394086214
-0.70506592607825347 -0.22574823284550924 0.66836753745666067
-0.7044050177848683 -0.32353865905879708 0.64338913394493868
-0.6624612679870352 -0.31094776110749578 0.63990591282303577
-0.65898998685311339 -0.227355229510701 0.66284968630059815
-0.005815755462098518 0.72417436219786202 0.71248135883716279
0.018409735938103231 0.72709516778133376 0.6988859427138947
-0.0084718565743271274 0.74780626810391515 0.71941294297570946
-0.032444483015347816 0.71436013018876177 0.725713062793368
-0.0039910486636673542 0.70190845104887911 0.70459289357885402
0.019799978571049801 0.70349755917401935 0.69328257355468781
0.016491196220240464 0.7523318289524511 0.70365283537539891
-0.035957936608057808 0.73589820231777892 0.73421129375616978
-0.029923949317251161 0.69390625183800614 0.71601616130819934
-0.67008333929363073 -0.40892091333792036 0.61589706926075283
-0.69367346156605614 -0.42111894379595771 0.6113652815857411
-0.6578533797280719 -0.42631099389558158 0.61127569238423152
-0.64800769275091374 -0.39654138288454338 0.61825900234377784
-0.6776710547262349 -0.38638478448853258 0.62288333539088203
-0.70006135751547394 -0.39715835347987527 0.6205254383019021
-0.68231835755219516 -0.4396522962248488 0.60439065460821195
-0.63502111066105449 -0.41322971139737336 0.61611627741067354
-0.6565962059764503 -0.37508802328193414 0.62291561037566656
0.098074868319989919 0.69952112357784157 0.65451965333485884
0.1257353401869053 0.67881174014131362 0.64101245444498245
0.10258416509642033 0.72421189488468096 0.64842225687176924
0.06988714819500004 0.71448210771961651 0.6694576267191138
0.09446378678652613 0.676322193310405 0.65844959882730181
0.11942140852250095 0.65674659092077159 0.64823063429570782
0.13340082732133612 0.70201390115625772 0.63096374347348994
0.071463806401323784 0.74023382341258925 0.667509621263215
0.068694756543631261 0.69045971693184693 0.66992495590814338
-0.58517651345081223 -0.46512816956268976 0.61392116694869459
-0.60531331602107219 -0.48252194174542196 0.60112082390590893
-0.55003962513665117 -0.47281855941467171 0.62032632912837471
-0.56587566721807703 -0.44920002034135526 0.62432442447014291
-0.61545428891237275 -0.45398990271297018 0.61020706154085913
-0.63822715341207681 -0.46985643911839292 0.59900819641859426
-0.5670738069330129 -0.49175115394889513 0.60645750089396655
-0.53331374426359091 -0.45557164825404073 0.63162470002949123
-0.59397213329228848 -0.43926058750571112 0.61922634299468982
0.19066675400516842 0.58362435590047324 0.61941747542323577
0.20398573340547893 0.54388211878849324 0.61900889038379348
0.20541243543569804 0.60252921396454773 0.60329282971659193
0.17298910305019854 0.62021273600174631 0.62301984827563239
0.17769462926872331 0.5646351724945925 0.63253983707633288
0.18961782555760021 0.52637330235154189 0.63277024986218722
0.22003691695506272 0.5610016787443064 0.60258164385930979
0.18594967021864034 0.64051474233378913 0.60784575452303202
0.16182177913182005 0.60021558814458476 0.63493423786523184
-0.4248130993267899 -0.46450338714795447 0.65377321170083602
-0.43429801019823566 -0.4868359852086791 0.64074602236978406
-0.38036351293226234 -0.45100751548346174 0.66736786041893303
-0.41441516695377301 -0.44370447175077898 0.66485080648983441
-0.46876690558246781 -0.47291488275333998 0.64077515034156618
-0.48038009203493326 -0.49446214864795546 0.62687101522793742
-0.38763296940848058 -0.4735576219264428 0.6554419007551523
-0.37199418320828748 -0.42982811548021688 0.67771539080066767
-0.45654081843407546 -0.45306209253185659 0.65234769063485509
0.21476113131140334 0.41737556333716785 0.63472201729068722
0.2074648994929702 0.37424867570452192 0.64646354625829416
0.23279776691914833 0.42412446822616962 0.61861566285877978
0.21636493512625743 0.46007706903081963 0.62656308413764572
0.19831197583723914 0.41011724764443358 0.64808724043722488
0.19030496988412621 0.3721046650824017 0.65863240068658302
0.22631316313852906 0.37606438228676314 0.63109118143464116
0.23387187203597237 0.47116840373033098 0.6101900469904703
0.20041521455024452 0.44838096735788696 0.64046803370211269
-0.25587923378691052 -0.38349189562643726 0.70393941009891692
-0.25276735576650156 -0.40207663373238123 0.69441047109050813
-0.21922574407075579 -0.35174567597426187 0.71533526735180775
-0.25802567964543277 -0.36646227735931303 0.71173084803573239
-0.29512464636539587 -0.41043267152347318 0.69258894426373863
-0.29628092513941717 -0.43104788896506785 0.68242054430763277
-0.2110218774248746 -0.36796981176829591 0.70663549948097493
-0.22665662864272856 -0.33739432049319079 0.72180491217809728
-0.29285979192575101 -0.39116660319969759 0.70132763854871172
0.14973591909962392 0.24491018271187667 0.7047994278522729
0.12202272220573514 0.20623786876474823 0.72579272370405135
0.17556124051436511 0.22943033360363649 0.69712547766764499
0.17431369774331495 0.28704445307990173 0.68267873526929812
0.1269207981708167 0.25993601887154705 0.70809254427148627
0.097054315277632239 0.22759505870235783 0.72495393889384441
0.15214212778371938 0.18222914541439628 0.72416577592064202
0.19686978810489136 0.27809629919428253 0.67110449000167116
0.15386335886888097 0.29611630681521717 0.68973950542274287
-0.12818432732925222 -0.22789455089314326 0.7540761252609065
-0.098656029277460047 -0.23698902824081844 0.75193267789475615
-0.10687049502436498 -0.18317727673205988 0.76525533123933198
-0.1562174345066295 -0.22182350395552813 0.75277887392332121
-0.15472038926033665 -0.27271806885236843 0.74091136229500876
-0.13380721926433892 -0.28437961877988838 0.73549164694832703
-0.065907578236910055 -0.18864691998019767 0.7682293778734498
-0.14271775125171293 -0.18040866361534127 0.76063402068495212
-0.17523835928504172 -0.26383548745142599 0.74278195184705065
0.024999695959160059 0.13849034610514407 0.74817537390827882
0.009145946419669912 0.17018356244719302 0.74604966815215557
-0.0085842341352190404 0.12937401091993339 0.7457808534097935
0.0441995986621984 0.10429575661118728 0.75048845587695268
0.058813154923849517 0.15263600730388965 0.74787332742908463
0.037224080164386567 0.18232383341016437 0.74412501107495632
-0.018085532046020356 0.16346299306642212 0.74571080534730971
0.0025508396914841053 0.090610885715531775 0.7460995362191466
0.085916754699598932 0.11961925765349649 0.75185760343090391
-0.10111011834378607 -0.076146354631370428 0.76372469093833062
-0.11372983165329704 -0.04961903211134349 0.75607625181025218
-0.14138296134598349 -0.08606664188742652 0.76098299340102393
-0.093409631165207022 -0.10639926026685687 0.76994083873098451
-0.056530337483593388 -0.06709550151470417 0.76653494785691112
-0.06998644556426227 -0.03284066413495209 0.75537555381826715
-0.15212613773682648 -0.064755421552686487 0.75639147290671205
-0.13547295576760265 -0.11161894308256429 0.76447493132042055
-0.044971900261271833 -0.10303955911720317 0.77593408844650091
-0.30454631932651777 0.23748687920505576 0.79489327243379271
-0.31967300046210456 0.26137085971749846 0.79915425771717796
-0.32469483706339636 0.22311278635192747 0.80090695647482313
-0.28861616318617933 0.21548888016669196 0.79019721407935428
-0.285726784697027 0.25276621060939342 0.78675444350767165
-0.30172122862732276 0.27429914750180212 0.79021203003435847
-0.33832204512448316 0.24971321440244795 0.80559323892186585
-0.31241812598114477 0.19655695967244466 0.79638944731005623
-0.26793013999759097 0.23356540368555742 0.78273207835255487
-0.40359871067024433 0.068499979690767099 0.77873702580789694
-0.40320478273489735 0.089156878587734884 0.78701231997353482
-0.436304428278802 0.062354289681050536 0.77726503515933865
-0.40544156585332869 0.04854545422181835 0.76844182659298821
-0.37221859094448156 0.072893494666149555 0.77878248185959187
-0.36971896522495029 0.09880981755074833 0.78775593090040408
-0.43769125197849557 0.080131333572886349 0.78558242976696979
-0.43626028748304613 0.044746653189763168 0.7664822232228965
-0.37570481480809426 0.049752855329716357 0.76895355675094434
-0.21944816746723866 0.16956977744266546 0.77215205228501771
-0.24616457507878292 0.18155495877826675 0.77871057937669808
-0.23905543239581278 0.14391389067100727 0.77539361911362925
-0.1915397424799774 0.15937334372753839 0.76562324736539744
-0.20118595750226431 0.19268903577812063 0.76865419638561128
-0.22551567478240853 0.20361253111272901 0.77355682743873366
-0.26983667802929856 0.15662724793140256 0.78358352152174171
-0.20867232568992217 0.13256657587163104 0.76756768372611228
-0.17563372323674142 0.1837577647634577 0.76368685488274801
-0.28393403435798598 0.059655347361229745 0.76880031155109974
-0.27203803613095012 0.087694733069179881 0.77366942511252002
-0.31244543642162187 0.068557062083309139 0.77354798173182393
-0.29421261872933091 0.034128779438095676 0.76386589369277569
-0.25651138628855241 0.048652587691923467 0.76368998099731122
-0.24185860698333728 0.076012858228504593 0.76658778309661291
-0.3039530141842951 0.098462821186371979 0.7808809887234085
-0.32005582700714486 0.042440299529596277 0.76641814258619079
-0.26958884702150515 0.023643072265545885 0.76085110950032997
-0.10452659303059907 0.13401917418906742 0.74817939587297566
-0.073620427878315173 0.12799528414715639 0.74470938290854416
-0.097343220495345342 0.16465111523178247 0.74984667981984721
-0.1341116917962486 0.14164533899112158 0.75324493310156793
-0.11460149345492769 0.10023307817833779 0.74736044739362972
-0.077803829345981498 0.089057510174780918 0.74333019848517479
-0.071145704687867864 0.16155468091765732 0.74677345194391609
-0.1234331204085098 0.16973917234578531 0.7539975957932139
-0.14751530277885222 0.11113625642841721 0.75319168918621549
-0.17820182813170687 0.0085236916056251957 0.75006042409305307
-0.2027172425774123 -0.014842747895877632 0.75233175033057309
-0.15333559299298055 -0.007764912534766806 0.74838662314030047
-0.15246637694066495 0.035735446226083926 0.74836720856637318
-0.20374711763063702 0.023010922579399525 0.75372964481171834
-0.22369359373359182 -0.0010692794872817421 0.75461930190103121
-0.18354922490349129 -0.029885078588550239 0.751442093461406
-0.11909519788424029 0.018737774083128121 0.74533829730794754
-0.18317202452979237 0.050389821646841797 0.75345543993930697
0.8627821707112906 -0.34054866912651433 0.59322635867402251
0.85109551491480562 -0.33847184672879449 0.60888122872432138
0.85239264874798037 -0.36232906788612806 0.60579363796702379
0.87456485638397274 -0.34394143226473334 0.57543609359164094
0.87131044481350961 -0.31924056543100487 0.58178242760673859
0.85785636750391825 -0.32010356177292165 0.60010386900146317
0.84261019422664629 -0.35681549459337403 0.61875016333210242
0.86229080029956973 -0.36913107922616978 0.59083630690833389
0.88485521055340977 -0.31968337253526841 0.56112185220931243
0.81280743517047016 -0.42495505476581552 0.64542734795354395
0.82706626876643763 -0.40510511762327489 0.63228792012516888
0.80976542615238478 -0.40828342697722059 0.65159855161843838
0.79804547095249123 -0.44298752890760507 0.65811611189661301
0.81593740599636533 -0.44295526000988539 0.63723539995085976
0.83254538929404998 -0.41936689959339463 0.62222711136934561
0.8217142053889922 -0.3921102197429836 0.64038998151777304
0.79701799698372078 -0.42287103280028993 0.66277926732428782
0.79907338473914669 -0.46455943521350573 0.65136151974192025
0.8826778075674967 -0.26269341493326004 0.55902887941278878
0.86424478233083035 -0.26771999439756555 0.58373808642192515
0.88175196791023558 -0.28024679364843191 0.56427995921818608
0.90143823887891283 -0.25844875859952482 0.53100890743046636
0.87976811388107579 -0.24587859718078228 0.55651671867645314
0.85968907385764814 -0.2512955399777867 0.58268468062615519
0.8649606880984384 -0.2846056457727576 0.58720224289045242
0.8987348285474317 -0.27691257324962787 0.53841904778928462
0.90038846304174713 -0.24102164275493235 0.52663984149503984
0.75379684737175068 -0.48040824477275546 0.69109296247445129
0.76869301179758187 -0.47122303983617808 0.68100451399105189
0.75485463778050832 -0.45253252585616011 0.69415808009078406
0.73779015947751092 -0.48573988487148445 0.70050797949678834
0.7521328978778945 -0.51063760921819223 0.68595980525889733
0.76728389474329273 -0.49893066022876392 0.67570720578382426
0.76972678589727705 -0.44548842382485299 0.68418589592044976
0.73852633436845616 -0.45601829337946204 0.703589013153331
0.73627883423302132 -0.51823817497540892 0.69539927609067909
0.84286279365582328 -0.19672176886481829 0.56734379128061208
0.81750441697246345 -0.2049501824263574 0.59644558986469776
0.85952866101640057 -0.21278813515905515 0.56092818226217023
0.86954484759418293 -0.18928610236607374 0.53373781956287236
0.82368814238964339 -0.18181168468073616 0.57548171977963725
0.79608433578167703 -0.19252900415922269 0.60607116358044522
0.83607169274737214 -0.21949512862424256 0.58907787687054414
0.88423891918679287 -0.20653127714705261 0.52827505747263093
0.8519080169922546 -0.17271366625038376 0.54116433508773132
0.67773224019960854 -0.47582039913605023 0.72595038905740572
0.69954096972211666 -0.48314754944858779 0.71801044298719385
0.67794875157118373 -0.44085828386951265 0.72796529727538428
0.65567757496939416 -0.46583435077200602 0.73292504314948415
0.67721424770193606 -0.51431239501851322 0.72163938964506791
0.69885478743242024 -0.51976392148246364 0.71323987790631349
0.69958380632391826 -0.4501767270497935 0.72067401466517367
0.65681533529483338 -0.42799988330776351 0.73399202698755217
0.65472674239297646 -0.50600104216687081 0.7292246703523565
0.61106393467400899 -0.086254562041877814 0.64379065511209244
0.55760343416790947 -0.068060433763531658 0.65716648180694581
0.59626962757115254 -0.10759812533466959 0.66367860671890166
0.6622776435471327 -0.10408161685870213 0.63003655534634506
0.62503906015639854 -0.065805873048387198 0.62017886570633107
0.57100738280680341 -0.047229645201451863 0.63458740734949792
0.54354104063525743 -0.089614064863819842 0.67579143787708562
0.64633622043080186 -0.12483336127433683 0.65134841448502878
0.67738006944573148 -0.084505490049576609 0.6051777497103461
0.45528430718895968 -0.35010874504704537 0.7538191067406107
0.46995992495043437 -0.32153589658463466 0.7529856065591124
0.40807888387803998 -0.32143288516998636 0.75472385117785179
0.43967009313065908 -0.37977901337395503 0.7509121900242498
0.5005324819906195 -0.37792535964558827 0.75237700599962365
0.51440332199100702 -0.34820450919184492 0.75100318613405626
0.42301536602606221 -0.29384563106025907 0.75454661361664199
0.39219088561855564 -0.35024068430776933 0.75103308930142065
0.48590626808982285 -0.40867858096199106 0.75010733590911571
0.76576210722999027 -0.14539474077426573 0.59861320532500661
0.78583648749349255 -0.15656923216401941 0.59126805348688216
0.78893433215407871 -0.13050347373259361 0.56800360704545527
0.74038967112787568 -0.13369182969406651 0.60707426381462015
0.74275722861354743 -0.16266562377301907 0.62569893562612644
0.75943159750992617 -0.17212361283106301 0.62090140302238739
0.81221570280502775 -0.14359517959113927 0.55850040716679006
0.76025449502704068 -0.11699135111007583 0.57865530954796884
0.7203481530771767 -0.1523861160379742 0.63194347055697531
0.59485039150819374 -0.4344993514665767 0.7461814061507317
0.58734488020420794 -0.47146959603981653 0.74418892567222839
0.61512548531120959 -0.44527357300500803 0.74298874471175447
0.60304824210675201 -0.39901238539979172 0.74468000991203642
0.57077618160685262 -0.42066943035298066 0.74861277539651905
0.56037943525016942 -0.45515001077452977 0.74682521542402869
0.61052605891874556 -0.48465039541904109 0.74054723146181367
0.6205379629452592 -0.40704981792137296 0.74212929967380004
0.58137063010236578 -0.38754440501026477 0.74684135210502123
0.38142009439963404 -0.10017154868576553 0.7264860658334934
0.35312044734637793 -0.087398594991661138 0.72922970602687809
0.37373636405533145 -0.11870882748673212 0.73211349043730556
0.41632422646269474 -0.11495106791116894 0.72357041155373525
0.38884038286423667 -0.080775584948734158 0.71955600634076844
0.35780424543590023 -0.066520647016071438 0.72285187610712798
0.34683590550381305 -0.10689992846154742 0.73448519887567265
0.40745740535651065 -0.13299573658935668 0.72973116427238194
0.42551169891104951 -0.096171791985860317 0.71597082143310986
0.34049017558524225 -0.1696152442612186 0.7470598722555547
0.35351794157781652 -0.15301276451130091 0.74225930081096148
0.31146681329903858 -0.15808975860715949 0.74876161294876797
0.32621249025597271 -0.18703048938387559 0.75112126281445757
0.37542227094741965 -0.184323450913259 0.74590416365582168
0.38728927998914331 -0.16720016657621509 0.74072582963972455
0.32623981568423038 -0.14185326845910656 0.74415030091071055
0.29417046869213492 -0.1745139717910841 0.75265124262431216
0.36273908426432011 -0.20263324906504204 0.75033210269070327
0.5550399178780161 -0.16959521505187036 0.70393322298971417
0.56789007738379693 -0.14957705388501683 0.69322823770569963
0.50536793230636778 -0.15038350673214176 0.71228214387090927
0.54283875268364334 -0.18927496880962452 0.71299840390469227
0.60238141549517055 -0.18793256076219578 0.69545941153121638
0.6160005081507185 -0.16706825940924777 0.68360285202848781
0.51711150008391726 -0.13110234601032067 0.70275817456589862
0.49421174636831866 -0.16908204330404503 0.72021562847570086
0.58947259447610367 -0.20873342704426331 0.70560078386641856
0.50814530032785388 -0.24902101187927647 0.73714724260706055
0.46131163383377638 -0.22503671509205356 0.74115237832959635
0.49625252938791298 -0.27091238136153756 0.74394545418537561
0.55264325130066283 -0.27214399740627337 0.73286714224195026
0.51965024494172429 -0.22854885593382804 0.72942540748474782
0.47247922845814955 -0.20590584683675273 0.73446289459633674
0.44954303968961051 -0.24559616815788057 0.74700395359766558
0.54030965955819299 -0.29522051727871029 0.74059106542316466
0.56482072789936422 -0.25047305647105045 0.72412944873470309
0.6936152754875573 -0.22585147753709789 0.67997466983158794
0.70766213176994763 -0.23322223015605748 0.67790387632677251
0.70640639355390511 -0.20336724862330249 0.66606849189427353
0.67278334387583882 -0.21636974194819311 0.68316804843539725
0.6820989730074335 -0.24882421153049222 0.69160229258709816
0.69718883098237638 -0.25623473139670605 0.68938488244990948
0.7198978058918295 -0.21091769208066874 0.66403224091644109
0.68625641556009498 -0.19413773473098492 0.66961993666004482
0.66028608996556171 -0.23894317322914213 0.69465007995706174
0.64070619464892742 -0.3153798335452489 0.72350459380084176
0.62603269818746754 -0.33936101671866681 0.73275924064139264
0.6555682935660726 -0.3213633986375265 0.72132348440816663
0.65584730258375212 -0.29324809363936849 0.71308818783436945
0.61984078552599386 -0.30596502689264726 0.72591925616757225
0.60589700647429146 -0.33012633641215255 0.73489187560445535
0.64072769756227554 -0.34485997304196048 0.73075177445074679
0.67134769814454842 -0.29995906881242396 0.71077735196193648
0.63400460513156032 -0.28342171237736635 0.71579703468353928
0.29737860335303284 0.0089882628087479335 0.742090728478907
0.28699096542031549 0.021435272012329872 0.74342341513809196
0.29566100268611878 0.011199858161183525 0.75187906612442978
0.30504076096462374 -0.0061536522789688783 0.74128131690746635
0.30032536542191562 0.0076465885736913056 0.73175033930969224
0.28856885738170635 0.02028852282990299 0.73322608344989282
0.28617307356884386 0.023357031014816877 0.75333784482198596
0.30208790224879883 -0.0034618588599621622 0.75087226582372868
0.31031848857374217 -0.008275152495630704 0.73092892324421221
0.19029995769992486 -0.17285212609837797 0.78408360860398529
0.18901053210598429 -0.1699175422162803 0.79347905488050829
0.17241465471612949 -0.17315575062022678 0.78706104059342796
0.19145094329184881 -0.177239687987709 0.77481646687290517
0.20900460039335916 -0.16922762192475457 0.77995036532121809
0.20649837098436785 -0.16578153415078117 0.78903849790965908
0.17193737921675439 -0.17065743903121861 0.79669090700201728
0.17258824066472683 -0.17668314395968709 0.77764598096514725
0.21230206232266752 -0.17470321050025159 0.77096427603658468
0.23573428130563778 0.042042188857183645 0.74637432494460354
0.21516166481642363 0.041943467386598189 0.74718300987461794
0.2358620321976137 0.043784453327311269 0.75539064319333826
0.2556518164617344 0.038259435997230869 0.74567088863829123
0.23569917007453101 0.040868965087489308 0.73867845453837189
0.21455402622586889 0.040678290350345182 0.74056453850790704
0.21545740345562592 0.043949393463739085 0.75565419101256204
0.25566062340005158 0.039943739839099386 0.75519085301912237
0.25602034820022967 0.037076316960751095 0.73684084068301592
0.12112831069086426 -0.15266755386201164 0.78526092451279983
0.12108333068489442 -0.15122036451789395 0.79424620241091382
0.10823477729678362 -0.13974176161294471 0.78190801199733617
0.12087232172927233 -0.15421229100185682 0.77772551463194917
0.13723111370836411 -0.16290432969814264 0.78761133743680523
0.13731680844627531 -0.1610923228507197 0.79701514758462533
0.10789395435505293 -0.13881838671005317 0.79048636726915333
0.10794390245241826 -0.1404676300474749 0.77525496718252829
0.1369981187835575 -0.16510905810789375 0.7791151959468674
0.16508492638496186 0.014484958883670802 0.75271309975643874
0.15598534772175127 -0.00085255357631599388 0.75561613607795697
0.16759557271461029 0.019091038273674484 0.76036654784950708
0.17857574997417569 0.02772033240041178 0.7502646923617563
0.16007915402765316 0.010890710390158743 0.7468469354904933
0.14921284965109222 -0.0074028386162596424 0.74952549349515973
0.15943762989884402 0.0053089622782598947 0.76326820741092349
0.18008885726720619 0.031121420679235408 0.75802026477522988
0.1754202085607055 0.025590926963361911 0.74456248095367061
0.10291786223533834 -0.091171364031726182 0.77115319626092016
0.10127776659749511 -0.093619992835431709 0.77996012965015871
0.11192439952899601 -0.075737966232713394 0.76851096414138875
0.10234217906212786 -0.08723611263943376 0.76402318120068058
0.098728043978476496 -0.10797746840202344 0.77444272517973689
0.097628910112047121 -0.10901745275818012 0.7828893864619465
0.10942217144452811 -0.079697368229191684 0.77785781588642644
0.1129754456599847 -0.068991087686086305 0.7601664089131045
0.097924116103962247 -0.10611011448138502 0.76808274404801469
0.16167495456568348 -0.037666053093201139 0.76544769953263647
0.166157627550715 -0.044971294837703478 0.7682178681173486
0.16366719890496817 -0.032764604472015617 0.77339655861917267
0.15574120159047572 -0.028035204670703411 0.76221329454404785
0.15887901527948595 -0.04274314480243243 0.75997763714255584
0.1629621155985061 -0.04689310024696413 0.7637975678672827
0.16782047545349638 -0.04208758365204928 0.77611188310688539
0.15874829117685024 -0.021533703247753853 0.7700742325416563
0.15074390287536249 -0.035812484525045644 0.75618286214851949
0.15133965710031722 -0.055234434721350166 0.76839755983055069
0.14924242533854537 -0.057281482081668104 0.77752581299019929
0.16141172711618995 -0.053037430033658926 0.76956427870783506
0.15349526609516245 -0.051894247052775337 0.76151252097253119
0.13812465985759803 -0.057976356870490207 0.76728168092278104
0.13511860216007326 -0.061696389748635609 0.77687733668473824
0.16100730142190411 -0.053668733911139958 0.77805373227016839
0.16052888523113967 -0.051029729273338646 0.76448643232830726
0.14137696789828219 -0.051734180159778369 0.75887729160291562
0.31172184335566872 -0.064741618945767992 0.74726172352476827
0.31913092129066273 -0.069874598880363681 0.73943550160623073
0.31242124000478522 -0.043734554384603434 0.74382803964399025
0.30747963419340124 -0.060854767644536005 0.75564227564142805
0.30745938466651362 -0.085575278794299769 0.75137408409202922
0.31464472760636142 -0.090635905106733722 0.74392085570507893
0.32014786842137588 -0.04810709771531587 0.73493764465282307
0.30811721599949532 -0.040076910644095014 0.75262985038284735
0.30330433029528769 -0.081783106727094851 0.75959761146250393
0.26823767451677982 -0.13856802311806488 0.76558227274082924
0.24875692579136066 -0.15182770621350672 0.77041894387695897
0.27600607445961589 -0.14308497241436585 0.75798995850218864
0.28540510045791939 -0.12301870696170966 0.76071236916673468
0.26371587956850301 -0.13516005554284916 0.77384867589129691
0.24444506517107423 -0.14818717099818435 0.77889083037060114
0.25586460510314724 -0.15724074259343079 0.76237796475359643
0.29300164625615738 -0.1273771467828673 0.75327570238878372
0.2810270561801681 -0.11960560740479204 0.76891161769815941
0.29348448755516998 -0.052635905296380285 0.77837658265908494
0.29942705555291288 -0.055208982927253063 0.77147184849170147
0.29469922997362513 -0.033508968811499916 0.77577816865919957
0.28644661156217027 -0.049676469935276434 0.78474353933656116
0.28929135617173263 -0.072375514797016982 0.78197584439836754
0.29535826765861933 -0.075655754493314492 0.77520020306685566
0.3002455845917128 -0.035030415492166476 0.76877221675319218
0.28861670270228235 -0.032434645397916316 0.78202820447292443
0.28170543183745017 -0.068469348525295737 0.78831450475695053
0.25176592792019553 -0.12347548431565494 0.79522477656897972
0.23436850166538209 -0.13595404695901087 0.79999990463171322
0.25659639859200861 -0.12793469004745439 0.78896384304861322
0.26798250679629565 -0.10855752606977739 0.79060997347639539
0.24571729151286942 -0.11883844556623707 0.80098422590219409
0.23064115142601649 -0.13088622159629787 0.80505896394358656
0.23797960798903572 -0.14075894452038115 0.79401877108067809
0.27354652117233452 -0.11269073704999955 0.7841448453942883
0.26071722050775803 -0.10410823430072588 0.79670068391393156
0.17476984350197261 -0.024595943132750452 0.79766889171305777
0.17765022040768685 -0.036920983781138859 0.80138665924534125
0.18182176460805127 -0.022381158826066803 0.80328080503403398
0.17079258204857461 -0.011962387552124441 0.79356552025900595
0.16955527834853928 -0.026381700697211262 0.79051378794780203
0.17249814496399568 -0.03775620806653817 0.79386670280084171
0.18554310527662143 -0.03634789914569652 0.80769806492821494
0.17749015625440584 -0.010248542358408906 0.79889601157123757
0.1654402832001346 -0.013788822985158287 0.78661389869597853
0.15248465565100988 -0.062471460852462433 0.80429657809208166
0.15582945858256475 -0.066552248955635496 0.81125562326973499
0.16649642876550119 -0.055877503796178556 0.80470728090588484
0.14969248154628012 -0.060139752409610107 0.79629646065434034
0.13741859417646013 -0.068681490417797642 0.80347084062892005
0.14094045883786421 -0.072362700397945789 0.81000363597389125
0.17205872419109469 -0.059262531660255267 0.81185671724277952
0.16276801494298743 -0.054294011933397439 0.79669473065119822
0.13464135846777625 -0.066134789028912622 0.79560349200563663
0.17768745619498999 0.023940858035007763 0.78413509446062091
0.17105884272976207 0.012881830239610127 0.78655503310468722
0.18392850826355528 0.021454355442421226 0.79064343451581587
0.18798635928010948 0.033011477513115457 0.78230263530242128
0.17290717114474169 0.024543490917064904 0.77674468588828949
0.16580075928586457 0.012489330292305124 0.77940750935143599
0.17768744007025739 0.011630924029554297 0.79258469860465963
0.19298793668905567 0.029597071381298058 0.78870567679469228
0.18410353917378464 0.034552297592270166 0.77482197975082956
0.10666786582979738 -0.096755617826470963 0.80548752598039897
0.11400013198812704 -0.097383073409842508 0.8120535756922086
0.1131609720003761 -0.085517161145845455 0.80379884066869078
0.10194620414479084 -0.096057743383715255 0.79782175030362601
0.10451871211009063 -0.10883426609131677 0.80783181594588649
0.11192166565324631 -0.10816196891205973 0.81389779668788942
0.11950452746394309 -0.08724740466893588 0.81023289143375132
0.10910533771454443 -0.083869711841041916 0.79607510847853558
0.099462007092441226 -0.1092930664736548 0.80043798054453541
0.23664538901824117 0.040669995915852748 0.78197717213726403
0.21849997185524478 0.041598371997813223 0.78143528902842507
0.23515257372409371 0.03515661726922293 0.78930412057753618
0.2543235453443653 0.036863074536936609 0.78226064416249808
0.23670053180370293 0.043830187850654435 0.77374758711303793
0.21718734292556346 0.044474630835057684 0.77353491702274702
0.21925782899134111 0.03666950282990631 0.7881760511755711
0.25123654443569021 0.031072110570563256 0.78987719001693157
0.25555548071456013 0.040026798575946994 0.77385460259517191
0.1288511124838671 -0.14246406633260086 0.81860807242836453
0.13423707234207205 -0.13629093503737852 0.82371104397999806
0.11610944896993484 -0.13237534409180399 0.81482694661548127
0.12458869050357792 -0.14664142764883359 0.81172641320310801
0.14394059992251279 -0.15065011222812497 0.8213014881047116
0.14863291807285495 -0.14322433379870364 0.82620160065333803
0.12228674016062392 -0.12809357526901652 0.82003076455864621
0.11132536912292677 -0.13540098607873383 0.80786700211766538
0.14035639180678067 -0.1556654642069549 0.81455043994781662
0.28723904896046948 0.011714902385589566 0.77765379233184628
0.28019497084630474 0.02220742939252552 0.77996774672767433
0.28212376461737526 0.0070682349698746941 0.78482507442541172
0.29152255440806263 -0.00094468620923187502 0.77560207160717487
0.2911904317466496 0.013496262564350721 0.76971527851090127
0.28337378856446654 0.024681209926674337 0.77172365658711317
0.27537925510359212 0.016753104953515625 0.78747688136153404
0.28642361980249204 -0.004083073287361759 0.78226100953002298
0.29605332225733344 -0.00013374039462870496 0.76806220039149664
0.18791573750424051 -0.15696713619475797 0.81591736908484158
0.19023480190574188 -0.14898737968742928 0.82007942294299296
0.17399638955301733 -0.15816133657073911 0.81997798165353641
0.18734593241620917 -0.16285892256302578 0.80989271162570486
0.2020854913998219 -0.15282600859770912 0.81068048162284401
0.20293816406768417 -0.1458611966707524 0.81480692124064424
0.17730013047635956 -0.14982742580809302 0.8243405476293254
0.17226015446836784 -0.16403360138205769 0.8136857820847303
0.20283690019699657 -0.1584290244704164 0.80485404575150121
0.21262616772667081 0.0044438154943101729 0.80451238936077629
0.22425954288800071 -0.0042544391993863603 0.80683513221381487
0.22299354197553345 0.016485081631740291 0.80073950526190063
0.20160931661808329 0.01161580304167923 0.80092742612940659
0.20141808399209254 -0.0077228508416979577 0.80671000429565587
0.21007432328041725 -0.019795303268484464 0.81038300025878174
0.2362815803947324 0.010142012048981582 0.80223124945365232
0.2105581379896726 0.02125751664889753 0.79797408743086951
0.19311973185922959 0.001604700131122079 0.80251358555965269
0.1508217992302614 -0.10055987397683883 0.82528016062423182
0.1456711291900199 -0.11488141651185166 0.82701441002830911
0.16695864732345944 -0.10159696903633597 0.82685434676864489
0.15530342509759504 -0.086075414869528466 0.82189881217286065
0.13632078668693914 -0.099319960650079253 0.82208078878334567
0.13262718142327667 -0.11115424426446679 0.82354646663195108
0.16054447541593125 -0.11851638639230075 0.82892854379676684
0.17287373881584184 -0.082993895039611687 0.82312694430727973
0.14046447098669523 -0.087868926950124715 0.8193020207365771
0.25936178258878506 -0.031090041799589178 0.80130720193803828
0.24892007052887338 -0.050000668562143795 0.80584980159818254
0.26941575671784279 -0.038969812382397377 0.79634590887774603
0.26827540712333642 -0.014476797760032988 0.79652128977244741
0.24808761736547291 -0.022564912086745263 0.8051871034641237
