# XYZ point cloud file
-0.39079549908638 -0.7019733190536499 -0.094459250569343567
-0.40590712428092957 -0.71952944993972778 -0.11590670049190521
-0.41810306906700134 -0.73533475399017334 -0.13600686192512512
-0.42764389514923096 -0.7588689923286438 -0.14211200177669525
-0.43240225315093994 -0.77382916212081909 -0.13091322779655457
-0.44165322184562683 -0.79282295703887939 -0.12482170760631561
0.37520280480384827 0.60988360643386841 -0.31052297353744507
0.37002554535865784 0.61740177869796753 -0.31138637661933899
0.36473938822746277 0.62801980972290039 -0.31059342622756958
0.34790438413619995 0.62809532880783081 -0.29106438159942627
0.33499732613563538 0.61539334058761597 -0.27090811729431152
0.32048973441123962 0.60536837577819824 -0.24857509136199951
0.32003435492515564 0.58065468072891235 -0.22140982747077942
0.33187565207481384 0.56422972679138184 -0.22211098670959473
0.34243151545524597 0.55021381378173828 -0.22003760933876038
-0.38724693655967712 -0.67267751693725586 -0.08447236567735672
-0.40055647492408752 -0.66344738006591797 -0.096514269709587097
-0.4156762957572937 -0.65272003412246704 -0.10763968527317047
-0.43561643362045288 -0.66232621669769287 -0.13966852426528931
-0.44108450412750244 -0.6857067346572876 -0.15384498238563538
-0.44878923892974854 -0.70750921964645386 -0.16772107779979706
-0.44641736149787903 -0.73166841268539429 -0.17497462034225464
-0.43759199976921082 -0.73623865842819214 -0.16932731866836548
-0.43084299564361572 -0.74102836847305298 -0.16281338036060333
0.31493926048278809 0.66460657119750977 -0.30152422189712524
0.30539163947105408 0.65981757640838623 -0.29545003175735474
0.29576718807220459 0.65758639574050903 -0.28996896743774414
0.28890630602836609 0.65343171358108521 -0.27159452438354492
0.29235288500785828 0.64120036363601685 -0.25718623399734497
0.29697990417480469 0.6257978081703186 -0.24091938138008118
0.34888109564781189 0.65102404356002808 -0.30703863501548767
0.33869144320487976 0.66019558906555176 -0.30576795339584351
0.32915857434272766 0.66603869199752808 -0.3058224618434906
-0.48115482926368713 -0.69281220436096191 -0.20573648810386658
-0.47493290901184082 -0.70407801866531372 -0.19726186990737915
-0.46622788906097412 -0.7155832052230835 -0.18873736262321472
-0.45547384023666382 -0.63612127304077148 -0.15384911000728607
-0.46850737929344177 -0.63494503498077393 -0.1770188957452774
-0.47881388664245605 -0.63431954383850098 -0.19686928391456604
-0.48123380541801453 -0.64568078517913818 -0.21121038496494293
-0.48109599947929382 -0.65927815437316895 -0.21048367023468018
-0.48286691308021545 -0.67340302467346191 -0.21113665401935577
0.27882584929466248 0.67900234460830688 -0.27952107787132263
0.27185523509979248 0.70369541645050049 -0.27412542700767517
0.26549652218818665 0.73304331302642822 -0.26846128702163696
0.25365978479385376 0.76038217544555664 -0.24691134691238403
0.24634207785129547 0.75825780630111694 -0.22898769378662109
0.23788575828075409 0.75905746221542358 -0.2076692134141922
0.24444510042667389 0.7254173755645752 -0.1876828521490097
0.26245710253715515 0.68302816152572632 -0.19568014144897461
0.28185603022575378 0.64175063371658325 -0.20603565871715546
-0.4694230854511261 -0.61845028400421143 -0.13469807803630829
-0.50428611040115356 -0.60354310274124146 -0.14912380278110504
-0.53970861434936523 -0.59078067541122437 -0.16546037793159485
-0.56568121910095215 -0.58996337652206421 -0.19957156479358673
-0.56310141086578369 -0.6005362868309021 -0.21506503224372864
-0.56307655572891235 -0.61058950424194336 -0.2290007472038269
-0.54114919900894165 -0.62071675062179565 -0.23396149277687073
-0.51884567737579346 -0.62307292222976685 -0.22610166668891907
-0.49977618455886841 -0.6272539496421814 -0.21914038062095642
0.22792311012744904 0.86773049831390381 -0.22209098935127258
0.21665456891059875 0.86788541078567505 -0.20539435744285583
0.20424528419971466 0.86881309747695923 -0.18903414905071259
0.19789858162403107 0.84743219614028931 -0.17514799535274506
0.20586447417736053 0.82336384057998657 -0.17649364471435547
0.21596230566501617 0.79655081033706665 -0.17851033806800842
0.25345724821090698 0.79168701171875 -0.25587117671966553
0.24763704836368561 0.81805974245071411 -0.24934899806976318
0.24215240776538849 0.84323477745056152 -0.2433646023273468
-0.62463366985321045 -0.61238932609558105 -0.26352152228355408
-0.60558825731277466 -0.61457747220993042 -0.25609415769577026
-0.58557218313217163 -0.61689406633377075 -0.24907964468002319
-0.59829217195510864 -0.57084918022155762 -0.19704404473304749
-0.61985689401626587 -0.56354522705078125 -0.21089071035385132
-0.63878488540649414 -0.55811375379562378 -0.22384533286094666
-0.65213984251022339 -0.56989908218383789 -0.24305117130279541
-0.6483539342880249 -0.58517575263977051 -0.2515074610710144
-0.64540195465087891 -0.59917986392974854 -0.2612496018409729
0.23279587924480438 0.89230167865753174 -0.2350839376449585
0.22935350239276886 0.91687095165252686 -0.23371893167495728
0.2271052747964859 0.94159656763076782 -0.23475635051727295
-0.69687920808792114 -0.61092042922973633 -0.30774223804473877
-0.67923891544342041 -0.6095920205116272 -0.29377898573875427
-0.66129297018051147 -0.60959625244140625 -0.28193613886833191
0.19177417457103729 0.81844764947891235 -0.068791486322879791
0.2073340117931366 0.79519599676132202 -0.11355668306350708
0.21905653178691864 0.77699565887451172 -0.15094767510890961
-0.58406436443328857 -0.57158511877059937 -0.16184106469154358
-0.60133785009384155 -0.56293576955795288 -0.13860735297203064
-0.62410718202590942 -0.55208021402359009 -0.11182138323783875
0.30721905827522278 0.60073393583297729 -0.1366620659828186
0.30280622839927673 0.60203897953033447 -0.16182191669940948
0.30139154195785522 0.6023331880569458 -0.18918037414550781
-0.43453535437583923 -0.63171637058258057 -0.094625242054462433
-0.43244203925132751 -0.63086992502212524 -0.067181482911109924
-0.42884102463722229 -0.63350039720535278 -0.039670296013355255
0.24737103283405304 0.96278047561645508 -0.28581804037094116
0.24038480222225189 0.96323513984680176 -0.27149555087089539
0.2338520735502243 0.96447348594665527 -0.25582048296928406
0.24345220625400543 0.86750251054763794 -0.25374475121498108
0.24859623610973358 0.86710226535797119 -0.26818269491195679
0.25436484813690186 0.86682099103927612 -0.28191500902175903
0.25949388742446899 0.89055192470550537 -0.29342642426490784
0.25726306438446045 0.91441237926483154 -0.29329007863998413
0.25609830021858215 0.93854606151580811 -0.29502770304679871
-0.68708032369613647 -0.64586454629898071 -0.34754425287246704
-0.67031693458557129 -0.6436164379119873 -0.33398878574371338
-0.65341103076934814 -0.64264160394668579 -0.32209843397140503
-0.63800615072250366 -0.63179028034210205 -0.30403852462768555
-0.63954794406890869 -0.6244770884513855 -0.29425427317619324
-0.64118367433547974 -0.61824202537536621 -0.28324899077415466
-0.71039694547653198 -0.62217503786087036 -0.33550566434860229
-0.7075963020324707 -0.62960094213485718 -0.34634619951248169
-0.70546036958694458 -0.63811808824539185 -0.3557773232460022
0.26337042450904846 0.76584357023239136 -0.27647304534912109
0.26679080724716187 0.76744246482849121 -0.28917160630226135
0.27112400531768799 0.76848936080932617 -0.3005962073802948
0.27401930093765259 0.79492557048797607 -0.30619490146636963
0.27005851268768311 0.81951910257339478 -0.3018154501914978
0.26614555716514587 0.843361496925354 -0.29801347851753235
-0.61928218603134155 -0.64330703020095825 -0.30255523324012756
-0.60184329748153687 -0.64424467086791992 -0.29442659020423889
-0.58382731676101685 -0.64504820108413696 -0.28701105713844299
-0.5656663179397583 -0.63601404428482056 -0.27415311336517334
-0.56566262245178223 -0.62982147932052612 -0.26529371738433838
-0.56512832641601562 -0.62480705976486206 -0.25426739454269409
0.2857937216758728 0.66827458143234253 -0.2973153293132782
0.28617563843727112 0.67318904399871826 -0.30820116400718689
0.28783503174781799 0.67953652143478394 -0.31637805700302124
0.28726452589035034 0.6971663236618042 -0.3209051787853241
0.28414082527160645 0.71646541357040405 -0.31905999779701233
0.28106147050857544 0.74172145128250122 -0.31541270017623901
-0.5450780987739563 -0.64464396238327026 -0.27317768335342407
-0.52670735120773315 -0.64405745267868042 -0.26650664210319519
-0.51248139142990112 -0.64458036422729492 -0.26004362106323242
-0.49971088767051697 -0.64163243770599365 -0.24959820508956909
-0.49521875381469727 -0.6376381516456604 -0.24063789844512939
-0.49133509397506714 -0.63537180423736572 -0.22861526906490326
0.32277509570121765 0.67257434129714966 -0.31278824806213379
0.32370641827583313 0.67719805240631104 -0.32110702991485596
0.32511815428733826 0.68249231576919556 -0.32977035641670227
0.31467312574386597 0.68833035230636597 -0.33324494957923889
0.30396020412445068 0.68511402606964111 -0.32950195670127869
0.29536804556846619 0.68438756465911865 -0.32515275478363037
-0.50199925899505615 -0.65320771932601929 -0.25459364056587219
-0.50101667642593384 -0.66516208648681641 -0.25308129191398621
-0.50137513875961304 -0.6804271936416626 -0.25018817186355591
-0.49503126740455627 -0.69299870729446411 -0.23739483952522278
-0.49112093448638916 -0.68934786319732666 -0.22811396420001984
-0.4875701367855072 -0.68643343448638916 -0.21909701824188232
0.36449694633483887 0.64705348014831543 -0.32424545288085938
0.36822187900543213 0.65232032537460327 -0.33696043491363525
0.37042433023452759 0.65828591585159302 -0.34687629342079163
0.36313721537590027 0.67778235673904419 -0.35051488876342773
0.35190820693969727 0.68530821800231934 -0.34623783826828003
0.33947759866714478 0.68980777263641357 -0.34156063199043274
-0.49796068668365479 -0.71457791328430176 -0.24108782410621643
-0.49254366755485535 -0.73068320751190186 -0.23536688089370728
-0.48518365621566772 -0.74453538656234741 -0.22924007475376129
-0.46956717967987061 -0.74987083673477173 -0.21472188830375671
-0.46507722139358521 -0.74459940195083618 -0.2047918438911438
-0.4611930251121521 -0.73711442947387695 -0.19346904754638672
0.38458138704299927 0.61422759294509888 -0.32377034425735474
0.38618868589401245 0.6190413236618042 -0.33634769916534424
0.38725534081459045 0.62460339069366455 -0.34430468082427979
0.38567018508911133 0.63447177410125732 -0.35216894745826721
0.38244524598121643 0.64305377006530762 -0.35529294610023499
0.37832748889923096 0.65504598617553711 -0.35563740134239197
-0.46622040867805481 -0.76065313816070557 -0.2168913334608078
-0.4567733108997345 -0.7635955810546875 -0.21024774014949799
-0.44969531893730164 -0.76563084125518799 -0.20235730707645416
-0.44163656234741211 -0.76456815004348755 -0.19066491723060608
-0.43719363212585449 -0.76087164878845215 -0.18217462301254272
-0.43296420574188232 -0.75588911771774292 -0.16978040337562561
0.42511069774627686 0.66848808526992798 -0.31714436411857605
0.42341214418411255 0.67329996824264526 -0.33006986975669861
0.42074120044708252 0.67883270978927612 -0.34126240015029907
0.40646886825561523 0.66436833143234253 -0.34370672702789307
0.39798104763031006 0.64647740125656128 -0.34366753697395325
0.39171960949897766 0.63524991273880005 -0.34602499008178711
-0.44839680194854736 -0.77275550365447998 -0.19166794419288635
-0.45482644438743591 -0.78280425071716309 -0.1873537003993988
-0.46572780609130859 -0.79743605852127075 -0.18543121218681335
-0.47274225950241089 -0.81858259439468384 -0.17515546083450317
-0.46718481183052063 -0.81920957565307617 -0.16027426719665527
-0.46208480000495911 -0.81827008724212646 -0.14485248923301697
0.2667771577835083 1.0690891742706299 -0.3257407546043396
0.25994759798049927 1.0701349973678589 -0.31335645914077759
0.25290355086326599 1.071982741355896 -0.29808917641639709
0.25797736644744873 0.98792195320129395 -0.30544140934944153
0.26145234704017639 1.0135084390640259 -0.31393107771873474
0.26685893535614014 1.0400551557540894 -0.32392638921737671
-0.75300633907318115 -0.67380738258361816 -0.41942372918128967
-0.73644137382507324 -0.66330116987228394 -0.39939743280410767
-0.72006028890609741 -0.65537893772125244 -0.38040626049041748
-0.77819281816482544 -0.66117435693740845 -0.42053073644638062
-0.77486163377761841 -0.66915911436080933 -0.42990612983703613
-0.77238833904266357 -0.67743265628814697 -0.43691927194595337
0.32757925987243652 1.1709263324737549 -0.37709355354309082
0.32346445322036743 1.1765056848526001 -0.36812767386436462
0.31777450442314148 1.180442214012146 -0.35508543252944946
0.28418654203414917 1.0971189737319946 -0.34637570381164551
0.29662838578224182 1.1243842840194702 -0.3579690158367157
0.31204319000244141 1.1461060047149658 -0.36934354901313782
-0.81511741876602173 -0.7483140230178833 -0.49029988050460815
-0.80327564477920532 -0.72426319122314453 -0.4782961905002594
-0.78746259212493896 -0.70398950576782227 -0.46056410670280457
-0.8384246826171875 -0.76297551393508911 -0.49093341827392578
-0.83422559499740601 -0.76930618286132812 -0.49724429845809937
-0.82941466569900513 -0.77361327409744263 -0.49987918138504028
0.41732138395309448 1.1450239419937134 -0.43293935060501099
0.41665008664131165 1.1498652696609497 -0.42704463005065918
0.41369271278381348 1.1521492004394531 -0.41654866933822632
0.35039341449737549 1.1667017936706543 -0.39295214414596558
0.37192016839981079 1.164188027381897 -0.40554770827293396
0.39360257983207703 1.1533554792404175 -0.41864863038063049
-0.80875110626220703 -0.86629229784011841 -0.4769938588142395
-0.818683922290802 -0.83613014221191406 -0.48830878734588623
-0.82318598031997681 -0.80534666776657104 -0.49502402544021606
-0.80605775117874146 -0.8964117169380188 -0.4567992091178894
-0.80386525392532349 -0.89991664886474609 -0.46341586112976074
-0.80036711692810059 -0.89995968341827393 -0.46608909964561462
0.47958087921142578 0.99573147296905518 -0.48141616582870483
0.48298901319503784 0.99592387676239014 -0.47846049070358276
0.48308145999908447 0.99508011341094971 -0.47023534774780273
0.43319490551948547 1.1074045896530151 -0.446287602186203
0.44928222894668579 1.0739309787750244 -0.45930257439613342
0.4618760347366333 1.0354299545288086 -0.4697728157043457
-0.72178339958190918 -0.95082962512969971 -0.40510839223861694
-0.74911785125732422 -0.93758165836334229 -0.42573872208595276
-0.77337878942489624 -0.91835743188858032 -0.44492015242576599
-0.69095748662948608 -0.97441279888153076 -0.3677486777305603
-0.69192796945571899 -0.97504675388336182 -0.37625604867935181
-0.69254297018051147 -0.97059208154678345 -0.38188022375106812
0.46916490793228149 0.8126603364944458 -0.44361418485641479
0.47358959913253784 0.80877864360809326 -0.43733572959899902
0.47562369704246521 0.80561625957489014 -0.42683091759681702
0.47352924942970276 0.94925940036773682 -0.47705000638961792
0.47252827882766724 0.90447628498077393 -0.47206300497055054
0.4679144024848938 0.86043965816497803 -0.46094173192977905
-0.60069966316223145 -0.93132191896438599 -0.31387242674827576
-0.63100540637969971 -0.94613337516784668 -0.33840996026992798
-0.66182988882064819 -0.95507824420928955 -0.3614557683467865
-0.55816793441772461 -0.92725056409835815 -0.25335949659347534
-0.56170743703842163 -0.92666012048721313 -0.26657772064208984
-0.56584709882736206 -0.92238259315490723 -0.27793896198272705
0.45066922903060913 0.78023898601531982 -0.41914233565330505
0.43957799673080444 0.74557304382324219 -0.39261177182197571
0.42795664072036743 0.71464598178863525 -0.36823904514312744
-0.49899318814277649 -0.83902561664581299 -0.20634205639362335
-0.52053064107894897 -0.86376261711120605 -0.23014509677886963
-0.54488635063171387 -0.88863503932952881 -0.25828284025192261
0.33060535788536072 0.74523431062698364 -0.34337133169174194
0.32975089550018311 0.72348034381866455 -0.34302753210067749
0.32838782668113708 0.70498621463775635 -0.34119057655334473
0.37483879923820496 0.68283045291900635 -0.35767340660095215
0.37779402732849121 0.70273447036743164 -0.35973542928695679
0.38071507215499878 0.72598785161972046 -0.36136403679847717
0.37148246169090271 0.76065129041671753 -0.3610478937625885
0.35873550176620483 0.76589435338973999 -0.35622638463973999
0.34509700536727905 0.7682795524597168 -0.35002526640892029
-0.55274659395217896 -0.73786991834640503 -0.27079612016677856
-0.54871362447738647 -0.75620293617248535 -0.26597487926483154
-0.5427401065826416 -0.77263259887695312 -0.25938785076141357
-0.51638835668563843 -0.77825945615768433 -0.24157553911209106
-0.50044214725494385 -0.76975542306900024 -0.23506501317024231
-0.4868200421333313 -0.76176691055297852 -0.22931918501853943
-0.51087164878845215 -0.70266503095626831 -0.25347745418548584
-0.5237773060798645 -0.70820838212966919 -0.26019969582557678
-0.5389937162399292 -0.71354019641876221 -0.26702418923377991
0.3257545530796051 0.84457600116729736 -0.34258472919464111
0.32808360457420349 0.81909805536270142 -0.34270969033241272
0.32979759573936462 0.79381060600280762 -0.34283757209777832
0.38485300540924072 0.77732372283935547 -0.36868491768836975
0.38572472333908081 0.80399835109710693 -0.37463560700416565
0.38587021827697754 0.83120381832122803 -0.3806692361831665
0.36811172962188721 0.8648688793182373 -0.37244853377342224
0.35270369052886963 0.86828958988189697 -0.36158555746078491
0.33803191781044006 0.86974620819091797 -0.3519536554813385
-0.62511575222015381 -0.74675387144088745 -0.31620979309082031
-0.62174993753433228 -0.76700252294540405 -0.31407034397125244
-0.61703181266784668 -0.78814876079559326 -0.31140565872192383
-0.59064120054244995 -0.8068777322769165 -0.29242175817489624
-0.57120752334594727 -0.80105388164520264 -0.27672606706619263
-0.55223673582077026 -0.79427611827850342 -0.2622833251953125
-0.57331728935241699 -0.72151899337768555 -0.28392699360847473
-0.59136456251144409 -0.723827064037323 -0.29440879821777344
-0.60960054397583008 -0.7252463698387146 -0.30580195784568787
0.31514227390289307 0.94275146722793579 -0.34164416790008545
0.31726729869842529 0.9189569354057312 -0.3417743444442749
0.32003355026245117 0.89467465877532959 -0.34207504987716675
0.38420313596725464 0.88679397106170654 -0.38864386081695557
0.38268560171127319 0.91455477476119995 -0.38983649015426636
0.38103652000427246 0.9416002631187439 -0.38961371779441833
0.35988718271255493 0.96490490436553955 -0.37158530950546265
0.34338295459747314 0.9645543098449707 -0.35950121283531189
0.32858353853225708 0.96529805660247803 -0.35020425915718079
-0.69267141819000244 -0.74955886602401733 -0.36338478326797485
-0.6898532509803772 -0.77022528648376465 -0.36087486147880554
-0.68765848875045776 -0.79368549585342407 -0.35982215404510498
-0.66869968175888062 -0.82021170854568481 -0.34979096055030823
-0.64976125955581665 -0.81801849603652954 -0.33701884746551514
-0.63019090890884399 -0.8152623176574707 -0.32315471768379211
-0.64543759822845459 -0.72611111402511597 -0.32998937368392944
-0.66268455982208252 -0.7263457179069519 -0.34225726127624512
-0.67941105365753174 -0.72726643085479736 -0.35438558459281921
0.31900894641876221 1.0364143848419189 -0.34776341915130615
0.31626391410827637 1.0121387243270874 -0.34427186846733093
0.31454366445541382 0.98894977569580078 -0.34250500798225403
0.37830746173858643 0.99147200584411621 -0.3862607479095459
0.37721338868141174 1.0141212940216064 -0.38443517684936523
0.37595880031585693 1.0357056856155396 -0.38380473852157593
0.36489415168762207 1.0535205602645874 -0.37612473964691162
0.35159692168235779 1.0560802221298218 -0.36713522672653198
0.33724752068519592 1.0596590042114258 -0.35968837141990662
-0.75499308109283447 -0.7750396728515625 -0.4134979248046875
-0.75048518180847168 -0.79492700099945068 -0.40767866373062134
-0.7468256950378418 -0.8134695291519165 -0.40454334020614624
-0.73333042860031128 -0.82690185308456421 -0.39370864629745483
-0.71866995096206665 -0.82578063011169434 -0.38214844465255737
-0.70319890975952148 -0.82409387826919556 -0.37178307771682739
-0.71109479665756226 -0.73362159729003906 -0.37744876742362976
-0.72651499509811401 -0.73937344551086426 -0.38941389322280884
-0.74234062433242798 -0.74644750356674194 -0.40329590439796448
0.30816599726676941 1.0630149841308594 -0.34870728850364685
0.29495415091514587 1.0632364749908447 -0.34451296925544739
0.28373011946678162 1.0653642416000366 -0.34054234623908997
0.26847371459007263 0.96388924121856689 -0.31113025546073914
0.28292617201805115 0.96496057510375977 -0.32231739163398743
0.298500657081604 0.96582627296447754 -0.33254790306091309
-0.69798719882965088 -0.70781111717224121 -0.3680877685546875
-0.70006060600280762 -0.68618375062942505 -0.36855512857437134
-0.70191329717636108 -0.66625708341598511 -0.3670276403427124
-0.7667202353477478 -0.69987350702285767 -0.43750178813934326
-0.76360517740249634 -0.71546381711959839 -0.43211641907691956
-0.76150953769683838 -0.73418807983398438 -0.42645612359046936
0.27489641308784485 0.86754727363586426 -0.3079337477684021
0.29003173112869263 0.86847406625747681 -0.32020837068557739
0.30653753876686096 0.86935824155807495 -0.33175420761108398
-0.63017880916595459 -0.70313555002212524 -0.31870931386947632
-0.63245493173599243 -0.68031132221221924 -0.31841123104095459
-0.63453179597854614 -0.65947890281677246 -0.3162727952003479
0.28813982009887695 0.76954412460327148 -0.31997248530387878
0.3011397123336792 0.76968181133270264 -0.32823419570922852
0.31568866968154907 0.76953059434890747 -0.33584761619567871
-0.55867451429367065 -0.69755297899246216 -0.27848589420318604
-0.56130695343017578 -0.67756426334381104 -0.28126007318496704
-0.56347286701202393 -0.65965914726257324 -0.28208282589912415
0.41065788269042969 0.70190936326980591 -0.35739588737487793
0.40296974778175354 0.7191576361656189 -0.36199831962585449
0.39375737309455872 0.73653572797775269 -0.36419165134429932
-0.52128636837005615 -0.79772061109542847 -0.23757016658782959
-0.50687265396118164 -0.80615866184234619 -0.22262780368328094
-0.49265223741531372 -0.81225115060806274 -0.20649494230747223
0.44532209634780884 0.82776647806167603 -0.43442153930664062
0.42625388503074646 0.83864414691925049 -0.41976261138916016
0.40549358725547791 0.8495481014251709 -0.40249669551849365
-0.60114002227783203 -0.83895194530487061 -0.30470287799835205
-0.59072244167327881 -0.86687010526657104 -0.300301194190979
-0.58046549558639526 -0.89220923185348511 -0.29464951157569885
0.45224577188491821 0.9877474308013916 -0.45986926555633545
0.42895224690437317 0.98045861721038818 -0.43684983253479004
0.40361011028289795 0.97313904762268066 -0.41153055429458618
-0.68733566999435425 -0.85778146982192993 -0.36678397655487061
-0.68901526927947998 -0.89553231000900269 -0.37374681234359741
-0.69093704223632812 -0.93030691146850586 -0.38006624579429626
0.40650177001953125 1.1146585941314697 -0.42292708158493042
0.39571070671081543 1.0909833908081055 -0.40908214449882507
0.38403061032295227 1.068448543548584 -0.39476689696311951
-0.75398892164230347 -0.8425668478012085 -0.41520184278488159
-0.76731151342391968 -0.8620457649230957 -0.43166166543960571
-0.78153818845748901 -0.88043212890625 -0.44900524616241455
0.33093360066413879 1.1429411172866821 -0.37837448716163635
0.32986742258071899 1.1192363500595093 -0.37156212329864502
0.32661417126655579 1.0912940502166748 -0.36242210865020752
-0.77727323770523071 -0.76337432861328125 -0.44170066714286804
-0.79496651887893677 -0.77081167697906494 -0.46380135416984558
-0.8102375864982605 -0.77473759651184082 -0.48297113180160522
0.50645369291305542 0.75707244873046875 -0.4983782172203064
0.52385437488555908 0.73800849914550781 -0.4786548912525177
0.52960950136184692 0.73336529731750488 -0.45150163769721985
0.44530186057090759 0.5129660964012146 -0.30800694227218628
0.43742462992668152 0.51814568042755127 -0.34327942132949829
0.42000868916511536 0.54038798809051514 -0.37461334466934204
0.41378635168075562 0.62523454427719116 -0.41566184163093567
0.43570977449417114 0.67452722787857056 -0.44487097859382629
0.45555287599563599 0.73178887367248535 -0.47609630227088928
-0.51296550035476685 -0.89141964912414551 -0.29847675561904907
-0.47371980547904968 -0.84948235750198364 -0.26783525943756104
-0.44044703245162964 -0.80619484186172485 -0.24421900510787964
-0.3747636079788208 -0.79080605506896973 -0.17836722731590271
-0.35153919458389282 -0.80299818515777588 -0.12883654236793518
-0.34178203344345093 -0.80491846799850464 -0.087234437465667725
-0.49811527132987976 -0.98816168308258057 -0.20716355741024017
-0.50541472434997559 -0.98621684312820435 -0.24082383513450623
-0.52381378412246704 -0.96919012069702148 -0.28262364864349365
0.53014194965362549 1.0594780445098877 -0.51810246706008911
0.53974097967147827 1.0440709590911865 -0.50519222021102905
0.53981053829193115 1.0359030961990356 -0.48610246181488037
0.48893165588378906 0.86787033081054688 -0.52116161584854126
0.50086861848831177 0.94244682788848877 -0.52948504686355591
0.5075262188911438 1.0165040493011475 -0.52879244089126587
-0.70363736152648926 -1.015131950378418 -0.41502135992050171
-0.65444803237915039 -0.99499428272247314 -0.3891642689704895
-0.60490947961807251 -0.96604019403457642 -0.36137992143630981
-0.71100175380706787 -1.0619490146636963 -0.35056984424591064
-0.71750718355178833 -1.0646501779556274 -0.37354227900505066
-0.72967267036437988 -1.0538219213485718 -0.40303212404251099
0.43212759494781494 1.2781280279159546 -0.41554400324821472
0.42855122685432434 1.281679630279541 -0.39676791429519653
0.4232107400894165 1.2791422605514526 -0.3781546950340271
0.498668372631073 1.1484309434890747 -0.50172770023345947
0.4816964864730835 1.201530933380127 -0.47821813821792603
0.45652979612350464 1.2445708513259888 -0.45141929388046265
-0.86128759384155273 -0.96888828277587891 -0.50689637660980225
-0.82998418807983398 -1.0008300542831421 -0.48489409685134888
-0.79279083013534546 -1.0192322731018066 -0.4625016450881958
-0.89036113023757935 -0.92804634571075439 -0.48630207777023315
-0.8905150294303894 -0.93467730283737183 -0.50146067142486572
-0.88686740398406982 -0.93801355361938477 -0.51440513134002686
0.29484152793884277 1.3069274425506592 -0.358756422996521
0.27563455700874329 1.320051908493042 -0.32461133599281311
0.2650245726108551 1.3214073181152344 -0.29627531766891479
0.4113350510597229 1.290412425994873 -0.42054575681686401
0.38159617781639099 1.3038662672042847 -0.41008520126342773
0.35258644819259644 1.2997826337814331 -0.40280613303184509
-0.90804392099380493 -0.81969690322875977 -0.58328050374984741
-0.90776020288467407 -0.86348479986190796 -0.56856215000152588
-0.89611464738845825 -0.90676099061965942 -0.54487264156341553
-0.93999803066253662 -0.70609724521636963 -0.56210088729858398
-0.93497633934020996 -0.71668219566345215 -0.58109802007675171
-0.92140311002731323 -0.73887807130813599 -0.59136897325515747
0.20159633457660675 1.1287697553634644 -0.31881076097488403
0.18018157780170441 1.1504579782485962 -0.27732676267623901
0.17031373083591461 1.1573570966720581 -0.24215364456176758
0.29992741346359253 1.2428817749023438 -0.39102610945701599
0.27704653143882751 1.1956888437271118 -0.38407567143440247
0.25643002986907959 1.1422007083892822 -0.37540385127067566
-0.81826049089431763 -0.66477417945861816 -0.53623658418655396
-0.84992098808288574 -0.69932138919830322 -0.56120067834854126
-0.87734341621398926 -0.73676472902297974 -0.57911801338195801
-0.85089832544326782 -0.5609021782875061 -0.46883100271224976
-0.84137964248657227 -0.56821531057357788 -0.49345630407333374
-0.82056528329849243 -0.59048342704772949 -0.50860947370529175
0.16108258068561554 0.94494450092315674 -0.28096330165863037
0.14556047320365906 0.97245132923126221 -0.24292942881584167
0.14025767147541046 0.98560380935668945 -0.20856305956840515
0.22189410030841827 1.0349444150924683 -0.34985888004302979
0.20827925205230713 0.98592293262481689 -0.33539599180221558
0.19753730297088623 0.9401012659072876 -0.32403391599655151
-0.69489890336990356 -0.55981183052062988 -0.4193480908870697
-0.72354990243911743 -0.58036965131759644 -0.4455866813659668
-0.75365251302719116 -0.60500335693359375 -0.47569912672042847
-0.74410122632980347 -0.5015941858291626 -0.3559938371181488
-0.73141241073608398 -0.50219988822937012 -0.38129931688308716
-0.70720094442367554 -0.51477694511413574 -0.39845526218414307
0.29305645823478699 1.020133376121521 -0.41129389405250549
0.35699796676635742 0.9408147931098938 -0.4540819525718689
0.4202800989151001 0.86196321249008179 -0.48676204681396484
0.34353706240653992 0.65528380870819092 -0.39472991228103638
0.28938049077987671 0.73973268270492554 -0.37971198558807373
0.2354823499917984 0.82483375072479248 -0.35315495729446411
-0.60909867286682129 -0.59358012676239014 -0.37771269679069519
-0.54097050428390503 -0.65371692180633545 -0.33834290504455566
-0.47284603118896484 -0.71364784240722656 -0.28787669539451599
-0.60892939567565918 -0.86438506841659546 -0.38550782203674316
-0.67030537128448486 -0.78371810913085938 -0.43783119320869446
-0.73209977149963379 -0.70218920707702637 -0.48077291250228882
0.36886242032051086 1.2337578535079956 -0.43769931793212891
0.41879904270172119 1.1805005073547363 -0.47516074776649475
0.46757864952087402 1.1290513277053833 -0.50375735759735107
-0.78272455930709839 -0.96981024742126465 -0.48275297880172729
-0.82161331176757812 -0.902931809425354 -0.52642577886581421
-0.86216825246810913 -0.83513408899307251 -0.56350076198577881
0.18599183857440948 0.85844123363494873 -0.32329601049423218
0.18135395646095276 0.82584744691848755 -0.33427593111991882
0.17192235589027405 0.80294221639633179 -0.3490709662437439
-0.60607755184173584 -0.5041089653968811 -0.39968803524971008
-0.62041342258453369 -0.52118563652038574 -0.38964682817459106
-0.64190560579299927 -0.53264313936233521 -0.38979822397232056
0.36376196146011353 0.55290329456329346 -0.38671985268592834
0.33655676245689392 0.5274321436882019 -0.39002537727355957
0.30906137824058533 0.50506746768951416 -0.40142267942428589
-0.37418335676193237 -0.64011812210083008 -0.28148537874221802
-0.38382178544998169 -0.67985701560974121 -0.25521421432495117
-0.39628508687019348 -0.72075384855270386 -0.23752075433731079
0.074736133217811584 0.44373676180839539 0.74385911226272583
-0.362498939037323 -0.29009890556335449 0.75994223356246948
0.14074639976024628 0.45979097485542297 0.66405248641967773
-0.34125396609306335 -0.34886568784713745 0.70089823007583618
0.19710378348827362 0.47565361857414246 0.55447465181350708
-0.32883530855178833 -0.40645864605903625 0.61073958873748779
0.17194032669067383 0.29734516143798828 0.58672386407852173
-0.17741388082504272 -0.288198322057724 0.64853376150131226
0.12406077980995178 0.32733601331710815 0.68747895956039429
-0.22593708336353302 -0.25956845283508301 0.73217403888702393
0.0628766268491745 0.35854589939117432 0.7579994797706604
-0.28830242156982422 -0.23068147897720337 0.78178882598876953
-0.0097369290888309479 0.30246016383171082 0.77763032913208008
-0.2781757116317749 -0.14805935323238373 0.78850859403610229
0.0095839016139507294 0.2404731810092926 0.71916097402572632
-0.20945161581039429 -0.12696084380149841 0.73865628242492676
0.021750684827566147 0.18250364065170288 0.63191014528274536
-0.15185800194740295 -0.10858074575662613 0.65622842311859131
-0.16720251739025116 0.19663083553314209 0.64854639768600464
-0.26910251379013062 0.025488071143627167 0.64501035213470459
-0.13667209446430206 0.24761316180229187 0.73104232549667358
-0.30129373073577881 -0.028868585824966431 0.7255246639251709
-0.10342676937580109 0.30558204650878906 0.78632766008377075
-0.33784189820289612 -0.08812154084444046 0.778328537940979
-0.16662432253360748 0.36657834053039551 0.79033792018890381
-0.4342447817325592 -0.083234384655952454 0.76034241914749146
-0.230015829205513 0.34595459699630737 0.73431229591369629
-0.44799706339836121 -0.020587436854839325 0.69992953538894653
-0.28835904598236084 0.33229628205299377 0.64702385663986206
-0.46073204278945923 0.042290642857551575 0.61016404628753662
-0.26358795166015625 0.51270192861557007 0.63948774337768555
-0.60993385314941406 -0.070216692984104156 0.55229252576828003
-0.21361549198627472 0.47893586754798889 0.72747009992599487
-0.56139916181564331 -0.10609139502048492 0.65894454717636108
-0.15718190371990204 0.44981831312179565 0.78354859352111816
-0.50690764188766479 -0.13815315067768097 0.7345537543296814
-0.081285998225212097 0.50948834419250488 0.7677159309387207
-0.51726233959197998 -0.22326135635375977 0.72070378065109253
-0.096916347742080688 0.56895244121551514 0.70552307367324829
-0.57683569192886353 -0.23794093728065491 0.63601928949356079
-0.10982571542263031 0.63151055574417114 0.61421829462051392
-0.63273376226425171 -0.24795475602149963 0.52034270763397217
0.082126989960670471 0.61400699615478516 0.57256090641021729
-0.51513534784317017 -0.38910070061683655 0.55222201347351074
0.050273071974515915 0.56056630611419678 0.67451852560043335
-0.48580878973007202 -0.33978316187858582 0.65661877393722534
0.015701662749052048 0.50498497486114502 0.74894660711288452
-0.45535829663276672 -0.28616347908973694 0.73296904563903809
0.0040377043187618256 0.48600199818611145 0.77824681997299194
-0.4449610710144043 -0.26809734106063843 0.76297038793563843
-0.076573342084884644 0.49016425013542175 0.79379504919052124
-0.4977869987487793 -0.21769469976425171 0.7531198263168335
-0.14060677587985992 0.44099518656730652 0.80931955575942993
-0.49063831567764282 -0.14739294350147247 0.76615351438522339
-0.14708535373210907 0.37212973833084106 0.81540864706039429
-0.42927896976470947 -0.10210938006639481 0.78778451681137085
-0.09427545964717865 0.32148268818855286 0.8117404580116272
-0.34808677434921265 -0.10479621589183807 0.80308961868286133
-0.015942741185426712 0.3205031156539917 0.80430573225021362
-0.29884558916091919 -0.15435469150543213 0.81182217597961426
-0.045774940401315689 0.40252473950386047 0.81578278541564941
-0.39623844623565674 -0.18608114123344421 0.80392414331436157
0.045165952295064926 0.36685740947723389 0.78796422481536865
-0.30609744787216187 -0.22260624170303345 0.80583435297012329
0.053854253143072128 0.43720522522926331 0.77457159757614136
-0.36839491128921509 -0.27155765891075134 0.78521448373794556
-0.39312785863876343 0.18557402491569519 0.71624326705932617
-0.32281988859176636 0.14915779232978821 0.78960281610488892
0.59765881299972534 -0.25302964448928833 0.71193104982376099
0.28221532702445984 -0.1004488617181778 0.77212202548980713
0.16329681873321533 -0.04837491363286972 0.78621315956115723
0.68960726261138916 -0.30559828877449036 0.68247026205062866
-0.39696270227432251 0.20079106092453003 0.60475009679794312
-0.49460819363594055 0.26797917485237122 0.51517075300216675
-0.58920693397521973 0.62838190793991089 -0.4654313325881958
-0.34960407018661499 0.38023582100868225 -0.72790908813476562
-0.10481007397174835 -0.00041072070598602295 -0.72336167097091675
0.20621959865093231 -0.32592043280601501 -0.24804264307022095
0.2645907998085022 0.11308177560567856 0.54651170969009399
0.034959938377141953 -0.27123379707336426 0.62169599533081055
0.52017050981521606 0.020918399095535278 0.48434421420097351
0.24894405901432037 -0.43187013268470764 0.64341217279434204
0.71536165475845337 -0.062906570732593536 0.43052849173545837
0.42071366310119629 -0.55380284786224365 0.66428506374359131
0.86586135625839233 -0.15514847636222839 0.37147718667984009
0.56716960668563843 -0.65191739797592163 0.6615329384803772
0.92297571897506714 -0.23370730876922607 0.36713320016860962
0.66153615713119507 -0.66813814640045166 0.64450752735137939
0.89875000715255737 -0.33503326773643494 0.44042837619781494
0.75021177530288696 -0.58178198337554932 0.60269135236740112
0.83948469161987305 -0.45859941840171814 0.53368180990219116
0.30228957533836365 0.29825347661972046 0.49833580851554871
-0.11737643182277679 -0.40453174710273743 0.60989582538604736
0.30995291471481323 0.51334285736083984 0.47356617450714111
-0.30884063243865967 -0.52384710311889648 0.58030211925506592
0.23353384435176849 0.72891271114349365 0.4808298647403717
-0.54249083995819092 -0.5737268328666687 0.497444748878479
0.057845365256071091 0.84741616249084473 0.61997151374816895
-0.74104171991348267 -0.49593418836593628 0.49382168054580688
-0.087263345718383789 0.78561681509017944 0.68436950445175171
-0.7659570574760437 -0.35647600889205933 0.52491909265518188
-0.28977024555206299 0.66019123792648315 0.72864973545074463
-0.77091002464294434 -0.15017707645893097 0.57157915830612183
-0.47860211133956909 0.5579298734664917 0.74924945831298828
-0.79114651679992676 0.03097805380821228 0.61380851268768311
-0.51872414350509644 0.42282232642173767 0.74215644598007202
-0.69183045625686646 0.13097834587097168 0.66807562112808228
-0.41675126552581787 0.27676567435264587 0.72862333059310913
-0.49391716718673706 0.14683026075363159 0.70546215772628784
-0.28818544745445251 0.31012323498725891 0.77880102396011353
-0.45384341478347778 0.031497791409492493 0.74855226278305054
-0.22215208411216736 0.23661461472511292 0.76874333620071411
-0.34346535801887512 0.032750867307186127 0.75746691226959229
0.048322629183530807 0.22008270025253296 0.7332267165184021
-0.16574913263320923 -0.13891535997390747 0.75892394781112671
0.15830709040164948 0.33166080713272095 0.67863887548446655
-0.20995257794857025 -0.2857201099395752 0.73461592197418213
0.18288001418113708 0.4657452404499054 0.64524340629577637
-0.32306098937988281 -0.38285183906555176 0.69781917333602905
0.13646036386489868 0.60347926616668701 0.64467054605484009
-0.47722908854484558 -0.42679616808891296 0.64969909191131592
0.048404436558485031 0.66919881105422974 0.67544639110565186
-0.5872381329536438 -0.39889538288116455 0.62144893407821655
-0.048946429044008255 0.65524643659591675 0.71356850862503052
-0.63087493181228638 -0.32319611310958862 0.6269303560256958
-0.1851406991481781 0.55647945404052734 0.75759685039520264
-0.62152940034866333 -0.17765572667121887 0.66796177625656128
-0.3123151957988739 0.40116643905639648 0.77905488014221191
-0.55455511808395386 -0.0064813271164894104 0.72151535749435425
0.674732506275177 -0.29032519459724426 0.70102959871292114
0.72529977560043335 -0.20730036497116089 0.64787238836288452
0.621437668800354 -0.38019904494285583 0.73896569013595581
0.80669337511062622 -0.25019130110740662 0.61024779081344604
0.69600087404251099 -0.43428796529769897 0.71786195039749146
0.82266432046890259 -0.31411090493202209 0.61406946182250977
0.7577483057975769 -0.42202526330947876 0.68015766143798828
0.79930347204208374 -0.37479105591773987 0.64212304353713989
0.15817633271217346 -0.05047713965177536 0.76202726364135742
0.12405599653720856 -0.038183607161045074 0.74797958135604858
0.18528784811496735 0.034579537808895111 0.73890554904937744
0.09176519513130188 -0.12195936590433121 0.76847320795059204
0.26856338977813721 0.026915647089481354 0.72510522603988647
0.14729902148246765 -0.17593774199485779 0.77079224586486816
0.3235207200050354 -0.033054046332836151 0.71974337100982666
0.23502372205257416 -0.18100020289421082 0.75886911153793335
0.23242862522602081 0.31599491834640503 0.62645441293716431
-0.15727117657661438 -0.33698448538780212 0.70690017938613892
0.24643947184085846 0.5175132155418396 0.58265602588653564
-0.33916476368904114 -0.46449005603790283 0.65643495321273804
0.17691598832607269 0.68314564228057861 0.59478193521499634
-0.52925646305084229 -0.50245797634124756 0.596527099609375
0.048583399504423141 0.76655733585357666 0.67945855855941772
-0.67681938409805298 -0.45288947224617004 0.58552426099777222
-0.065937981009483337 0.72851371765136719 0.74638932943344116
-0.71049553155899048 -0.35569405555725098 0.62204742431640625
-0.26107481122016907 0.60303586721420288 0.79768532514572144
-0.71414482593536377 -0.15970827639102936 0.67108070850372314
-0.40935432910919189 0.50932598114013672 0.82003515958786011
-0.7201804518699646 -0.014347121119499207 0.70889580249786377
-0.4397645890712738 0.40367385745048523 0.8179740309715271
-0.64047712087631226 0.065560311079025269 0.74879056215286255
-0.36172643303871155 0.27388861775398254 0.80515509843826294
-0.46728217601776123 0.096252404153347015 0.77980500459671021
0.1637321263551712 0.10144134610891342 0.74228101968765259
0.016124378889799118 -0.14575998485088348 0.78074830770492554
0.51630187034606934 -0.018712498247623444 0.62234753370285034
0.31770426034927368 -0.35019794106483459 0.74222630262374878
0.71766334772109985 -0.095994733273983002 0.56464332342147827
0.49455296993255615 -0.46764013171195984 0.74573725461959839
0.83352857828140259 -0.16052734851837158 0.51780015230178833
0.60665959119796753 -0.53792339563369751 0.73332184553146362
0.88847655057907104 -0.23120909929275513 0.49752169847488403
0.69095176458358765 -0.55951613187789917 0.70203870534896851
0.87877446413040161 -0.30765101313591003 0.53009945154190063
0.75549620389938354 -0.51249217987060547 0.66148602962493896
0.82786822319030762 -0.41331771016120911 0.59861284494400024
-0.033972103148698807 0.029593236744403839 0.73999786376953125
-0.18955099582672119 0.09558529406785965 0.75704807043075562
-0.28009900450706482 0.47716209292411804 0.77406662702560425
-0.60566854476928711 -0.070749156177043915 0.69452023506164551
-0.04479416087269783 0.18820899724960327 0.74457865953445435
-0.1907554566860199 -0.056718669831752777 0.7528950572013855
-0.13344642519950867 0.19925087690353394 0.7556072473526001
-0.25417959690093994 -0.0034691318869590759 0.75464558601379395
0.65200597047805786 -0.16860666871070862 0.66251450777053833
0.54609853029251099 -0.34504762291908264 0.74696993827819824
0.46533745527267456 -0.098357871174812317 0.70130789279937744
0.37746796011924744 -0.24502444267272949 0.75438851118087769
0.42374712228775024 -0.17082685232162476 0.73353368043899536
0.30823343992233276 -0.11852862685918808 0.74293595552444458
0.29430487751960754 -0.021065793931484222 0.75907415151596069
0.21409091353416443 -0.15520650148391724 0.79188662767410278
0.26534900069236755 0.030752234160900116 0.76334989070892334
0.14890693128108978 -0.16404423117637634 0.80663490295410156
0.19174279272556305 0.039540119469165802 0.76391559839248657
0.095054551959037781 -0.12229917198419571 0.79436343908309937
0.15424279868602753 -0.0045879706740379333 0.77348154783248901
0.11470799148082733 -0.070775523781776428 0.78514611721038818
0.19276426732540131 -0.054937370121479034 0.81594932079315186
0.17622494697570801 -0.00054889172315597534 0.79699748754501343
0.1282213032245636 -0.080900177359580994 0.81200432777404785
0.20169386267662048 0.028220154345035553 0.79037028551101685
0.11609242856502533 -0.11504632979631424 0.8183247447013855
0.25154244899749756 0.012944780290126801 0.79510617256164551
0.16260527074337006 -0.13583889603614807 0.82805538177490234
0.27581065893173218 -0.021767266094684601 0.78470152616500854
0.20825152099132538 -0.13475984334945679 0.81148582696914673
0.25541612505912781 -0.083709485828876495 0.79789483547210693
0.39079523086547852 0.051590569317340851 0.5098717212677002
0.15377655625343323 -0.34456750750541687 0.61961930990219116
0.29207208752632141 0.048967428505420685 0.67042249441146851
0.13054473698139191 -0.22120609879493713 0.73326796293258667
0.37622734904289246 0.023344464600086212 0.64796620607376099
0.20059393346309662 -0.27020299434661865 0.72982662916183472
0.31614047288894653 0.067095182836055756 0.53035145998001099
0.10215099155902863 -0.29080355167388916 0.61508375406265259
0.7800602912902832 -0.36591571569442749 0.64226561784744263
0.7929190993309021 -0.32284054160118103 0.62490129470825195
0.74880862236022949 -0.39619338512420654 0.66830134391784668
0.77464872598648071 -0.26591968536376953 0.62722975015640259
0.69340711832046509 -0.40107861161231995 0.7035750150680542
0.72238248586654663 -0.24121183156967163 0.65072447061538696
0.64786988496780396 -0.3652472198009491 0.71629559993743896
0.69813460111618042 -0.33196446299552917 0.63718026876449585
0.72561186552047729 -0.27244684100151062 0.60850924253463745
0.65829175710678101 -0.38449671864509583 0.6686590313911438
0.75761932134628296 -0.28167924284934998 0.59620589017868042
0.68188297748565674 -0.40768986940383911 0.66668158769607544
0.76399511098861694 -0.32297638058662415 0.59526485204696655
0.71742540597915649 -0.40044456720352173 0.63951927423477173
0.74925917387008667 -0.36688178777694702 0.6151120662689209
-0.11420218646526337 0.24502232670783997 0.76515555381774902
-0.28616619110107422 -0.043737791478633881 0.76263546943664551
-0.047980789095163345 0.23515653610229492 0.75839918851852417
-0.23699489235877991 -0.082063727080821991 0.76619386672973633
-0.22142955660820007 0.46259215474128723 0.77075016498565674
-0.55610752105712891 -0.10037626326084137 0.70571213960647583
-0.24800117313861847 0.40260112285614014 0.77454924583435059
-0.51610881090164185 -0.048365585505962372 0.72377651929855347
-0.15019242465496063 0.52943176031112671 0.76719564199447632
-0.57652580738067627 -0.18752992153167725 0.69545215368270874
-0.045341063290834427 0.60940557718276978 0.7191205620765686
-0.58685851097106934 -0.30088818073272705 0.65096282958984375
0.034737911075353622 0.61575889587402344 0.69086003303527832
-0.54615241289138794 -0.36019241809844971 0.65024322271347046
0.10612757503986359 0.56367635726928711 0.67342382669448853
-0.45721140503883362 -0.38209956884384155 0.67623168230056763
0.14176315069198608 0.45321953296661377 0.68535351753234863
-0.33318626880645752 -0.34357529878616333 0.72358512878417969
0.11867499351501465 0.34858402609825134 0.71199089288711548
-0.24713402986526489 -0.26490488648414612 0.75418680906295776
0.024079006165266037 0.25976216793060303 0.74997121095657349
-0.21753412485122681 -0.14555075764656067 0.7712063193321228
-0.18244475126266479 0.27889201045036316 0.77046293020248413
-0.35957372188568115 -0.018741995096206665 0.75559592247009277
-0.23505349457263947 0.33553141355514526 0.77462738752365112
-0.4451877772808075 -0.01778886467218399 0.74301773309707642
-0.20628997683525085 0.3494698703289032 0.76002603769302368
-0.44003817439079285 -0.043494075536727905 0.72853374481201172
-0.16791744530200958 0.29792693257331848 0.75343424081802368
-0.36815226078033447 -0.038522742688655853 0.73713773488998413
0.015134599059820175 0.27815517783164978 0.73826390504837036
-0.24068455398082733 -0.1510557234287262 0.75657433271408081
0.096822723746299744 0.35829094052314758 0.70763033628463745
-0.2693212628364563 -0.25588923692703247 0.74205607175827026
0.11592856049537659 0.44791328907012939 0.68399178981781006
-0.34316486120223999 -0.32240507006645203 0.71337217092514038
0.080173254013061523 0.54264861345291138 0.67258286476135254
-0.4522227942943573 -0.35126113891601562 0.67001944780349731
0.023085873574018478 0.58495897054672241 0.68232309818267822
-0.52377492189407349 -0.33377406001091003 0.64688533544540405
-0.045910138636827469 0.57972067594528198 0.70650655031204224
-0.55893272161483765 -0.2825639545917511 0.64860016107559204
-0.14043168723583221 0.5155409574508667 0.75525146722793579
-0.55690586566925049 -0.18475067615509033 0.69066017866134644
-0.2180749773979187 0.40281635522842407 0.76805323362350464
-0.4979061484336853 -0.067766308784484863 0.72144436836242676
-0.19759723544120789 0.45455676317214966 0.76398956775665283
-0.53390955924987793 -0.11104343831539154 0.70577222108840942
-0.052049610763788223 0.25585424900054932 0.74248808622360229
-0.25924921035766602 -0.0919293612241745 0.74839991331100464
-0.10902975499629974 0.26808729767799377 0.74532002210617065
-0.30469638109207153 -0.060496732592582703 0.74115234613418579
-0.37822842597961426 0.3330121636390686 0.6115754246711731
-0.5070195198059082 0.11618112772703171 0.57489252090454102
-0.46619534492492676 0.45172736048698425 0.64956122636795044
-0.66925162076950073 0.10949235409498215 0.56884491443634033
-0.43159353733062744 0.56054079532623291 0.65327984094619751
-0.7470974326133728 0.028767667710781097 0.52698522806167603
-0.26702162623405457 0.62706881761550903 0.60222429037094116
-0.70805954933166504 -0.11559426784515381 0.46828705072402954
-0.077940016984939575 0.77423632144927979 0.54807072877883911
-0.73454487323760986 -0.33057317137718201 0.40065497159957886
0.053614702075719833 0.82905447483062744 0.4952484667301178
-0.7159765362739563 -0.46496593952178955 0.37779796123504639
