# XYZ point cloud file
-0.7008638006758876 -0.29592336545607856 -0.51415791549020851
-0.69750392233776837 -0.23968629732862973 -0.54243554965052843
-0.64494388127747193 -0.34791165617026321 -0.51501078096490904
-0.70667655218430603 -0.34359015499086665 -0.48091255599605809
-0.75060212935431914 -0.24787296680696155 -0.50380649051505655
-0.7507803269151766 -0.18915951963508223 -0.52743858853943004
-0.63835269969648334 -0.29440317270593896 -0.54706229833999342
-0.65508734382614342 -0.39493725641442501 -0.47919103309359551
-0.75095838572439355 -0.29667626399640407 -0.47510972491915648
-0.16816616781895963 0.86964556998705711 -0.42510236917980038
-0.21800037705994726 0.84978720472898428 -0.44137976397681605
-0.22944267006606189 0.92886922462645805 -0.35186606146183391
-0.1217325250363504 0.88206905843012973 -0.41301831377176274
-0.10472702577275225 0.79660041066657172 -0.49022865442368602
-0.15112818062114211 0.77637470374687723 -0.51168340502675091
-0.28241497393565484 0.90857488559802169 -0.36240235654916064
-0.17916389820778666 0.94107237778419095 -0.34627659020644885
-0.06237536683173845 0.81005321258014718 -0.47206872303895142
-0.69603057485619224 -0.043870293425983392 -0.59416991093209259
-0.75738980788060095 0.014979751314550066 -0.55801756327716268
-0.68952170534388812 0.033703739312747477 -0.60438178208662452
-0.62844795906467932 -0.10950077437137373 -0.61882082496223112
-0.69706821077264358 -0.1135024453320512 -0.58175131803054225
-0.75581933242707711 -0.0570223430046084 -0.55391066854023285
-0.75291637101926412 0.094045207997067309 -0.55959637312706068
-0.61985990954455861 -0.034655226092213803 -0.63721924740522584
-0.63220108059513513 -0.17573208223957038 -0.59850605466590356
-0.35591253941351475 1.0023592833549884 -0.12913834905585414
-0.41526935776813279 0.97740097425370998 -0.12493860734462303
-0.37725715254192771 0.99764205169712028 -0.058978735750431166
-0.2985369123108601 1.0180843447321504 -0.13790419396843598
-0.32513403834903043 0.9948321679850205 -0.20134424849367258
-0.38291585374871134 0.97185617213086495 -0.20138567565178164
-0.43770205653821481 0.97042238617761312 -0.051005669481180405
-0.31896544263853932 1.0154877793436312 -0.070713494397820181
-0.26928966971840668 1.0087974344746311 -0.2064560510858478
-0.87933461773830035 0.095884787863330601 -0.40133198827927963
-0.89989871490299989 0.092471566494242374 -0.33846242590118664
-0.87981422996484926 0.17279229171771024 -0.38230738789035695
-0.84974346608351503 0.086389851910421256 -0.45981861868791429
-0.87243835178201412 0.024315940712942158 -0.41575428563134786
-0.89213065093312049 0.022941306224495167 -0.35669396893243255
-0.90145426802221484 0.16714626935239024 -0.31471783428386807
-0.8488316584292076 0.1649550071949441 -0.446438035158365
-0.84412936156941021 0.01349736103968785 -0.46947471073445135
-0.39602688813309289 0.9419253913752369 0.13813232861700189
-0.4571478784059273 0.90738186802127396 0.15591023766545631
-0.3845403293242734 0.91310016380358816 0.1969695225166655
-0.33743680699325174 0.96670227377732942 0.11875697636834719
-0.39746693134379951 0.96564045027919732 0.075174983342943702
-0.45883995935541055 0.93351869365606532 0.089903860126122531
-0.44474109690145652 0.87629859447300851 0.21746022688076988
-0.32703570721132547 0.93997619324135506 0.17551292784336872
-0.33853554736979674 0.98814694836008532 0.058222125948660081
-0.91935839504541816 0.035590593844836496 -0.13655868778324465
-0.90918627118605511 0.0045594619334686226 -0.067010110386655608
-0.92177953668097945 0.10261851468269684 -0.10227969452439722
-0.92002850038584238 0.06060195877051959 -0.20520579068843681
-0.91103017056645563 -0.02655979143594879 -0.16339093058119447
-0.90161215694027597 -0.054916476577126547 -0.095749148575620446
-0.91086178173932952 0.069025477973783389 -0.030502063107595567
-0.92261991987707981 0.13019398126832243 -0.17388277727722695
-0.91150701531037959 -0.0040767165411868672 -0.22954862927810077
-0.28100353521523874 0.80064475856580719 0.34127630797619823
-0.33363320515062644 0.75898182313590579 0.36690174708565892
-0.23818876370914896 0.76490943746097839 0.38178467678926331
-0.23258360789084703 0.83194820657925406 0.31709779097143753
-0.32437691406716895 0.84022280321864395 0.29816231519741032
-0.38016537476405243 0.79981818283620054 0.32272490068275039
-0.28765971297774023 0.72232163079683398 0.40754552783830689
-0.1933458156599627 0.79710017698967062 0.35809589146663834
-0.27219164099875942 0.87038218862415806 0.27421038363991085
-0.81312420271641084 -0.12041515644243955 0.14195579530912705
-0.77450223110877947 -0.16324822779945763 0.20652523559591754
-0.80867415967979361 -0.063335073115646498 0.17966098469666092
-0.85330455015944617 -0.075475071348366063 0.073454993750541875
-0.81195390820270852 -0.17082087552348996 0.11230527472658744
-0.77596004785348871 -0.21112395836969983 0.1781783982373607
-0.76746855536049552 -0.10809831205188628 0.24268959456826389
-0.85140789942775752 -0.01608009010216184 0.11173613193077256
-0.84946029834834114 -0.12891538631692215 0.043261738022476903
-0.17378732653846166 0.7176860172429822 0.50313557019490784
-0.17396955149035309 0.71909893537581748 0.54384145972577069
-0.13236781621006796 0.75150296747575041 0.48500582498547934
-0.1824967048982723 0.72276722510099156 0.46213582551278976
-0.21879159456417877 0.67431526967637212 0.52264641939047696
-0.22130433688735868 0.67653468535001759 0.56070255389551882
-0.13076317676433677 0.75313467283716573 0.52792418574442068
-0.14145828494606225 0.75619329482947473 0.4416799467141222
-0.22755847763762443 0.67924445072480655 0.48454580933636848
-0.73002937220812414 -0.24472616638932665 0.35930978025294846
-0.73510746205336774 -0.29130163786959218 0.33849600063609375
-0.73799734951701523 -0.25678518761630287 0.39780453317857206
-0.71898155540797393 -0.19116348999194663 0.38564698227348571
-0.73108743232064854 -0.22643586270737337 0.31553826387540107
-0.73590759815862195 -0.27230063406410498 0.29182389114821461
-0.742336988925965 -0.30495125206277462 0.3797945320790696
-0.72878635007683024 -0.20156961672795459 0.42027874010700811
-0.72023857057824769 -0.17326330462856854 0.34576998237180012
-0.5146644430268037 0.55022095872652865 0.40382529430139619
-0.46194038118935987 0.50907470600244376 0.45540902817782403
-0.45182185571750971 0.63349760686477952 0.40083458381487425
-0.56551440542980469 0.59585968562889613 0.34670507068847201
-0.57628409694581062 0.45767047574331532 0.39763128291768957
-0.52119479639953559 0.41154611904041977 0.45878112656322795
-0.40109072087528463 0.59476428995183961 0.44630836763160953
-0.50199856657862318 0.67720753256316613 0.34969756036097721
-0.62757474214586351 0.5059875013066234 0.33351939275427372
-0.7340788798278729 0.17035670086285118 0.30950385231305882
-0.77020062543235568 0.082315205350528498 0.2663454304086787
-0.68596648057451226 0.12130426589035351 0.37176426169297566
-0.6881393608675761 0.26401534518529135 0.34907172805423425
-0.781915842740041 0.22113065442156055 0.24066063850371472
-0.81663534118052272 0.13238853643095616 0.1983625099381362
-0.72469259849655232 0.034647963311366797 0.3273875088348806
-0.63569648343556451 0.213352137912727 0.41564876268120815
-0.73776936948214977 0.31516776043745381 0.27895114077891953
-0.41273983219411103 0.49481535081986761 0.62950621855607725
-0.4290816564081259 0.44428518052620319 0.632302683338265
-0.44775329928650592 0.500793324888958 0.64101342128479921
-0.39842037219585402 0.54377365169190273 0.63425151182921791
-0.37987885906637037 0.48699471482929935 0.61842744769048774
-0.40013400519619391 0.42259250242952562 0.62179200394539114
-0.4594702367303502 0.4608444405151394 0.64314314574802589
-0.43607244452681326 0.53841502281455178 0.64565829193076119
-0.35842277692701741 0.55047274208180941 0.62191051660968866
-0.68786197060928722 0.018623527447869943 0.53044222658376838
-0.71617685114542717 0.036154313662323287 0.53738895428525069
-0.65334812941794773 0.056119411704479844 0.5519752124078543
-0.65965175857137937 0.0027990658366255083 0.5247638234763834
-0.72375634691959412 -0.019332758943847048 0.51638375017989924
-0.74348861734998195 0.0062768881863023915 0.52675351114501445
-0.68833211610657086 0.064688612019452058 0.55514413903609794
-0.61498879171225151 0.050753653847795871 0.5506323371330295
-0.70417138947627 -0.047908971691539605 0.50566671967913768
-0.35673006229583515 0.46639824193377111 0.56311361988785347
-0.34883661922817333 0.47102258095093164 0.58654106427174058
-0.31277476126823633 0.54637084408831593 0.55336427691622014
-0.3789279350774879 0.46698353723425823 0.53487245816805618
-0.39422347125010265 0.38607337302083922 0.57133100967190309
-0.37909362541391806 0.3928107149391889 0.59245347240443669
-0.31153197764516688 0.55013848085767547 0.58195663471721848
-0.32794593627508517 0.55047549169860721 0.52187956366223631
-0.42524270906418887 0.37690293680222425 0.54595427239236793
-0.61855591986970881 0.013323724806541884 0.48552164299720429
-0.66274353000132991 -0.05922525183363795 0.45033983737631156
-0.62235024628569346 -0.0022822408568592759 0.50433657904657536
-0.57040340750238305 0.081208608110961422 0.51987498686128064
-0.62546087504629022 0.040359711900107981 0.45984392926985618
-0.66796029596240403 -0.03790899044116175 0.41939485361479423
-0.67046768679649571 -0.070985295372760729 0.47430351308881447
-0.57134050814048865 0.060140223191428338 0.53579740561122091
-0.5747929595842618 0.11811158926684062 0.50092246813697494
-0.42394688769861949 0.2473797644817719 0.58906339216605419
-0.41128470759981228 0.24196084064219214 0.59999232689124582
-0.42631323995501463 0.27068998106516473 0.58409212330714966
-0.43604353386685762 0.23121727735594033 0.58301878875042967
-0.41860444625264637 0.2184595705002827 0.59732707082190384
-0.4076379813709175 0.27589713439766639 0.60014011819927482
-0.45280448548637897 0.25469440754407496 0.56938131562027849
-0.46730293806858736 0.17236818744289878 0.57820271661718214
-0.48875629042503055 0.16265004477867709 0.56778520906773422
-0.45665497647486508 0.16346602061730831 0.58886782078613154
-0.45894739276721314 0.19159247626968182 0.57747548681742766
-0.48728740911257074 0.19502953390413291 0.56040738735993911
-0.48499246309491084 0.1420554335971792 0.57978331617443812
-0.43942944651810639 0.18243247633703713 0.59249789968081712
0.12120492738509042 0.82444976449474683 0.34193522811639482
0.12722093067363904 0.81896084328262553 0.38850804549415319
0.16821501147727183 0.80332239952522977 0.29489416849649425
0.11350060259853678 0.83497482949946122 0.29513333108165285
0.074727637442456057 0.83539607600104648 0.38756475056772
0.081026130149056075 0.83487123201162539 0.42982245158089283
0.17322810255696305 0.79291879727726322 0.3467771932035707
0.16198863558736346 0.81799591266424754 0.24278310766006686
0.066171875314390199 0.84163465583358332 0.34506270608452261
-0.6648268448432153 -0.5347218553234494 0.27178864351308318
-0.622821375419642 -0.56430096915187178 0.25696682591639758
-0.660029025202164 -0.54229028042910477 0.3226413007835367
-0.69829005743947314 -0.5014536901248241 0.28912104070157618
-0.67412853328348388 -0.52700515402791659 0.21757659352928593
-0.63581953562307925 -0.56138447099178557 0.19659374716733491
-0.6134808062281305 -0.56718739326031331 0.31462994193727617
-0.6982595777776498 -0.51279950783623252 0.33358401224150075
-0.70363292900104313 -0.48970002708231447 0.2406608420324956
0.074237610462742132 0.89554950671118294 0.18000418402623511
0.12791820319520475 0.8772523283397724 0.12308558692339185
0.059053536039709122 0.91943762325108214 0.14636956346853899
0.021856863118437694 0.90305378247308854 0.23175325721479734
0.089560075392507515 0.87175944221486024 0.21401670124850153
0.14144892848220297 0.85617508299232947 0.15673712874986415
0.114741006660214 0.89774246004936686 0.089771044805434366
0.0046648359507505746 0.93081717748178638 0.19590854095972385
0.039147874167233691 0.87657216215200107 0.26719686220373656
-0.72905335949443617 -0.49378639572494698 0.056614314356681239
-0.7498341129315621 -0.47968740391766351 0.0044659808346705909
-0.69031230866839455 -0.53769314114804601 0.03451842408217598
-0.70754910643976521 -0.50677733201741226 0.1090719171141086
-0.75871729137014832 -0.44719364144348167 0.07920274716333206
-0.78243234630733438 -0.4308364784184549 0.022477954946694995
-0.70846894618096645 -0.52590721727938627 -0.0147970148231725
-0.6708144864853075 -0.54835410901810011 0.084520582754552903
-0.73513999654479945 -0.46268399738829058 0.13494700103275242
0.026638556940228666 0.968238471661375 0.029108967475245051
0.078378795430324166 0.94272062406341028 -0.015218233745614207
0.024090004291149832 0.97379764258209112 -0.018859909391396312
-0.028301598238884059 0.99011395390144341 0.067717247852355056
0.034068442379479077 0.95718107820495946 0.072229078249976791
0.088396668897668979 0.93194098908060907 0.02221438032359619
0.075006547799757822 0.94705463059176009 -0.058693525892063086
-0.030304108284170336 0.99889095384692372 0.016453867400596497
-0.021571891646026513 0.97600184662067235 0.11482829262287628
-0.78362217166735704 -0.43349284395344051 -0.15014813921463793
-0.78230845577936736 -0.42127729259359781 -0.2013003339263566
-0.7442509691128123 -0.48016120873147616 -0.15734630492777904
-0.77853698128954874 -0.44855256155279688 -0.098869437681587846
-0.82072381223830748 -0.38099808977309629 -0.14706201185910511
-0.82007196511467773 -0.36765867235721195 -0.20235346783849437
-0.74373906317919747 -0.46913393767923484 -0.20407725863127674
-0.73703454555648129 -0.4957259854139493 -0.11056856953527169
-0.81505173552406407 -0.396884647352375 -0.09107390968185064
0.039835999970321299 0.96205291808460647 -0.18652215363110308
0.045250778910217705 0.94894685283096525 -0.24263987000670251
-0.0085640147392402957 0.99531370662188845 -0.15646252176229233
0.032412195202600406 0.97049679556235602 -0.12839055400686158
0.083666061809344855 0.93007512723815999 -0.21774417071326707
0.090284072240253838 0.90936823693401636 -0.27642170823869999
-0.00054242903762565658 0.98432372881658337 -0.21041222123627401
-0.018719433387352442 1.00138550144883 -0.097841293950956754
0.078859727794204415 0.94145340839337333 -0.16098666670525036
-0.7495066608684462 -0.4034457720822397 -0.35411296053651381
-0.7869373621338499 -0.35144711414484664 -0.3601632605633136
-0.73223543959869819 -0.3959950271378283 -0.40053574695652128
-0.71373953210672292 -0.44914520959750392 -0.35068501135486507
-0.76427659069337028 -0.40775123828002607 -0.30413927777850125
-0.80210026010261526 -0.35408428607315112 -0.31032459996461481
-0.76976320833538969 -0.34655064624394705 -0.40361812693813298
-0.692132309718687 -0.44386627761081288 -0.39684411161150784
-0.72831063759425718 -0.45469333893116393 -0.30149282635153235
0.35171723812530714 0.072898160394100728 -0.086004842584263996
0.35728467341706688 0.0080465015808450918 -0.084789299032025894
0.33969685887664508 0.079732206033985398 -0.17617657895533348
0.34536909427213175 0.13798629843516855 -0.085273461265727268
0.35939964026723142 0.070520139189805778 0.0030601975588981645
0.36928529221614093 0.0039044973884310788 0.0086646009794906498
0.34198950563604463 0.016685619333965861 -0.17863082789386675
0.33608835247564739 0.14128086090090983 -0.17343324366178209
0.34939298595070079 0.13903696080044695 0.0047957803873696359
0.019766780000296538 -0.50013177351619664 0.040372999313776213
-0.0053059149634352744 -0.51584733458317122 -0.048154430469390767
0.071869230013479279 -0.48459936642945262 0.032342023722611163
0.040938392061083684 -0.47921331968271647 0.12566474495504354
-0.032803092439921584 -0.51490283791691849 0.047375603507591103
-0.05234268556362906 -0.52933325618476079 -0.039572271901593355
0.042027091450487448 -0.50109352139896224 -0.059534177643981681
0.098406539938233645 -0.46363208620559876 0.12240666433799158
-0.017049534085232139 -0.49360136830046086 0.13345990354728166
0.35057794297841699 0.33772845929685252 -0.096610656280367357
0.35084492573642767 0.36004819479283523 -0.020240012236117759
0.3443920610917911 0.27146854409961835 -0.089789371569727008
0.3452522825593306 0.32173219025072275 -0.16985280991054125
0.3576101114937259 0.3999611045537203 -0.10463357281785407
0.35660089795209998 0.43264272170561646 -0.034774121909269998
0.34508611715884963 0.2849120211206293 -0.0051564055985837548
0.33799276458243011 0.26284755351005912 -0.16988710326944975
0.35469203751331457 0.37685367731746627 -0.17106524072341051
-0.1877731094674632 -0.59195072685484795 0.051249086211121848
-0.13754808377189465 -0.56072900197476305 0.053250177806905871
-0.19563267364436165 -0.58370337930962835 0.12364286324628301
-0.23456776749087579 -0.62274507749100794 0.046472200639373018
-0.18585544892051781 -0.5954226668568191 -0.021137353348801936
-0.14338258947945454 -0.56837095299159601 -0.026429707806055677
-0.13610002963556803 -0.54600647028095406 0.1342288883337559
-0.25262063510258964 -0.61956181865968263 0.1104719795752501
-0.22497266926073972 -0.62420505443981666 -0.017174871885412456
0.32634539141359398 0.40781915845963757 0.22077927242484394
0.317050885411855 0.41347285654940041 0.29348889669512918
0.32321492893646953 0.3413444815737367 0.2408678752179525
0.33709910342266369 0.39777307219388242 0.14100238566512549
0.32659429794442085 0.47484631566284718 0.20621734197581182
0.31617905688597742 0.47426786730687787 0.28067553150750491
0.31439493732577789 0.35210547971071382 0.31206951417038425
0.33286334318099026 0.32296167906219547 0.16297773421162268
0.33949126385671879 0.47306818565912945 0.12355809490351195
-0.2167193867144159 -0.53015897991836802 0.34424477586299868
-0.15972689322298853 -0.4927153774374588 0.36263909838261843
-0.21781048518397972 -0.51036115735233567 0.41105043391145707
-0.27433572228435255 -0.5631805024506048 0.32621282950035563
-0.21239827825070942 -0.55128163972999622 0.27160135107320238
-0.14965977441239964 -0.51033921235924795 0.29076406755031986
-0.1643030572550013 -0.47465350660920347 0.42844830857440847
-0.27147818140038116 -0.54085505403392309 0.39433415776975411
-0.27513426666191321 -0.58858017807610385 0.25196196218912192
0.32176479710914341 0.16584339471611165 0.33272610254939022
0.31185038077545846 0.17755441182504306 0.37142339730685059
0.32644996509345525 0.12228040668201262 0.3671126095260922
0.33224925540662259 0.14703866051531822 0.29175899516840664
0.319579363551873 0.21827675320747197 0.29824623148235135
0.31042133830287943 0.23168190278852058 0.35167490463370055
0.31525097050327083 0.13271209699319819 0.39438536223600063
0.33848197329878926 0.10561300846546134 0.33788344053822733
0.32918585445586407 0.19586498058814553 0.24071772073327991
0.0033916935854389416 -0.38386140214349707 0.43544528001537641
0.049175157025709688 -0.35641937430504267 0.46369667592275182
-0.0061571100314113184 -0.37154536231443736 0.47013537815698181
-0.048339873823900349 -0.41703009188305684 0.40810253495525595
0.01846992776793293 -0.39470505322854388 0.39794683794664809
0.064923087883690778 -0.36664365414900418 0.43772216768357614
0.038418415943846505 -0.34524764473024544 0.48719114535958374
-0.056960543670326332 -0.40272241740330855 0.4571447670018759
-0.032976399183037498 -0.42946416837502388 0.35468865581381614
0.36334186075351915 0.062628719019849621 0.1983332899650716
0.3712139128157238 0.033392963686302499 0.2195947157946542
0.36415583822535819 0.065693929704523341 0.15309021014294277
0.354681571035034 0.089514972569519707 0.22146811746169223
0.3620607584108782 0.057856092734161563 0.26610095675342327
0.37641455743753549 0.015948006327178861 0.16322567593906434
0.35164859713150187 0.11694451610725148 0.16228233190820718
0.08634170504956834 -0.41551796074638353 0.30794173209093728
0.075512324893609983 -0.4325555117245099 0.26621290149611199
0.11778098885591004 -0.40403633521215077 0.32554557326677031
0.064970505014109226 -0.41060144997797693 0.3310680402751307
0.03012169973541249 -0.43812898116521565 0.27841019976588477
0.12296227778120866 -0.42150299735931251 0.27097317803192328
0.10289825952942708 -0.38948680511264644 0.3704452913341495
0.28761654432166939 0.16302141213617249 0.43847963928716538
0.28510930649623334 0.18026546118622044 0.44190427203955202
0.28596707485093753 0.13793394877211099 0.44638022725797843
0.2931440404446306 0.17277121657199901 0.42630997305271795
0.29231786638150886 0.21048531987385677 0.42409903273454735
0.28182038135992105 0.14980119558986354 0.45323113156078493
0.29419663052454353 0.13639753457402734 0.43472944094542437
0.0033669567661298236 -0.32780011060795206 0.52433588010206844
0.02568631780509819 -0.31148254086081417 0.52810682455263092
-0.012605655324807515 -0.33382612806380785 0.529148714299294
-0.0039872025760324462 -0.34029948208469996 0.5155640938508419
0.029803653164591624 -0.32011000900944747 0.5192391000675195
0.01403849627277489 -0.31258072945808835 0.53512250436509845
-0.037775407002475871 -0.35953584123633409 0.51789423685953406
0.17182431970529 0.60992325566863392 -0.48428871879185559
0.19729059379927913 0.63464852596963162 -0.45707318713104061
0.2055048756224036 0.52916465782160471 -0.48449224209551467
0.14465176077309699 0.585658116565408 -0.51221243470194378
0.13495348280668909 0.69337188924554871 -0.46915200225860276
0.16102418155730067 0.71720039582471629 -0.438620480193253
0.23074543746862386 0.55659166077124356 -0.45956813626339094
0.18012137042512452 0.49831842608547383 -0.5123508804912793
0.10610682591739112 0.67265436472629558 -0.49792666514574546
-0.45763572912314404 -0.47806653301205354 -0.46855498534208095
-0.39568480576583526 -0.50973709379528498 -0.43348785031030534
-0.47017834587911067 -0.51900138564880705 -0.43447981702901678
-0.52134409351071131 -0.44125239181571707 -0.49259128204964753
-0.44550111095520267 -0.43442996389911925 -0.50381315359565304
-0.38000260797158869 -0.46964318501328206 -0.4689736614374318
-0.40911393367444571 -0.54910263792856828 -0.39996436288603798
-0.53425791323565186 -0.48478101345318381 -0.45707382551216491
-0.51090563240059395 -0.39410125035773763 -0.5278583479036375
0.053500761810268575 0.5251184678574472 -0.59452277005146603
0.0082667846481775317 0.62006028688185688 -0.57585860803029165
0.085892531756484203 0.5450356868913262 -0.56729396934087339
0.092255624115659046 0.43345956304296906 -0.6013937076777609
0.017794761339537106 0.49853683473547328 -0.62260425050930579
-0.030973320952306045 0.59609457430958113 -0.60331804166821279
0.043157324745063334 0.63822549493748715 -0.55035181432996827
0.12367378556692657 0.45207970219008542 -0.57195955383348462
0.05998848118159588 0.40496966930412481 -0.62912979041220574
-0.4170833345093522 -0.28842150712508707 -0.60852813223632618
-0.42645680170352518 -0.34065720733718663 -0.57446597432229896
-0.48630559671803208 -0.23516353196650244 -0.62500901557298238
-0.40318856103231193 -0.22929061943655055 -0.64111074628414155
-0.35231087396367622 -0.33491507651063085 -0.58450637974965791
-0.35955648710728239 -0.38307482726325592 -0.54605848955845271
-0.49496405197387672 -0.29224520239115903 -0.59424751819640376
-0.473807896699175 -0.16970915458093769 -0.65479978265108951
-0.33784558886231136 -0.28266137788835016 -0.61861194004567899
0.29400401769881646 0.35691896735444045 -0.37417445000449956
0.31678613837742003 0.32917439972596013 -0.31031838027141978
0.27987072529743062 0.31369391828816395 -0.38856125361008509
0.26688166713321315 0.39960028230732236 -0.42816786562345788
0.3125995030559689 0.39535048426289782 -0.36023591214023037
0.33225449771018012 0.37289019209576962 -0.30055940305182527
0.30571764023374348 0.28182798785154173 -0.32013871694749452
0.24837394603129237 0.35891318250748205 -0.44898789387865207
0.2887458351297697 0.43401554965440803 -0.4097106656392539
-0.24593160183006749 -0.57564641726159993 -0.24992824371455502
-0.21967524516239018 -0.54909588829887412 -0.27102429072462386
-0.2139494193903882 -0.5874058307784672 -0.17284269857605805
-0.26792856381469743 -0.60732587284036588 -0.22664527020423197
-0.28780049554411979 -0.55857078580320818 -0.32253621078356487
-0.26485616331701572 -0.5276496149892036 -0.35053414092767304
-0.18333332707052277 -0.56273592940963013 -0.18889702542862433
-0.24099188824726053 -0.61712325117880495 -0.15474225600095465
-0.30596717993444389 -0.59329339520382607 -0.29416325676481653
0.27214715132207978 0.15008033000824006 -0.41608793572731545
0.27090911128797812 0.086213120743667909 -0.42245731627813971
0.24255065826652161 0.18374607269504034 -0.47877421793378472
0.27072282508212631 0.21005166895306893 -0.40964763819273142
0.29940975419420535 0.11883418419590017 -0.34387652447478728
0.29842235717993804 0.056339148149158663 -0.3500987178695244
0.24161812054957155 0.11830140529943162 -0.48466693094485497
0.23833452925904219 0.24937281862459326 -0.47448121363193962
0.29858295031314669 0.17686653508406697 -0.33707751521321133
-0.11083298951515344 -0.51124971871103919 -0.30472804258396591
-0.14954963302583518 -0.49342079009940004 -0.37873068704179108
-0.068498810386371539 -0.49982682713894011 -0.31557480769787277
-0.071687574473503546 -0.52190096109444739 -0.22335670113973152
-0.15148282874353119 -0.51907818303033415 -0.29707842783145177
-0.19414138105438181 -0.49760316785329389 -0.37695941306810993
-0.10654357822286237 -0.48292577204092663 -0.38681358169372876
-0.029276772361142789 -0.50941618580097192 -0.23602373412230485
-0.11186848419387108 -0.531873142730936 -0.2130519107295783
0.16469477279353287 0.24215981697338357 -0.58971262915189782
0.15001603777248487 0.28625339808491473 -0.59659832735072771
0.18643611247526951 0.23227678210103742 -0.56814371469772174
0.1559492348576117 0.20799951783073317 -0.60244827503125875
0.1275521815060181 0.25662511251222087 -0.61868022303981063
0.17597545110782198 0.29438155047519121 -0.56772120342143795
0.18382368830388435 0.17567378483245877 -0.57494354809813819
-0.21703390688080948 -0.41727207565201885 -0.52099447313271485
-0.20491857040912903 -0.44373825042915566 -0.49020334506557284
-0.24888126588470738 -0.40291098084483901 -0.53671489244120096
-0.19704436088900662 -0.40177153755091444 -0.53548343503797124
-0.16843516417261042 -0.43275754326412214 -0.49680279279973427
-0.24763194318448081 -0.43743668099227101 -0.49813695082049503
-0.23400525080889692 -0.36803750197382973 -0.56570858219299403
0.14978834735281993 1.0934326798538345 -0.16881609913195178
0.14148205213288531 1.0987712094706541 -0.17487552421790975
0.14678524501675572 1.0567651465055476 -0.16146712138811029
0.16069256038720492 1.0865587692139442 -0.17106158969024138
0.15594101800303017 1.1325226663399461 -0.17869128234381587
0.14831090426722332 1.1402173340378692 -0.18462737048255268
0.13798321066224289 1.0599423149316649 -0.16758322576342072
0.1580202743224273 1.0520516211512692 -0.16357063889311702
0.16635556398361701 1.1232508739651343 -0.1811623411607414
-0.81322242638360176 -0.57235893550748274 -0.35090976699598136
-0.7892492743820444 -0.56228368084373292 -0.32555582845871345
-0.81800503962040672 -0.56097825947013857 -0.3648048950731082
-0.83769789993189347 -0.58632524874600189 -0.37892308996527424
-0.80597459309663688 -0.58548826088120154 -0.34278293971988771
-0.78331625913496805 -0.57610577202565239 -0.31849441879164531
-0.79278707433949913 -0.55004855619060022 -0.33847505729359584
-0.8438142380081386 -0.57606895228197497 -0.39382654986681143
-0.82902547413099092 -0.59853477963845658 -0.3696829972703003
0.19858894672260399 1.2621394871664433 -0.22044929265327731
0.17990043054354526 1.2189884777217381 -0.20473024880176877
0.20681785773180381 1.2456870209422308 -0.22380398638412907
0.22219275864264348 1.2992655326812479 -0.23780349238169085
0.19339815604267752 1.2767056565589094 -0.22505162150827529
0.17382838581621329 1.2314212290776378 -0.20993038227209132
0.18900387586510048 1.2047872327831206 -0.20779820153763684
0.22928021002439652 1.2808808481208709 -0.24136557005062054
0.21805949972534786 1.315661257757772 -0.2417721981281814
-0.9119606104850646 -0.65910972244329658 -0.47069533802827368
-0.89929008129607191 -0.66778761136708154 -0.4581471284789862
-0.88844458438059892 -0.62921971843174929 -0.44095522772996443
-0.92190008402305024 -0.65282920075393658 -0.48785047698616824
-0.93046644130782274 -0.69481405984556133 -0.49454141396452966
-0.91683582863785962 -0.70178682287178007 -0.48138760545872727
-0.8769738744924922 -0.63923813732590573 -0.42939596546108943
-0.89720902240986189 -0.62151157055916284 -0.45760047563119549
-0.94139234026612073 -0.69024390978609229 -0.51178765626602096
0.32352500609506024 1.3347508576458083 -0.29885676527586164
0.28546845453272562 1.3375258314958991 -0.2769156521882053
0.32493884776758758 1.3137545570224356 -0.30200458679947523
0.36326310507144444 1.3181341707632348 -0.32279472058451641
0.3242386370313648 1.3537831826499875 -0.30163838618921168
0.28431413096730862 1.3562310621901768 -0.27986676670540206
0.28911150967008048 1.3167731047945959 -0.28044475915783373
0.36232885319949715 1.2975958657547002 -0.32520158219848283
0.36591615078663742 1.336880578947675 -0.3258044256635374
-0.93106761005566552 -0.83518222867334657 -0.49915584731121698
-0.91674483324904688 -0.8337750714324601 -0.48810383905721322
-0.94113359083949566 -0.78422231346375959 -0.50941610027115902
-0.94318264299804222 -0.83839474912263201 -0.51319286027055022
-0.91153731403591587 -0.88646523857707171 -0.48042110275651012
-0.89787063454201543 -0.88169374563795166 -0.47108852268059709
-0.92661993201784842 -0.78608591059530475 -0.49701398520583373
-0.95319881584426136 -0.78445716689653688 -0.52505528753343755
-0.92330838458090758 -0.89271007698009985 -0.49263159376234644
0.47334923726541506 1.1928730004001031 -0.40580418613757496
0.43999512430405752 1.2456553860969919 -0.37789024099075119
0.46622080791470805 1.1783168595899722 -0.40330984815951459
0.50110676485687788 1.1324068214926577 -0.42923063662216165
0.48096717042370096 1.2067486545470187 -0.41276716960222104
0.44620493011831575 1.261816328233911 -0.38304924368379734
0.43466920684877863 1.2283659175598354 -0.37738979870421296
0.49254172169855692 1.1211695288377699 -0.4247287848577404
0.50978798438981732 1.1434151578374914 -0.43815695515219921
-0.80344261240763715 -1.0141354230752031 -0.3963920927164552
-0.79476568099620304 -1.0013629675008318 -0.39250060046889262
-0.84648581509301468 -0.97846718912815822 -0.42750364678933034
-0.81155375856598277 -1.0274537538016024 -0.40386746558935699
-0.75588884092460862 -1.040030026675572 -0.36295089326248287
-0.74971405081699549 -1.0258006146049472 -0.36063899051301146
-0.83566895940983343 -0.96782131429151053 -0.42188162804776652
-0.85624642608106472 -0.9899366289666871 -0.43630674190584517
-0.76199184114006491 -1.0545624985137625 -0.36937549551020399
0.53667297831053495 0.92939526599140099 -0.44128334851557849
0.53306460081093709 0.99846381415055152 -0.44842913001836915
0.52661188699874539 0.93039635796106024 -0.43303762698324666
0.53350096595699392 0.86146565234342587 -0.42381688314607807
0.54590564209117187 0.92908626803234196 -0.4547478008118685
0.54254124493372602 1.0022286436654837 -0.46076702643444006
0.52303367072235019 0.99516257425817511 -0.44090475289466091
0.52377606755840844 0.86672451061084488 -0.41542123330411812
0.54218972375734575 0.85710111090823937 -0.43791369038028083
-0.60409855979836558 -1.0413872041527787 -0.25390409978411155
-0.60670921612100026 -1.0275657128449773 -0.25504081739419132
-0.65475581786926207 -1.0538350620852441 -0.29139411419585859
-0.6026198602192967 -1.0550470969779835 -0.25891030427409722
-0.55477654833903123 -1.0184451303779092 -0.21533649876349947
-0.5604031404627331 -1.0061650150727521 -0.21730435343211951
-0.6543214436613779 -1.0390943137603625 -0.29158666798327931
-0.65597314587419253 -1.0685127623472441 -0.29663006859787477
-0.55060213017435478 -1.0305564686705768 -0.22020366040449468
0.49408700309618236 0.68204105843325757 -0.3207358384499262
0.51121388188156847 0.73662274840967557 -0.36044956003803486
0.48682665378906997 0.69816338190458349 -0.31536153420015334
0.474157003205255 0.63326193241300122 -0.28307706410370753
0.50022665908760389 0.66766905820563416 -0.33333588734410996
0.5183079489988055 0.72517509307109063 -0.37401901355714251
0.50294805909513651 0.74946486879484953 -0.35360103719822145
0.46803405381874985 0.65252656127018627 -0.27930107703106394
0.4792364004482525 0.61619417169932234 -0.29459628985047248
-0.42507911400869103 -0.90545315710929564 -0.097560043704703753
-0.43866954795137869 -0.90033274835546984 -0.10188009705124089
-0.46432111868994158 -0.94829635923769184 -0.13516071689128226
-0.41393454276512925 -0.91111888699008892 -0.10165821434137368
-0.39095667401860817 -0.86083891593228734 -0.066896812874109673
-0.40687334203050224 -0.85855711760892728 -0.071827682076150118
-0.47546153646918504 -0.9404868998760032 -0.13872705065203506
-0.45527288056153215 -0.9563092784816567 -0.13956260719867564
-0.37788094604572775 -0.86403590898880611 -0.070824814167228911
0.46847836013944016 0.74356739538046868 -0.33252345497840263
0.48183123481472467 0.78604903247818214 -0.36626384256882927
0.46451665672181647 0.75504411203435018 -0.34513556528623413
0.45322970832652837 0.70619539206906512 -0.30141174870193377
0.47348185968307288 0.72990905406102757 -0.32243200067661859
0.48765036558118557 0.77494846020664332 -0.35749858876808716
0.47726527351355796 0.79546396045627721 -0.37778902894070687
0.45020362014467441 0.71950970157959004 -0.31523216917024499
0.45709905530005318 0.69021130258746599 -0.2898414089820599
-0.47928020571676078 -0.89356948090313315 -0.14472531069362099
-0.49001458406012049 -0.89383673315416945 -0.16333170923701185
-0.50937387936694978 -0.92619071708056055 -0.17884897818914847
-0.46681470321111901 -0.89428326872465025 -0.12727741406282564
-0.45353429610691426 -0.86009767535605086 -0.116860598029982
-0.46558899840585466 -0.86242356812815846 -0.13602513995012808
-0.51851300272718714 -0.92471895767252144 -0.19668345300781592
-0.49885550934268297 -0.92912061471292595 -0.16225337915117652
-0.43939381222649188 -0.85828674548301132 -0.098757386977294415
0.50214198784299036 0.93695377509161937 -0.43793323408246532
0.49954268062991269 0.99106106435129337 -0.44593866100679991
0.49737669104895688 0.93975128537947783 -0.44678710790547499
0.49949938807059158 0.88378563859229387 -0.42168635768786711
0.50869296560181765 0.93431089487383978 -0.43194939966516505
0.50566589426866704 0.99136891161542606 -0.44018541309721704
0.4952897351970732 0.99158953486811252 -0.45440141893807223
0.49453613475347169 0.88881420487551088 -0.43127637600197166
0.50610551236998813 0.87823839168373607 -0.41504442167977385
-0.61769290624878126 -0.99784343696004196 -0.28390390494843465
-0.62140755388736801 -0.99326179825068217 -0.29787177934231962
-0.65711969472102039 -1.0075429635948014 -0.31577733357607946
-0.6138268688666324 -1.0050875488393243 -0.27124909298222333
-0.57938724324467372 -0.98012144198112428 -0.25040932967802498
-0.58496423207725556 -0.97618888398316395 -0.26590070155128148
-0.65890623512628366 -1.0027767954593738 -0.32809891898473753
-0.65562638442237842 -1.0152072493779256 -0.3048000793036002
-0.57321907360040325 -0.98637969669205172 -0.23622266109300721
0.4540900776134843 1.1440458714985251 -0.41905532613624108
0.42864788253271424 1.1859273524731955 -0.39873815927306988
0.45351506619708254 1.1375751071342637 -0.42953512602445765
0.47527214404749724 1.0963063778990711 -0.43542560312024714
0.45630416459094925 1.1530893533812931 -0.41055754928591082
0.42886220032719047 1.1974782301171059 -0.38854265426385715
0.42985012202308071 1.1773398927976235 -0.41067236355404613
0.47313757922161104 1.0921434441523781 -0.44472125633402054
0.47920311040120661 1.1025438873733726 -0.42837125096467005
-0.77338409012461806 -0.97765752219859736 -0.40067389727286512
-0.76899316648289784 -0.97552524864911716 -0.40814817284202898
-0.80725407582397779 -0.95061807781990337 -0.42459051106184786
-0.77923153081995311 -0.98256604525700064 -0.39506879578135773
-0.73609861314971603 -0.99729431654909395 -0.37435599088478511
-0.73379013017288497 -0.99377807284344699 -0.38336903047200344
-0.80088488668953739 -0.9502371291741244 -0.43065779261953796
-0.81535658402395061 -0.95348180639874125 -0.420680405607471
-0.73952211313290206 -1.0037700408403007 -0.36696432440229487
0.34001168283355399 1.2581698809297828 -0.33729569895993677
0.31077927333643596 1.2608952050594491 -0.31884825261239619
0.34697637246938773 1.2455239689052962 -0.35357404634637801
0.37028334236101096 1.2443093840889237 -0.35664591311593624
0.33358069438826254 1.2741412702293871 -0.32236909350453613
0.30233058784283601 1.2771445487111466 -0.30269817845689762
0.31946333692306894 1.2478574955187534 -0.33633516292356225
0.37535356022198069 1.2325562890431359 -0.37158074105657624
0.36605784169917344 1.2594002296632478 -0.34312639548994778
-0.87462357560286097 -0.84231994021714629 -0.47726861440170298
-0.86382670863920119 -0.84825982079414375 -0.48035040921429661
-0.88273495885725939 -0.8032396226570403 -0.48387258606660266
-0.88746035940854295 -0.83751306600205044 -0.47716217431964336
-0.85891932775099245 -0.88115943937612184 -0.46396266479605169
-0.84927990744683701 -0.8849448384231724 -0.46776326002451968
-0.87115090351805069 -0.81117250566014432 -0.48665038094505131
-0.89631068704612948 -0.79595614086354161 -0.48426048397355365
-0.87058186464342224 -0.87900224145654771 -0.46289569357672256
0.24123534155458021 1.1999322776122363 -0.26757140025524495
0.22544624879910291 1.1648872167860453 -0.25212059526231195
0.25308182878265506 1.1888578813261226 -0.28766194832290631
0.26072585424059991 1.2301896521663827 -0.28397352856973684
0.22899940695027962 1.2134913930087861 -0.24897955938564925
0.21266496654085246 1.1767570693332108 -0.23316369622228347
0.23770816686515606 1.1551707122566968 -0.27266245226316332
0.27187598551646464 1.2180024579526019 -0.30338852989753234
0.24934438317666568 1.2451519948622587 -0.26597956283297619
-0.8582848588605998 -0.70183254502303616 -0.44978246695728158
-0.84681673147703529 -0.7134656419655977 -0.45482477989245723
-0.83896786255387867 -0.67613563311807112 -0.42523055186032149
-0.87136678421063551 -0.68983808798613855 -0.44802230517290498
-0.87365413473665021 -0.73185459368774797 -0.46963016226801313
-0.86176605802815553 -0.74266818585863303 -0.47345242292551382
-0.82816604539721983 -0.68828802543283474 -0.43164854455219942
-0.85120112077114529 -0.66341496922986631 -0.42200588191963312
-0.8873114377635819 -0.7209334587617735 -0.46912567074119438
0.19983959386943373 1.0651556419926744 -0.213795778371211
0.18657640739402692 1.0717799530503644 -0.19518424450884592
0.19739616374085628 1.0361488854052916 -0.20514682921846378
0.21226721349083311 1.0595567626933449 -0.23417650621830643
0.20499546449349865 1.0958736277081933 -0.22486565765302705
0.19176294160961987 1.1041798495800155 -0.20591966153567687
0.18416370747021038 1.0411884674387326 -0.18702156517988483
0.20970651640829652 1.0317934407846387 -0.2250439923375146
0.21749026632452056 1.0889719094165375 -0.24554357217748191
-0.77905266660833683 -0.62780100566528807 -0.34940013183392477
-0.76005232218519092 -0.61965695888024619 -0.32749344420656867
-0.78807727345849743 -0.61392445477444002 -0.34277372660198363
-0.79830153857643127 -0.63934944023040474 -0.37335232830642795
-0.77081052722984988 -0.64056669883623663 -0.35881978389629654
-0.75271740906678797 -0.63255134048364181 -0.33735367598355198
-0.76797308385932017 -0.60550418235998837 -0.32026822688422585
-0.80843724159032804 -0.6257699284760051 -0.3675791282454669
-0.78917107796404395 -0.65199300987007469 -0.38206386227093447
0.35856980377585901 0.52759948057332851 -0.14025007222089225
0.36241616376780134 0.49583067175424644 -0.12663480679550709
0.36413023856437676 0.50684255951135437 -0.17562191924653456
0.35233221577957619 0.55159947517114305 -0.15434375482704193
0.35049468417980023 0.56151013412733741 -0.10184710668999217
0.3567877901571222 0.53488026262066379 -0.076469420712603098
0.36554995441645355 0.47007515098306218 -0.17282541288752667
0.35921633110602863 0.53717679004629137 -0.18416166519932198
0.34275212756945839 0.5795708145395444 -0.12310900509543277
-0.33586668379255646 -0.67191551916027725 0.0036847366106065524
-0.32127556786714218 -0.67701429145939584 -0.024052259353676636
-0.3090758551369191 -0.66398937288087834 0.022443718404321276
-0.36155796361591136 -0.66853094472381125 0.030075313518589095
-0.35738426337888246 -0.67436586372954221 -0.016862734914147734
-0.34654049034820106 -0.68189818268625124 -0.039009072719563637
-0.29267680711446548 -0.66677247595124234 -0.016991229957396208
-0.33663381780064805 -0.66291435569777257 0.062088784584287605
-0.37973830614262211 -0.66855489588619899 0.0018800133856228807
0.40719721611368287 0.52671187248221463 -0.22637896513102357
0.40855607464095944 0.50029796359266587 -0.23599229969973207
0.42943843225111533 0.55482827996891015 -0.23614819803051096
0.40439407802579458 0.55599100002028778 -0.2263257408142256
0.38724369752410492 0.50746864100293287 -0.21766452098208722
0.38740344998078652 0.47412270623332708 -0.22635455133654189
0.43208060815965282 0.53250716620885441 -0.24625451496215839
0.42582714266856181 0.58058398452841131 -0.23491607153811317
0.38425151720551015 0.54048730612471163 -0.21938590695205193
-0.32658272600753896 -0.74058097437428072 -0.045078707432562988
-0.34144980135623226 -0.77653131313064672 -0.042223776856047432
-0.30717708655265058 -0.73577030735455085 -0.049972781102824826
-0.31786966840979014 -0.71034738315166923 -0.048603010839200544
-0.34953075294580793 -0.74616119423077587 -0.051042269798112272
-0.36188891175293847 -0.77990489198637925 -0.047612070349795151
-0.32482565866279978 -0.77464930309318847 -0.04675768090941599
-0.29351910188211733 -0.70185073608592397 -0.053154896465105878
-0.34382773560323882 -0.71706499549815184 -0.056453428787490656
0.27251334081223311 0.73230681234051043 -0.004048645077787287
0.28123618390333288 0.71930123711510163 0.031763819587649372
0.30863972377503934 0.66790642206991568 -0.03380070700977935
0.26322535564565602 0.74066948738544058 -0.03474138054074051
0.22918269460211352 0.79368778852310351 0.028954376320298649
0.23919605861189008 0.77915479580281655 0.063789083510564781
0.31711527330023698 0.65183948270813263 0.0029270067876546423
0.29948791495674482 0.67716980072228461 -0.063616276774697611
0.21911367694620623 0.80545775380763918 -0.0032134958882250736
-0.5176202572941514 -0.63327968294332104 0.035095613823044158
-0.454826909822306 -0.65133349624328574 0.045588686094049695
-0.50314798706023411 -0.63629016590101273 0.080066389100187471
-0.58194373732288829 -0.60845920333027892 0.024025858241013748
-0.52818449022870928 -0.62717429974323657 -0.0038663452827474715
-0.46683306603463531 -0.64705023602042655 0.0081971881683102488
-0.43704400301491358 -0.6512588748538104 0.09075695097900334
-0.5669128696878476 -0.61424838943251503 0.070153258209863484
-0.59426908009324031 -0.60065372171825449 -0.018606485089122771
0.15103661519041955 0.95989390370131078 -0.15517196894745711
0.15473728500523365 0.93381614171891658 -0.15330833203596811
0.16246262095156316 0.9585185541506005 -0.15842841259399248
0.14802508699639061 0.98967511224127347 -0.15562756413626008
0.14135704399379265 0.95981301219481263 -0.16018809298658182
0.14220093585109544 0.93570466309921441 -0.15402288779202067
0.16704735531241172 0.93137067205649227 -0.15937717743333252
0.159297661824439 0.98799543164834258 -0.15782166155835547
0.13910521549162169 0.98967819329561157 -0.16195505224456863
-0.72073244808394943 -0.54775051855001045 -0.26827393411660011
-0.71673761849337247 -0.56192682693343377 -0.26438877932060878
-0.7013994733736606 -0.54671671761481999 -0.25211996551435756
-0.72274467442601698 -0.53460997285492085 -0.27864890652565261
-0.74251626890292799 -0.55051877230866941 -0.28480829076096281
-0.7385077116117057 -0.56470968453570813 -0.27967118545233216
-0.69612007353440786 -0.56126687428514643 -0.2502201496466776
-0.70608998916691779 -0.53131296198910749 -0.26044777603100205
-0.74412395927072872 -0.5379054976520079 -0.29622465709677859
0.40426801003053991 0.63068490037777902 -0.26478711520216192
0.42039514288177116 0.64934145493349893 -0.26701576811966432
0.4063853147593216 0.6473039510928903 -0.28327462759984745
0.38916079830976952 0.61879067983674374 -0.26729421077230264
0.40248522460800479 0.6097687550715104 -0.24759522661379491
0.42092518472092627 0.62964583296056142 -0.25211152051880953
0.42041808840828621 0.66524898841203273 -0.28374380524968934
0.39366823903306558 0.63580649786407339 -0.28778526832668727
0.38453287187715884 0.59720814752890417 -0.24680376458483944
-0.40921004673251987 -0.77448379575464776 -0.10124793576832729
-0.42263114018963249 -0.78473570254076275 -0.12127737387701645
-0.41830140254503129 -0.79937156285865052 -0.09537260021605079
-0.39254153077473758 -0.76349006429779176 -0.081716585453999457
-0.4052539971839092 -0.75348038382728522 -0.11238007044113577
-0.41834164120350303 -0.76687592599663534 -0.1327088227304688
-0.43171687061540148 -0.80671105963742362 -0.11517663752512297
-0.40199170441842258 -0.79176515502679112 -0.076446843198463149
-0.38877099779948987 -0.7385655463189239 -0.091563856478873579
0.35673692943343827 0.62491609905018852 -0.27445478815484725
0.3482645841464555 0.63632284704314457 -0.27473299741332075
0.34601078343687897 0.60931348782755546 -0.25082405555628107
0.3655633660749783 0.61677977008016427 -0.2734853645924456
0.36733039145076751 0.64039596656846065 -0.29695394320182678
0.36051543517841167 0.6509905937703927 -0.29670415730395139
0.33510481759487548 0.62307466563747738 -0.25089734794781288
0.3565167996431492 0.59815876893901165 -0.2496285010457171
0.37440468726597437 0.63313191510724354 -0.29613657882761668
-0.42028844887598882 -0.71744392698350024 -0.14379598059052068
-0.41012727275949268 -0.69696840637930346 -0.12466720976480397
-0.43120309969191539 -0.71030913673227469 -0.15234403443272981
-0.43032170964316385 -0.73759244474173868 -0.16194074201767522
-0.41153719857787435 -0.72566051759693884 -0.1350238443619266
-0.39851686717796053 -0.70615774109678608 -0.11421053943561305
-0.42360544536500883 -0.68771885296950697 -0.13501711201951999
-0.4400269280272347 -0.73203852566331695 -0.16882085477894543
-0.42283157768782442 -0.74409629182336545 -0.1545111430185632
0.32157592837624949 0.67545930132733956 -0.28509959353019598
0.30848415072564117 0.66987413034145238 -0.27255324819870685
0.33049823463612815 0.66293476001100016 -0.2795913896819533
0.33333129119732785 0.68538523352658998 -0.29791679778121305
0.31375343919149024 0.68588987450342798 -0.29177178260335379
0.30236793893023295 0.68210915122758675 -0.28331196762465066
0.3159134689721026 0.65473313995457849 -0.26154471797156509
0.34332549943567159 0.67496168395106471 -0.29651663519455451
0.32435664720360535 0.69323609488623839 -0.3009237056325933
-0.46779176500948455 -0.68845752652928016 -0.1900749147050603
-0.45595164761279855 -0.69587939786879771 -0.17543716103881218
-0.46660085413103808 -0.66940059122892603 -0.18533538884899531
-0.47780741777644953 -0.681865595951056 -0.2046785940561032
-0.47258490372051193 -0.70710011868827471 -0.1971522674357713
-0.46223852710314561 -0.71685825432640227 -0.18622155171605353
-0.45295361943040857 -0.67374217984859919 -0.16575680860820946
-0.47766926616225586 -0.66577066810381902 -0.20318421594231351
-0.48082424626788628 -0.69802998830209062 -0.20835264623217237
0.26806666061958501 0.72283775132088568 -0.24439293163166265
0.25582000101538405 0.756810948695819 -0.23748898564741816
0.26563893769946556 0.71682474043128408 -0.22350111488195204
0.28117843714923396 0.69349215303687495 -0.25207406975553631
0.27030220862710358 0.7301897163563138 -0.26204082109458871
0.26095719211897062 0.76148170549962557 -0.2556221378980314
0.24985222566000209 0.75471690985466688 -0.21580651577736107
0.28272060540924149 0.6818933460080534 -0.23281479636787253
0.28028740988046885 0.70389990971692618 -0.26858794411032033
-0.51558618048237215 -0.63151002396657796 -0.19952843965314832
-0.51158885313564717 -0.6264167197728584 -0.17897259557193193
-0.54379987824564668 -0.62524764198641647 -0.21048316461292066
