# XYZ point cloud file
-0.3398374962003885 0.83667166769594203 0.18362076722496923
0.31265162885638631 -0.007631206821690828 0.6648830239517487
0.58257229760089757 -0.066712852264231737 0.62422209731910705
0.30923068126757158 0.68295718210952039 -0.26826320899598244
0.46515141463093812 0.86027880710012994 -0.37033045682806431
-0.50506408149671955 -0.57702950037009604 0.24577895478351408
-0.099532337812000549 -0.10177535778833313 0.76745305284966303
0.27389632850454149 1.0180708675344654 -0.3563542233134207
-0.52156778660501857 0.30919495126905927 0.67928119492627204
-0.7941876095222753 -0.84346313402868667 -0.41755253291911565
-0.6787884535951072 -0.091978075115840774 0.64051783891869984
-0.6246075438711749 -0.76499157850069466 -0.35035877068131782
-0.35297102255157853 0.28951149682598576 0.74679573152415557
-0.56353727718760638 0.39614830012023461 0.41460362805704598
0.14089097941453588 0.79216472064434296 0.24740657804600019
0.11454436654545219 0.74758875379970346 0.57901489360505032
0.11243963671964963 -0.05521409948102951 0.77415560153944263
-0.77432140140131267 -0.66427610440355345 -0.27456220808317156
-0.54015792650434236 0.14816162808202904 0.75932499683585242
0.78356208842473762 -0.37345515967793874 0.68735094702112498
-0.020946071961297719 0.30667419548537689 0.78383250083127898
0.69379520985857823 -0.37551461768711536 0.65184432739256692
0.18457569021826714 -0.017843098981473737 0.79002093642863969
-0.62487644362489547 -0.9572124284262582 -0.42109348652785528
-0.55871578696227431 -0.017206760771985019 0.7402748470767051
-0.61495235376268198 -0.62292400776474288 -0.21444000840275912
-0.5035107878769125 -0.64226251388793187 -0.11373828581843881
0.16179483605170475 -0.31425471845076114 0.70099896356877522
0.33662889493562886 1.1725484267012689 -0.4983263487309415
0.36072067539782182 0.77700120934723493 -0.32569183344716279
0.31585088524139593 0.18102931007346501 0.54308609062929136
-0.67950938170387687 -0.21239155107160634 0.27677125324948548
0.34754268088934737 0.4412257962567443 0.34000721033840442
-0.10442976371805202 0.24478268923907365 -0.66675491742610049
0.0081642204363916449 0.46171221235418169 0.76208601589333114
0.059507306781938496 0.76473890451166593 0.61544912869315738
0.12400243189969018 -0.37117431596084138 0.61732035155594733
-0.50825287187331014 -0.6378545426747193 -0.0067699807064975914
-0.34250896553875521 -0.22145356454483744 0.74725547941817272
0.50993053441589353 1.0503525118231742 -0.38633978741136588
0.27342852112544591 0.056142932112548394 -0.33271148222548064
-0.42251558747707207 -0.712375636558221 -0.20204100426539284
-0.69009194628430848 -0.9297956197473205 -0.48158070018556209
-0.52438109235283292 -0.30117004797114322 0.65990056050205581
-0.13051782855725946 0.48808064114742677 0.70475249725128108
0.26260337796126976 0.91882247507836112 -0.26870464564997576
0.32064899864805341 0.7053775037854475 -0.29486261888511578
-0.033259105309738857 0.32527773128818716 -0.62230343274522681
-0.69944706461344452 -0.81366307825599726 -0.38863943511436894
-0.022101039820839219 0.69011376424875559 0.68822418737391722
-0.66980386364119937 -0.69172610995173045 -0.30969026861725091
0.03357258263889662 -0.42468466066978294 0.23644351040425882
-0.3161948627167277 -0.1647300399659164 0.75314342779709786
0.67812402486465118 -0.27190288556868736 0.71686156462068951
-0.37664967725437037 0.11134805062473285 0.77488815910893827
-0.27342363013794824 0.37384557809157348 0.72439449661627719
-0.38969350234186351 -0.061226777276250477 0.81007900109353237
0.084519181204640859 0.87468604227322722 0.16769607918072182
0.36191797671560977 -0.037316818400356278 0.68376622799844711
0.91357863943879636 -0.26373077281943513 0.4616827298504198
-0.59126801319210642 -0.69338722281675569 -0.29735841959394094
0.70542549574325619 -0.20102071218385609 0.36292067902572533
-0.14618256338500402 0.31769451096783374 0.71099707626418152
0.41431569900532139 1.1389039820820397 -0.39180600868680671
-0.34739194049934952 0.64777136774819866 0.43727770650190934
-0.72482129685378283 -0.63048344361144615 -0.21503313456612005
0.39031459312039374 0.48683658481335002 -0.12853372973359711
-0.38571878116793101 -0.25184548717392907 -0.71513606188938184
0.088226030360559093 0.69548790818927664 0.62795550328354466
0.9278712495225534 -0.26268372631771897 0.5274732772277595
0.039020630625387298 -0.1480460275701585 0.75849418980871608
-0.3227545551164468 -0.015239504228158118 0.77273387935129634
-0.48722123260920824 0.55741839197634846 -0.54746178032698367
-0.41098912729854931 -0.044315357829815216 0.80921060869607953
-0.24286078195475369 -0.11403423464429085 0.76079311365400049
-0.45139213307164994 0.18036258082611489 0.58970376041386885
-0.74906098637821472 -0.63470885384350773 -0.33096308934787189
-0.39389139143938223 -0.34549491367922425 0.68891898731136791
0.70197029666324084 -0.41096228140259261 0.64538759368778287
0.32262579079564091 1.1556850983613653 -0.4128553873930052
0.79499706792743297 -0.14405622990260714 0.4956658517564243
0.52928923977404452 -0.53910639363170754 0.68120922525981875
-0.37146114948031794 0.012864317579512008 0.78016136397444935
-0.70017021168754567 -0.15215731878031757 0.641663811162279
-0.77990052112508579 -0.44784504227964561 -0.1928411713393281
0.67745562083253219 -0.43614871984646619 0.68611848317924462
-0.074126389452978003 0.53287081275014581 0.72711591149520238
0.31185138503177967 1.1230909037921197 -0.43541265572970644
-0.3107486517763931 -0.1519079861458783 0.76603333999601819
0.078481340842422753 0.18020844865174412 0.67145662553322083
0.76079672835287937 -0.38539343862586728 0.66011745081533313
-0.15945504471759619 0.45006250534593573 0.75667770204655582
-0.72853287497739316 -0.95402229552505791 -0.45535240193337501
0.072747735852097151 -0.14403810079116308 0.80452232895337161
0.91427115432015427 -0.22767207069015416 0.55923237786890212
0.38261051116928257 0.88827072345609004 -0.35808292697591781
0.23781162649833476 0.8669583355520647 -0.2015467616661013
0.88821484349671209 -0.35010161144298024 0.59657278241744294
0.24725017271974536 1.0532888585536728 -0.30609979462607839
0.32728526447777995 -0.45851805029640458 0.67630746363647809
-0.21173455091879845 0.69761839394323899 0.6575314694915253
0.29473358121938986 -0.51231565297307102 0.4593282599348445
-0.23829969698108755 -0.25118048533285231 0.72792682364126726
-0.58841854190899312 -0.5929273587367252 0.038277775870428243
-0.62739001494899327 -0.71461321681506895 -0.32971939580688492
-0.13072710112569297 0.45821894169201904 0.74962506800621398
0.039052813147137044 0.30212330882919769 0.76426789672880702
-0.49059353834798713 -0.095805950856980848 0.79359902720403586
0.17273052836414138 0.016414769196543499 0.74748758422954431
0.74215567575549812 -0.49344881613853309 0.66046988331154033
0.29854627146286816 -0.16023717804110582 0.73624333936421671
-0.24998993499987421 0.7209744108245224 0.73018755565817095
0.12449585641869021 0.76480678588731887 0.44986953937373642
-0.43207657205870476 0.11375561828787983 0.77076487024751827
0.74694511399005847 -0.33318962082726999 0.64367483236988754
0.36112093222465802 0.62760883769347942 -0.23555956918295706
0.069364054220599769 0.56452075262016832 0.66020536174656463
0.27515184807854354 0.78863058918024187 -0.23813304760903264
-0.76369171488388332 0.29049660088776186 -0.49217695013384599
0.12172087186569769 0.66319789326891398 0.61311688337771209
-0.1894438426043763 0.48896225117809244 0.75794210277704543
-0.54597430634258615 -0.16543511032900149 0.73241725308013006
0.0075439991800294592 0.37970346959130818 0.78412338980326979
-0.63535792032777749 0.11923506342134438 0.70591376399557682
0.61703224660189449 -0.26725241603911765 0.33237979007713925
-0.43794788765903547 0.34219239330795781 0.74430595138299083
0.19241578945534599 -0.049975370610656267 0.79842210446487094
-0.11763375155570088 0.481938721762873 0.74316124449939736
0.14200302619847349 0.19156649487677324 0.72301747911768643
0.38503664619771882 0.5164188829841958 -0.13727692379044498
0.074211227272840574 0.74330141449212306 0.37657510126411609
0.3318150224431875 -0.54779067385958169 0.54583066234617217
0.45850429528688608 0.62018316341528745 -0.18554579931671
-0.72564046374429481 -0.34980474943028561 0.53310636895028285
-0.043179580398195583 0.21570519382390607 0.72208123464039886
-0.52070268827898047 0.095633005143992422 0.75038630482897961
-0.68345254504250974 -0.62121591572502055 -0.20607822104455664
0.30436840192466263 0.11124452162183562 0.49501353023666894
-0.45136206758063935 0.18967961871740235 0.77889730821498748
-0.65600052764732197 -0.98676105630243427 -0.46753156326434997
0.099028275013793632 0.9112023758683403 -0.33154049960945997
0.18468269379312829 -0.39738310989082315 0.65217181341304542
0.33409943550228149 0.32486990093888757 0.52638998284363225
-0.58241955301715365 -0.063730114402172688 0.52894560600142704
0.064662414556302394 -0.1820840304877982 0.79031610289972498
-0.48524477160665214 0.31708203521391276 0.78315861988680702
0.29160923438768549 0.72156048304367282 -0.2972051444848347
-0.20026544603363305 0.31149405160255661 0.77664227827946775
-0.56414738950093835 -0.75953706966712176 -0.34027129917806676
-0.18106256262475995 0.37853858623136993 0.76636147254107456
-0.61410261534888377 -0.23807270183019535 0.67383059759075081
-0.72183224057665285 -0.59086629316209738 -0.16112249148696378
-0.58637687131947303 -0.76336058303160925 -0.3477113078721672
-0.54054334914309266 -0.15735494513544013 0.74433717699334689
-0.71013963890863252 -0.24805977630154752 0.65287420896129866
0.29104882313542646 0.18151365114199991 0.59893120778115616
-0.55047525446609313 0.77103184559634563 -0.20371558982373728
0.66504480267660426 -0.43661810487538677 0.65824334625373826
-0.32418034617477787 0.020851287581844957 0.77048657425435074
0.17400784942908132 0.42393882899095559 0.6690224254223196
0.21380185954011921 -0.23040569877249872 -0.30706382821318456
0.53155763773970222 0.86832795820148512 -0.37588994413890831
0.4269761740364828 1.0861980985906516 -0.43812393102387759
0.2393612164783363 -0.12767728697544989 0.771200774061926
0.3274953380628105 0.63306077878250555 -0.08572195686628703
-0.12245066256900827 0.46953980426820507 0.74577987602249607
0.86758748565139854 -0.3987305066901734 0.50088812968270524
-0.097702755077847314 0.39254364236702788 0.77683397569097323
-0.38048856168357759 0.10629721817882043 -0.73561270029711778
-0.077409563862133268 0.76303971671373905 0.64851314954449713
-0.69384033028361003 -0.94303829854536403 -0.4622100139712817
0.67519706408789659 -0.36110435791109752 0.67185157964641906
0.081890022298296117 -0.093765891614332908 0.76851241385460156
-0.83889939747471587 -0.70486211625208561 -0.28864586374001178
0.29560380575816936 0.70193338872813626 -0.2899295410004612
0.31668567962291405 1.1084775064377919 -0.43059846507684796
0.12648781254986119 -0.022900577987642112 0.76210027355011078
0.42322563719141471 1.2105278842421008 -0.47200880612761864
0.48117006783837724 1.0198547085745382 -0.36996303279513043
0.22299618584359848 1.0455408581934513 -0.2946736940805863
0.31245999634343491 0.65946320927600866 -0.23349600299519579
0.28950277711217609 1.1767220921531703 -0.40137063428668895
-0.15626717733103135 0.72861439746484091 0.72662680185016093
0.48211120869618185 -0.18329516870813789 0.29368939939065086
0.26354622452089416 0.52488424103362519 0.55782538589537545
0.17184942200513831 0.56134203107566538 0.61951457945034605
0.75139725934542412 -0.32939109014350754 0.65069714736121043
0.23985156853125034 0.79257752890943678 -0.028563676892719769
-0.56995314112587181 -0.08300862876011883 0.67697359829938719
-0.091656480932734041 0.53990856917027452 0.70184924652255276
-0.28313899341541315 -0.2013265592252349 0.73432210991522506
0.27055398235233241 1.0152273302791652 -0.34374257767552763
-0.70845016279761808 -0.57488091792324525 -0.14668465360194816
0.40214756459972278 -0.0025231877406952652 0.5272914697028348
0.039951804503097321 -0.13225669027156917 0.76220158645164826
-0.84139121266845507 -0.5657361807878889 -0.17188854926595987
0.068577638105921324 0.32615324782332511 0.75527199982473192
0.32729996347551804 0.15871654843167349 0.45516886638194975
-0.48819588195645736 -0.15948110238143465 0.78486700444825441
0.67800727102051894 -0.33160379025683695 0.70494846096747299
-0.26448264692682955 0.54899967787558124 0.78196111548144742
0.75964204411077674 -0.46032341875576721 0.66982639843743286
0.35824722268597498 1.0082946506358859 -0.37766706873839695
0.25685283605039189 0.96228087519584982 -0.27838695263003643
0.26571260850597156 1.1175939370057666 -0.35803211065158891
-0.60609716438068517 -0.90882105061866714 -0.36732482355079021
0.90760020848663459 -0.31310914714261684 0.4750273534638314
-0.73220306899796839 -0.4086317852007646 0.024324735611962467
0.58125568523872317 -0.62303056972687099 0.6271262023594657
-0.445630302522801 -0.67908884082522825 -0.17728008036551479
-0.24906441352811015 0.37443636836343064 0.68051352380308394
0.25082541703107353 0.13765018100544646 0.64645341094427344
0.81843108656590857 -0.23476410692947347 0.66439461269911959
-0.81705616111114665 -0.21072389092202748 -0.42527482501925817
0.38795635282250629 -0.087985998674438681 0.71265563328815773
-0.50824424414789604 -0.77417888763606424 -0.36285312854317731
-0.083922770557272486 0.3458530304231715 0.77402286482525895
0.38521159040583797 0.78830168480151386 -0.32739465048786087
-0.60095752145647552 0.24085528732316541 0.70791662126377375
0.2147747952323158 0.33735320766353327 0.6656321366778819
-0.60539898291065342 -0.71866004875356637 -0.32844458778330221
0.6621393180176085 -0.44973697589388584 0.70863704415076079
0.10207114441286791 0.6374603681261144 0.63083407176480932
-0.23903783203208917 0.010703212297766829 0.76384388724613927
-0.5356392004567283 0.25456077081329131 0.66222436737067092
-0.63416286754818429 -0.077037268036561635 0.36419428520807351
0.63084487879097395 -0.42300075820768424 0.69746163168592012
0.41174034514141056 1.1084606118204121 -0.44189487527050986
-0.45600779319514118 -0.72289962897591664 -0.19169877670050539
-0.27714792415025613 0.56342175010096263 0.77678357593475056
0.6518766860004277 -0.36446665302435699 0.70662596243585973
-0.80911988020454118 0.17412301350225867 -0.46871899561448771
-0.71059588934599915 -0.31011052976940823 0.62684699031995628
0.10793765079849038 -0.090039538385514817 0.77057012066494224
0.3891233649089898 0.56640940713981003 -0.33238928717234373
-0.1334520368569585 0.40753019829847403 0.75308504230800111
0.018726114773905067 0.55571950403209747 0.68301855977180992
-0.01086915125797816 0.7658927204081869 0.61736241991273033
-0.54361777961951674 0.054497125975596861 0.7426558031878745
0.051075485008318822 0.4208815192114117 0.75993788615378044
-0.5882944082522954 0.72046095976708102 -0.28987024717123688
0.26101510068011891 0.87340754132483944 -0.24055327944408589
-0.25380516794235319 0.34008008394594058 0.66392301107060447
-0.25322898189987342 -0.050494536153613545 0.76863892128757083
0.42483960849740043 -0.17392930200451473 0.72798151635185526
0.11407287911737996 -0.070855112201718029 0.76862412054148521
0.0097778537911352714 0.31628165853915657 0.78649403275056073
0.11425183452417542 -0.085121205518573717 0.7861167668872433
0.33656267617080005 0.61669043340201402 0.1194802511717441
0.13361150049211545 -0.19743905162934627 0.7758237571286184
0.51647165793544758 0.72805419981836117 -0.27925017911413264
0.29864522498211699 1.0030929884959967 -0.36727977581087856
0.63614201811800797 -0.53370594062511501 0.40361046639758058
0.26362069089305606 1.1788367594572122 -0.46875138299640184
0.53885307940181804 -0.50677634547409145 0.69615367326644417
0.33253453682982581 0.14402017220862362 -0.18939947612004815
0.27799241214287918 0.022352439822584946 0.61947021509915245
-0.58901954336491968 -0.23951437147111632 0.67919164985407043
-0.76126192368755952 -0.9308745165172958 -0.48559053254401263
0.73978581941804578 -0.35914292171875206 0.64266776005898052
-0.84370074263383543 -0.34291659873738034 -0.19295730278841106
0.36811713829959558 1.2370317955222365 -0.4644305278552423
0.21903439990842344 -0.077264133297174187 0.7898748495369361
0.36832359833640993 1.0475460109791062 -0.39654047539999482
0.31728407783569423 0.54976598470009108 0.32314644827620853
0.66171932985148629 -0.18084930242476416 0.36277069675332996
0.36508938106908317 0.91209063157344161 -0.35707948306766468
0.8211013671659515 -0.46695422715756019 0.59446192824266664
-0.11085032532024286 0.29270103978185524 0.76563376590652688
-0.59431397557910515 -0.062003333605462618 0.55412732405186027
-0.73223356039455822 -0.29321216948343376 0.60899172592869633
-0.071102241437792202 0.38379805521410226 0.79100576500358244
0.062890694397538027 0.76205326263037598 0.51324542342704227
0.33808485679568889 1.0469654390635306 -0.39003027658142031
0.22037447819703004 0.82306709529212618 -0.063271950472870486
-0.35208793556095941 -0.57581821035285596 0.18651609026404437
-0.0062863620548725407 0.59587288944758621 0.69241380190551638
0.29704563802222594 0.094167003773208524 0.51013319596211026
0.45025199193108989 -0.028745553378422439 0.62811606171879575
-0.79478426549848535 -0.72275195558303551 -0.32858716358759743
0.080276352219016189 -0.13137859932202423 0.80450612106636132
-0.15811078498897047 0.060753413184432947 0.75625555776369602
0.049732711599318691 -0.14185158778267271 0.79836174797940185
-0.12502494066433911 0.4120069912217037 -0.62498181270331798
-0.56982364781747918 0.015421740512548965 -0.69548750363173184
-0.64495689696365588 -0.63613003251358613 -0.24167761305205993
0.085254191564359871 0.96943815043516324 -0.22021272180242946
0.34288928710871147 1.1230756157573243 -0.43885502692460321
0.73146518222917933 -0.2969820757290087 0.68912858600863025
-0.068379649157691347 0.21855933554037588 0.75749959276913259
0.35419521239585094 0.33067663001852488 0.36380015117176256
-0.61656870460597801 0.18055711813660835 0.69884260741993387
0.36010759551808746 0.0074443562022317167 0.50524107843120802
-0.54437934257365583 0.0038768720299238169 0.7474937547766709
0.1335047555571407 0.37140150731568866 0.70201029372354107
0.62635893275137278 -0.64243530595595999 0.57147537266600157
-0.098573363204401687 0.30590776989835078 0.75495764250738873
-0.20809248368568944 -0.53681085923087934 -0.17744625065595798
-0.45648108619925409 -0.092961304802441358 0.80483845231514195
-0.66502802036820796 -0.019207505889154319 0.7100518475579749
0.30606915102443111 -0.18136315575524797 -0.16506266259708546
0.2859752553082231 0.75747752550227077 -0.28342111678009019
0.11813553179179337 0.37470053911899015 0.71739237956999524
0.36626886561120386 0.57351065078981733 -0.044052389788934221
-0.70246425363615117 -0.25019777772422991 0.23084535519786265
0.74855442450116527 -0.2209960065851404 0.3654631638121888
-0.27925823305726283 -0.070786359067398941 0.7706537337379098
0.79257048937230934 -0.3319930207515982 0.6929064965940821
0.74796887856032868 -0.32219749417097732 0.65524255316592317
-0.7422665513852742 -0.77806723851134585 -0.36033182560524857
-0.1951324257216811 0.57858196259404737 0.64102371481303599
0.024859406127582417 0.5713960637562856 0.66361795443313021
-0.1697850482940737 0.016538205422093277 0.75532925210055346
0.28812053902824175 0.73422093473387129 -0.28559053563824222
0.37975622328998782 0.68208175251084846 -0.30276093343299593
-0.60886196562957196 -0.70366972665141869 -0.32273455860736
-0.28034520574793476 -0.17695268166920375 0.75401806301272956
0.16537528915179678 0.10882668498534853 0.72881245268155048
0.053961233732024994 -0.10684411608794786 0.76761308828886321
0.12940603408320328 0.44595411389629103 0.67990102558017895
-0.81647559615126042 -0.68920108999000718 -0.29922996296804882
0.85595942514454038 -0.36790090662829322 0.63540150997742195
-0.5617799269750634 0.14527757317443069 0.46768158992566455
-0.20567345874115972 0.64845011755158666 0.75758224121409157
0.41885368018294855 0.6189024392576119 -0.20927525406166581
0.34699775744763883 0.5936882975538218 -0.099697338634282318
0.43519145247661584 -0.59175152446308421 0.42828598987581668
0.18722282270805124 0.8782024782534954 -0.3197805040330941
0.34975696457676264 -0.057126332458636853 -0.13253391592706443
-0.46400170618578329 0.086516531408463937 0.71801365965351849
0.24471878050668039 0.80752930054845784 -0.16651316319285314
-0.28330148546042722 0.33525340037873042 0.77723137671844356
-0.6626786368515809 -0.94216359715407449 -0.43121739709788365
0.137079536647704 -0.39556606999602284 0.36655264843284385
-0.11872682371265597 0.35453289042779179 0.75097607189460724
0.06854815943313497 -0.19158397308014319 0.75976646689411353
-0.67969690570596342 -0.7128654765570932 -0.32047139951009385
-0.73543632413117876 -0.82259505957227219 -0.39399581866270239
0.15233137996752788 0.4846462268769467 0.66170637256703202
0.10062678754947285 -0.09033470977580027 0.76226920650402263
0.045665029830921355 -0.26665074473147787 0.66519600854715755
0.055986193320698874 -0.33235182761549797 0.52900646632592974
-0.23756533046786643 -0.087899260258344825 0.76336495704251828
-0.48131752154454688 0.053688391222251663 0.75744649552375165
0.7971913289144652 -0.27972938617226428 0.68647282652641017
-0.088148021771409901 0.527822457415974 0.73221340062177376
-0.86299628309875942 -0.5860872940705768 -0.18859758713737484
0.16666699486352599 -0.1762040526290507 0.78171306253278683
-0.69432912321855866 -0.57615512374653122 -0.14842298342292537
-0.54425819983261192 -0.62919622446227663 -0.15864141018436584
0.061702797884571225 0.42271615503875282 0.75432377394118966
-0.49410715276426487 -0.27433044511981541 0.70653929833868911
-0.65627504948816195 -0.91823152689994103 -0.43703279125275962
-0.17157262745724466 -0.50675049539109551 -0.31305425056077318
0.21121118474506773 0.55478906025529229 0.59308567494197639
0.41441335988841388 -0.43665726926569359 0.70667504068665821
-0.84464501448163887 -0.87325838299813796 -0.40882836136543865
-0.038990559200357211 0.27197241585505072 0.7585861582859188
0.34123822557491934 0.37961039850984601 0.41220114653996731
-0.59457413998057973 -0.61464027286322676 -0.40124002609405629
-0.65755206286331003 -0.65177841841612683 -0.28000820164987594
-0.63030804118092831 -0.59047634874735699 -0.13114038304171416
0.3005665295553257 -0.38091105924064195 0.27088849599243758
-0.67744241951120188 -0.24140234730001464 0.66132031711217376
-0.26227144237164879 0.36343965968855096 0.79282203418824615
0.33654344478940601 1.1494036695891801 -0.43923707249293642
0.10873225143956944 0.51400738168205451 0.66263755107274847
-0.47067822514228652 -0.22468545819627761 0.75434647594904902
-0.28946499196052855 0.053111712396251232 0.77200579727557894
-0.26346777016782852 0.32618334723883669 0.792768966898592
-0.68028612330690663 -0.41289384643133298 0.58014174880901148
-0.35424743968239625 0.072009916897389115 0.74715518693254879
-0.51566599794132628 0.1342206514067219 0.75723489469265104
-0.50427810345185975 0.094058651988474296 0.75397042541050219
-0.47379063826882373 -0.19898591593621395 0.77705772514991267
-0.2731772215203776 0.94881391944826809 -0.11440662047887429
0.026126499036401185 0.08091994837439298 0.75516805470600978
0.11750362525685887 -0.33824322533518192 0.6487495080248511
-0.75113103311773344 -0.74224560680537977 -0.3366791278181811
-0.071798238720653274 0.4296196743486953 0.78497068613606302
-0.24267199367225345 0.38086903407582628 0.64732940976880649
0.27344328798991313 1.1565200399677469 -0.38364404263098706
0.73527735872990974 -0.4174045492899956 0.66232892860385384
0.54069618942992292 -0.11707904056148433 0.69230472132954368
-0.075112139423538338 0.31699509229338751 0.76770383976145595
-0.51878845000244667 0.10467940851418156 -0.70842636410172943
0.60381032048994143 -0.55550211057940047 0.4073700047804607
0.51678494425176069 -0.17280136463705453 0.32301577288943584
-0.25898337547148031 -0.26842872624544611 0.66833724136961958
0.43559275220824389 0.8761416370546744 -0.38113589899020894
0.83513993336104875 -0.24972611255709642 0.65997115503195047
-0.41255177636818985 0.12606811623134684 0.77279622663737246
0.17060520486840147 0.60191896640481701 -0.44870136114420234
0.38346700321363159 0.50554328980072505 -0.30051640601949714
-0.079708809346612952 0.23995127058490384 0.76154437871639935
0.78977287628638493 -0.24046225064174132 0.37140649533383296
-0.80338531555619852 -0.39749986170283691 -0.14312629962791057
0.20324877926392304 0.44396268562550745 -0.43085550096809655
0.8896467796860037 -0.32536126936304499 0.61322798145994639
-0.1537394079260892 0.42791702697618872 0.75938003718555613
-0.59085195056923823 -0.6676773966266758 -0.28758832211060614
-0.41136042203221024 0.087901456100385911 0.74233970491579804
0.14686164974769156 0.26768185631357611 0.68829174551190064
0.40321624948084178 1.2237824218614985 -0.4747196555318105
-0.81848869588728945 -0.60313464643405013 -0.28998673119747487
-0.32471683210884805 -0.34323653726805015 0.62653285216041077
0.3141989271196266 -0.12431593500702331 0.73304249554895229
0.11464693137433812 -0.052931375004931613 0.78101176349361445
-0.64994308448729399 -0.89635791159350209 -0.44045208537098013
0.33427540891113239 1.00436656734888 -0.37085427735500431
0.7619785081078021 -0.47500450838986019 0.65860882441739843
0.17126677274590207 0.3991356137056199 0.65791237785507661
0.83188912057201492 -0.45723500587846599 0.51514849389033834
0.014282818024824451 0.76545775249102865 0.62365528884369859
0.34017463249850977 -0.43927539001144567 0.34885406125626339
0.035247061556681558 -0.32492336476599859 0.51370126591502974
0.13733111861680669 -0.20059343369022598 0.76834030979898493
0.1738943504678474 -0.40374838531038248 0.26159525073219569
0.091757271596677015 0.54913344806332098 0.66067107989709228
0.16706496760606626 0.86922556365070491 0.002226607820237092
0.30849904364918501 0.47473249853839006 0.52313879808757058
-0.38702288233683646 -0.021275570743230166 0.80652143251335673
-0.19841304884849364 -0.14463292359715885 0.68902562197842876
-0.29993199146865379 -0.4795363910590611 0.43571626843118949
-0.55582633271069071 -0.78770709452179499 -0.30660238413747898
-0.059008398677846685 0.72745713052574779 0.69071364584243611
-0.13168977184326991 0.4761544541272098 0.74897601155281279
-0.65808753277637777 -0.10706523204248564 0.5996219942910006
0.50105047945557146 0.9036648046173692 -0.43147903194554615
0.19174195052267606 -0.031274355448756452 0.79546098590975056
0.21894856155518738 -0.35380565369454953 0.70074802388878776
0.043567837669229448 -0.15647695494826985 0.79300493678999562
0.25192586968317698 0.88963017655596666 -0.37353654349472265
-0.069801953058899358 0.13216056267105492 0.75095928936226208
0.49961166974600246 -0.3206538368379821 0.72776946432294576
0.29698742285533797 0.93987371802366582 -0.33932429725899027
0.39950495371399342 -0.53465684436303995 0.64905851763113454
0.071019332101151633 0.62445789478860259 0.64591595268370128
0.3153881022454712 0.67063949732342287 -0.0080268923035475837
0.25368927993362433 1.1818628245396567 -0.44768761123129153
0.11681489838176162 -0.3907755589071561 0.36002732973186369
0.034105409189621128 -0.13251693062303538 0.78354624693340735
0.37645694357723158 0.55608785213329703 -0.012002496579750499
-0.2940441254231132 -0.30139516798149857 0.65966647437115622
-0.0090659866040354586 0.32794201807832968 0.79069322109181073
-0.54205597406202344 -0.050754943456577051 0.73334048801472829
0.46576746953133608 -0.29605042838800921 0.28764740138601752
0.45624212699021882 -0.62704050246684373 0.49910840108538412
-0.52715700788954933 -0.11903214135639462 0.77522244633303483
-0.69424238762210422 0.63454301775380628 -0.25105462273155155
-0.83317958608315124 -0.86078072218036894 -0.38497008797627963
-0.48741572264902544 0.086591857547921869 0.6784708029616322
0.0010009982458996092 -0.30497489963437063 0.53384350241827505
0.50958636421496806 -0.10415015975298569 0.36235450766886501
-0.55290643656833538 0.18389543135390762 0.76606946901634299
0.36244464009541844 0.93367790087215141 -0.36199428235924813
-0.88541194264512413 -0.64531640323276207 -0.22441753664554298
0.67084818409452396 -0.43707948833559795 0.66532495633813049
0.37885033561346404 0.67368386576043626 -0.28982829366433194
-0.28240399945123329 -0.31452540554448594 0.63622457529735144
-0.31503298628556564 0.28922120701146525 0.64754424067433369
0.29110661888107359 0.71481029998029655 -0.28778626012798725
0.28754718691681092 -0.17603781464268353 0.73699606151283525
0.38435135836196821 0.86302313987379975 -0.34976839093276979
0.38894312551153121 0.60613220913793775 -0.22511565050257332
0.41175225014826111 0.67206423430426732 -0.27766904608376564
0.76428247891832513 -0.37578481067978897 0.66023114620598644
0.21170961758359397 1.0126416847078143 -0.3645861871483902
0.18228763937283787 0.82460839750141091 0.089724299198365998
0.42951913076085901 -0.52639332388307825 0.38124055566294679
0.0606360499973988 0.98898819978202113 -0.22028746745827021
0.75355984399046605 -0.29554343851114484 0.70436374773770716
-0.68711264759023649 -0.22266782286709241 0.56077627034532362
-0.57628370473420887 -0.08600685955185372 0.63771847223980593
-0.66121119809612594 -0.15758287311635222 0.68897629980744135
0.17458628007656074 -0.004340092744732349 0.74705712933065982
-0.5820080272407786 -0.49157872602972663 0.55423112112716133
0.31399018240450971 0.018294817591920864 0.54877939223806926
-0.29966092478642281 0.28775651253464796 0.77699780044670241
-0.33087808439814381 0.28611560043158146 0.74611315560757596
0.77811500340595785 -0.37414578274327415 0.68476385205262069
0.074918195197476223 -0.33688651559693361 0.58353579047892623
0.83966866348761471 -0.45230487980098943 0.54374473694017134
0.47331939946020185 0.79171514560538725 -0.30150987412451968
-0.49775319515885741 -0.46162959201451259 0.60601338561696139
0.34550588988697939 -0.049476092664763049 0.70181451028584441
-0.76272258280262051 -0.92882608828155 -0.48805335840206254
0.64476283230743547 -0.14100870736587723 0.38663071707710017
0.36904741773724936 0.56743407586536776 -0.1831157006264128
-0.61079731893153166 -0.17242328005199603 0.44441997057268878
-0.47957180983632952 -0.26960647080062827 -0.68854481648541466
-0.76022482620999909 -0.517195558775569 -0.19473099316097375
0.007329298947723828 0.77262166854205372 0.34437755683453553
0.29052345904469234 1.0748433639115067 -0.4036325663852729
-0.5202995113633051 0.077006966095524376 0.60044763634908804
-0.65557693448165821 -0.95817582893826803 -0.42994177287863344
0.3395793452139273 1.1502249403604843 -0.44731109654033929
-0.56409789074875505 0.0071643359192612444 0.57902274068810655
0.41728611425667594 1.151066940485034 -0.39431380703927843
-0.15536596728034624 -0.0084369625939038073 0.75478517435555226
-0.60072090717511273 -0.12030564334898264 0.70527721233832619
-0.13368234262873813 0.36939691319606149 0.7589311706126054
0.10503976340562815 0.78549008873474824 0.549737437611034
0.41723579053748239 -0.1684902752930757 0.18837795810405034
0.52753851335980784 -0.46383620793440894 0.71005488180106813
-0.20369050235981234 0.74051417623263083 0.66535525225818404
0.62216691094958065 -0.37369080925512854 0.72208386866898344
0.055759653891350069 -0.1251458180196332 0.79837961665591628
0.22006636585039274 -0.018548887246173873 0.74243705313767805
-0.46412489031739312 0.013748365120179518 0.79372042127721087
-0.66057079100489347 -0.55233057186669754 -0.39668935530612792
-0.68503547267949116 -0.66094911255204991 -0.28164799406290797
-0.14043175961644039 0.52511574597833333 0.73973376336184948
0.071965017447524815 -0.17120588072293508 0.80109181797362794
-0.30302420411720732 -0.35877393761203202 0.6744482168398811
-0.17319459604687637 0.9768958297749144 -0.24489210096023228
0.43860622375913039 0.79177136443005303 -0.3366131737166711
-0.70978110961893393 -0.85172514908514785 -0.48592937668128222
0.30254845084303383 0.22327784280965091 -0.26670532596179441
0.72739440295102042 -0.46985734455799744 0.68364786330262106
0.23051975313239836 1.0813427400184992 -0.32195628720273106
0.081398817584513949 0.73337474451630946 -0.45686150454621099
0.17242251546048948 0.0040400492672771904 0.74841412915654892
-0.069923291803810628 0.63038970863856791 0.70840528658062674
0.26576460175999728 1.195820398131513 -0.42275726835393357
0.44036348989531149 -0.61094877709241091 0.46100737196130304
0.21426335851376876 0.2017095534681741 0.68503947513692509
-0.45759129653016828 0.24650185497573207 0.79141763816791144
-0.77925426344998527 -0.33240278897431708 -0.4136373053331166
0.40308594586501556 0.60917958036720599 -0.21693169071864205
-0.35235456034187962 -0.11182800787715541 0.79909380104967287
0.2901810711450068 0.72046245624267158 -0.25858005698328057
0.13364194666372242 -0.059937275048086214 0.79756491688167763
0.039783782937497847 0.38999146959519715 0.77242971736507648
0.64548044511849412 -0.42922695152078116 0.70399700694677758
-0.39458199046163145 0.12023387155294962 0.77414641556531727
0.097838529770292837 0.94147509301765986 -0.27327182343613643
0.29803550113454946 -0.40169182400478554 0.30508801524852025
0.27449750657829242 0.88663002475656327 -0.29595287178870677
-0.26215578010955909 0.46620715656145584 0.70134367972726608
0.062075152939215172 0.33127026869523135 0.76225607787773875
0.15370554197244246 0.39901544825809454 0.6778437666008319
-0.68574732208213973 -0.95185534149905404 -0.44864924360162739
-0.29764147147087527 0.35138710893612668 0.63132978527147188
-0.66992244171003179 -0.099008649054292519 0.62040453304023302
0.3142063065687708 0.32895443704398453 0.57472519338931782
0.31777580616062551 0.18136851901386408 0.52215380093038632
-0.67780197448281143 -0.38982258137090087 0.44934032565018267
0.1226622230224379 -0.088813362331390255 0.79820231910892403
0.26529658911978515 0.9433110447823303 -0.29429211901710417
0.29390506464898181 0.046580983690493794 0.51969749282288902
0.20544871977595847 0.72960247245114207 0.26785373120922173
-0.13678928674928414 0.47974801856664762 0.74990466877948769
0.40427810634559336 0.62951525332872471 -0.23734133585255535
0.11105668313896899 -0.087805075396307775 0.75955648747795124
0.87943392250559071 -0.28520402445583581 0.41617024644502365
-0.8470817405441764 -0.76079461880483912 -0.33433663151392068
-0.56588129611449034 -0.15418855853040947 0.70229673262242276
0.25268877794070477 1.0748217190340768 -0.43633054307582952
-0.39654560268457573 -0.63619026764839148 -0.28219402130434723
-0.89808280407828178 -0.61127541513400985 -0.22547866293874819
0.059369859991470264 0.57869502572253095 0.66345429710473169
0.11272354962216014 0.83138565631667927 0.21434863654156189
-0.66588000349034715 -0.59757353741872166 -0.17380917267660223
0.50636595618893665 -0.15601388818629025 0.71431230624265929
-0.56005483506370979 -0.37088082805910361 -0.60127287776656679
-0.38986522966689563 -0.16131620131448665 0.79797439563017036
0.3923930430208955 0.75198553141009761 -0.32040901094473639
-0.15322723001404626 0.63776624734970344 0.74013544711842094
-0.69959034943624943 -0.75439173190807907 -0.3457360001210894
0.22308783094054263 -0.11968043382857108 0.78203730583806497
-0.14852546672612021 0.74114469638196812 0.6306649126032724
0.47291817373376688 0.84705555655781062 -0.34426684779748484
-0.64832140169966124 -0.30676558774549312 0.42593388803306453
-0.075554770961360873 0.46096931150256104 0.77725286584632158
0.6317433275689055 -0.63817673495758576 0.5156048108239073
-0.36994264584848935 0.28138078080078799 0.70595697863158868
0.5671890211532471 -0.35332919659481776 0.72514814098418157
0.64531201452225417 -0.25567916761232112 0.71713464371092961
-0.34563362401611641 -0.21872822435586992 0.74441731347492723
-0.72194762893908049 -0.30889392827060425 0.54874404027285717
0.13721190960634289 0.42053255627870945 0.68931224265574187
0.026604598498138898 0.48653972395277245 0.74263575028042972
0.13797031927634862 0.34635862860298428 0.71165044040091807
-0.1544907111594469 0.36124166096414267 0.70846055932653584
0.02278681613995559 0.71916144914421798 0.42449880571372844
0.16410828026879187 0.5210892132089997 0.57177497726971716
-0.25604936066993389 0.63252384302600362 0.69094342410269682
-0.45046687526422602 -0.64503416985154693 0.0099543313856642612
0.092381406251291764 -0.10753605145597778 0.80046194603689003
-0.8622103702131092 -0.73468752403821114 -0.29222960703579659
0.65556572944023372 -0.43476721644294702 0.65556964179044996
0.46876345469004832 0.61988028239828097 -0.31244805327278513
0.30914167594924891 1.1864944260993724 -0.41016424540907792
0.36778143702564847 -0.29482842645288398 0.21371960519194211
0.37163554842751267 1.0169019988774135 -0.38638255096630658
-0.32818776736300492 0.52722865910514471 0.51906088661280769
0.54439641658763804 -0.26552416380233357 0.72389738088687494
-0.57140326475304093 -0.52751895314162067 0.49874033349143598
0.33450212438766158 -0.21798649721275654 0.73550655524006991
-0.28006054865273455 0.86964743766056785 -0.36069587535670422
-0.36453473789413948 -0.23897679849490272 0.73805403579556916
-0.69408816237174875 -0.91964175698888795 -0.47726690183683118
0.90583444338226826 -0.22251469172646932 0.48788755895819946
0.33020031809179073 1.214822142071462 -0.42844971002925547
0.47865733837233648 1.0618819762927778 -0.4633337935330637
0.61663669898593554 -0.63655705000479657 0.4868531947737047
-0.12826095074825616 0.37078822953770363 0.75490475164029824
-0.68031304958224936 -0.59369984754097871 -0.16917601925516124
-0.86210601008978571 -0.65995610895975432 -0.22896038679881769
0.38287111141970342 1.2300015126150825 -0.50036977958939488
0.43714779487953592 -0.4232295867042688 0.33038957384088974
-0.55505126618015765 0.27966645067013651 0.77550845338723917
-0.10024430831265363 0.54971609012966649 0.73067018333508926
-0.063191105597162789 0.276267358936098 0.74709315839382384
0.39930618937688678 0.91371607195490867 -0.3758636637685413
0.2840122397769278 0.78157768227440449 -0.28150148739521086
-0.64992495536610306 -0.64150869152591561 -0.25578523441365419
0.26836230404705219 -0.066961165064285177 0.74322786476360747
-0.611074396302282 -0.67470845498715804 -0.31258969155892302
0.62554494558600737 -0.39325325068368144 0.70012776597893289
-0.49522815061457948 -0.0015869531125667358 0.78175357222339414
-0.49547163876182054 -0.29590851576743926 0.6866000207795695
-0.70869625234839617 -0.93936290350199769 -0.49254213232386412
-0.28385179256195414 0.37317325685230118 0.76271412729757415
0.59897230717922412 -0.40618563575629674 0.72204614011656432
0.74080040198247588 -0.55643070198577527 0.57486336139170202
0.24048429727025677 0.47292011698913328 -0.40508218406198537
-0.26737303410926216 0.28989699472760888 0.79280409330765877
-0.50912244801917694 0.25783573480113109 0.78417631965480084
-0.38685213989204925 -0.19572096799197691 0.77290374797177197
0.81080639015985412 -0.22031111323765784 0.3871643335799213
-0.61501658498361778 -0.21604866121881439 0.67846935065438085
0.28794026447407362 1.0486627269214566 -0.39110020432612913
0.60343214858044547 -0.62370385016077057 0.62344352750351639
0.28735859001861996 0.76192873550680851 -0.2942560170685482
0.1306207452190975 -0.19315579900431468 0.78237343286409633
0.67763880952207955 -0.48697439426257905 0.69345673184453016
0.047448696574711846 0.28986373306147728 0.75609175006674612
0.067357324200692403 -0.17766396905629689 0.79634942428689737
0.86454214703867649 -0.20374261848137376 0.44849882237029703
-0.016368396518295469 -0.28913773913075524 0.60358403183031228
0.70147391561955885 -0.4203313035944285 0.36295899026472256
-0.25915029054360161 0.59383453662684094 0.7763033043806189
0.16546928065517363 0.69035299303054698 0.55468054038685288
0.34484629383295129 0.86600632195271388 -0.33683773204637646
-0.31706382792384602 0.0045165922775636247 0.76523957300695322
0.31409974195361201 0.45396212035933381 -0.33330074765131457
-0.49193338471932435 -0.48390529715865949 0.58300910628138958
-0.50229856598202005 -0.78572040977805191 -0.21879724910012044
-0.27874452434648589 0.29520545134029663 0.66491860759227706
0.4609754693611805 0.7596323318564373 -0.28796323261585854
-0.069238585750795778 0.76045573241779696 0.62655596092618637
0.050794963753574507 -0.17582903813950645 0.77412603876862107
-0.31817384684957517 0.21033909785275329 0.79345869634620136
-0.45751403435524907 -0.16280523987360729 0.79241953904413709
-0.25296145434078454 -0.14667891873741201 0.75586251858725539
-0.23303924218561889 -0.4467356395252402 -0.53044303114557323
0.098443479078767382 0.9599962826192634 -0.114529578449865
-0.75072941834541496 -0.62442479795785388 -0.2027111505751904
0.77937417127748887 -0.26650898710668858 0.69041264127959501
0.86667179447657361 -0.37098020279812594 0.61915518327070629
-0.74495660933882135 -0.54282549907382638 -0.28260048645163671
-0.7895065127568266 -0.81863768350459232 -0.46345258121852773
-0.35986178545168457 0.89810967534788055 -0.078984063674891303
0.18929967256462277 0.70977626714165387 0.48568279468181963
-0.21883939454934165 0.49307021454511446 0.65731404647032576
0.47571417396675741 0.89310032231416869 -0.36605263807336996
-0.54789028873120671 -0.53519625202338972 0.41544457500396792
-0.045808319235767669 0.49087593162214427 0.76450650830293476
-0.72980174750003357 -0.98514101631608053 -0.47599661986223119
-0.53259753792530518 -0.3600164837113391 0.66262893758904529
-0.26310117206139694 0.40407339849131363 0.7922517957252424
-0.25442454280754134 -0.097258433914072739 0.74634984904488544
0.27054028556836585 0.65989885525496828 0.26634280608250904
0.79086079270376075 -0.29977985848006239 0.69323975589613696
0.24939609424896503 1.0959867821967695 -0.33265743920970436
-0.017764592889314201 0.66851292738234358 0.68625095915419365
0.85143001369558391 -0.39681740996446968 0.62254020398800769
0.73335730636365071 -0.31149666135175691 0.65508581574232672
0.20287418373806787 0.74822676086102113 0.21979169184180591
-0.068276243376253376 -0.4862306419487501 -0.22952678126258341
-0.43610209976778691 -0.74462187722483364 -0.23126667357691311
-0.21371438539761556 0.40262232083460248 0.7761661534617339
-0.12368961120370159 0.52953478391483921 0.73692517605520713
0.022965092761488393 1.0002327337848911 -0.10731691334255089
-0.64856771205358399 -0.30897636532097827 0.6429883822812732
-0.67723279602475728 -0.15494401475643471 0.68971852519705745
0.074834531308994201 0.44432053452863229 0.72859045127892053
-0.81274739481920477 -0.71750595333891987 -0.32986115166539776
-0.51841127309422319 -0.18094917330531546 0.76429604355027436
-0.1479840693777561 0.40792741492601481 0.71849523961969552
-0.70452524231630065 -0.97140305904965896 -0.45909452414371188
-0.019969213763509686 0.44676488821038562 0.77491251838408459
0.80025809317931618 -0.16419680045635543 0.44982415572522427
-0.55871052236773266 -0.30404180683045046 0.68002617011788491
0.63969108322901747 -0.073535246605479498 0.58964548845215425
-0.64202322068689455 -0.2324195175727537 0.4841022636224519
0.173038336369288 -0.089025533783283262 0.80004634062965607
0.058173924591585546 0.35472022968897221 0.77118858321037997
-0.24916239370500648 -0.53707432979878789 -0.27268653823933064
-0.46069422316257658 -0.6560232227402949 -0.089032154317637335
-0.39019644460442748 0.071632269815410154 0.76997510443407258
-0.71544385984542913 -0.20781492274027968 0.64169351560410348
0.81725134033074909 -0.42762369735551253 0.44640723992242393
0.29473380185881126 0.34985049261559631 -0.30923381927767224
-0.73361709384878893 -0.69751583299709452 -0.30503289555323576
-0.13958022524202107 0.49844373443314005 0.67259941224380171
-0.61739803172597618 -0.11639749346861961 0.6985422773274621
0.5377372233551867 -0.039468291320697846 0.59341013354457317
0.19214778355382833 0.59190059402703543 0.58907849675267343
0.31795212627070413 1.092413461426311 -0.41984624539849236
0.44254833562403206 -0.016822490311473981 0.48551960900301872
0.61247399525846191 -0.41466268728906908 0.71918165320255412
0.51139710776542557 -0.22910713493859558 0.72463964140213655
-0.70236448616722313 -0.50483651061499657 -0.06349954694213622
-0.68060552498187121 -0.64536043884994143 -0.25650010707293269
-0.18095176289650539 -0.43636337735091857 0.40841298639622536
-0.67957199788932598 0.0080220424557371217 0.32404850756096337
-0.51585835620926446 0.07953996883198422 0.75040191172406434
0.11313342207883892 0.49182611011646493 0.66511173388342115
0.60193213431985981 -0.59557550557487771 0.4333313535780956
0.092326017331515686 0.8353895698901912 0.22048561153615509
-0.84624398285891544 -0.68185319762213403 -0.25357377919475965
0.24747929389765488 0.63659247506372374 -0.40029383706702859
0.30261054724716274 0.072218187580881388 0.49529304639250249
-0.55900256583778685 -0.23338695295578393 0.67831076362418941
-0.52015565867245073 -0.33269271247550036 0.68085210785546568
0.38321871358159143 0.66434473386628135 -0.29008954478144844
0.45757603605053276 -0.074559118800781476 0.35668311248876883
0.30010194068309914 1.1009902755241647 -0.42098476713029598
0.035487301051190911 -0.16507220040878678 0.75773887131948481
0.26748607124977752 -0.16645939559709078 0.73984726308273885
0.77996653375284808 -0.35011180190289037 0.68866134863898143
-0.14662366635599255 -0.035104614113255828 0.75776002579820556
-0.15418251948946704 0.55757178165820243 0.56396439162553058
-0.81187070333222877 -0.85940605596609032 -0.41690860896458126
-0.40479981196263282 -0.40936885544424673 0.65049010151231279
-0.70786869887040993 -0.84515298356538082 -0.41508688870690058
0.068257399228912163 0.61236017939769094 0.65146179466862719
0.13551530282771296 -0.35533636892528131 0.64982325778454531
-0.33838764866235493 -0.11601136526650846 0.78718424398457199
0.66967318712278967 -0.59762146283325634 0.61743764153367398
-0.82225050244078091 -0.37974566714856195 -0.17608103118680596
-0.2758823147937477 0.32959708765905926 0.78769836578915431
-0.55222337796256937 -0.80264440315452479 -0.28362778739637662
0.21884185630706554 -0.28799994967156284 0.72646674681735135
-0.81858133713851444 -0.74155662257732224 -0.34812759644439772
-0.10696777095976273 0.13219755615843454 -0.68630562772545645
0.66660440407791555 -0.51159416445696571 0.39983440876108034
0.11711395664940483 0.53650881866880784 0.61592586367670954
0.62128775921832613 -0.41434360754989941 0.69981002383463231
-0.14645800773624984 0.36517956568742083 0.76441244748709991
-0.5302205361901926 -0.16884619660652711 0.75827988465820706
0.06396974718403925 0.3514043333413075 0.7674050999635913
-0.4653770461447877 -0.30250358361664986 0.69275251562574613
-0.69698628211902403 -0.3526865323259627 0.48993598567489549
0.23786981395178941 0.69153189082789535 0.28802801536579992
-0.40719340902452927 -0.42594641135460343 -0.59920721869129423
-0.095774412966228795 0.56246325997342961 0.66816292605228789
0.35483042699890177 -0.29348625348401391 0.18088736323768728
-0.7005497041256703 -0.42553640119145619 0.088748822436093278
-0.33421486343251416 0.10114200892895697 0.77501135521234055
0.40859396994175512 -0.54626078054445348 0.39893705894210285
0.13946645224284993 0.90998030461548218 -0.19170159108472262
0.16642862656101443 0.40913055782086261 -0.45981860645400019
0.34204040816166525 1.0998974224573299 -0.42336261381268514
0.72432280138478689 -0.31020002404424663 0.65693556016470289
0.68168939617630286 -0.55670172613245361 0.65272163029883146
0.3908579368334486 0.45255022048426952 -0.12803942933327761
0.1539067986535656 -0.19266949106050246 0.77260537543648233
0.36662294601298839 0.13793511522267998 0.29337504556083616
-0.19438514061616985 0.93880559864788715 -0.31028243078682749
0.035040620317822402 0.37191550648909244 0.77764260255091777
-0.37203629830796814 0.84316614296480807 0.11310157818023825
0.11231065149379305 0.51764555606781482 0.66356930829985394
-0.57940245194723872 -0.19872509255961557 0.68240876068479928
-0.4188897937618421 0.55496626357760981 0.45195776384398201
0.077673310222138525 0.59391276295750561 0.65499905840809269
0.31077687196408021 0.043336827686965229 0.49389247987303619
0.19783064343039314 -0.012729945697922851 0.74912396689858518
0.37683525802187745 1.1468690736176157 -0.44719075773584294
-0.79643041381797985 -0.6478760685071574 -0.23382288725725253
