# XYZ point cloud file
-0.45227869717992952 -0.41246804925971015 -0.096072480370263724
-0.48473509211924615 -0.41503265579776882 -0.087383028802298979
0.079196416812657322 0.35110843279108694 0.37688611253474269
-0.020537973200110082 0.0010117938759974798 0.61860714622481983
-0.15339019299180445 -0.0009566196983676889 0.53020711845200119
0.22649423058548135 0.88097736116300718 -0.26079378951406573
0.22536981764058717 0.20433849572371954 0.22649923084575363
-0.64457076432246652 -0.62960705437530673 -0.2020120312254936
0.0062633475233240254 -0.053740700736584435 0.3113334079191441
0.098529172767297224 -0.15527256216997865 0.6172695795910208
0.29412543154177917 0.6572884443015985 -0.044415978888237007
0.12708819998267717 0.33915578882209396 0.067419583592839727
0.040057940791087043 0.019775409125206256 0.58060191447226717
0.10890434321727227 0.37749059395341567 0.34644190819204312
0.35133967404376198 0.7120747119562556 -0.10301212818873084
-0.1004934880230608 -0.17802447340561867 0.50653312734375344
0.089997535714079868 0.068891714912090229 0.52759964611915189
-0.01859912256609042 0.32432170343767064 0.42939017000992963
-0.3809589885954674 -0.29318964393211733 -0.16064230530716506
0.15933056646090749 0.147131403689855 0.28352501899028293
-0.086024437234530904 0.11294965047933547 0.55194245636819006
0.17032105750039661 0.28945069796151501 0.1898386404373682
0.020870667852189717 0.012570620261912246 0.60856533289133008
0.09171893399714004 0.18598160145862219 0.48660730500149363
0.077549257761390766 -0.13454990393563815 0.62681711523442152
-0.035792210815927206 0.23527298284975173 0.46258362920751517
0.22121654431054982 0.64433515299262356 -0.046057535430338969
-0.102542497665711 -0.16449379129897701 0.46119876871618315
0.22618305096594948 0.42887918887270549 0.10534977932702727
0.058154466313878439 0.39887574251323921 0.32442007762660552
0.08518176192268867 0.15762940742960208 0.50005378534983547
0.11826208983584929 0.1622328903466419 0.46617518177216755
-0.6932669255650461 -0.65535382093370931 -0.1832328989445573
0.036363492870489456 0.36556146194910499 0.29610647718352556
-0.13784823037650895 0.2170259331378499 0.34174808422373593
0.13744652479225361 0.085804423783383488 0.48930015070844202
0.092812318752657719 0.039085588814342653 0.49784909216857143
-0.24553754383908655 0.02579420709416036 0.29929853358017233
0.011346427167793216 0.0085576168930239227 0.61165037428030211
0.24658671464738169 0.48991200622755837 0.069628903872969605
0.051918232952756549 0.00111689396532344 0.50980132068003026
0.18868602642031118 0.38924647094034159 0.2299745253163199
0.071613442920910098 0.32151739052858064 0.39880667217676713
0.1648963985209968 0.15324627289825643 0.27566437789650977
0.0044083993539207889 0.011280322501429518 0.59013673721094451
0.16537137224556853 -0.24885268653641179 0.55909374911224119
-0.61278307214123195 -0.50781406426959763 -0.28701175236144372
-0.13202774793787886 0.14897928660762072 0.45776743248925866
0.29103502913542956 0.58165442637473652 -0.023290360228791718
-0.41802593320540371 -0.40053759493091157 0.083684400301181849
-0.52057548812313437 -0.36681267035690457 -0.28189248351413942
0.12940587330058673 0.28973198993921323 0.37982266200985615
0.19369024962374359 0.54904890498842085 0.10532445660144951
-0.4260500136941463 -0.32548528019955381 -0.034744762208937185
0.098881904511520569 -0.08895250599535709 0.62650171548076372
-0.39977429461288994 -0.40761547676508814 -0.071520250871994095
-0.10493753469059031 0.10226787721094821 0.55858061194475583
0.19946304596267983 0.21719216737722569 0.22176913259306086
0.094567053628734854 0.41858164821358068 0.34144554708103569
-0.55241880837576263 -0.49956746234163796 -0.12824030787414964
0.028473642625725715 -0.020080521952533958 0.6204510426304104
0.12383113197306228 0.53938927361087807 0.21573185158448549
0.25652156231958445 0.21264462237799853 0.22037827850735114
-0.20994148142983349 0.063601381840682647 0.25354360842479773
0.078152791385482256 0.26994817588149678 0.44149121446208417
-0.027413966957073654 -0.18791130902320052 0.52782382174264431
0.0082578949020686299 0.33306518538321317 0.3577145818404206
0.07119750922441126 -0.11463974847955116 0.63573481038987389
0.12836092916884545 -0.12698944711324889 0.63920102403842993
-0.11468083078345859 0.066919112907975586 0.53959067756706935
-0.22107425016964211 0.10141102607621622 0.34696324815391888
0.11936127974962063 0.17485626081298933 0.4615801030046478
0.1055789996996066 0.23975220385403406 0.44084474623986136
0.10488040253108566 0.1423443747056421 0.4900000090450749
0.049328423723238757 0.2828902276116072 0.39828113806820231
0.15104003410795097 0.48565615035054166 0.1827017861468665
0.14124879705439808 0.2338746408657526 0.39054571901780788
0.090156451786472136 0.50708494915080138 0.26094963939240556
-0.37080760563177906 -0.28396132216797332 0.18488062373041592
-0.00031767251366909832 0.01106811739774427 0.6116200102848901
-0.59727082696324985 -0.4691038729017083 -0.29215784642939502
0.069679938927689866 -0.14564855093051832 0.60721185675064016
0.17203421855101753 0.077987906587950517 0.29321954062417133
0.3605995478917321 0.64678377414578025 -0.058211894183312074
-0.068130920410433227 -0.16716978046579212 0.44884283331500807
0.29707742007776927 0.42212157652712157 0.090111722191574595
0.086516708601177106 0.54693562483863056 0.11619656101224529
0.086024029359950571 -0.10563996359359207 0.63495231550040387
-0.27067054264664181 -0.061041021573443821 0.4114535134012316
0.02888543720488812 -0.060633279288503816 0.62039105027702246
0.16749280126638832 0.71953176951717035 -0.21926821631340299
-0.12362051486879433 0.062507565039997992 0.53736181731433441
-0.68104126788242536 -0.65729036649986994 -0.19842717347660388
0.21113029453415932 -0.23896586428518751 0.58807187889641721
0.38159175235274323 0.64245034744833007 -0.062617707150466329
0.34484815457739937 0.32128056842417796 0.1129450947671522
-0.038784580729921858 -0.19394105047196719 0.51670630754161984
0.053578738845138085 0.26170096276927657 0.43550351519367103
-0.42679342467158854 -0.32061699032845992 -0.04503954592929782
-0.53769907666703798 -0.39136598241019716 -0.25665008408975876
0.3997020160328435 0.56777071288881897 -0.041740665731824222
-0.067215796209602496 -0.18183640277638013 0.48273012314007224
-0.026204768828358427 0.38884313023283612 0.38828258523034087
0.089900543192130256 0.34485893649479382 0.37562474744987628
0.046669984749454052 0.19235220140150577 0.47278012926976531
0.26073673749804982 0.31342979742167887 0.15563561303812112
0.18951761567885428 0.33537180566622116 0.16022739617431325
-0.46083181895648817 -0.3906140362725472 -0.050695595030687324
0.048600242677391492 -0.020470614445775137 0.60266296378783135
-0.48106756452261745 -0.43629396381478114 -0.043816841460572409
0.078316124509096197 -0.13053466282785742 0.62652720666830297
-0.080509012475068253 0.20422344199090436 0.48967517776761937
-0.16329243488585776 0.061514652383553248 0.49699832773466968
-0.70374083656875563 -0.67782915113675113 -0.2238361255174206
0.032317517368050774 0.33173087697306358 0.40042721973154771
0.068538638816061814 -0.1226024954602738 0.63407104865082986
0.057162242214080505 -0.18625329313337313 0.5645361076621711
0.062181896024561034 0.072309586463322306 0.22714479794748943
0.01635969148385219 0.27084986320316373 0.45387466774597773
-0.023567394792698426 0.35374538080442064 0.41069750438018726
-0.11405872169476639 0.086831871202920796 0.54876045477877899
0.1405289577069142 -0.22246917346597295 0.55448375382381077
-0.15991816729409281 0.12950168533745732 0.44998486253799808
0.28982843882640408 0.53630291491729687 0.018851415929514337
-0.013667858832466351 -0.1528584835135105 0.57437051405094863
0.18203189286361754 0.31200142244230022 0.16913050938027818
-0.013974752767280885 -0.015795116117120811 0.61829336067847063
0.072958547342024005 -0.14362863233275958 0.61908199948115084
0.072780131633275236 0.15038933148069633 0.50244951386667203
-0.023717500759415922 0.00026242241582918879 0.61639360524827969
0.1846097246950118 -0.22822334106378639 0.57678268215849893
-0.091474649345949732 -0.032953007610220686 0.52436432753130413
0.034247116987233372 -0.22145702171229686 0.51291106199559744
0.070599217143523685 0.4378482088648803 0.35603926043132417
0.18341498489272934 0.30541008166767325 0.3386303134794113
0.23057811996408906 0.33664775478076159 0.15220365705043593
-0.051775383416349463 0.15457843227008983 0.50260442188408327
0.076723131011154022 0.054783373911539979 0.26928389907383932
-0.23290321732025965 -0.036110388424426265 0.47127070383727676
-0.494213774163343 -0.44679678567451275 0.061600947595940259
0.023279815874649223 0.31233183368403972 0.34893220450818552
0.22300681439657355 0.18237587528507704 0.25358590245992629
0.13450362971788699 0.49251986741407139 0.24437676939861808
-0.02937449278541937 0.0027645715568007656 0.60223881206894259
-0.0065978372756414494 0.25037404761144688 0.46674526168798347
-0.11642031586292512 0.11789561689737282 0.54728620700212471
-0.08016979329279339 0.074760623690528716 0.54414833035649934
-0.36311094009476452 -0.41772475836743528 0.08126936582301858
0.23096836653550623 0.70379227591422655 -0.055237743889726465
-0.46874190450535291 -0.35398623496733439 -0.11965892422730051
0.18139768214700114 -0.16439589192792492 0.63674619823300382
0.18182128916679141 -0.20453722426991749 0.60692058313066277
-0.44171923188471585 -0.35127866457892809 -0.12916014382482932
-0.64751695162941836 -0.60992893197449938 -0.26437564326603624
0.20750778039879503 0.92074938935340955 -0.32128338247086941
0.19213959552421134 0.32288955498257499 0.31272750592220344
0.071281333502459798 0.40968795285886928 0.29504041441626083
0.27477740722750066 0.23471636766666504 0.20090933332559846
-0.27814427236342354 -0.08908979497205749 0.36199661445253373
0.08950602259173257 0.27235578051520082 0.43289753873312486
-0.74511966428649079 -0.69169042334866981 -0.25542282302572317
-0.19125816189466183 0.037988525610077817 0.49100109759230359
0.037884297212424256 0.32823463471792103 0.42223758683655221
-0.067975910128897921 0.094284406312795221 0.52635939546592092
0.18580669883265832 0.30248102402710142 0.29144346540786059
0.17887109574312055 -0.16770713802595694 0.63610013222199879
0.30451432170807191 0.6479552066466463 -0.039525642828226237
0.12612370961649666 0.37180685674314828 0.33943567104699002
0.16740868307573042 -0.19927826651052016 0.60459752012885992
0.1380938805721732 -0.15809012332112826 0.61922291332033863
0.19110154542817104 0.41244815736057361 0.20630540853908563
-0.29413329353966411 -0.32043355076585067 0.21836530160940471
-0.46473358621574734 -0.43191159832362214 0.085523854081429374
0.045639374396899246 0.31028478239187129 0.42068038388082529
0.082583561756722546 0.34523826401579294 0.3786478471721717
0.23920380911578976 0.81982403838141438 -0.14612761718873268
-0.19723588680427029 0.087309414591071777 0.44492544640353016
-0.15523669451328126 0.18232512143368673 0.43223668906916313
0.10956508660941688 0.20295344218498923 0.45753477001992815
-0.56707500087687324 -0.47959327730046897 -0.22940596789529022
-0.13156620992861212 0.12434726948827701 0.52312666193658419
0.058784939394198599 0.30144617635521698 0.39317695768662819
-0.71778328109207234 -0.67255050505985636 -0.21215490721913088
0.087669269459837551 0.23632072554354755 0.45846378279284272
0.16277407697058921 -0.19988236471187193 0.575246941283174
-0.17687674978829326 0.071256354842848868 0.48554282679104466
0.14638131028574475 -0.12115592360863414 0.59950692875217682
-0.17820981605377439 0.11652538567505233 0.27500831761685873
0.024608956656877679 -0.0028959780772954691 0.61923870009604809
0.089458742226581789 0.16521885796793634 0.49885089832012575
-0.35077627419249069 -0.35063814015779249 0.1466269028132674
-0.39651299758148983 -0.32771428360141353 0.13491383500477916
-0.046295973952247715 0.20930794972785649 0.47429811761602325
-0.18177963120910157 0.16417505535285071 0.40010093308200534
0.10297444563349889 -0.2318091809994316 0.5426351340990867
0.04081677100628367 0.008066925629172772 0.28463402256485626
-0.52271635993142818 -0.44911081869042757 -0.13953865754428207
0.078941518292996893 0.36334293238886217 0.33479572396589252
-0.1309073432760024 0.18513839873843074 0.43448723499300135
0.11683783150245008 -0.086902624478335966 0.58597656736746906
0.1699864520761607 0.23788218189742127 0.39244459534205323
0.31524570242926653 0.53702883385621036 0.010759421018962545
0.071699225118631249 -0.061866125162453045 0.53645645388100727
0.071082358946779722 -0.12565448566470794 0.63294909556826151
0.083478820456415859 -0.096266050478272192 0.63250116031284775
-0.37043105867581394 -0.21704892901638262 -0.03366395069711059
-0.47034082284673451 -0.39340479964062913 -0.074882198000154387
-0.18801195687228001 -0.097001341982174694 0.42435995053682896
-0.10793000597422608 0.27853266320059178 -0.012737072804210214
-0.06219148069597491 0.25893920369423329 0.43291535192485542
0.12643364357065812 0.22174781695803181 0.42364761748409729
-0.042695841950314062 -0.20334104912843687 0.50340929295095527
0.19132928141033623 0.5698016417488021 0.090204538122315547
-0.54760328155355742 -0.41702254306679931 -0.24639714397899048
0.12114040937529991 0.19091625283563518 0.18649927256954424
0.057357034408591856 0.0066665028616779143 0.50080940091102355
-0.15477923707408503 0.10541854441832332 0.463560516492868
-0.17937368577583501 0.049880160427113518 0.49896477770909042
0.16772135589815673 0.17277121316069977 0.24967588604876756
0.040079821971334528 -0.095293388249812594 0.50586101590861654
0.31463676358615467 0.56542535739362432 -0.0071780154660820994
-0.031721698027415979 0.0076285183678357349 0.5900761721256822
0.023111114913504149 -0.039377364933113945 0.61107862420934023
0.15844027087192081 -0.16577949601299014 0.63038229808515123
-0.034995742921017925 0.090894256579214794 0.53765246328423588
0.096149189477512165 0.44923688162115671 0.23185965441466139
-0.68017728597231786 -0.60474509185518155 -0.29891399370825411
-0.18756477504341107 -0.0072512669661148887 0.51149719188118303
-0.62382500286310538 -0.58553822290374402 -0.17336191120055777
0.13813536567389573 0.30322277076692106 0.36721663610352762
-0.073418762525528258 -0.064686301384742073 0.57075674718311675
-0.084964030319145456 0.10773838699321781 0.54609196827798012
0.021276776809478593 -0.1632502459422438 0.57544185329271946
-0.36276164676621292 -0.19791015621940278 -0.16521759867971286
0.023087174206256833 0.29636936420996918 0.43650795541661291
-0.52737889623112588 -0.48649378015814437 0.0046500671979978758
-0.023584465032277402 -0.053114024225108913 0.60946830031078214
-0.58792358681971235 -0.50374073229766103 -0.24653432222216143
-0.148353767358123 -0.18891832770061123 0.10542610325701229
0.0015435013675373366 -0.21483848496080715 0.50809251929022392
0.13438142826394994 0.25408837699744335 0.38821851275287789
0.070585061122804715 -0.13052472002704096 0.62514943947260682
0.049398024644923266 0.26435366058169629 0.43914444228385885
-0.13016636834051898 0.13284230782802986 0.51359876236395441
0.090080389079219003 0.16251976608554153 0.4988806032426456
-0.16025244705941732 0.052955375829737861 0.50732642378217663
-0.23366277880913766 0.060290609485664559 0.31474204189537458
0.18777087130206693 0.33873090987079557 0.26926391572341779
-0.39716650261445263 -0.43607397603915432 -0.0039563512298184111
0.096096452664113485 0.37615689232276117 0.32750823782011285
-0.076257498051160555 -0.17234359087950812 0.43765921530089646
-0.30975594972702636 -0.099156112036846933 0.015212608205478428
-0.031725438504971004 0.20485702998732136 0.4800163563223494
-0.10111870045583182 -0.18289170525065179 0.49031050424384715
0.21760720771979347 0.59947609776745781 0.0057146917152648413
0.021817754347286833 0.034802163961381805 0.20467393078462148
0.32496383348596658 0.51630600176720232 0.021955361474217394
0.1346690689737633 -0.15550783293882509 0.61949242561755513
0.045929824174674616 -0.15500834847548473 0.59526767404230863
0.11283207185683941 0.082495561461557676 0.32879144075990108
-0.0092491887203334233 -0.0206361782672011 0.61593827701459403
0.06370260184614418 0.00032638715048971534 0.45353201046511371
0.20504903216262882 0.80718325433502769 -0.23249736869236615
0.087231888095748111 0.18000692278204866 0.49283028830514497
0.19731468305029187 0.91012557984139275 -0.28381260233727645
0.13174837162738062 0.2327358309274874 0.41601458900234745
-0.14779768403193727 0.1288743801858272 0.45300846270399364
0.098340150440790586 0.64392835791079128 -0.015572462672893472
0.13727325213044739 0.28777969177135465 0.37808062259826802
0.05184990318995264 -0.0056437585057806938 0.50585221730838414
0.042884797308593514 0.0089105847256321091 0.58762277103002769
0.35667621856861698 0.51302622765098804 0.013549229658720519
-0.50294602987310189 -0.38502525319954373 -0.17710489618763625
-0.029368340054866771 -0.1526723301805688 0.46689304374285223
0.21118160139476672 -0.18361077798985082 0.62980910202517748
0.012451115325226025 -0.17708257472135491 0.50553375956670288
-0.18861167478139373 0.078647760901543684 0.46129616247038796
-0.60977332121733152 -0.50926618501035725 -0.33452731145578674
0.040889485113759783 -0.11812895304983306 0.62872131977217782
-0.17994351796585617 0.093028986497621924 0.45944988562649103
-0.44967628498589995 -0.38572777398556268 -0.11441683113016898
0.08744040516865148 -0.14915617537730208 0.61427328997854769
-0.17617571498183615 0.13010534608130531 0.436412947559778
-0.69070492296044628 -0.62241440134805348 -0.30997965148371498
0.088993254230568475 -0.12741378513285162 0.6354063091620441
-0.41202426695949246 -0.3532762037295214 0.10157443725960813
0.15852407071627916 0.48194338396424619 0.1808130313090508
0.091770299821625434 0.50776884912503872 0.17031136190138829
0.32709741333972531 0.57538455991035331 -0.015958447930735309
0.094783175302192824 -0.061113928307307219 0.57275969855426623
-0.063176018647557619 0.16011462437608204 0.51640329567175569
0.11834267087877959 0.18248014103256427 0.45700284557656579
0.077825330984520047 0.25831322980072602 0.44971530238875401
0.27212561908205513 0.45191246872168023 0.078622799920736064
0.088817016139858485 0.33346233808094783 0.38376354479019137
-0.41225828192602654 -0.36036948892976262 0.11527939471991422
-0.065173122371581904 -0.19365966180748351 0.48868329581822145
-0.10945548923135262 0.022333945102104513 0.55172858159663707
0.11763603308181136 -0.15046473219368006 0.61774109002559285
-0.1189406652142575 -0.063058304948908406 0.48126929703274501
-0.17441571668356626 0.029384283480251572 0.48695331440744161
-0.6504925587880348 -0.6175471485351216 -0.12512717165255638
-0.17353481845713059 -0.28312608985567445 0.21942075878452028
-0.58475620251953409 -0.50476157615499173 -0.22797306993942201
0.12814882891548551 -0.16592316595830336 0.61181956440903695
0.064090248571077257 0.27085550612450349 0.43335917839894544
-0.062658704904897444 0.07703150364764344 -0.017084149433484797
0.099766563004626718 0.12947802264673336 0.49881347651006247
-0.050181187286218343 -0.022663869457666408 0.58266851776571627
-0.5348055075504079 -0.5087591119988335 0.022261830927943649
-0.018677856389674785 0.0096429208038841807 0.61303113489388172
-0.081010016348022296 0.22015673983447281 0.45207737176910467
-0.1746106897482631 0.11407469552491167 0.4445636349363371
0.16664302043989343 0.18216481945647267 0.24897615609591295
-0.13036846244129219 -0.049814958629642803 0.49234502427714055
-0.3416697669647939 -0.16116787309022551 -0.01088143362459193
-0.39767766947661354 -0.25983132074254245 -0.065732300189411452
-0.048766062355174666 0.21406093104552459 0.4684841467694365
0.045696284194098435 0.18236602430264925 0.48125517250335625
0.19686870338441875 0.31427546068717538 0.16585831494163639
0.17981601524350999 0.38519117112450507 0.29023744884901936
-0.19945255113479443 0.031318636276252088 0.48583545386264104
-0.68971178267726407 -0.65356379482131999 -0.14891960816872585
-0.0656943425185188 0.28804736151908061 0.41789292053085458
0.10392381951829321 0.23792689894353858 0.4441747750296019
-0.094571944498366589 -0.14527924355111077 0.54091425591141107
0.049688347558472401 -0.0030443220058715692 0.59798842884584236
-0.13356867618200874 0.1558306759586785 0.4540104215716565
0.10208644560595537 0.28174913638707211 0.41069513450780804
-0.55524918863795314 -0.54439794407822739 -0.062025512574103825
0.10758702146558008 0.24252763749128858 0.43476925690588597
-0.1155420559738094 0.060509498459167643 0.54603026355087625
0.10222565324448829 0.15109282252014289 0.48228964931608065
-0.12578492889448523 0.17356994261980629 0.45650763177367359
-0.4012295001427586 -0.31098247395415424 0.058312717090368782
0.085737186449276415 0.089922286001455021 0.52137733026873767
0.13089016703029688 0.28032386558662914 0.38504771016010508
-0.42937994299869464 -0.28758919804436633 -0.10575595803098148
0.12381597568124758 0.20746911421009262 0.43469915777678092
0.11367266336683701 0.085626508904231846 0.26462035390267791
0.14873861051172255 0.4613335695615679 0.24262554765347755
-0.10381243931864081 -0.12278634511291475 0.53975053379657378
-0.18531298839950017 0.16784801418347728 -0.2381065524529693
-0.76782554243141909 -0.70919838498752852 -0.36728586184630196
0.33753006334690605 0.59820875830041809 -0.026100733152216948
0.048433860764889536 -0.0045045444035560767 0.61431692868398635
-0.18157200571613452 0.017413143171930212 0.47541210435398251
0.0080563296505595794 -0.0034276337361198728 0.62139834141696693
-0.71247758566840003 -0.67279739162548569 -0.18523558898184245
0.099386896178141004 -0.23408264874058715 0.53738552390550964
-0.16308713428202726 0.074363143575874702 0.48746870118831653
0.079802614074118816 -0.085354159054075174 0.62859619600952588
-0.16586471461412189 0.07233088743761229 0.48992682172513558
-0.062693295071069688 0.19245240248664675 0.49562059489130506
-0.17187825871218543 0.067522397736923478 0.49334467209171451
0.075649400198199768 0.026289410628111964 0.4903081934848208
0.13449322613118642 0.48699065564708621 0.2301239277822944
0.19004590295593204 0.35038181872427132 0.30098872659543918
0.18840621798074864 0.29796788753722114 0.31939057515801994
0.031916127613896395 0.32345308547512053 0.36672286570003787
-0.19722403851159243 -0.054468463643321696 0.48526319053954214
-0.12897742117151045 0.015266907870333801 0.54296883310364308
-0.17459722139749689 0.088940109889284136 0.47190842886600293
0.13605968015230241 0.23175263783644162 0.41590962672496001
-0.66884751297677703 -0.58935425284079579 -0.30746149538178269
0.074483802469110127 0.16049479592662363 0.50484496305901549
-0.020710057785236824 -0.10988034013651871 0.61104924464452126
0.16452528330780813 0.24710723947469559 0.20417119291783337
-0.038839554228056183 0.25382445470998549 0.40213461511043525
0.32546112932377969 0.58950747999112729 -0.01916010116331246
0.32906657391238525 0.32374251453618497 0.14529937382121294
-0.068470098353067055 -0.03636253226371311 0.5591953256596538
0.070766341987403614 0.34972905767831297 0.38304966819478681
-0.075244478348029276 0.27417074656669138 0.42088239602921362
-0.10225910413366224 0.21670034849305053 0.43719950342182035
-0.46687543212796578 -0.39955861531757364 -0.058441321164953042
0.25141731149099233 0.13670715760929464 0.24233846179425722
-0.35688220646194324 -0.33658855567207535 -0.098778360506456719
-0.27405751736601913 -0.022258519283508971 0.34491866405124583
-0.48306445949621324 -0.34894000290848926 -0.16864561430508362
-0.59683535092118944 -0.50781493284640034 -0.27085656153345417
0.017551378576673216 0.30337241650778424 0.40362864279848498
0.066808012625592994 0.15497052106583298 0.50158249447876746
-0.39536813890965705 -0.4186679992545308 -0.053951918682751288
0.16706036195404139 0.20824025608200847 0.20378937851472889
0.21972553411070694 -0.20228259775961943 0.62442693903210267
0.1277354987530317 0.47723033900123379 0.27349176583253965
-0.40739085578691769 -0.41857936980888311 -0.057487071761636699
0.16702275331171701 -0.16033203914639027 0.63737539250537045
0.11502809296121796 0.5337873000831892 0.21882399718869627
0.081970754391257783 0.32602838230021502 0.38297246142310759
-0.031178352743445048 0.17045076359587785 0.49721789467014199
0.054722896415150712 0.0032906411264410629 0.55506813523683207
-0.115528140600204 0.19924300189052335 0.43835133034890306
0.1295432303421542 -0.14550949287335579 0.62761922680828974
0.048709334116042724 -0.013583456344416378 0.61239472773050863
-0.085100583446980238 0.29342400817432113 -0.27082393195844001
-0.06605972423014661 0.17121930016972731 0.52109653722753246
-0.39484305699537536 -0.26868789440391039 -0.015888417306952674
-0.48011401503348683 -0.41106956513128812 -0.13105581329836813
-0.48269575605821924 -0.43596015858294224 0.06081440670373639
0.31786920983404876 0.46905839175152408 0.055457717915475602
0.1649618014338583 0.27194299554697454 0.19418576304499258
-0.075132328212346389 0.067011634190447422 0.51951264484645443
0.080161553317553924 0.39555832374853295 0.35941210667120815
-0.26265884296359188 -0.031602374700839819 0.22514417289007538
0.11196657853647851 0.31317029572637933 0.37789228054904878
0.032269515513141167 -0.15329586403443107 0.5125494520502738
-0.16878528920008207 0.15234991603088854 0.43501450078358528
-0.10886317189535832 -0.17146882431707744 0.49637473150312061
0.26490531280328744 0.6108764790165675 -0.0047472548139135817
0.16747978979625877 0.26112919566074155 0.19256182517951181
-0.44315546800688432 -0.41254856110392324 0.095759704280252045
0.30691040431519001 0.30631684783103452 0.14154471234607136
0.12316324159673275 0.14849607484691618 0.47484767546023221
0.22639430026282903 0.48177171157060261 0.089008916318182418
0.012162235277439981 0.4166070645969604 0.32225769687676786
-0.47480935275813252 -0.42786603818962265 -0.042348245473689206
-0.13736287484672438 0.22421103436995771 0.41151723186659916
0.045453469871493679 0.16356630250638782 0.49602600916558304
0.048670748473780501 0.0043066272293799113 0.60072620032102542
0.18337051695616569 0.30125731872233485 0.15340331282537867
0.16976938485868565 0.86227847518379264 -0.28123154163045783
-0.071271182575157521 -0.048261860895018271 0.56168040372159589
0.2526116580474731 0.53056810098895135 0.050586791621782146
-0.038465869706129086 -0.15524523999762141 0.56222476866756865
-0.09579192109490986 -0.021914900662609815 0.53389954821431873
-0.41445723857943007 -0.3558371903080122 0.092456842113699533
0.21871224621546115 -0.19726748313168585 0.62650893676221298
-0.041685821988892702 0.17587985034785047 0.49735766481879318
-0.38860643624822799 -0.31818012258681194 0.1535397564964045
-0.27566636520511056 -0.0794302028319398 0.3816547438009954
0.14516971553168911 -0.16170742199482091 0.6216298955013414
0.22896930491973766 0.27880738476464728 0.18438013355282901
0.098772699628979277 0.390229940656865 0.31087400019087075
-0.11254667599622814 0.11038243513381674 0.55366690306053701
0.09115099271076299 0.13414065109488194 0.5001970920861718
-0.0025765358617273471 0.29535644427860719 0.44074898421516329
-0.4439339018102384 -0.28850626324258344 -0.16161389616884136
-0.40155628499300589 -0.42068851636695803 0.0089505937743710184
-0.11981327699733457 0.11981411821919452 0.54332856843131205
-0.077185772822386589 0.19191886366783129 0.51015852026897823
0.045302648444309312 0.34681239372699157 0.33051280185405707
-0.71181474453398752 -0.66297015655983405 -0.26750805114143628
0.0097327923342631628 0.27377219698997779 0.44934660556788031
-0.16682515804006259 0.089508152498887661 0.43550288122550973
-0.086670415805088163 -0.15757604126115599 0.53707538742046745
-0.56869690242902182 -0.52614444191948628 -0.12015018201801242
-0.24887696533927173 -0.35196477352266475 0.17471643557822136
0.2171093612939925 0.50583265520556919 0.043819771426017784
0.19236180830633276 0.38199021195495564 0.22269097680608252
0.2345114094073133 0.50204099593131368 0.075179922557016665
0.04513173694957695 -0.022470245519505383 0.60695244339792342
0.053629008568752745 0.00027710602038188981 0.52237920825501294
-0.11538813943714143 0.21588374394207177 0.43080998396651471
0.12265522526457162 -0.23297551553579998 0.54390453205680855
0.10882889904940574 0.07163977657693299 0.32290533062054938
0.12711305631806469 0.15471165207517124 0.45317954348273148
0.076943585637159195 -0.19198104135481153 0.53213147684955797
0.18266339529154241 0.43268646389244836 0.20804802809906575
-0.41632288760390468 -0.33050145955465959 0.013713964068618578
-0.094596985084939966 0.20857682811677014 0.45635551660060458
-0.011670555067957222 0.43359927338097548 0.34868348005727268
0.13421139682115335 -0.18770416037966209 0.59947509196487803
-0.06616285570949243 0.16067881397291806 0.52463009169448993
-0.056182877463050174 0.24418597000913689 0.45075073948799349
-0.70811179187545159 -0.6582187746896222 -0.28968459737694952
-0.1112410388070797 0.0996176715397179 0.55745004857822167
0.2025454088956915 0.19761362087887679 0.23645703723154265
-0.69626754993884599 -0.66953906688996945 -0.22219732801298697
0.041138750613349151 0.16595600199695082 0.49527627207757918
0.065997375303248118 0.22207668383383261 0.47676890405451366
0.072734445087250688 0.097198145764092247 0.49077966068109058
-0.67241116615659813 -0.6013757493122307 -0.30738406644333161
0.30208101996553816 0.54942174162186319 0.0062599832406045053
0.054649694718274189 -0.12910790591397281 0.52247766973985588
0.086868363513130209 -0.14156181348899333 0.62645394361758155
0.062581811163142875 0.27772234245028105 0.42508435224163166
-0.41563899404043925 -0.32108567168951607 -0.0016414217304427936
0.13129155652014535 0.11920022176759426 0.32447476608947867
-0.08806574532915068 -0.18219211459858475 0.42127488424087711
0.016694434620805776 0.30494750123338332 0.36312116567748665
-0.013881721322271723 0.38016026709822848 0.28039949134324837
0.066064767428184235 0.2026615629890296 0.48843153084272606
-0.079475812194693685 -0.16871120954411323 0.45103068532622403
0.0028805627023797964 0.01607648068008416 0.58308020825544959
0.10517753324934231 -0.15406133677571665 0.62135775361429779
0.036612437823001054 -0.16682175907497609 0.57748383325345309
-0.57545467499552627 -0.55797622349745257 -0.12483490688112542
0.10329260835874643 -0.10029492149945129 0.63189020962143405
-0.54738394190752926 -0.49733234922809899 -0.11628725331228185
0.18631867900838195 0.16416726889510902 0.2680982959430529
0.032822781280452684 0.18787830436407948 0.48246141579323254
0.19094276902296614 0.37385194818010903 0.15613861411480201
-0.030681422572923944 0.018719426384966376 0.58632494566534321
0.24247288226570385 0.85628123129975653 -0.19882403843810881
0.24445220560717806 0.3308660691588019 0.15262434381061851
-0.017183781265298403 -0.091710621608516396 0.61759660802146765
0.12364672332994964 0.10088017640965607 0.33573134408765104
-0.068219086842246757 0.22986351033352537 0.43977471674179336
0.21077544424123462 0.26073232048417871 0.19627094709910065
-0.021951426582055067 0.045381767316792443 0.56833407313077688
0.0052300696873586183 0.14025986957868386 0.50696503864189379
0.081865211096243673 -0.14961970735669405 0.60698890250320425
0.067995027904797389 0.31462259940346349 0.40435603714881241
-0.11857968071372782 -0.0022876247088023938 0.54242413883707474
-0.29961427723400158 -0.39145045782900523 0.11346764644050134
0.045357225773906329 0.19028794930542769 0.47671498465619
0.14045671381834635 0.47450394385664207 0.24897196142544575
0.34617058391510946 0.40870637028403389 0.083205263733636237
-0.13078328455550148 -0.22429335752210688 0.36200992282110134
-0.075698759157817985 0.21270349118488641 0.46789549730403657
-0.0038366439085484316 0.0096554617145745425 0.61406824259916981
-0.64882333319393259 -0.58917808983888698 -0.24445227516110068
-0.46858936023486297 -0.4229746487194137 0.065748149870848094
0.15054867311951003 0.089912152166655934 0.27628645092670179
-0.24116042924672132 -0.088492236899853971 0.41462189248817816
-0.1904779670408705 -0.072918445337993187 0.45374747476259203
0.045958205326182666 0.14347860179465322 0.50627701113453583
-0.27182566175551059 -0.1831683628142593 0.31913181916261024
-0.32687980222248347 -0.1470233465295061 0.11019537901498055
-0.12206585440616458 0.16934857403381276 0.45397685016697631
-0.070169308266532893 0.23193362410858076 0.45005897949624152
-0.10482840814286853 -0.011075645100334652 0.54079278836360745
0.24128737984518001 0.82347754605486467 -0.17150331167271493
-0.19119421967994987 0.058282567177188049 0.47689787351501267
-0.07433661891434884 0.33258309274537923 0.372658028636911
0.02783251514484375 0.023401404497778389 0.59401046806567748
-0.50375228301742858 -0.47228217605263412 -0.0056574006217997574
-0.73345845504883544 -0.67981397098733432 -0.2456968560491084
0.12214852347364524 -0.144080774494731 0.6265567455987705
0.085605520827279458 0.24738697651223407 0.45257785071340917
-0.14498240596290146 0.030260582591993934 0.53387077359822044
0.083040624468336377 0.35375938603649404 0.37314816708184351
-0.41402035112282842 -0.27467838857328064 -0.12158268819471729
0.050110208992557359 -0.078112322582318816 0.51385881509823661
-0.33153594181888169 -0.19671068212055309 0.23633025400696805
-0.071630671475925833 0.089471035972641166 0.54124591713183623
0.042861417399737478 -0.034340993216877003 0.60741699198115806
0.19841126780088225 0.17757504603024188 0.25332004664670293
-0.56911242541284146 -0.43439994651956448 -0.27394960090053155
0.048921379041240165 0.23962927446963467 0.44882647500424899
-0.52448949583929805 -0.49642063185479324 -0.029619035026371643
0.14511210436689459 -0.16535388184279265 0.62577816975672595
-0.51285786415137347 -0.35513388881938668 -0.26446526884498844
0.062963166148795713 0.37853524769690639 0.38324395877084505
0.18422858614581217 0.42598529150564501 0.074228595600048131
-0.49007228962270499 -0.44247477022125858 -0.05951671407664394
-0.1153258922095739 0.23971515861159531 0.42556354917280892
0.11615867182748252 0.36921991788745956 0.34529022689068045
-0.24612841753099524 0.041621668362731068 -0.22885924766113397
0.14747973259912306 -0.24073262032055376 0.55834021618855978
-0.040894498698695214 0.14579725601089844 0.51052564919378818
0.02433951428548653 0.32488809028660137 -0.10596486705561059
-0.003103298420262135 -0.050531264957756061 0.61396101805730208
-0.11870051855241992 -0.052133433838082333 0.48717118324811137
0.24023678370254009 0.85084745865083233 -0.17075876547319968
-0.49295015854848812 -0.44764201792383584 0.045237341709967627
-0.15247384899386773 -0.1333023483369784 0.42758733548069716
0.028276617129552539 0.19771284920101051 0.47742255493173191
-0.10188720895734282 -0.073783610640896446 0.50706086012332219
0.17930758781701517 0.16624151107915108 0.25598515296320778
-0.13422281675433001 0.10585612276581036 0.53293631226646121
0.033021785690184213 -0.0078214783197523285 0.61955333754496111
0.044723087918075999 0.25231823597112268 0.44686817376283727
0.045635757481467421 0.20827719466965111 0.4666212507541605
0.25251987269641507 0.27173278591080119 0.17872305144820078
0.14947600740446876 0.27503601608066219 0.37953823510863738
0.065417967762532614 0.13533222943705026 0.50852753841300413
0.18315137954039162 0.52299126817207675 0.13164142526562839
0.25568904516363955 0.20750421232695815 0.22787181989989702
-0.13408033898467986 0.24132602483521715 -0.05654000562658168
0.15584387240767561 0.56502126392442498 0.11485742457238679
-0.1571238078601136 0.11005037117575522 0.45921231953072827
0.36123670295456334 0.51187292004453688 0.026811280944456284
-0.033989063885306869 -0.1958468043326036 0.48988824219129201
0.10309382449370497 0.14831881437276939 0.48509789209808796
0.078442408669219255 0.2829223462021615 0.43073109090760253
-0.0022091567192512596 -0.069723360922426814 0.62071424797337005
-0.076440124632260575 -0.16674547529595518 0.53354217663191739
-0.5842172809917745 -0.56821930561568368 -0.039053741937797204
0.10976112827968643 0.051606393057436195 0.49730016566971647
0.099593926395010746 0.4531970696542944 0.25606674919174433
0.0073836605563757374 0.2192275035619029 -0.027758760473402866
-0.60920067488255647 -0.57993054680324896 -0.088931774503932859
-0.094471772189885339 0.081187177293919 0.54051249521388534
-0.38275426666858436 -0.25411842485796887 0.031586554278651091
-0.010530364421901028 0.42154503532673071 0.27162295577968965
-0.022734823731271003 0.39402321878042557 0.27415157401257928
0.17563178480821828 0.37269056082887952 0.30380310616704009
-0.075526854911699415 0.12991945679878203 0.54335729182671688
0.026776037665450447 0.13369561499184934 0.51004514321965266
-0.077060241696100373 0.23902260987183932 0.44201036173313613
0.20962622375579931 0.17675563960250229 0.25845163871349697
-0.19299010979064812 -0.282451791621388 0.14482714131039631
-0.022899598233777185 0.013768245542771673 0.60499884897656098
0.28158912856109031 0.63975500515195316 -0.044082083559543239
0.039236288392292096 -0.0075465475730753795 0.61833968510402437
-0.57773864551065124 -0.48724128249608101 -0.25076200662378767
0.079132548982713713 0.17773322076378606 0.49834535604361752
-0.1280916152634699 0.046347290924970919 0.54224426793940639
-0.060115611240822542 -0.035551627171956923 0.57284111752758315
0.079693020577520812 0.16262938999930587 0.50490467783721982
0.093004206613598317 0.34619496113985804 0.0040129600278464572
0.21872411464125507 0.46127781656013944 0.10238302752587547
-0.21075027150814263 -0.021263244190487196 0.49401082449117606
0.051097054436421763 -0.001137256762609562 0.60743929281166742
0.29354019021875866 0.26953481780179045 0.16562794661810565
0.050991020129183662 0.30139933126029672 0.4184280375397964
0.080541216263094295 0.027122050111877405 0.51010976700954314
0.17665117758531612 0.42871427178140209 0.23478299868581853
0.14968633913551188 -0.21073116569052708 0.56340526526976564
-0.13563967338824856 -0.090489230800535392 0.45985212784829677
0.12281622275324788 0.55014599126584041 0.22832968321321911
-0.46089901373105802 -0.42217437680616055 0.093883674660271366
0.01142250835766867 0.012740269417813144 0.60227549509815326
-0.60073108252443008 -0.48025102802001718 -0.28728184233864518
-0.17549648648676963 0.096113423734316195 0.46338872408505916
-0.62635516649239653 -0.51434750894314485 -0.29636798228828964
0.14430959566971491 -0.16652646246292435 0.62014644927580564
0.026079531907503561 0.015395335335137039 0.60581576641769042
0.14007871310232023 0.2918766213190882 0.37353168636869127
-0.61623479601682352 -0.54843164218007612 -0.22668195087716669
-0.1971381980502418 0.063891213339587472 0.46356046808101614
0.15204029944390962 0.83032848154956529 -0.3310418639471242
0.033611502777669777 -0.13983149161291286 0.60744999972585689
0.0079321113547579092 0.077477864633227034 0.5444518293424192
-0.40856017342653672 -0.34934471462260674 0.11326620919380415
-0.048699061029126911 -0.1629343201233544 0.43468235875697414
-0.079107537338771738 -0.19416430333775314 0.3569551997368372
-0.034848969080078618 0.26094547030710524 0.44685065154776016
-0.52273819249676245 -0.49404254034456052 -0.03756591999878478
0.029522115249094316 0.018555120036554129 0.60180859050680735
0.27801954313312072 0.18727027058298984 0.239281494959102
-0.10027712402994005 0.18797491263563071 0.48527983314628265
-0.0095956260431191431 -0.20443534918901185 0.51626061661290623
-0.22064584816328958 0.097462942971820343 -0.22328911656737538
0.17220892408982302 0.15269374446493122 0.28028849561422331
-0.022368403036479467 0.016270595749267036 0.59131392165610563
-0.0074800522079214726 0.28477271345942978 0.45092375913585969
-0.7068716968768769 -0.67582833733528136 -0.24330788451274366
-0.053617318336583786 0.045025421105167718 0.57053311776356463
0.32539614952456053 0.33124175442105552 0.12364798289935952
0.025960293930645806 -0.10578732324377893 0.62891587433685026
0.049899430499007247 0.15908238206104741 0.49295506913264697
-0.18616944480747799 0.16583620339344951 -0.18563497228457626
-0.087223939156406693 0.21415596751760124 0.45364674401136496
-0.27905360074158914 -0.018968570616823888 -0.18905577031899012
-0.037649675379232139 -0.20149555885070525 0.4913538758583722
0.084936073820422564 0.16013186806754542 0.5026736127787631
-0.026256926823429838 0.23490598614959235 0.41027578080679494
0.12055337845774305 0.52771702725394887 0.21777965780842834
-0.2091644427648558 -0.046154713227899213 0.48726101058412508
-0.04465263303666589 0.27508530067458081 0.43237419198099381
-0.76422774887753486 -0.72527465244706257 -0.25542840391021326
0.23507927807417617 0.94005290684575016 -0.29193254563397741
0.10025418013607457 0.15065396963892841 0.48884495336304101
0.050052939747509795 0.15167364686303819 0.50306283253585216
-0.062905772737221755 -0.17728396034248073 0.47868044461930115
-0.091682210688713628 0.18055350428235162 0.51406835943432583
-0.46130090988064554 -0.41145043928476333 -0.019717860962368494
-0.0046928244169461841 0.31170192913959016 0.43281090750379603
-0.090006593077977204 -0.19157204479887313 0.49880305353321797
0.045414993157030459 0.24007800552299319 0.023361423589689512
0.17038550809502895 0.19862527490339543 0.3799178326280308
0.055242688086055702 0.27356860427226826 0.43028138568173602
-0.075680531259654682 0.096931074102371229 0.53964847671881588
0.0010928945236368115 0.012507320175820791 0.60847761306380943
-0.67145900217234122 -0.57216987870546054 -0.38172043523650778
-0.52006840336550564 -0.40276102096599731 -0.20006340154351365
-0.056771772190062686 -0.020405123209452203 0.57252874698585488
0.14366278965016033 0.59576163163963658 -0.14469837520829554
0.10142673388682244 -0.16106529200552777 0.61220020278722731
0.14154343127863123 -0.16523385732479334 0.62354510877326996
-0.023615894399250825 0.37525276520130091 0.27749532024836077
-0.16489410449332498 0.10974206509655238 0.46186467240327644
0.14536900115133644 -0.22173896322437026 0.5732722328198776
0.033501417003143352 -0.2014244255858062 0.51375668504453964
-0.72010888471478718 -0.68410654800923298 -0.26572038661883957
-0.19201745009572568 0.10068606353947662 0.44078250882732783
-0.27236624144686994 -0.078544239182938735 -0.21728171783762629
0.21604897078647056 -0.20239015012409545 0.61158315647097861
0.0047903842462069246 -0.012523590378768823 0.6229231191762834
0.09484056930580409 0.16702040129737061 0.49380899455075644
0.12454000075920058 0.49284215397915321 0.22791980096591113
0.22797276029051639 -0.2356300705321086 0.6034855688513221
0.19328979770777388 0.21927717267838509 0.21866910359903491
0.067778029110031168 -0.14318134185066822 0.60773858745827503
0.066396710825324945 0.016524176322158413 0.5088551678687534
-0.10865027471085686 -0.18822126321763433 0.41301241144149037
-0.081005973818819133 0.12250065095208629 0.55034202559008416
0.079371816408815965 0.57809037202977676 0.053035902997517814
0.0090318778501474739 0.33673143409890227 0.37093074204247967
-0.42406256324656511 -0.39520728686667828 0.10433128436652428
-0.17292914097538103 0.045884033599797203 0.50853472155179125
-0.070823532125388944 0.12293936545019934 0.53308061756149883
0.12304581380971835 -0.17311643003128774 0.60907607822109455
0.051828409975967382 -0.22563551088431422 0.52050368727014384
-0.39892889347970506 -0.34540371954763227 -0.13095237503511337
0.18352045499401792 0.274186486353998 0.35824090500087458
-0.26815300886542026 -0.0027701355098757041 -0.10274781862472526
0.19346825407936952 0.4357396409711618 0.075101412292708725
0.32071850237113542 0.66246062321191634 -0.054879057640765172
0.1327374157417549 -0.15007146215199829 0.62370258469126216
0.09152753278296788 0.36431399347381244 0.36262276345136601
0.13914165637631171 -0.14534192718065397 0.63260123672328117
0.21289551874823531 -0.24816842853992904 0.58586453682178741
-0.090335671844166576 -0.12394461974241056 0.55897759929889368
0.17003959063339757 0.22837835077950985 0.2217399043128081
0.029093275173039057 0.15510266077064738 0.46789205410096057
0.054134155463445577 0.52665813029844721 -0.25696949556639304
0.18336423116547618 0.40639392701069932 0.23959244353585407
0.021836159820231238 -0.035217036594879625 0.61113614061952881
-0.16349314973046791 0.010363131388214208 0.49705394584975493
-0.06108044761018161 0.0076495361553996499 0.57010803278066868
-0.081613772292240316 0.26788369054456518 0.29525336109415079
0.017947576062446791 0.29371846021956816 0.43082315893071188
0.016872109622411147 -0.12486890145385199 0.49248145016411926
-0.10645744945881042 0.040487846487344603 0.54826367044100444
0.20478719410759938 0.45994363728500076 0.11845283656315808
-0.40447044458151193 -0.26445193314092186 -0.081202555569663382
0.027674601128111265 -0.016733002502560268 0.6209618323654208
-0.039906701890780827 0.1171322001731594 0.47604123499411855
0.017721100536327583 0.026473971439920474 0.5752321279256456
0.05825830143970423 0.19881432888284123 0.48924503007602338
-0.12911963956245254 0.12672469171036638 0.52595589001127019
0.045849665199927614 -0.011119055770826058 0.61585429405216263
-0.026060135802344009 -0.029714289923108872 0.60181883192444707
-0.18467716440395776 0.11050280475733265 -0.25128601845729936
0.035707834344747003 -0.15143712149792088 0.59527744058857324
0.16464897848208371 0.28075721569952994 0.20873791808736231
0.093196682632030958 -0.14944580271467967 0.61065014316440613
-0.50621976938507673 -0.47266381430937798 0.0029353148645827609
-0.68762794548210637 -0.66362941935658926 -0.19376487504985795
0.0098076542536118527 0.31971943823535232 0.38092829407609208
-0.12145823452275106 0.15489427218856999 0.49721188988749332
0.0075599263100876168 0.44332959153675655 0.28481598307765466
0.23474223370327318 0.36610039128424487 0.13513757245235736
-0.057771738414070573 0.22951735379871741 0.45669673346589801
0.097388888900508785 0.24070423975412614 0.44821734980165495
0.38624566654941539 0.38516879833740525 0.077489311233110092
0.09492804695020296 0.47346982854780184 0.32136918868235553
0.070358507378326385 -0.14648849110748929 0.60607015185797042
-0.016976628834441732 0.017886770129339258 0.58610871485593874
0.048416958507287777 0.15974173149256621 0.4969495377666977
-0.08018191711796252 0.22642181242134396 0.45144775844840757
-0.17965310856000483 0.12511614266147553 0.29506330300901351
0.10767951377178586 0.2151394531785964 0.45443523474346592
-0.41054053924084055 -0.26707214043220096 -0.1075408989292701
-0.1462003112697885 0.075905706025798825 0.52221305096554715
0.091974362139646049 0.32527906461860545 0.3860230615351623
-0.17281239015389871 0.080914938818174909 0.42052721126118908
-0.67941022323316269 -0.65081689345399774 -0.17669011063300566
0.054575332888479711 0.39763105894873441 0.33842521800520586
0.04695647665324465 -0.069458103372854074 0.50957696979950629
0.12874993573959159 -0.1607394219967222 0.62348326077763783
-0.074841891239275427 0.12843961858729558 0.54037358403315894
0.082612302205298249 0.14287664484186635 0.49467396255427665
-0.33589794442479803 -0.15566571128668616 0.047332805592968485
0.14153770265227106 0.23326777174598323 0.41178791861458675
0.0058187285471482664 0.45311543603743876 0.31230714365533019
0.18779151307026143 0.17100977165683751 0.2562797732318931
-0.55352263251481659 -0.46618197209559953 -0.21070367287310621
-0.092242066853769566 0.064222679558054496 0.54553800176274914
0.18417676619852452 -0.22876790152524373 0.58738025046771325
0.165856281635542 -0.16577538235192901 0.63369776602865657
0.22993610420237665 0.54281094069053526 0.043077939232402107
0.19794033156517332 0.50045694170383004 0.13555413592545373
-0.0091436255935986033 -0.17152362208602523 0.49460161508533274
-0.48157217688719145 -0.43112715968346893 -0.056881962577703726
0.1183222294645454 0.27942014400641857 0.39220506968535807
0.0050011828746041598 0.0016183958777253871 0.61960222776405993
-0.13253685650764258 0.10000430890959322 0.53876947401907094
0.095916830456036717 0.30394550365306272 0.39743129658264931
-0.092419466852352583 0.29172508356361981 0.32891876209735371
-0.25368054684624664 0.018054624698166544 -0.037172791864324761
0.069659131755097192 0.27680002147173743 0.43151885585600525
0.1670772331609347 0.26595775805634703 0.19041588044437185
0.20159526931238636 0.43818802329820405 0.13814024844128436
