# XYZ point cloud file
0.049835986896695772 0.66682316039559453 0.65965541199960853
0.28761861856379767 0.71804699356123081 -0.0055728263850483017
0.18630601119695456 1.1945739254044128 -0.44427115359326308
0.16542372686811291 -0.37568660994360314 0.34977168812432069
0.064103749177306213 -0.14177994231446789 0.78323608743968975
0.36564728265898339 0.61114229291119315 -0.0093522630038478383
-0.24679369271301255 -0.3283361660980475 0.64908235893409483
-0.0096409164838746619 0.34108228351544057 0.79881932470351558
-0.55063032079480934 -0.094853413825624955 0.73958050335184566
0.4909490359111004 -0.26307570709315975 0.29457865896961266
0.51657774913982735 -0.65417256170327764 0.49126354854010401
-0.51199237426575905 -0.17092575274505961 0.78360683898355887
-0.72909845732584699 0.57374119873617246 -0.29887448251949422
-0.97081918366041009 -0.88304427713860889 -0.40515109130615201
-0.52143790418108438 0.057767591908216787 0.67653110369587921
0.039555386658889802 -0.30358140213645868 0.51997022508385271
0.51490451624624711 -0.059915296280221852 0.37134455278220457
-0.59572892392407084 0.13807715343030935 0.78376371659291522
0.36721890381197397 0.96646730524034652 -0.37436953485271829
-1.0272138403265814 -0.64321345991878331 -0.27702571066086534
0.67480033853969701 -0.45496126978947338 0.66860153798836564
0.39887565345746623 0.72020307320374854 -0.29470680664604743
-0.23474988705996225 -0.33860388674040109 0.62433100749564119
-0.35720657538564637 0.27237378728445094 0.64045505573486139
0.28854040556818461 0.74854667883961667 -0.29433743995656414
0.30674914653920382 -0.17074409134107027 0.74096778929833818
0.40143347406720409 0.90116249664892223 -0.3616261836343142
0.40368432033481838 0.65728704525479031 -0.22635679673174991
0.43688401389165676 0.72254246585587012 -0.28163604352357652
0.76033896160879522 -0.38334398517984347 0.66828854558235662
0.1574370305891506 1.0187598625634351 -0.36530158148315195
0.11492898197134593 0.85840160633778595 0.10232961395632856
0.4831057304886599 -0.52626658663796633 0.38020961920747709
-0.042038489851151439 0.96928874700878964 -0.20444553899329776
0.74964830989179632 -0.29333419930270566 0.71645497303555317
-0.74142289216428026 -0.25556711653027975 0.56977275596054255
-0.60601532758188625 -0.11777371055379859 0.63804353009712145
-0.68262498729504273 -0.20837591284025336 0.70558536512666592
0.18860044177424129 0.0098135443932250155 0.74979172467669741
-0.533243226044533 -0.53795127783835639 0.55944796513645656
0.3130120855095555 0.053774320713834811 0.54883442253446901
-0.32232077339779153 0.261098675987391 0.781119877241224
-0.36110901192211031 0.25920327715135016 0.74816467533159425
0.77244314144397208 -0.38362471835366918 0.69306995880234012
0.11754101883796864 -0.34034632033763756 0.57317585361977308
0.84230309375348611 -0.46262316095899614 0.55074177931700774
0.51222931879814837 0.8446028538070891 -0.31066134807406343
-0.43447938193678226 -0.50614183722221284 0.60579130420944693
0.35513039521630674 -0.025296108699208286 0.7079342301730378
-0.79495967433646797 -0.94864542768780069 -0.47587363875251754
0.65208056865772335 -0.098275935384238178 0.40239944497281499
0.37562196613572496 0.6182786678566643 -0.18335421041462041
-0.67225465071625479 -0.1780676800970582 0.42760602173103734
-0.35359629999162223 -0.21711496140590469 -0.69301205145072231
-0.80712923326446173 -0.49626154327725658 -0.23827922794129108
-0.075191724863117315 0.77879392491054489 0.35711830501617214
0.25581303386333332 1.0934558850717337 -0.4102625530309183
-0.57273785083305029 0.05865141783407779 0.59281027059179792
-0.59460035876770689 -0.9726619047376559 -0.39417721142055484
0.31809863646675041 1.1759194939490527 -0.46055684583416223
-0.61999013213593912 -0.010495287104980378 0.57197781331882425
0.42209633236706168 1.1954251817323396 -0.41339117141703241
-0.14012074136479669 -0.022916912006717638 0.7490092443015044
-0.61249582008554171 -0.1669807556900551 0.71495194204496215
-0.15293926010514269 0.36433004755735965 0.76323888320550282
0.075629328850183697 0.84541542782743306 0.57015421900649699
0.4363393659739927 -0.12088183768620375 0.19559455264828784
0.54650588398207844 -0.48996262904494614 0.71087731194486992
-0.28115086616408291 0.71802932237763173 0.6869195486889339
0.62631625868705498 -0.38657979127834885 0.72889172206413377
0.085741305429195336 -0.13368780383436984 0.80004916960226069
0.23381631057642949 -0.0018779490196099147 0.74640926670147678
-0.46176367823372289 -0.031520789378795655 0.80019797729605102
-0.6206901789227004 -0.52063192939937863 -0.41852225469980908
-0.68469619581614438 -0.64216772673957223 -0.30122212091481515
-0.17623732255751179 0.51921178991418415 0.75027080118675826
0.10587344588692815 -0.18288520576562828 0.80311115125292076
-0.24277811638238234 -0.39194170368902448 0.66624333457926355
-0.27841060613819479 0.91353652062065294 -0.23667685369667879
0.47479365150473285 0.83958988709962412 -0.34702452772137349
-0.67495917787101689 -0.84903557922240225 -0.47481387627482263
0.33786987932361967 0.28471387503625678 -0.26129380612115938
0.72665612935978174 -0.49570632914918811 0.68550940992815868
0.15848343360444517 1.0974029595901769 -0.31248836088749954
0.083286240354453867 0.73955097784612178 -0.47555752235243176
0.18617967656292933 0.018645211679679363 0.75128579551017083
-0.10859119039376708 0.63864832631344726 0.72367062442114616
0.1953364267124087 1.2176070554168561 -0.4158077271761158
0.50246623841026405 -0.6310990603599933 0.45482785581663165
0.21657428856487115 0.23829336215849573 0.68904967848374099
-0.48944841917666793 0.203906296892022 0.8043899338659628
-0.75536365481774226 -0.30643601421220978 -0.45718074992907987
0.41911136972657914 0.66183997143676265 -0.21770687353998142
-0.32185158822491644 -0.15169621277367895 0.79939734602737644
0.28135644917429659 0.75425353536041939 -0.26391773207342339
0.15634465019438437 -0.057116944639153289 0.80224257583239478
0.039205128466392125 0.415295537940505 0.78262358794171405
0.64993381173481168 -0.44954313590577932 0.70787717444096643
-0.40509862665433616 0.085108021448512261 0.77636971875259064
0.018870972695182786 0.93126497799411823 -0.26796846811387809
0.34326628965126815 -0.38042420729700588 0.30311696353606976
0.24762511290242628 0.91054012656201877 -0.30060878503127242
-0.3118880773026973 0.44554377729062367 0.70647374294108545
0.06307596866655274 0.35640425679130416 0.76996399648135139
0.15051014500262738 0.44300928613075286 0.68491966727640374
-0.65264404967842893 -0.96785744834252796 -0.41858629635152056
-0.34687832873069624 0.33554412805757039 0.62537008858240029
-0.72876296104618632 -0.13356128689398616 0.63212239360771605
0.31255356062844442 0.3868514550953801 0.58071489746660632
0.31074467115416837 0.22830337424260705 0.52396680695139253
-0.71626677610078104 -0.41758699922867493 0.45201796637752523
0.14759805090321265 -0.089449955673789106 0.80223279803345804
0.22672738844709528 0.96503658724348185 -0.29609264009496883
0.29025390165865872 0.083760617870998644 0.51838342584747465
0.15924035934992276 0.78054510360262341 0.27825554171127465
-0.16671961960025783 0.47463631395520522 0.75876516447988251
0.42287487605531737 0.68132134215856865 -0.23908129578828152
0.13267024819275264 -0.086110748093201295 0.75993603283731659
0.89417800322360108 -0.25942870111022209 0.43892890120827133
-0.9589170641208824 -0.76703142869313012 -0.36668613603643507
-0.56513326638835792 -0.19907247569587128 0.70762578248613295
0.21224361241046097 1.0832831953709956 -0.44337135696716246
-0.29680568678620034 -0.59991385263064956 -0.28118992166054113
-1.0287973336321699 -0.60660878180286204 -0.28141852797793376
0.039265954987200757 0.6157639816404199 0.67526268445089954
0.034740246972120303 0.85699147827155286 0.23094996253428235
-0.68021180486383059 -0.57747550576539197 -0.20020621033197017
0.51376912709224598 -0.13800597442606444 0.72508090952686644
-0.45779686284279819 -0.32437015028828853 -0.61227106733670666
-0.35282029809896187 -0.20629318688717291 0.79970107972150117
0.41573393080335563 0.79618445846531927 -0.32842071673428563
-0.20078916333386587 0.62812954699414547 0.75801565373438962
-0.69448901395105622 -0.74381256501478532 -0.35361396110570809
0.24505312422739678 -0.11535579500933846 0.78770459507410351
-0.2225552437500653 0.72728219010629402 0.64917389195457531
0.51735382254482687 0.89689081730602993 -0.35802903504205119
-0.70111230859374984 -0.32062762241444887 0.41708856581047371
-0.09202701251179235 0.46709529190206212 0.7883763150905736
0.66987610685946208 -0.67330061087668369 0.50733360208695899
-0.40992104898178638 0.25552123265893556 0.70571333964107907
0.57532138729625615 -0.36352154706709428 0.73199646137220498
0.64663132426464642 -0.24910915274833112 0.72903967120288371
-0.30488074517599273 -0.25562660353218192 0.73997488481040818
-0.77111394629747565 -0.35019403120772807 0.56504642937139238
0.13410502076396824 0.46387560604922129 0.69738241401040568
0.017048519477768309 0.51438867289990142 0.75426311940461233
0.13801678448271559 0.38434109657783289 0.71850075731870788
-0.18210578744420047 0.35491558030127024 0.70790196026962349
-0.045558326324197651 0.73474546156388243 0.43507311983972841
0.14731516930613964 0.57173483591924779 0.57887884911593801
-0.32491837371973986 0.60742578983481366 0.70686589846511083
-0.38311670278801557 -0.63284926896518101 0.0030636887222499354
0.11985945638289763 -0.11218601793004623 0.80354880317958077
-0.99775487413069186 -0.74034306596443855 -0.33216481631561123
0.66121374311831005 -0.45118706175880341 0.65871482799906289
0.51750149243382282 0.67840796636019363 -0.31450031575235471
0.2598215952392664 1.2180380662233361 -0.41081282179328582
0.40001221265514175 -0.2573600686018338 0.21767133531525928
0.37337187665027471 1.0489510270623725 -0.40094191441983185
-0.4088320014497242 0.51118744557709306 0.51602575377020798
0.55160365873472017 -0.26260123866896645 0.73330071725300172
-0.52101912485454704 -0.56834783941503275 0.50201646452541127
0.3535415542267657 -0.21542027121396812 0.74032160608280151
-0.34390024137523767 0.80949706788420173 -0.37784449582329671
-0.32165866191581927 -0.27747647987715851 0.73395108222629801
-0.65728980261803827 -0.92792918502279065 -0.45352907318078906
0.91730182225064993 -0.19265772476618714 0.51105492965839971
0.28842028674872466 1.2511903961872797 -0.43289635478765831
0.53507937523144022 1.1017589057581247 -0.4961648521222628
0.65936310177212931 -0.6678368564342172 0.47968947283192165
-0.14775961984634023 0.36664589312810847 0.75895773386420728
-0.70273621054965929 -0.57428839369056561 -0.19743790266716132
-0.99245657869288095 -0.65728776301020275 -0.27619247244925305
0.37691667657581007 1.2609521943375448 -0.52375739537671961
0.47708452487512432 -0.40614409541305241 0.33329107545853276
-0.6110263096575892 0.23249893870580252 0.79984978933299544
-0.13408886136468823 0.55140343454004537 0.74220062450706337
-0.071735071171190157 0.28011428910752301 0.74797188705238682
0.4213382988236134 0.95127551340059213 -0.39095434111627014
0.27103049347986996 0.81117104658437 -0.28757236881642712
-0.63880384241610955 -0.61996983927238603 -0.27458931110186313
0.28324376114845506 -0.051685288183748845 0.74844605933549246
-0.56923874637371341 -0.65076995637113555 -0.32212154238254698
0.63047935142073186 -0.40719822462763489 0.70552938594866532
-0.49598305227524975 -0.048134268143670056 0.78917336191659615
-0.45836559965192691 -0.34015388929204349 0.68626215268633928
-0.68345621708800763 -0.9528746932579466 -0.46713733866951657
-0.31683275346604489 0.34833996070198481 0.76880111377678872
0.60643614885566421 -0.42440768020797393 0.72696994293963257
0.75193977281203672 -0.58635829206040668 0.57175016323512295
0.27970318693571983 0.51885082726747811 -0.4109370269192425
-0.28500049709650455 0.26554449040555994 0.79784288845965534
-0.55160509317239814 0.21228086523756673 0.80217327393771143
-0.3476085552448609 -0.23855586600499024 0.77227273067117608
0.82451491260583509 -0.18447297514304495 0.40998809796641922
-0.61563020372535959 -0.26421385147056498 0.68771594419789039
0.25516371788472014 1.0673629930658919 -0.39776159892102214
0.63363439974804692 -0.66780158973856096 0.6138904518278423
0.27990952550496218 0.79261142377517046 -0.30112032131484057
0.16225519924464038 -0.20158545896623359 0.78424615944479115
0.68199255356500998 -0.51633584894357654 0.69396123919298702
0.047284783592829172 0.31006242018405672 0.76136683855713727
0.10169120770903817 -0.1897401419171949 0.79777062225980444
0.87658633252455331 -0.1692513744705666 0.47199538620901649
0.023071618097162627 -0.2944703531234083 0.59130523928308776
0.72507672192146799 -0.40806070849290244 0.37509992174241802
-0.31117131415432198 0.56645479455641379 0.79650640043348631
0.15303301061113928 0.75977510690086092 0.56956721994097848
0.34753472702443133 0.89917099261252176 -0.34671244334077755
-0.30738916571958441 -0.02454809453404394 0.76163607295089264
0.34817912703678644 0.5062666022946658 -0.33448554923703
-0.42568672618389769 -0.5265861165446708 0.58214186012276059
-0.40441551905180972 -0.77311692515358743 -0.2069718340147233
-0.31586710993505562 0.27944253394657181 0.65870477294603802
0.4954040564220179 0.81242399577610058 -0.29508947937270591
-0.13238775278327353 0.76374827233972553 0.64629004175557725
0.083776709706214092 -0.18657912116966813 0.77320886335868977
-0.3306842445204552 0.18051970783219673 0.79707010036338488
-0.42476299970739717 -0.21288561515494564 0.79717961413018656
-0.22046491416236336 -0.17464805167356445 0.74996932561194285
-0.10297077522416487 -0.38499310237565254 -0.51774042074370641
-0.0018132020155903206 0.95657214934928447 -0.095797251425068453
-0.80550900170075579 -0.61022818183889882 -0.23562444703986785
0.77590530438581595 -0.25819873219836964 0.70410887649299525
0.86219068961757728 -0.37430248097145125 0.62971281893777586
-0.76246510495656139 -0.51981771015493905 -0.31948719233054135
-0.81372886493977603 -0.82120690098614091 -0.47065821398700791
-0.45757923726229421 0.82792318383674512 -0.078734350050638113
0.17073433326731902 0.78013650643211463 0.49962882750213566
-0.27214977457512646 0.47822344679196505 0.65992199766415638
0.52275583725580077 0.94117784332692622 -0.38327316782297771
-0.5054082711344563 -0.56320113409412897 0.4130171072019948
-0.062199877669399939 0.50376605433545407 0.77652505975967756
-0.75130302612259925 -1.0149691368188343 -0.44795486770235016
-0.48938781279979082 -0.40781322388889407 0.66499297253099598
-0.29256812601228432 0.3793655367548574 0.80233539361375961
-0.23048852521736762 -0.12214177669607196 0.73951405783921587
0.23900837302178957 0.71904188074350373 0.27369461361939784
0.78593441683160847 -0.29717660258699041 0.70563022221662663
0.18248046682255392 1.1163301307825009 -0.32476965493560783
-0.052430267855598345 0.69039903917977696 0.70335845894578597
0.84651695611339051 -0.40486898737876764 0.63113505927955771
0.73101323729144951 -0.30807899817165207 0.66583211609579962
0.15151112120054222 0.79517204853421219 0.23029091789410927
0.034477011675733138 -0.43541634234101068 -0.22393721123734167
-0.32445764263030696 -0.72281496565395997 -0.22161447308158699
-0.24072756744322987 0.38537455435038481 0.78365547115578238
-0.15814466895122337 0.52669024212721638 0.74756828079028992
-0.095269275426346667 0.97454950806960738 -0.082407268918871068
-0.64332199799457612 -0.36020816122088206 0.65511679221833674
-0.7030593013644193 -0.20720220783537968 0.70904626840751916
0.070242946800760819 0.47901236254871193 0.73847564941766564
-0.88060593580247826 -0.71357447755851666 -0.35910595871573037
-0.49266293756878099 -0.2329219307035757 0.77087837172177842
-0.17778978265667433 0.40187684155339554 0.72092998306175105
-0.69316928811355183 -0.99427474033200269 -0.42834916192225592
-0.02903000751656748 0.46354956776842471 0.78626362215027257
0.80919323232761542 -0.12542704252546244 0.47138222569114419
-0.5288873802003593 -0.35295075892436145 0.68458350527308198
0.64271490478351723 -0.034027770416433789 0.60430354131574404
-0.6965077350535438 -0.24952701356775009 0.47781317964080472
0.19663642893981148 -0.086238534778661169 0.80592304696773454
0.059941108288114719 0.38093012568026552 0.78042998605099001
-0.14720223164573554 -0.49061178432796737 -0.27212713364704655
-0.39116909464669902 -0.63700788349721904 -0.094793088740516396
-0.39419757540559885 0.036919543435853797 0.77046497674007242
-0.75581894538262873 -0.25790591253757356 0.66366252949981686
0.82968047766775044 -0.4249403069296136 0.45846450364817315
0.32853444273258958 0.40584300234775839 -0.30790517258739669
-0.75597640613995054 -0.68499625459718061 -0.32560562108770341
-0.18285150605949241 0.49340272987024036 0.67642455912763921
-0.63513922748443008 -0.16306112443818677 0.70979861088437701
0.54049766011755196 0.00032598685689544382 0.60435668373895624
0.18706974488392802 0.6584738937303527 0.60068884888633534
0.29347149784162951 1.1146890171157295 -0.43026407943310119
0.4421371835667145 0.025636214530062595 0.49094418037103082
0.61906459558763061 -0.43399719733134035 0.72378259498663056
0.51985604842248279 -0.22171145769463774 0.73421890346304508
-0.75643010925956844 -0.48524511432822237 -0.10204401836045918
-0.68393577795620786 -0.62605430070015444 -0.27799349703053622
-0.12071480865677131 -0.43730269927810639 0.3920774947607697
-0.78891725916358268 0.025294250851089828 0.2814526956556449
-0.5392198601868472 0.037730038894785878 0.75824882573454033
0.10305354263191191 0.53513065193627796 0.67401057197480441
0.64567696381433848 -0.61403801345501119 0.43088554084826569
0.0099402034537803274 0.85535556138416524 0.23749329360074967
-0.96182654819631352 -0.67959155804474847 -0.29531223445749788
0.27109520059721604 0.67065563244430848 -0.4109726783265728
0.29701667325207382 0.11231041300381506 0.49424645245312604
-0.54566783440408528 -0.2778272307269738 0.68150359765547819
-0.47845861698755243 -0.38037721325932594 0.68279183417644163
0.40495734191817689 0.71179511961545217 -0.29466847732163615
0.46104285601214201 -0.029558586883926097 0.36286662045324647
0.26704532897775124 1.1204346106216221 -0.42892892880999511
0.066550920153730431 -0.17430883359279825 0.75515457108096484
0.28725730541566463 -0.16130586411878944 0.74342360465911383
0.77432368554882203 -0.35577865940883946 0.6983335780599873
-0.12778034747482536 -0.050146179189262341 0.75214759562359745
-0.21687452358980863 0.55003497987004835 0.56491539244260025
-0.90040698955037612 -0.87559609134088134 -0.42870513076476868
-0.34004261623979914 -0.44944143096449807 0.64562769695072575
-0.69554247285194037 -0.84503909395242971 -0.40860867724296668
0.047548637134227079 0.65343370665006972 0.66473134174592019
0.17935263005817603 -0.36560726971639568 0.64313459951790719
-0.30852487235642911 -0.15331758043042498 0.7858374937142969
0.68853748368907475 -0.63796000202552783 0.60992949439628319
-0.87826668515388917 -0.359022391231548 -0.23455348555447131
-0.2993650004018491 0.30440304620663028 0.79404881823484175
-0.46766974184123455 -0.79074713013797293 -0.27084959945821652
0.25099746760974995 -0.29667785714747774 0.72609579660803547
-0.89084108984700094 -0.74080261812171955 -0.37536471332674637
0.0078445749899884731 0.18802972032302279 -0.69066533951044562
0.69712166854985469 -0.5151701463680407 0.4048814634922735
0.099461972681552879 0.58116087070018096 0.62442846856089318
0.62750566545322783 -0.43168719414387979 0.70409302677069263
-0.16566217612641765 0.35804327792020985 0.76894416751204631
-0.5093648882587587 -0.22037706585986783 0.76528478286201107
0.065718425568917382 0.37833699507100249 0.77636348713636494
-0.42285685907708626 -0.34572734757456658 0.69102594678597029
-0.74273219241953825 -0.38519570974221296 0.49760913257375705
0.20137154302337024 0.74875888909607724 0.29694215833799831
-0.2832446571663354 -0.3698208484777652 -0.59528192161158699
-0.13983429504381206 0.56389909603612409 0.67595794374781804
0.38941441804034582 -0.25378435401897192 0.18522526334442091
-0.7811052331476418 -0.40927091604481092 0.05013143138288001
-0.33715403764411178 0.071081972764130086 0.77431589741786411
0.4663619406883015 -0.55023858160258321 0.39632246756434597
0.062989949134625078 0.9136517674604292 -0.1840306603428985
0.21619782307111279 0.45492090637807792 -0.46712498874913422
0.32649117912595216 1.125996352467709 -0.43662717188612987
0.72229847447212592 -0.30676153689550567 0.66755050601659605
0.69262977055750241 -0.59396500117136242 0.6481297975660425
0.39965053116299032 0.50969943304212961 -0.12481842909627971
0.18357400873182428 -0.19885353034079944 0.77440055676603947
0.35811279907565563 0.19052464223339527 0.29518602844325414
-0.28274590634597985 0.87793465199029441 -0.31287893545234624
0.035194590173176721 0.39523134386152492 0.78744786421989943
-0.47176893640084927 0.78981250690185334 0.11509027066742306
0.10213131974425949 0.56291881800207832 0.67357536057429002
-0.57614964044422834 -0.24361261909762533 0.68766439508772237
-0.51321605520421087 0.54213212530544297 0.44560883732205525
0.059732988846491253 0.63642480163035842 0.66762376064906448
0.30661228697411502 0.082397535737367633 0.49294243429937978
0.21220793291837481 0.0024004752689688047 0.75278996834381928
0.37267651426083148 1.1777438048426561 -0.46606958300245083
-0.87353042998024932 -0.63802407374889469 -0.27039688392522976
0.44646341031732106 -0.18288980904192798 0.2419958099706605
0.82847438046852062 -0.1906642243485912 0.66632247238536024
0.58217783218164243 -0.24257995158010015 0.33007905616290145
-0.59229379458024312 -0.35856881637210591 0.66453815566896424
-1.0124541373224503 -0.72257641603380307 -0.40271529629629299
0.57142505807057375 -0.4648175795272369 0.7188638154136413
-0.59807238595934109 -0.33149519836117491 0.67258055487769752
-0.69566535936803575 -0.52514430849215188 -0.37055480242429439
0.6910998105773416 -0.45446547340505639 0.67480449671754172
-0.66960568626207362 -0.28781006773979101 0.67605876367903761
-0.89768284132999554 -0.88454605329101099 -0.44775821376114777
0.63223318216529378 -0.38772777520423674 0.72627580231906563
-0.40555331033652919 -0.63535699164368964 -0.15484867723714046
-0.016489939035423617 0.75422418947145076 0.40846619347291835
-0.32063333506395963 0.53293708573323784 0.53915964862565602
0.2765632489981229 1.1447172602412792 -0.43787730430804572
0.4607950956225153 0.019196148931555967 0.60236634673006506
-0.35342353101552249 -0.04794710790260126 0.78884452147082129
0.12302413845330307 0.47073211706306139 0.69848055759126737
-0.080213524236626199 0.45584181463747342 0.79164429352644561
0.30577397019375496 1.0115428744946158 -0.37243073067395471
-0.12525672886580708 0.54046383759506966 0.74531492723801307
-0.36189826624911348 -0.64442276630437334 -0.15506892722268617
0.53338615353165153 -0.48125426827008555 0.36096547101490728
-0.17137482203267496 -0.29508808993385216 0.71216800347238518
0.7001484578060797 -0.33755444882998376 0.66907724058035001
0.019467610276109326 -0.33244259164289858 0.48209299282288498
-0.41687713517339375 -0.38138051032584741 0.64428402575219934
-0.57940002219882558 -0.92834208578825894 -0.38500687872408434
0.22046996438366762 -0.042275150794935712 -0.49431021952739229
-0.86283738137360899 -0.74700648442953366 -0.37030369347135661
0.74764256219823721 -0.37353149436862587 0.65274477510288875
-0.12934892206841653 0.412049719783667 0.76781357723848487
-0.24277610340902811 0.42619957931417218 -0.67509894107442392
0.14381184776043199 0.35290104521658705 0.71940748491510931
0.1062489266114568 -0.25658473723416009 0.7073767405757394
-0.37202589283532461 -0.81163830456051045 -0.28888038213577261
0.087700324508205085 -0.15832355029985656 0.80239779581992821
-0.53329221243060942 -0.036057925425687642 0.75279078502904895
-0.63116088503421963 -0.30065205817812313 0.67162326230538838
0.39298704147911678 0.7093103614968328 -0.27823143848735299
-0.047766161116825856 -0.35769724626123534 0.53070849125268182
-0.76979877050865753 -0.45129793672560226 -0.029501436789757918
-0.76986599250925281 -0.51142838337251106 -0.1595231041061993
-0.41158223947607553 0.03435350081703703 0.76644565387584862
-0.061408078642330111 0.26773851072158195 0.75316214197556519
0.3071086198983437 0.82594217165465977 -0.32271726739321593
0.073571750008994741 0.83666263846687272 0.59187739481026824
-0.50047500307420023 -0.42518433320307025 0.65484688319267548
-0.58868851331499172 -0.9840363597979831 -0.39850111431951518
-0.59931382090681495 0.054491264548481411 0.76322132749797333
0.013922651916729478 0.50882416531863583 0.75949050011300301
0.43043031980866431 -0.59611852395708809 0.5368694898602655
0.24654010643493507 -0.010694537676473104 0.76125974756340042
-0.58430142990090417 -0.19567869971155716 0.70928584160111541
-0.032454325616797064 0.54153115103118665 0.74076059900039581
-0.47965301046735931 -0.77199756078290704 -0.39541658311858896
0.021474517333729182 0.52013372678161574 0.74321997285744601
-0.28963520854733815 -0.26623362091602232 0.7435596702781595
0.12386093801646325 0.38793025372352119 0.71168397767007718
-0.59257720362909083 -0.16659820409518034 0.7260028015038813
-0.55045571260654924 -0.59342724710261763 -0.13231313950521439
0.17186625887940465 0.25874226470005723 0.71032115618552893
0.052274092991027032 0.61048915264502313 0.67307681187236312
-0.82664355347820617 -0.55081845265279838 -0.17825212779501953
0.11169622190934092 0.51247702635587089 0.6793815309202671
0.3910406716431396 0.59154499761019963 -0.34511238044078141
-0.053626560831787629 0.77690666346979143 0.58924640647012438
0.30446327631364056 -0.50747607786501669 0.54015189705228295
-0.98919417300747625 -0.0091468569848558445 -0.037182894647202147
-0.90067371223732096 -0.97909127883388436 -0.50951325581601736
0.27170895964984965 1.1668528989610394 -0.41786792192340272
0.24125166453984548 -0.028696973178378826 0.79709471975766633
-0.41408165687639098 -0.39748969564633896 0.61884377379919897
0.16912316705506214 -0.12812409620864607 0.80712396074741832
-0.6390678326810928 -1.0009426571589941 -0.41925183880925943
0.82016760835170999 -0.37798935726023331 0.42557416524576297
-0.4926792261620534 -0.32577192064494298 0.68583832603556516
0.48439249924928163 -0.18147454560867304 0.73436024101815178
-0.49546178025914855 -0.33353116619641554 0.68799094063408006
-0.41557766726602097 -0.017018615518885838 0.78714990212594671
-0.50110879785569296 -0.34989935187017096 0.68973212601363798
0.30622708202754723 0.18410459440340432 0.48104858737858081
-0.1225525560380305 0.73382174738664219 0.60178377885640089
0.13222867041812947 0.81283808348560882 0.5392336421577113
0.20718301710255105 0.73399260655383003 0.43318384081598538
-0.30318649505427686 0.32061678350018497 0.70137876462786153
-0.24127113638976994 -0.48665661384320913 0.55880143502059809
-0.21108542571069222 -0.33658361499708533 0.69550121468989801
-0.56786338812827353 -0.32965261186326345 0.68278186659634343
0.11200850136833651 0.5740609045757239 0.67193508841148741
-0.92387027905026287 -0.84954867497573616 -0.42564740321367367
0.032162840151457317 0.33121350815490302 0.78335801499727609
0.47036572018147638 -0.51475207975436099 0.6884097960266331
0.31474712059163323 0.73747599304325462 -0.29994260407386264
-0.45254879391524128 0.083891450897596087 0.70589374052835296
0.26236924470208578 1.1438865992804068 -0.41420878126979233
0.51376027080327447 1.0636821005134678 -0.39848463258113043
0.099148462298842333 -0.29022056290987663 0.64867996160532471
-0.20367953399119187 0.4911920470942519 0.75949773661528752
-0.60890628692071402 0.022243357365745453 0.75694247845197538
-0.59954114703009509 -0.082494922376547208 0.73414404065820804
-0.64227330232918689 -0.62463424440142035 -0.28682651706603224
0.58398383004734455 0.86517959282340939 -0.40502912699997751
-0.52833971978752459 -0.19456248461659698 -0.64271591794761207
-0.67530288983226683 -0.51246882096771174 0.4692699958726223
-0.88722704276466402 -0.61080772507558834 -0.23590431134195455
-0.92443950114419238 -0.74184390730272298 -0.38266911780362989
-0.32813293178288916 0.27646679636536931 0.74603693933781301
0.026504791679727191 0.29920567671622678 0.76498468586100898
-0.39680950290660633 -0.31354980673969379 -0.63709319191940494
0.35775847352516621 0.74939680974421208 -0.37865314286619878
0.872822408984959 -0.24438727958559703 0.65242251667234541
-0.14357316833955736 0.75908807242146992 0.69185960741435792
-0.43244930613950316 -0.36168617003287551 -0.58866457886631451
0.76321069163117272 -0.30732629938272282 0.71268288307069838
-0.25327923766117522 0.68595665202795431 0.65209873384065986
-0.13569075490181604 0.50407349102311372 0.73253943204730376
-0.27233391483851221 0.042307063486315855 0.76781397335304291
0.26332265960870416 0.046662856703704847 0.65905018831659845
-0.61115757403324267 -0.12309882032721475 0.72331152913193364
0.69740405844781606 -0.3073444603363118 0.6934444745915016
0.26371453593952765 -0.045823791279356207 0.7805873446678504
-0.8703863438476418 0.30724860669022291 -0.33506881782656706
-0.38322840949409454 -0.044365197359894637 0.80556342198772768
-0.70309624167163065 -0.53928093865131643 -0.13361254648324916
-0.73427698984346534 -0.59122412016488113 -0.34906483994004134
-0.41132110942783129 -0.7476737060954548 -0.21081419638770171
0.35993761442875183 1.099608193343844 -0.42171934817375245
0.28861965529037548 0.74235259471469561 -0.28163830336643514
-0.1900835417928306 -0.16070160182565374 0.69878480328824821
-0.22599386494528062 0.55931811291946687 0.7651934249289809
-0.68064284192286095 -0.43440620725837675 0.31461724000163827
-0.032675777792917415 0.59105415851097831 0.70770997493292498
0.56121790638658808 -0.15366882592587672 0.34274689963095284
-0.68937520299317612 -0.25643457750062737 0.69101529818027529
0.42201451285872338 -0.54587508750876301 0.41765173651342025
0.14930374509741284 1.0265626519736699 -0.26202614186769324
0.30445989921716432 0.75155279871320602 -0.3138067566074767
-0.31014125362463574 -0.68268799540100389 -0.22109268126675374
0.49791210733208402 1.0319374707839195 -0.44609282284258711
0.17634072576072413 0.438238856332271 0.68432658298530669
0.19718334838750451 0.91384924934720857 -0.21612725091651441
-0.52075936441073623 0.32242129070674252 0.73575264270633056
-0.57265801742673261 -0.63942065990008956 -0.31831400877393889
-0.72400676839792766 -0.13662110650343351 0.71508419368541354
-0.036854048716804755 0.24747615530539235 0.76049573125717984
0.226972426814811 -0.00095644469261202403 0.77789016673861511
0.28846182403731291 0.81011352054546393 -0.37864123587516474
-0.55304673810776706 0.71550098887526303 0.14578226111740378
0.12848162445941114 -0.31787783459156671 0.64121233786252674
0.20001136282684229 0.98359723857824122 -0.26099592049689591
0.60765024979303917 -0.68811428415004094 0.59118422378074342
-0.016716389175556401 -0.30088388306528735 0.62553281786983916
-0.41821053570839695 -0.63237360102546347 -0.16523107676715654
0.8617245231835966 -0.22573280578011534 0.65676051716576467
-0.31622710292424472 0.020189343853076025 0.77387397772292843
-0.37013500970695645 -0.63721010554044 -0.069933491634373013
-0.50885784274672119 -0.56747425033417187 0.44735505803674869
0.74699009507882863 -0.3190533250228178 0.67212281230303006
0.40370552562760054 0.87710572899746353 -0.35206850630456188
-0.14439791618247 0.57340225365610209 0.65699499368290049
-0.39480195786461536 -0.21342814861380788 0.79970577895443284
0.11681974039639442 0.3368438571452792 0.7310790504032525
-0.38806396662613452 0.22588225812412333 0.79751175619159653
-0.90254062954728909 -0.54380818334306014 -0.19753415002753627
-0.3107028198619588 -0.42336247194087662 -0.51330839311449949
-0.44040141105116959 -0.21735528931265691 0.79344388428461343
-0.45892530658500164 -0.051296206265671884 0.80691468329138161
-0.28362540739063036 0.3637079969489676 0.65770809928491758
-0.79152953239471913 -0.94680985441657839 -0.45635485098185313
-0.31175185011109363 0.24563129359595592 0.79234311667559609
-0.55961997115483086 -0.3024608334981167 0.63480673497278417
0.50311882130894503 -0.64910629551775045 0.53154804234415565
-0.65441375377164945 -0.77747990649130827 -0.36612146952370495
0.13943324799146239 -0.18630682379207997 -0.52367277072866614
0.14849299895232804 0.91266527556798138 -0.32329377574691875
0.19018936331697489 0.78073822209493571 0.18862179273165225
0.19334513868566461 0.93643034314209928 -0.22289668700003062
0.28096610927607912 -0.068203976912165842 0.75580326527409625
0.28750058119426569 0.072716795549723656 0.55660526905890606
-0.64083673291777643 -0.10776205404452099 0.72780349225811847
0.82707010331998276 -0.25578306708913523 0.398254299426128
0.40536931095589068 0.50955113713531119 -0.16395007616389989
0.19669154882122086 0.45109674758008111 0.61917540741245602
0.6999559447430812 -0.19057795752885509 0.36843420659752724
0.094967371598912109 0.79755119095996463 0.34584394808823049
-0.59184696235413981 -0.58624930351588489 -0.18766482709949628
-0.55656821639504983 -0.074803302246259307 0.75032118470741693
-0.62325569885629761 0.29535704665077134 0.7847410066435998
0.80979035548590161 -0.46828200112303264 0.63274312881262063
-0.36290369655978338 -0.054843795965901165 0.80158613096622844
-0.49144650058903494 0.040739444256793433 0.76882928704253573
-0.82839012311529814 -0.92462413139724475 -0.46739849791623556
-0.36582175966310615 -0.22235657989671864 0.79588813675118786
0.44285590426785859 0.79018591080229328 -0.31697414148175085
-0.68998366996737559 -0.94077907769096214 -0.46407304925895687
-0.051776779913254245 0.2378203351154724 0.76150847251687992
-0.070030360920782186 0.38213351429024911 0.80063540225611973
0.15580153656772211 0.24118808658231927 0.63277431649979121
-0.9098947584691075 -0.85327830041246244 -0.43931962677743286
0.26231955605138069 1.0937860755243634 -0.41592099655599668
0.5483370371299543 -0.07839352619909512 0.3748599899921885
0.68305638096764199 -0.47667882785752624 0.70743215830984241
-0.14090698724228901 0.40947042079140417 0.75851163763658747
-0.62901671257571934 -0.57779192605106289 -0.18360034266072489
0.39186565974689813 0.55428805358407374 -0.086858013527631783
0.3780992510056933 -0.25080398896650813 0.13616656726972565
-0.33076893792161854 0.25955721273574994 0.67832525067501592
-0.57317945332199827 0.21661767630958195 0.65832765348002908
-0.04585439907762634 0.36099406165943648 0.80135562300179686
0.38528766976351392 -0.2972794289041083 0.23952275074540808
0.1200940004281108 -0.077018327373398421 0.75086725663607012
0.7269901518709645 -0.47732870043303777 0.69316995195015352
0.70748717798211658 -0.61839199343987872 0.61066107834665218
-0.59741347188108307 -0.76852209705018737 -0.42593583377723121
0.54872850517261895 -0.17956640873421748 0.7285742366491661
-0.67330176911542594 -0.74090437724115077 -0.35107580736431032
0.45087765854522388 0.73126967100657936 -0.26117852812845399
-0.10662762568810535 0.2365618512967913 0.76168294350580368
0.23467816745741743 0.80973062347613478 -0.20481711752935894
0.04154892532694987 -0.15220505366590764 0.7606883814107448
-0.14541267901398669 0.97116501352767415 -0.18829583617744561
0.37745955898760997 0.92462197488610087 -0.36327575421253755
0.39944312133670223 -0.42796650713575479 0.70964927492875063
0.39723840032469582 0.52383360027229386 -0.07200828763106415
-0.50953516380370445 -0.00017594060087589014 0.74301584806147503
0.39010586298519456 0.83557603322920215 -0.338019422976231
0.0011829397649165685 -0.084193691825358741 0.75685362643073972
-0.1073777831085323 0.10941911880230393 0.75064770326216035
0.67740770568822484 -0.42716334573043468 0.65378408038307612
-0.17021953564294279 0.45767438889379264 0.76124022720088647
-0.13192885190066761 -0.33340840710587472 0.67224350001242783
0.024483822398508437 -0.22775488137664013 -0.59859154070801424
-0.073636291955523347 0.27494892798610238 0.75381307940381248
-0.094928668170268793 0.772248812886005 0.63040325281352239
0.45545840461862497 1.1264563131572025 -0.4410202647117103
0.33959106125205096 -0.24304332252519245 -0.04106210309558378
-0.49960272349321144 -0.030431492045767783 0.7668166711550839
0.11625876514740696 -0.12470751094841059 0.80625174473468064
-0.82296741317219357 -0.85098309788223503 -0.41733092723606546
-0.40601066428834542 -0.72085387895840114 -0.21109056552444372
0.46233826100890951 0.65506695287653471 -0.33591209178504755
-0.33673301619148788 -0.53236294101681025 0.44681890955374115
-0.18502791352176473 -0.45847456068542058 0.48001390543390698
-0.0054081323854404673 0.22512363638814392 0.75572548478999124
-0.21566398939333453 -0.53507032968382973 0.19236947478702859
-0.68330257094658009 -0.50421241333505407 0.099159524211728467
-0.57372954734907466 -0.1626357167583663 0.71852265399195403
-0.51794667109822967 -0.0021440142058537504 0.75883923213024218
-0.069503085937853371 -0.31368212217239844 0.65465991345152474
-0.11009136656041107 0.97411130142849345 -0.20047638131399026
-0.54640611570397368 -0.38532719155385564 0.66609793892516223
-0.6978995619785735 0.074135571868168881 0.7449922759123524
0.14950512972049523 -0.012257100322218051 0.78589242117107005
-0.46936694604949025 -0.7249155737816011 -0.30810526513718628
-0.74852774232167008 -1.0015992631452733 -0.43927568668377148
0.68976452218373652 -0.32359851018020969 0.69293695156378021
-0.046708676741360478 0.46894993032625365 0.78686097982668457
-0.30391626791475801 -0.34865437345723649 0.70171055015225647
-0.16631612732010126 0.53364072917948491 0.74643358327793408
-0.82984466180019467 -0.50227917434536096 -0.20647698390118308
0.44409322940063589 -0.0027802244397889808 0.40490070351077634
-0.47376224059030392 -0.59949663385144447 0.1621973263381733
-0.22943407772730495 -0.13961744422149991 0.75956719892155888
0.30606252779412557 -0.099547015312341003 0.74143755988308158
0.45761833484577608 0.76793467215047428 -0.29440165267496354
-0.99259035213877667 -0.70190391775049932 -0.30773792604739469
-0.13230412653555845 0.33297285203273574 0.75859285907188223
-0.49095388666214035 -0.74695849364850631 -0.33288089683986755
0.76887934959582083 -0.39574718628906069 0.69174918752906933
-1.0148306132614948 -0.60594062778280033 -0.26306630367329831
-0.26794075762317959 0.4954177108186002 0.78778388045986958
0.15198847929242731 0.83981974127503634 -0.36876617213286522
-0.59783709735776824 -0.66013611953302131 -0.32620100470398938
-0.68007039540694336 -0.085807005563793837 0.74012568634296372
-0.077839516994174573 0.65416318666876805 0.71137004775374635
-0.98618944546240073 -0.11522978062393463 -0.12182010743740079
0.87796968806445363 -0.36080955365530265 0.47770903788477881
-0.25576258619808812 -0.0058907515268415978 0.76491590744439009
-0.35247807065834991 0.58833820286895389 -0.59158657581829743
0.27705608828438244 -0.25179748006087666 0.7373281932607938
-0.0095753846534023523 -0.32954296974060782 0.50877113450624734
-0.1265695906144515 0.97224218202469359 -0.067905175358703218
-0.42919977858306879 -0.75523239314048851 -0.22783385690968316
0.10623197526719252 -0.38510480418031179 0.30195140364227768
-0.13458152174339943 0.23283765577680171 0.76314719674132903
0.10885827205223109 -0.34154518931331523 0.51080977006398598
0.43460380722957836 0.7292574416270341 -0.29425822586483719
-0.45721018928897195 -0.25771031650070242 0.7687267338294248
0.22242289704760765 -0.076852154415083973 0.80177272272740652
-0.16396558732100175 0.3330939547283549 0.76946368860100733
-0.098392931237640369 0.29373110349123621 0.75575353259480949
0.44953432412964389 0.92211577269854317 -0.39001811827989741
0.10153424769120534 0.65397237652489437 0.64675928892603451
0.053545808415080387 0.26892861988050143 0.75160755825658043
0.026385878684692443 0.82511613625679558 0.28520652232771226
0.5217493554899022 0.88960835338128774 -0.34246506591858861
-0.83208807838340704 -0.013158189705166023 0.21869421240981524
-0.10922254836548007 0.75570790704866653 0.39495219657214875
-0.56436325626265216 -0.27724745958573749 0.68098321420853836
0.3787848932501916 1.1804827880074278 -0.41782573202269191
0.56505693290701231 -0.38597293300680224 0.32748091490122988
0.12808273169864037 0.38704915723344158 0.71496010624542805
-0.10472348822887056 0.47728401109749896 0.78125163406014053
0.3396059467663548 -0.31617350440762548 0.73243993530161333
0.5614061400412993 -0.68860241084632889 0.52859139280482736
-0.41965615473881712 -0.85502386209116565 -0.35915056341841023
0.3207371482765069 0.28069302571124766 0.5399461853760954
-0.21432710419873047 0.58655812979201727 0.62520027642011655
-0.21217182971200543 0.55320514044571212 -0.62357371600717215
-0.54149836262047302 -0.87444090968467236 -0.36610725079833628
-0.2781854464186182 -0.1989328559226351 0.75245625583684728
-0.66209502914753671 -0.55200962600681436 -0.080169498482462132
-0.61820964219026564 0.25688940514504566 0.6861923339848488
-0.62478986167293726 0.2095110386295147 0.66937622625789572
0.071638666282510144 0.82061443709510939 0.61124633872742606
-0.32765706820838147 -0.10884213323036107 0.80192908466997892
-0.037897412028371491 0.16037453274078217 0.74899915731990063
-0.55439310682773169 -0.011502102890091237 0.75513812719202633
0.47862396439161614 0.78403349355662399 -0.28375392987669557
0.091802322017741744 0.031123634296896796 -0.64071299154451822
0.06935681263819049 -0.15512093300788798 0.79132536422929434
0.14942041804071238 1.0698402865876488 -0.3616679714947395
0.23220918892343434 -0.0604024815167028 0.80050554063600998
-0.90793080416648309 -0.71987242984827304 -0.36752879069680944
0.01797539254668834 0.36949358860476877 0.79462239702147031
-0.29233814112946277 -0.30405430055252936 0.72620129942035305
0.11913682651815805 -0.28781431126300738 0.67506465083644684
0.039767646654908617 0.35025085288479119 0.78838876761108168
-0.061400424157000089 0.69682336757660579 -0.54255839799620276
0.20214200940740312 0.89219475415485761 -0.21180266720955387
-0.38283511975335216 -0.4914310953240637 0.61705302507698434
0.24054743393841704 -0.010410729150034825 0.78633847421127712
0.51447258556819975 0.99518080119123553 -0.4341051758802621
-0.20985568680129063 0.39238791444880761 0.77090698956547499
0.29814403476069629 0.17651182016167688 0.55084815577100699
0.059428082359957557 0.81175800861946712 0.47723112324459294
0.81422823335579153 -0.15106831538394694 0.43413017275187826
0.043708396711707564 -0.36341324206057024 0.41453281412822207
-0.23755691581128247 0.75517230822602244 0.68647016350783474
-0.33213233641663464 -0.72575392471891575 -0.19917294298502952
0.14004781197508009 -0.075342611374157542 0.7879604790175847
-0.98230348418555025 -0.7485044267626364 -0.34133587046184743
-0.58960241701419136 -0.32259394291153853 0.67889196142641595
-0.97318958391511501 -0.78786523455335811 -0.36324506534700163
0.76225200836768181 -0.35775110991695591 0.67184050325215594
0.1601583055174558 -0.037592986956347829 0.80083245164340155
0.063028586070785764 0.64745118752136932 0.66197619235109073
-0.82995754566732671 -0.80494792609766108 -0.39036175825245323
-0.58391092301495462 -0.38571561716885583 0.65663608591387401
-0.63427770636664604 0.68885971086571374 -0.017360772405197622
0.64342068734065094 -0.57510542024697031 0.67494669165355958
0.010429907670086891 0.03875640379307832 0.74789900114765828
-0.39011309643814229 -0.63865734404772923 -0.14073644263291385
0.4189769144929727 -0.15631105375135235 0.13970037051331019
0.38003813011741272 -0.055217104762252944 -0.13578854517453465
-0.44645621630985488 0.10729429311200533 0.7764196835283883
-0.50726007734982659 -0.73681295091777343 -0.33921429415656235
0.16064473297758752 -0.021102655507707624 0.79683073284303418
0.57642789982541132 0.91434760379798874 -0.33791825720231827
-0.53106612299792744 -0.10594729408911618 0.7711423383427416
0.69516860902164979 -0.60538243924925084 0.45782169700507325
-0.98476973617633234 -0.082038838227035171 -0.06151132549237559
0.43755106135705546 0.69150013058698079 -0.22968136480096746
0.065276993871506761 -0.1404859310575155 0.76766659577444329
-0.38849651246918881 0.20564323498110326 0.80325264106923555
-0.72395770400777337 -0.94739003957804613 -0.4705026683307949
-0.076023183400920402 -0.15897977683064823 0.76142959092445039
0.50023514392677981 1.0704521124785629 -0.45550360795041911
0.50804141642137779 -0.42603462776220713 0.72369061294531889
-0.016170338265808937 0.25396454193591467 0.74753510461619044
-0.94832638763223542 -0.050000341551566407 0.040361169457327151
-0.54293817327460658 -0.05450273796503069 0.75055833824362139
-0.95456737061897456 -0.21052575109278848 -0.097854089877273509
0.58466511440693125 -0.43702271546994487 0.34488339053388017
0.056464462641372393 0.36089706436679947 0.78065912288946038
-0.37228896829753921 0.10193776986591985 0.69313437695282687
-0.22243029385323609 0.7024729469208566 0.63934967057667791
-0.30471984088590887 -0.50362046023934681 0.57904929928253068
-0.50536427689250729 0.092524046956192763 0.76929317280999499
-0.69921309945624444 -1.0425953216010058 -0.47339952397044271
-0.3155630479725744 0.91633859072417323 -0.13282156559782266
0.11485431284063452 0.38413722401471162 0.73030595891108874
-0.0082065080703728199 0.24682866671345138 0.76056713549863275
0.46266257117086695 -0.3629656359383544 0.31353250548986011
-0.48309299433483943 -0.095159855813879091 0.80279925921985296
-0.54902370563721092 -0.63103889045932959 -0.29393130812115942
-0.42081282609363768 0.23198709598268863 0.79961913059480594
0.56255547476798995 -0.65789092555079343 0.43881874718817926
-0.076694154802154912 0.60860676377784984 -0.58762040379238556
0.29280315349681985 0.60017902509532561 0.38790094845253975
-0.15879120484790121 0.3829370163269914 0.76293698018596956
-0.2581467531249757 -0.14115072452791821 0.76489053584890598
0.11961845698516527 -0.10414990803039181 0.79916042704189749
-1.0404202466770585 -0.80528797557707321 -0.43664862784069669
-0.89700826650295085 -0.65495081859784676 -0.28695624333499836
0.08382225684340483 -0.25627080897749721 0.69090187250040458
-0.25404437993996964 0.78613589469612322 -0.46184879223008579
0.74130225838109709 -0.50163938108355666 0.67342851375317991
0.76506707098337756 -0.39557494540418325 0.68611285393686217
-0.60185553466405395 0.19250663848929861 0.65546424239565226
-0.58664253517757459 -0.29237712951133688 0.68621866077339178
0.86123361854839686 -0.42820617091930657 0.54730054787407312
0.66750974433040255 -0.29281650098269996 0.34727981046677314
-0.75712712530949489 -0.95782823376877246 -0.47727326198690889
-0.65701303135838884 -0.33940763197598756 0.66032535066523224
-0.88052450545524152 -0.064086337841004593 -0.40303987606867508
0.86193161704814258 -0.14267110296892227 0.59063465044187069
0.1863825749168484 -0.1562576463851677 0.7990240651704994
0.071531409552775926 0.39741445419643284 0.77193887496446223
-0.16469143432233579 0.69523757957743015 0.60907903783979123
0.93023427575127471 -0.24484203607412347 0.57776294722066268
0.40170472605414886 0.78691961957559187 -0.33102224414378156
0.65095195176481013 -0.44058088291859399 0.65958082526523754
0.2907277542632869 0.13377114570402959 0.5342286591805987
0.34652626277420495 -0.29212045185781577 0.13488496512559323
-0.32750820438654671 -0.13012284482145375 0.80561115637414105
-0.49601386061402764 0.48631239191103504 0.48188492307636466
-0.41229911545190134 0.26597269068482632 0.72966834007635839
-0.29711246681912939 -0.64574458772703025 -0.22168819442586596
-0.44350211949692664 -0.37610886214307726 0.68971400214104506
-0.30030329150092427 -0.10319431967437964 0.77975066132049164
0.77757772240495626 -0.47571895216067261 0.66026312181449498
0.76013587915778658 -0.42924873707173461 0.40143274699670428
-0.66650134857998466 -0.34233848604569772 -0.50052958928057478
0.18545442473077856 0.72427413660932771 0.55911538026180096
-0.88895494545211307 -0.2546753549958396 0.012718297286937741
0.16511630384889031 0.8575911601195898 -0.35634998796768969
0.19414537361510043 1.1508240890069885 -0.3525764793002395
0.70894270152449224 -0.30247018404229919 0.6806391925528601
-0.14999359163164172 0.56938439297173815 0.73873524923359923
0.70423987342246619 -0.29228250043195736 0.70498549172060621
0.93482552560283239 -0.23874850570068773 0.51607099205759255
0.36660385783589788 -0.54888665162236006 0.58065354051311147
0.34806515085651313 0.73631631038104928 -0.28362092445868825
