# XYZ point cloud file
-0.70185839212542334 -0.57454775007232683 -0.21686463005750056
-1.0157201738523014 -0.63272095945370666 -0.30098918699769683
0.3808673266727709 1.2640918405530215 -0.53443029424954602
0.48626029982541752 -0.40086212448818515 0.34083882433509416
-0.65829410878166073 0.097365350790710181 0.79787676667001506
-0.18809755210571666 0.52196617720431959 0.75054500607330965
-0.088684180821331893 0.27401398283470257 0.74468673177784694
0.42759610246010915 0.96305136165963745 -0.40118751644592976
0.26507773241737986 0.8240701954001679 -0.2910766012000181
-0.62951243255563583 -0.62056018651873046 -0.28361324297742385
0.29094773284893449 -0.045001794318494603 0.74895881550986587
-0.55233025895823573 -0.65275011116449377 -0.32327187391666712
0.62809738584833497 -0.42211477241485795 0.70366150482539069
-0.48843668740512669 -0.10756947461172217 0.7913857840151195
-0.42707835077945333 -0.36169782197893596 0.68055872213022894
-0.69196033712745475 -0.95422197887035054 -0.45846652401587562
-0.36504542075080337 0.28231883007177316 0.76511805147117684
0.60496995021699718 -0.44106608966760064 0.72526040866716812
0.75718548996557899 -0.59276602506386666 0.56431545016738482
0.30177804585678558 0.54172279818476454 -0.39485121216210928
-0.31096519413392798 0.21663280454291112 0.80047701728784659
-0.58999296742354801 0.098826614885552999 0.80180984578817061
-0.31513489796878957 -0.2564977730341127 0.77505391770870347
0.83602570083424865 -0.16899103980443897 0.42941126135463037
-0.59644790969622363 -0.31664628286242191 0.6811610384968958
0.2454357783577592 1.0750527171865372 -0.39828020459412983
0.637728691845453 -0.68175232087830295 0.59998669223364232
0.27625914354710446 0.80593078721670963 -0.30406435717912927
0.18089359727311205 -0.19910790031366332 0.78798426203354666
0.67967522714332063 -0.53412187572848779 0.68774752694264407
0.04046603910216362 0.32081324279076284 0.76345491119178632
0.12371500766231236 -0.18699680215152625 0.80284182447735475
0.88642430364227209 -0.15396970509823404 0.48770170668785795
0.033660897394213407 -0.289222794669314 0.57865477841630764
0.73950183291493943 -0.39843822731822343 0.38982211625227592
-0.38895292407890736 0.47175993159942209 0.81237317567359923
0.12849236548328236 0.80549058292962172 0.5791095082602169
0.3482038964283416 0.91144918988118206 -0.35288735312474273
-0.30307441396558943 -0.053349572926720157 0.75651371073934115
0.36780956592351544 0.5292511196552141 -0.31824086407902996
-0.38612688374854542 -0.52979632102420737 0.57255620788680517
-0.37958162233175585 -0.77485638152467118 -0.20590164569335911
-0.37228903393227597 0.22383761846333528 0.6306723516311763
0.50716293157704051 0.82963819198886313 -0.29938310980935512
-0.23243407519170489 0.7173842248898552 0.6570568927199929
0.10331485361803061 -0.18330577621227917 0.77499341549361134
-0.3484138002965409 0.12928202014646217 0.7977291066058001
-0.39025788961188823 -0.24228729271575844 0.80543701502585918
-0.19968374772055597 -0.18427229850695426 0.74659477526944329
-0.03681844479888241 -0.37752767429037704 -0.47270662085594495
-0.07407025056577865 0.95454814887864359 -0.083119055559961907
-0.81117399730146644 -0.60477072554533606 -0.25649543435810074
0.77203704680893281 -0.26631778924934224 0.70421519022812618
0.86378264955225603 -0.37512163337200377 0.62916761618430428
-0.75620963864604818 -0.5148049595024986 -0.33587043418327767
-0.82340705612058684 -0.81342475519971913 -0.4695236637949165
-0.57439517637351933 0.76299270639145789 -0.080682539641770745
0.14526065436900382 0.82652133375464132 0.50462748502508248
-0.35531364702192292 0.41145659779107291 0.63879685480787884
0.5352252351172897 0.95488716645064642 -0.3960734988440322
-0.48036805542497518 -0.57126880429854054 0.3948325867904714
-0.092229356647003158 0.49676608132241995 0.79069877271638234
-0.77864777321011047 -1.0104636531683013 -0.43846909042002835
-0.45229620900977352 -0.42650861437519438 0.66022949675704012
-0.33500574454900089 0.31663924998969151 0.80958937294190036
-0.21690232378705332 -0.13516810774481769 0.73320267623483915
0.21740656812629311 0.75265102258259731 0.26326983856768038
0.78199584573239633 -0.30653179847877254 0.70489147289418952
0.16083143495837504 1.1284869934345636 -0.31141575700593194
-0.11044379244583524 0.68214131262291744 0.72081696573718546
0.84772570501235123 -0.40765363961057233 0.62947872990338283
0.72758429429882199 -0.31635977261927906 0.66603119586852699
0.11255023005011111 0.8240809798819555 0.22391398401350671
0.073457168984347732 -0.42808250754882238 -0.1965832728773762
-0.29445627394585472 -0.7242059030691621 -0.21686319540475552
-0.28168607949814373 0.33692469064243369 0.78760426829251173
-0.21258887909094426 0.49125270164876156 0.75419123442310365
-0.19858798873071626 0.95008883043840342 -0.063583424050364101
-0.61519152552351386 -0.40460325490840887 0.65021788592838448
-0.69082129929253711 -0.28419681167611088 0.70564117988357111
0.055103107896535164 0.49831438198873457 0.74529170703488035
-0.89262745860467163 -0.69969553343076996 -0.37108821493518462
-0.4607461108458466 -0.26979185478435852 0.77595711963903113
-0.22426264563635101 0.36924471985014407 0.71365030617266711
-0.70837416076474824 -0.99388645129647557 -0.41985105602162776
-0.049252885470167485 0.46452235757735139 0.80007490998667663
0.81471597529821338 -0.11418083223784947 0.48503518914634469
-0.4960049953204333 -0.38188213383125458 0.68072200999972665
0.64055797898951283 -0.029572396688706704 0.6061704304537443
-0.7134779630068806 -0.30871508090416455 0.43783610847748378
0.2128094234802802 -0.081393935696382869 0.81213291128960918
0.053735551189603825 0.39553627238103672 0.7889396636019228
-0.11055188670509608 -0.48802563825915968 -0.2532159579715767
-0.37220780606274673 -0.63790658265753564 -0.10160341188947086
-0.4000779641863943 -0.012403793522821616 0.76544448615817373
-0.74499070724823468 -0.33640600001194798 0.65640498198058594
0.84379253112324193 -0.41397307230332103 0.46855632021879501
0.35009668866215549 0.42921314810087097 -0.28658564677454024
-0.75567028417568594 -0.68068789248928852 -0.33499489503100222
-0.24958472165598522 0.45284764759921359 0.66500997368706294
-0.6290297948527126 -0.23324868174077551 0.70151702993240406
0.53833490057768074 0.0074238144332241518 0.60354766349928468
0.17187766844988417 0.70153817263019391 0.60345659644900707
0.28823742228391147 1.1216768467031955 -0.43325006210818628
0.43768759700067505 0.036835698240480497 0.48780115692414938
0.61722971489211886 -0.45101082819732596 0.72161130098061221
0.52087656652457781 -0.22828908279234383 0.73600251772410274
-0.76442345055006911 -0.48801171184396708 -0.13515261144300439
-0.67800687225231115 -0.62532898630485079 -0.28901697579448182
-0.1079097841607819 -0.43167326679522944 0.37426943922656619
-0.85170259417030536 -0.032099976667495866 0.19567385529114745
-0.55487015682511753 -0.042540052938221606 0.74986263920345664
0.082617129433998571 0.56075987273405303 0.67526452805282133
0.65941518303790758 -0.61332061391249226 0.42844226887518744
-0.072622526196539638 0.85923448164840011 0.23634916956086727
-0.98287431923803581 -0.65812546791408977 -0.31629200153287229
0.28185493522878247 0.6884579295985418 -0.40594044767448167
0.28830460250039636 0.12709081993747873 0.48307815597149784
-0.5245323934468189 -0.31738537344037354 0.67318514982071065
-0.44222116715096149 -0.40040906458045811 0.67892334467984483
0.41431143489551836 0.73011223430222572 -0.29306446136263276
0.45885809408976286 -0.018210547771872143 0.36654284889408473
0.25905406795628139 1.1273246741087917 -0.42886805116046389
0.083862359432515632 -0.17072278859083667 0.75451606311708019
0.29640375131228325 -0.1588446941735242 0.74404400479124888
0.7704742982302264 -0.36700787351827557 0.69649069109800621
-0.11819111113949532 -0.056460306707606378 0.74743975530469697
-0.31267974019570488 0.49542053091550997 0.5371963152752528
-0.93084797345676407 -0.85763123409253694 -0.42948939157730592
-0.30269110434015545 -0.45177337400019724 0.63783002159237867
-0.69603850877822993 -0.8444491689061806 -0.40531744238177225
0.010954542913282239 0.67356333648973532 0.67400580854609871
0.19238699375813439 -0.36244337686747485 0.63648317174522617
-0.28393276758750119 -0.1732223125598864 0.78840812891326095
0.69169886881468301 -0.65079872656269799 0.59789745783257331
-0.88146190207640274 -0.34942343911171747 -0.27042340447178503
-0.33321408799821484 0.24801092306964279 0.79631324498842559
-0.44625498337920533 -0.79386351617904438 -0.26811628298423784
0.26373730175647836 -0.29664096583894661 0.72524879443403734
-0.90567703396547472 -0.72563721899007305 -0.38553880502701077
0.081050258811742992 0.22021885138929065 -0.64823253347248055
0.71118958533901377 -0.50996425735178263 0.4115687476430594
0.071799799427346045 0.60719996614528782 0.62271950569157752
0.62537976278539986 -0.44731174625448489 0.70154036930136954
-0.196682910579554 0.3308590772817297 0.77027394360419521
-0.48051737781138115 -0.26119789321182907 0.76907476890301041
0.059564404974111085 0.39358408850455362 0.78404710020168977
-0.39023256708684073 -0.36285157662396728 0.6857182511257065
-0.73813903875188203 -0.43793770086313089 0.47404020598480656
0.17380519662803096 0.78334044209424292 0.28856278315140571
-0.21688036266748867 -0.36468680508949092 -0.55772060870953055
-0.20785041999234721 0.53143967892944488 0.67161454652932662
0.39959123194233825 -0.24302491643845769 0.20006272603689013
-0.79915710922104211 -0.42330477619753992 0.0034785318439389812
-0.34441879310774937 0.02924770949584854 0.76998444031687541
0.47775266593491494 -0.54862475108512854 0.39482695824642633
0.017917989353811059 0.91869300379124752 -0.17925554602044258
0.24550383910059281 0.47936298876913952 -0.4461703783256894
0.32448049470069851 1.1328888160444137 -0.44266629261375101
0.71881236027729756 -0.31527034790735797 0.66775274452766098
0.69292489224388021 -0.60948096812322206 0.63810625949400901
0.40540667952518561 0.52990101413843149 -0.11809929769600558
0.20024537002917953 -0.19635140841171506 0.77714879692950944
0.34994654573687001 0.20742430247818788 0.29009816404544608
-0.35737938037050654 0.84739260400760941 -0.2993169523101642
0.026962073711658263 0.40678912108526788 0.79785166117477502
-0.61641412023444708 0.6996338226161356 0.087159924273180422
0.080678894313749083 0.58989507927776685 0.676798629212783
-0.55965996498837001 -0.29205898466358349 0.67890567722849937
-0.65630801420338258 0.41968846992534736 0.37151441051975098
0.0269500776619509 0.65877843645762368 0.67583016655652273
0.29866004376446398 0.096208404777286205 0.48271771873379521
0.22016570693147486 0.011451734320559126 0.75258078056538125
0.37501473430652865 1.1832685495075452 -0.47651035633447236
-0.88437202478199595 -0.62655709158269701 -0.29115051038235151
0.45254135299661868 -0.17192054096690867 0.25535246367718401
0.82642498030805456 -0.19200020024200626 0.66809278171308506
0.58910574058629095 -0.2336604021667199 0.34485824978929713
-0.56231534775972136 -0.39558375225104214 0.6594929319466587
-1.036770256553325 -0.69387855303295964 -0.41738522918643639
0.57154793990413566 -0.48140453571221542 0.71602010717691655
-0.57083285452215193 -0.37260195007496577 0.6672746532182714
-0.68098973767313709 -0.52238898432085534 -0.37868886733036788
0.68841423905114141 -0.46876429937418607 0.67097592602527811
-0.64959862809493529 -0.34624185551169262 0.67052248368349865
-0.92842227365990482 -0.86701302568172878 -0.44735201783197454
0.62976514276502371 -0.40341881604979335 0.72525280307047524
-0.38563623684113679 -0.63689719369364184 -0.15883754797857819
-0.09771575879391392 0.75244619613678765 0.39992987518422751
-0.43590881378470669 0.44853164987318905 0.4971996165519954
0.26988055865171212 1.1516020480514726 -0.43776206223452618
0.45850526254564983 0.02849842255309909 0.59921280361129448
-0.34211172764673847 -0.08213077482471931 0.78979297539655136
0.10986100851741298 0.49623855644912851 0.69928219856410578
-0.10589051059607613 0.44531776274169488 0.80539078288381916
0.3012554714356912 1.0209601078916251 -0.37775190405972126
-0.17569315702829158 0.51440798068423987 0.7537829545554473
-0.3391167821304748 -0.64533562831860536 -0.15678605551767077
0.5445539932281207 -0.47758674291981151 0.36675363796024385
-0.14488079716188906 -0.29610936718941616 0.70662033705042404
0.69673863777532574 -0.34753199247327871 0.66864606516759295
0.026752494301447882 -0.32626265258949161 0.46703992769965907
-0.386827256542702 -0.3950161684114164 0.63439180115182126
-0.57263550355014559 -0.93242106220407095 -0.37813441162091976
0.28923990918379161 -0.013905789373382049 -0.43416846734078263
-0.87547533990122872 -0.73445660227679355 -0.37924549580344546
0.74495546716184435 -0.38254490365204674 0.65164511785059176
-0.16195260740416728 0.39093140268050774 0.77241837809310709
-0.20385414567909876 0.44712226253949439 -0.66558603283948514
0.13791695499850221 0.37472516827543245 0.71805408622475397
0.12168869974782126 -0.25268682269623355 0.70321305169909465
-0.34200548406514031 -0.81517732442540591 -0.28214589826075098
0.10933109239519467 -0.15530634578428248 0.8078686538787565
-0.53701616766859672 -0.10432828336655575 0.74602710315468812
-0.60933091093495761 -0.35081130124302717 0.66500227033469628
0.40054737569681009 0.72721796390396776 -0.2771761100092931
-0.035385127015914009 -0.35224949056510013 0.51517294438474437
-0.78268675887650119 -0.45850380299555127 -0.069354203785110258
-0.77545385557314717 -0.51077742409006532 -0.18845772728309385
-0.41871109422424979 -0.018060072301807395 0.76047672853917447
-0.075641800923428093 0.26338705528431205 0.75069630299293522
0.30572851009243251 0.83914787117453216 -0.32640269954333689
0.027199919679734563 0.87080227877444827 0.61417727622580287
-0.46260174383409947 -0.44347337335631209 0.64986890954236287
-0.58755630160769101 -0.98820043069935082 -0.39067785453772785
-0.61985471992245778 -0.042994500280087777 0.7556587944701505
-0.0075709090309103999 0.51913341096286558 0.77165408621232245
0.43970753504773086 -0.59997586170453587 0.52733773852850163
0.2552881290689939 -0.0022270012039768972 0.7624136769774168
-0.5716160947495581 -0.25182192595255515 0.7019116561692158
-0.066805741882305369 0.54131685674602181 0.75107717040322086
-0.45373834949356251 -0.77729011674608728 -0.38585743659837135
-0.0020259525304524573 0.5320130369324545 0.75324690671601502
-0.25948043163296575 -0.2766618148123996 0.74176454510615031
0.11444902285319358 0.40953383798779441 0.71031008342919222
-0.58155122766333989 -0.22833189454075864 0.72057881790232159
-0.5415521656949096 -0.59664487175365366 -0.14628649168253105
0.16892074460109541 0.2777618538830211 0.70599329363500374
0.019861686565057823 0.6302631586446239 0.67949642839147373
-0.83553101056286749 -0.54633848853899281 -0.20705766804695713
0.093787556575399833 0.53829918923003106 0.6799604395349661
0.40957079141556108 0.61415930038549504 -0.33328393187400707
-0.13763114699409584 0.76324824108303346 0.59816644485425741
0.31491020794557301 -0.50659856457491514 0.53199002444779353
-1.0150853465730805 -0.0058895996737646783 -0.10613864177361165
-0.94677978791202833 -0.96029952133710594 -0.50216557115516025
0.26491624781610668 1.1756474057286539 -0.41473083646587838
0.25407628686148342 -0.021607241915006625 0.80231497623799441
-0.38555355227109089 -0.40963101111640299 0.60679333730445251
0.18752119823386693 -0.12449306384786496 0.81348380566487322
-0.64687675681726375 -1.0034459221804468 -0.41067343267661727
0.83517938368532896 -0.36496874876078778 0.44012016825269029
-0.46342096301478364 -0.35286727333522094 0.67994391231940199
0.4865590292396007 -0.18517499021473327 0.73612903686876052
-0.4647468392193872 -0.36019354333780029 0.68288798852626087
-0.41077820132775855 -0.064778794999398315 0.78724386878297992
-0.46779122407347984 -0.37560193586517698 0.68586739820881348
0.29649692415382134 0.20144427252000696 0.46916522636587388
-0.2210323477533791 0.69424751289926689 0.60229217981390093
0.099585639030369322 0.85775872681929854 0.55206514488526182
0.18528964701650708 0.77632439815641874 0.42906664553294149
-0.35815262139135484 0.26261170857685556 0.68222569455269877
-0.21183916753471976 -0.48219982648592463 0.54479820530076495
-0.18195110619706156 -0.33776855014338025 0.68897824910555983
-0.53884558411117212 -0.36653812975157507 0.67826515542429888
0.091701186739889806 0.60321772336189383 0.67591749894273789
-0.95392094023734586 -0.82925748400771226 -0.42879149888648271
0.026272260545077586 0.34067607045730597 0.7899306671659474
0.47552058904135208 -0.52699892717998864 0.68332973124057617
0.31636534308075426 0.75288949357826596 -0.30084272898341169
-0.48164400891288039 0.018088423361632522 0.68468337444170402
0.25399613347746808 1.1521475344498811 -0.41146553684455967
0.52375152794222668 1.0724014816945839 -0.41766414936745377
0.11172178435660385 -0.28549444592471218 0.64056133250056746
-0.25903462720707182 0.44420805462596036 0.76455195057468472
-0.62526661960093577 -0.072018019733093297 0.7491806387126303
-0.6014940777769624 -0.15770472674537928 0.72590338920730346
-0.63260891078780901 -0.6250417637920691 -0.29506613729131459
0.60373296054161329 0.8848954293878819 -0.41286957784603828
-0.46810990119902129 -0.18427763255687069 -0.62376247999884527
-0.65390865879237481 -0.54207158305399616 0.45339441375631395
-0.89976951477449063 -0.59932138682643199 -0.2609460438517317
-0.94270522761387809 -0.72316147719249102 -0.39380936378182696
-0.37083590041226699 0.21609745943084135 0.73501922376163975
0.019115044198549924 0.30719816145995082 0.76703666373668966
-0.33068704986264663 -0.30698691663917543 -0.60575926076643327
0.36743695707167845 0.76660316432122499 -0.37789658668287984
0.87258365056950993 -0.24363110000598454 0.65394631243788126
-0.23828479295470828 0.7089111701818922 0.71046683117805287
-0.37537225395598739 -0.35776061271064918 -0.56324278517718085
0.75901264403260882 -0.318257552636112 0.71192335825395503
-0.37312580732438505 0.59512284331555065 0.6439235746737495
-0.18604841552333795 0.47674891285890908 0.73507872843595123
-0.27400499561980496 0.014042799558154684 0.76308645330362879
0.26264407293015779 0.058578867946039281 0.65203578998688272
-0.60860360572112882 -0.19455124789632805 0.71507897324573833
0.69365700007575981 -0.31791232597174712 0.69339392993305182
0.2746740796671574 -0.039301178961238747 0.78407754809177277
-0.87552810180792662 0.31074171935523509 -0.36462816038533674
-0.36962555386321583 -0.083793505348126018 0.81040855660000943
-0.70541203964946675 -0.54173450353920316 -0.15864300813984755
-0.72627825711060723 -0.587543843899482 -0.35918804130204762
-0.3872678375772125 -0.74961037905791272 -0.20994653247322503
0.36050638278191727 1.1071751901361893 -0.43095925364468712
0.28667279011296998 0.75695494256314078 -0.28344136270584386
-0.17807381429372526 -0.16802006842101491 0.6880650960987964
-0.29426057323075128 0.49789298630767576 0.7757146128492991
-0.68529070077583754 -0.46520031730261735 0.2793487624992963
-0.076306844741665714 0.59015795137975147 0.71608192028838857
0.56475969744394661 -0.1440043948452967 0.35513503813336911
-0.67203128677762436 -0.32308055503196442 0.68682646482972132
0.43262272011575931 -0.54448005888670536 0.41401211716720354
0.12031423002427521 1.0374290272457642 -0.2527524281228466
0.30548431658315423 0.76640281482133332 -0.31506075933964439
-0.28021128484178348 -0.6838286121730448 -0.21571197037098955
0.50796058111527076 1.0418176345137908 -0.46396918714918911
0.16817219854764431 0.46696048933600309 0.68234149625391183
0.17643285884949478 0.92657173276353433 -0.21705772771980492
-0.59494166493524858 0.19909034173679174 0.71383137950431319
-0.55607115108136895 -0.64125136842864094 -0.32018669934882382
-0.72381327609532775 -0.22954323338734639 0.70860893343791531
-0.046474308740648951 0.24675101930779419 0.75930271776252312
0.23744217376410148 0.0076620993920073488 0.78065179155646547
0.28951618894029529 0.82323223977414273 -0.38105758091995767
-0.68718925241675599 0.62821553248500095 0.10288764493736835
0.14103123109283899 -0.31342623190846552 0.63345399321713103
0.18011211477097699 0.99557802658995342 -0.25879363717723436
0.61375580791643358 -0.7002200051069849 0.57621164240157441
-0.0023129899643095087 -0.2963411440811683 0.61399025331292023
-0.39875821663305544 -0.63413958178347229 -0.16926165084316835
0.86086683880571258 -0.22559406916900571 0.65841004404961723
-0.31572831072610086 -0.013581676068838533 0.77034771309388361
-0.35062317071771076 -0.63750369895609538 -0.077184594028267384
-0.47991304515549871 -0.57534693085068511 0.43130555488312439
0.74351723557538207 -0.32780735564972474 0.67191280943904985
0.4095673263037245 0.89094156364458854 -0.35864508362692504
-0.21747538384213527 0.53877799108664703 0.64976513443201611
-0.35984203435670281 -0.23892634100411669 0.80787675686246985
0.11055094853378478 0.35566726835637041 0.73039524562659608
-0.41719986102427242 0.15555148499086613 0.79772779737743349
-0.91565388739535081 -0.53282895689562793 -0.22970828706689872
-0.25725914314970311 -0.42132182676328966 -0.48461717735472121
-0.40601970451422176 -0.24842490217301361 0.8014111515342961
-0.44583220404858537 -0.10332750330940144 0.81314535356779061
-0.34961728326436514 0.30725703811083349 0.63212336998151386
-0.81539972375399117 -0.93964054606630043 -0.4500611617714867
-0.33850286573447619 0.19222314551387853 0.79270763208450035
-0.5427937965714591 -0.34095619384646625 0.62080235132032158
0.51236423465594783 -0.6550664847770804 0.5199399629075856
-0.64721658556612738 -0.77815129111417036 -0.36536744001875832
0.21534173816531421 -0.16345879195205271 -0.46134406212746626
0.12695790307789423 0.91942142981895358 -0.32273415348117851
0.15950347215441596 0.81005906769348712 0.18056679057542624
0.17184015680757136 0.94909581612319016 -0.22259371310667575
0.28961504651322656 -0.062330693616246435 0.75703202460243801
0.28125228837745908 0.086067377276890511 0.54625001347409352
-0.64091336555294731 -0.1877408911467171 0.72024502452580919
0.84147101871503338 -0.23962024237366109 0.41835590013602086
0.41422534614291706 0.53028657968945936 -0.15476227974147605
0.18450827686906734 0.48044682601954491 0.61138443571758216
0.70786543165679916 -0.17938733602230172 0.38604746892241337
0.042479437549424404 0.82353875260508858 0.34271867098442499
-0.58366094826504877 -0.58865268285899219 -0.20094997094423661
-0.55502408595742736 -0.14246790471983672 0.74495138050599508
-0.6889392639385008 0.14316497951111273 0.77564876902323476
0.81041442985684853 -0.4751130447623666 0.62861046157280498
-0.34826379070220526 -0.089991680786965844 0.8055723470208136
-0.50294515223387748 -0.02929605860830975 0.76303683679890355
-0.85436396757053501 -0.91439085109539064 -0.46256975684832469
-0.33069880320050515 -0.24363304051877321 0.80298944842394349
0.45295374483563577 0.80731946633235907 -0.31945933536155735
-0.69801344479803618 -0.9416442353017942 -0.45589263816390257
-0.061621877987725782 0.23508063546913149 0.76000922615355648
-0.086413635604770889 0.3750200913603976 0.81204459021483899
0.1452626721699275 0.25795833974245852 0.62054090494859793
-0.93797258614721812 -0.83481299867310099 -0.44133574408675713
0.25360382732072573 1.1009554304262963 -0.41637115424657622
0.54882768801383719 -0.068294508401208986 0.38348432957178602
0.68005986666548779 -0.49439669824181465 0.70288093887802461
-0.17650988591350369 0.38563224224316173 0.76063671387714749
-0.62363374419075512 -0.57991065163071198 -0.1995676394906809
0.39344428214246108 0.57392635057783536 -0.084969669327676911
0.39110681875270359 -0.23905318988050794 0.15431043796405675
-0.38282756554050223 0.20189212482830499 0.65302322134766655
-0.64462339966704718 0.1031359590399461 0.61676649840489972
-0.057882402220130302 0.35864229523855329 0.81210726392390598
0.39380423879015325 -0.28831985889874545 0.25006470877781339
0.13130677509755628 -0.071274860654256145 0.74956639716685913
0.72386057041501317 -0.49336268832061592 0.68798817593011563
0.71020905113626043 -0.63059729392799113 0.59980000859303573
-0.58094888577403481 -0.77184710550949376 -0.41958584121198328
0.54874421855542721 -0.18471097200554709 0.73036040122633494
-0.66674095500752628 -0.74060239658160754 -0.35304738754018672
0.46078926886004545 0.74973236820684974 -0.26109376526966344
-0.12052051908887762 0.22562027703472154 0.75914344682308865
0.22081632970118292 0.82333546498909982 -0.20920021608401385
0.058891313707377435 -0.14895952679432867 0.76025105283792982
-0.24230914504591228 0.94143145911050397 -0.16622720596387808
0.38039624131411198 0.93664468571230941 -0.37100714709185922
0.40704755844652141 -0.4362422858684738 0.70758318669447817
0.39922363266007466 0.54372122776260312 -0.069045083402102136
-0.52043043779568166 -0.068176925978377767 0.73238795941307444
0.39578191339217739 0.85034911822407366 -0.34260487354697489
0.014530581872719495 -0.081936071200061633 0.75478201244555976
-0.11157618893216181 0.10137738528908358 0.74486896386190438
0.67503516067793612 -0.43912186434246792 0.65117007939551286
-0.21531052067575018 0.42334948541446238 0.76580905994694604
-0.10777332280036944 -0.33125370842461166 0.66349317732522195
0.10708465635633502 -0.20835041681976918 -0.53796968269637091
-0.089414858975729317 0.26860038448725732 0.75139652315425565
-0.18660036992830697 0.74193883209085243 0.64233158500576337
0.46243713548999565 1.1328256601110525 -0.45889348517255257
0.36583661073586882 -0.22797766272958597 -0.0093938113565172898
-0.50001068430323414 -0.092691827071860189 0.7629611630362092
0.13603764161550203 -0.12101779734334173 0.81222937066957002
-0.83981600939417689 -0.84134626662290657 -0.4175518775974183
-0.38200304942527907 -0.72280472921943328 -0.21027053153721909
0.48143445186111755 0.67782016406886214 -0.32741943594271561
-0.31112996348663557 -0.53084212468311875 0.4287598604406071
-0.16544929661446872 -0.45364451253723814 0.46240009328857923
-0.012014418094977941 0.22828921410703629 0.75381400556801736
-0.19963961115500695 -0.530791880996901 0.1772208684840848
-0.68985912998719812 -0.51892765227120208 0.065092719888298234
-0.56444797794654278 -0.22130938867348959 0.71092786144629372
-0.52553754518463336 -0.071931282283486553 0.75208336399492737
-0.05032408060978355 -0.31016010298128549 0.64459410138209705
-0.19791095002627812 0.95174203131608692 -0.17941306321699813
-0.5120686728899102 -0.4130910859178698 0.6616699923968099
-0.73126629908917096 -0.051708572241238926 0.73175324759660043
0.16195708393483699 -0.0049143153252373395 0.78893823610383151
-0.44619768250086622 -0.72836959566882342 -0.30390946909744798
-0.77343293348086206 -0.99729346822050502 -0.43051020813811647
0.68609707898581007 -0.33479021823652033 0.69261551603892713
-0.069678572272366068 0.46603498585383818 0.80095803877770777
-0.27077782609816836 -0.35496236417927207 0.69665101453364286
-0.22340875612047029 0.49508474340092334 0.7529916889782271
-0.83612469536768685 -0.49651734861259911 -0.23619258169020441
0.44026684803547766 0.0086250753140575398 0.40511012130144763
-0.46016990742978692 -0.6033732239947085 0.14189303257194297
-0.21078184949357137 -0.1518328296190532 0.7569117110107868
0.31342235628448378 -0.095065684625126323 0.74185855923246891
0.46840487176478618 0.78582967512554092 -0.29582565886386192
-1.0184429668949591 -0.67592197905014473 -0.32790564479586237
-0.15858168451669741 0.31434434682893198 0.75758709577729633
-0.46868587576284426 -0.75077806352669541 -0.32783865350592123
0.76531115961869034 -0.40794233827577386 0.68892839251537907
-1.0364135391096241 -0.57967663382731871 -0.2928841498828092
-0.32839301193985904 0.42680472153782034 0.79796176418818732
0.13811932019304862 0.84732588674563658 -0.37013508595094891
-0.58309303734161233 -0.66164253738736534 -0.32835930687360815
-0.6825939466927764 -0.17815595896828995 0.73519631805146446
-0.1370540225516379 0.6381603452473712 0.72529985759717874
-1.0012188568091958 -0.1047525358673056 -0.18016797300714416
0.89203219992537441 -0.34645619660446414 0.48958486807509871
-0.25153885295539169 -0.028560892646112279 0.76045165680608307
-0.34642946185337564 0.59525209891302211 -0.59352397408451907
0.28819797091338728 -0.25176792211252064 0.73757589608788976
-0.00097742227330854803 -0.32384693830911715 0.49315689834986642
-0.24035625524469717 0.93876834227825157 -0.049073813403879285
-0.40590719699366673 -0.75755150258351023 -0.22655332832869135
0.11388758886438666 -0.37760639392033113 0.29421929257176771
-0.15010864440797889 0.21735614053093855 0.76025056999583285
0.11651224253809289 -0.33533454407123031 0.49900424370969176
0.44531140286910897 0.7477972218628679 -0.29334526586575294
-0.42225451486673649 -0.28700237795135308 0.77350449408248778
0.23719489585965903 -0.071710617299174828 0.80755999442123994
-0.19184174863023884 0.30760537976914293 0.76997482524598126
-0.11779046954161743 0.28284861279462348 0.75368802304058136
0.45848551635621115 0.93539846517649039 -0.39975125593440453
0.074415135065194704 0.68535163636479979 0.65425879689541944
0.047851310912363942 0.27929450423567914 0.75100630826079851
-0.048888108393644103 0.83404828409595666 0.28175724177526718
0.53447639850088358 0.90496940071923859 -0.35177771152063997
-0.88723564172193647 -0.056257425266778682 0.13356778469494657
-0.21971770421134096 0.72274425493094441 0.37961159011803147
-0.5436382994670339 -0.31971588050092237 0.67288882906160552
0.38258265699065319 1.1884943897597111 -0.42676101578808812
0.57581900399799224 -0.37929170495667108 0.33991107215916827
0.11947293368780265 0.40908268877299747 0.71405324393026604
-0.1380065936135253 0.45999828311931878 0.79363130785071689
0.34903905117849376 -0.31995732182059555 0.73269744998481201
0.57114491026679559 -0.69560961676941702 0.51484915619056437
-0.39211453615388336 -0.86078827528041302 -0.35014348261523764
0.31319450778069324 0.30296389776566457 0.52852484997566762
-0.30953345455263559 0.52673083867006198 0.60842590556416098
-0.19301276113163368 0.56749986259490015 -0.62025995225184261
-0.52728823419739967 -0.87891095753053605 -0.3598224353175965
-0.25421035770790468 -0.21248706666605699 0.75010708029299167
-0.66328769509225083 -0.5569433090144571 -0.10486189540853275
-0.69719083064859433 0.12091013187449562 0.64714070772390642
-0.69711719645906811 0.082552022638310518 0.62808225501930792
0.027365338891659263 0.8539836089238122 0.63384221980288658
-0.30545511443398254 -0.1344411601025115 0.8068781045783453
-0.042945154537214592 0.15974776707352589 0.7445107556837911
-0.56268892922761893 -0.087839807496322919 0.74803091119781584
0.48972491641049309 0.8017383023633613 -0.2863641502906944
0.17245501915294881 0.062245415527058867 -0.58349782725508703
0.089969270327614481 -0.15200962950385133 0.79514170807163964
0.12394506471883204 1.0761620777481653 -0.35093345245815044
0.24622811761430086 -0.054656091609018631 0.80615153006800711
-0.92293089540844875 -0.70322609748086506 -0.3799263618416262
0.010542565903428169 0.37784218336744857 0.80497896204002473
-0.26067480594088011 -0.31230940014327757 0.72297852729963097
0.13296084892760973 -0.28365968799138841 0.66891847368714252
0.034346270155921843 0.36123621175821086 0.7967877210156189
-0.061750257663160113 0.70498972565695794 -0.5412669632246434
0.18239581922891457 0.90497806235663347 -0.21379077518747636
-0.3435909423102288 -0.49388135503380681 0.60852368033147286
0.2519051389836946 -0.0023290938160869246 0.79022570571339656
0.52615795148230937 1.006932137173095 -0.45051050214300403
-0.25035717657221568 0.35182352942095463 0.77295237589413546
0.29057200906628111 0.1939625780165386 0.53957078692457117
0.00036463771985850713 0.83519442641488695 0.48330379332736584
0.82272070585780455 -0.13757229795461967 0.45104912118313223
0.050769744659675098 -0.35656583231892114 0.40088931067828071
-0.36093778433580326 0.65935778262391409 0.6943954031879116
-0.30344857464089614 -0.726778078641928 -0.19617137502723381
0.15509493028213228 -0.0699534946307665 0.79139310452148948
-1.0104261972840263 -0.72259224363369867 -0.35635590547155971
-0.56251746656835167 -0.36351488890653627 0.67385637572147061
-1.0040565593283119 -0.7621949105019894 -0.37431663085277478
0.75902887146706632 -0.36732363124303902 0.67061250608662704
0.175094835742442 -0.031152914222815298 0.80603048987308057
0.029768158337937223 0.67087556592230158 0.67049166819452921
-0.84361770527727487 -0.79489501120872319 -0.3941693167403173
-0.55121330503044419 -0.41841590472998291 0.65184210680178012
-0.73316995304443466 0.63036129061782731 -0.044311221098610076
0.64312782844207561 -0.59270411873413309 0.66629030751727214
0.015060192983654019 0.042034507934573639 0.74385919881996188
-0.36967629429248916 -0.63987073220516777 -0.14478130608341644
0.42969977343631882 -0.14283335121433538 0.15908742263206932
0.41009459745037447 -0.034313010650180331 -0.096525155869244372
-0.46501151790234019 0.038412668760344104 0.77110325676090952
-0.48589694973335895 -0.74047540869855766 -0.3346019140535077
0.17457152759779859 -0.014052487676082137 0.80145672003629898
0.59118542247740669 0.92947439254695041 -0.35007871066784446
-0.51911278677144423 -0.16457176441022625 0.77172150385217719
0.70798254035092612 -0.60480012667181882 0.45521276353400708
-1.0068444450402509 -0.075926596960471215 -0.12713498316537652
0.44620045722398771 0.71040620165416613 -0.22824032243397596
0.082322030603450003 -0.13684364826059436 0.76822600580516109
-0.4130234098262946 0.13774688972395666 0.80496515790201784
-0.7375783503266149 -0.94609141298059285 -0.4625651987657875
-0.056118136489189396 -0.1596542990583032 0.7601643983632016
0.5097248225954818 1.0786887314920932 -0.47549757817893124
0.51055653253037292 -0.43957929889154457 0.72234993706797468
-0.02660240203898212 0.25600583340329308 0.74468490272408872
-0.98293671532029947 -0.056888029425579134 -0.035883626200529761
-0.54434824980025098 -0.12219658147094492 0.74415329013288556
-0.97204297127624528 -0.20282686059726984 -0.15581346875455893
0.59652331545257198 -0.43136015189455179 0.35543177008275961
0.050848643515635672 0.37437143403002437 0.78823226984218309
-0.40091015420847498 0.051472235942981115 0.67105708154764443
-0.33936476007240657 0.62282764018021908 0.63347372744175345
-0.2701804812737123 -0.50091550801747076 0.56696726595799873
-0.52647996295542043 0.011880642901019201 0.7620636183029319
-0.72233452432043066 -1.0426707251474454 -0.4625272423639899
-0.43552290267475957 0.85850385678878638 -0.11775215148713869
0.10691430292614967 0.40490947965602686 0.73125816424607137
-0.015701353024780929 0.24981255429426596 0.75987041661448984
0.47114429588717144 -0.35652810593967388 0.32251958401769798
-0.464745946703502 -0.14638151969941759 0.80973300664112458
-0.53209897654650717 -0.63315131035193417 -0.29640356871118456
-0.45322092086908583 0.15213837317278944 0.79994863145776662
0.57615373418492766 -0.65915498510659631 0.43110664451313596
-0.062562827605884053 0.62282497379317192 -0.58325804869167541
0.27982206780513152 0.63451492107478202 0.37558139675036273
-0.1929497002682794 0.35606581619938993 0.76421719589382064
-0.23854024058273637 -0.15618212903166295 0.76314041422614309
0.13758056807144214 -0.099855001668714749 0.80407389027652698
-1.0787301158883764 -0.77046569327984571 -0.44586058914023852
-0.91013895822798929 -0.6408815449505596 -0.30692701602436046
0.098475982113583882 -0.25201096739792206 0.68507209789123635
-0.28789663240192542 0.7756574331647812 -0.45861520514893073
0.73909923830711932 -0.51624525895712736 0.66724219499025139
0.76163357175815349 -0.40741817997286489 0.68344554913204547
-0.671140380464891 0.076036822559785833 0.61291642706191851
-0.56287401321117159 -0.33652957549219309 0.68047737195837499
0.86975303310532581 -0.42221725488371931 0.55032962689784881
0.67786187439173773 -0.28307901416860659 0.36454326795529823
-0.77700405523363969 -0.95404272920143285 -0.46937854072535856
-0.63137597712363913 -0.38865800605304912 0.65527615619305379
-0.86255399526739041 -0.050857859090854163 -0.4281347404051985
0.86369900895307694 -0.13614097288859739 0.59695348424088479
0.20416644528822303 -0.15333745752360528 0.80451400170244369
0.064517763920434845 0.41410205257005828 0.77982261174281575
-0.26830365645200516 0.64189798971665368 0.60299648719734478
0.93728722336776826 -0.23312527709057917 0.58461085358010223
0.40977282978151663 0.80336953167170577 -0.333165563167654
0.64887721420730315 -0.45342880439369537 0.65650429324142578
0.28274609103002035 0.14938117979235699 0.52281482419886061
0.36026055511879918 -0.28123807322538141 0.15127048975227808
-0.30194651178456411 -0.1541064031524968 0.81181140921756878
-0.62770576624846797 0.36952586498563278 0.41208006624702875
-0.46532418959318278 0.18473061168486993 0.71157934571334636
-0.26737178657691629 -0.64660368248223676 -0.21568401447149199
-0.40697353294653738 -0.39272084153554943 0.68592405807856949
-0.28277967026798478 -0.12554136699927199 0.77990650724854049
0.77602095829180939 -0.48707641470690533 0.65508443812257156
0.77497422083933998 -0.41939620776798847 0.41434486242758339
-0.63187686734878667 -0.33661242960846494 -0.49949966539048773
0.16707123764383525 0.77093352030780693 0.56367171029580732
-0.91536835303070774 -0.26155382084965595 -0.049995185739874159
0.15064916741427403 0.86531631429039635 -0.35785103273099139
0.17544229309495307 1.163094715257472 -0.33794913406200067
0.70526089426975602 -0.31189542460427333 0.68074507849269139
-0.21008545191969574 0.53356181696429417 0.74716054387761233
0.70037335981822935 -0.3029944481409359 0.70511949763459825
0.94681271373211473 -0.22136969423078767 0.52855930797846895
0.37644806641635853 -0.55193614361613186 0.57207520155270686
0.35140916941228539 0.75254994160115984 -0.28452431217544927
-0.068731041046810049 0.18785131322655957 0.6691506263600786
-0.6519797808915353 0.59082565439143764 -0.43260911202685293
0.055578848379077783 0.83203080905579441 0.42122540929852903
0.2842387165202922 -0.15200361136041352 0.74935121460043774
-0.29740032272997041 -0.3862639656657052 0.62125038324012394
0.016252982334250987 -0.22013436046819379 0.71440665404645642
-0.68280415649535087 -0.086159521224033142 0.55803345519990444
-0.34771652098828554 0.22451834336314391 0.77979109883114006
0.47898666813109259 -0.080628348908874159 0.31437388021311108
-0.18535470488836836 -0.27248386417761594 0.72046161949208454
0.14630832186176335 0.86705685281134492 -0.12221579868383969
-0.79721501249969862 -0.51319394964144749 -0.1970792198561071
0.24950409889474656 -0.10625432115099898 0.79770423318757366
-0.19687221199751548 -0.034607593234511569 0.65165088407053418
0.13802883966577895 -0.01367389112212436 0.74548545712343639
-0.071633155859132103 0.3261906247208799 0.80352357488425241
-0.45710178971879145 -0.26347468440479815 0.78222984861599798
0.26450183868468002 -0.044028036868695608 0.79598880910555181
0.19150699737120647 -0.23649795386685923 0.73469999000434427
-0.92827639212944035 0.10160287162995019 -0.34248906926762857
0.67726553495394626 -0.61981648419336466 0.63949894070401569
0.27326551929647813 0.74166070209656709 -0.20872383299223429
0.68046992947154195 -0.40845036103453936 0.65719419070813956
-0.43657411222928033 -0.74279327390757999 -0.29005723467957978
-0.64498524351054698 -0.94673139948503149 -0.441751406642652
-0.43135935156891492 0.18597987998180088 0.71013233037058399
-0.51021623492779611 -0.22955756865511034 0.7630156008974609
-0.66257586117418299 0.17977866044913071 0.68240617234766887
0.32359890901721489 0.9273920115848 -0.35164100051622427
-0.47968139776124019 -0.038600600584658196 0.75801989827499483
-0.028981801674127894 0.50078885078104918 0.7848559926057419
0.53854015177799752 1.183960039983873 -0.50762668509855757
-0.35098600031434302 0.58309315963205677 0.79614609778212753
0.66038031823202914 -0.45975889096447986 0.65193279089220368
0.088465819758781095 -0.11800986214188924 0.75873293110066697
-0.032471422260329064 0.25246923642504271 0.75629850455720771
-0.54584184522511237 -0.099914170815111447 0.75120551159716342
-0.72419176798102569 -0.31697445699740001 0.47585430922720207
0.032524332515173171 0.5078172342094831 0.7603252283933557
-0.83003184621902193 -0.50451000495252174 -0.21475887505152969
-0.39518934318776644 -0.32642298086494748 0.72862427413127762
-0.15421688243593223 0.52308461982505605 0.74881998322081245
-0.55093479841424653 -0.35159026975520646 0.59307676796510123
-0.63322882147953408 -0.9460791523792409 -0.42201014034935724
-0.39818094864078546 0.36236824348037544 0.71934620712926289
0.41822932697859017 0.018558921213980284 0.40355831691846333
0.74784273353286324 -0.44087446422213361 0.68740706378559935
-0.30195125265669276 -0.13331842247103509 0.79979010102306347
0.079224995063704284 0.34030861610540342 0.72820899560957741
-0.73948083333902304 -0.49214888488268116 -0.005230836778309822
0.10400782137508457 0.62071342020539078 0.6658633806653711
-0.67192712451997494 0.18753288486374231 0.73548866240798816
0.45601908534349533 0.76348300956294679 -0.2903054126375082
-0.87041621991804163 -0.68855773515048213 -0.35988444246339668
-0.20675869945789316 -0.2210092950834337 0.73937541574724719
0.90381533440103823 -0.34713011966854879 0.56894261921456746
0.77388115763996268 -0.3492598513297196 0.70324628742162076
0.1161898178076104 0.94624010872678355 -0.22822304586577502
0.037615045023860816 0.86855998471776275 0.1824657656136992
0.54109556095663436 -0.24241653903754923 0.32601856912185667
-0.58679626879995794 -0.6466451236208286 -0.32370337972292873
-0.013329950767804633 0.58709712614111709 0.69584826223302798
0.17050210490859286 -0.11984450292339943 0.81557238778651708
-0.40093947974509092 -0.28768064186269271 0.77646665592163799
-0.11323127128447652 0.52896776671911994 0.747572101096182
-0.74049368905035351 -0.10669013014188522 0.63840608640805385
-0.87715247731067336 -0.28616713508426983 0.02979894476698064
-0.15440966132518241 0.41775662350275411 0.78006025257974443
0.29866970791876923 0.76628338457584277 -0.31189375035449984
0.16173079426168258 0.85283656002087582 -0.097481979658653017
0.28389991977342266 1.0575077254528651 -0.39180352202350832
0.3876651496266561 0.40161110900658059 0.036925558985103635
0.28096801741704525 0.12675841053885506 0.50124078071735312
-0.65215565510234796 -0.65530633265979077 -0.32045533030895967
0.29842192149248881 0.7380658278732426 -0.27128197078053518
0.39312182343170221 0.77805694756756338 -0.32525516971224988
0.34018227320552974 0.72446541987733326 -0.2579078104367909
0.76489144456633085 -0.39538773569339014 0.68484043689863938
-0.58911162484123736 -0.096537652396307294 0.7390474425346838
0.0031889252911980748 0.25059756105821407 0.75942952263557117
0.47727201623913196 1.1364936986792884 -0.53186723425596938
0.048233591969413681 0.66389687064017266 0.66810463627416539
-0.40688039124607656 -0.1121012845783298 0.81958614438480026
0.6783721018394715 -0.59121048849982571 0.65816365237600394
-0.18016334190463112 0.17211358494009232 0.76420800590000226
-0.72187762495336472 -0.43277580939397353 0.63149243016249557
-0.73144001159118233 0.0045495056556319469 0.63912480064709598
0.36563018406951642 0.35736451810947756 -0.2204981754591131
-0.74122433998331871 -0.285249437771256 0.67259244877953961
-0.25030886611082082 0.55416761251822777 0.76145188770692585
-0.31646394974974612 -0.19102909222044673 0.81621778540420564
-0.16989145422235907 0.56883561531375904 0.73741308060363053
-0.43380116498538257 -0.076904074803678668 0.80119680224890999
-0.26842991678817896 -0.081357016556921735 0.75568341782110338
-0.17021523477538381 0.13061003124923332 0.75883822984519611
0.26178683223767152 0.81991223081797671 -0.27792976358216492
0.7472708446009193 -0.56743122841609761 0.6227642408453562
0.73312283736464678 -0.46377507763278913 0.69129967741542941
0.49988571034540286 -0.16351632906793157 0.73247455048215215
0.56366245657959091 1.0352752085173904 -0.39575610948674012
-0.52541127773481833 -0.73478690046493966 -0.33897144081959141
-0.12572964869765713 0.62406631506760846 0.71866998067611121
-0.4712809902568722 -0.77604791315098964 -0.31602165174109587
-0.38588846230325657 0.16287229497473277 0.79524748064710593
0.31828205732769987 0.4104680655284767 0.4591061115780235
-0.054310980522558339 0.62789257136302012 0.70722702731103482
0.49780036550309603 0.67871002953199877 -0.17542108512816412
0.23687149011995068 1.0735099556952719 -0.39041677084225057
-0.9082847815322026 -0.79405800015024397 -0.41415664722558176
-0.51729581048289219 0.03956658183176387 0.77091682687563434
0.22360110662441457 -0.40257950643902518 0.40353454071674832
0.47849563387990202 -0.60445050422470104 0.44611790339371282
0.62254479522199802 -0.29165515965541999 0.34701363353786974
0.057837808987834194 0.47580073198710693 0.76390316250052592
-0.16840446230386164 0.26865044946285366 0.76681783179060403
-0.2735650047553122 -0.33682405257894743 -0.58841243818602607
-0.50641304862403302 0.18000532120873913 0.68395045732683002
0.47646650795231338 1.1713697224119244 -0.42666026256040368
0.19877354316143681 -0.39916662345268605 0.44613618260831345
-0.22884940504928153 0.20239114700433447 0.77809804112706615
-0.27281094812384765 -0.045334458002457723 0.73521448048899174
-0.47377091933964266 -0.7077408938522467 -0.29174047944610493
-0.019100527599270833 0.067681828604690963 -0.69390605757473622
0.68879741438124142 -0.67471887533781683 0.55057108719796588
-0.43678294577189547 -0.0390158625863819 0.76150459276612992
0.40013902745275232 -0.1434281061881677 0.73825899046397581
0.22667387613086021 -0.090966996366120156 0.80831571877598662
0.24473242004420115 -0.15218147944702309 0.78666609381167518
-0.80387097911789596 -0.88352278119572247 -0.43601166935860647
0.57914115198103389 -0.22761988852715831 0.73218147523039079
0.25308405100501119 0.024685015943674671 0.7251752459382601
-0.27778117078054265 0.39710661126881064 0.77576940976757669
-0.54341697525246957 -0.59805081395592197 -0.11443289037356408
0.72291955149857756 -0.42911941591577829 0.64948325410182406
0.37059793255557594 -0.074504066858310125 -0.22518695624557949
0.49606576140554726 0.84906342155466064 -0.34303994472327304
-0.53885075696921092 -0.56964090384326482 0.39459561548949296
-0.70016678295024093 -0.63131109203942515 -0.29827732883916269
-0.54320988935293713 -0.90567732520321442 -0.36308283717926315
-0.11799185670392376 -0.51172847696568624 0.017838304367728597
-0.35298734827331657 0.10113212672314376 0.79010344978900093
-0.94535577758251321 -0.64721160032064518 -0.30960206823596081
-0.2781590212147691 0.69691866850271822 0.67059922527670324
-0.11623406156611793 0.17611723169636662 0.75190779346064573
-0.64883263478938602 -0.056036878910816768 0.75985425542990015
0.089815066551011569 -0.17001681553256276 0.75343189544230427
-0.18793532067400776 0.37779239616773452 0.75499098843209822
0.26380730722986101 0.0027358932763945631 0.73683850512816207
0.07463841050551423 -0.29151328953105349 0.54486670317362496
-0.26479342687214569 -0.094197740077589742 0.75035884593944502
0.29945641809862877 -0.087624921917921483 0.74820590640263163
-0.36381403778932508 0.27499906212329961 0.61706245098690715
-0.23756502040840388 0.45089767436323314 0.68586098649922178
-0.95478076584496563 -0.84590181033877343 -0.4039561601097148
-0.46670499988539405 -0.7367485465931054 -0.32750099758931128
-0.64803083282237139 -0.53413627497604921 0.42149157158547723
-0.32264158492048978 -0.57068340244245519 0.23173276032855483
-0.0084798272213006953 0.21455969441876732 0.74968025285716067
-0.52215452382857563 0.10212824476116111 0.58671680815638183
-0.48881626133963607 0.13234596009226607 0.80826238735488687
-0.062244950078356176 0.83498528975906083 -0.44173217216467719
0.59776281699529932 -0.11196147714764493 0.70314381525429326
-0.79185292353005821 -1.0326289470905863 -0.46575244077109801
-0.38140326909346811 -0.014790921179326233 0.76544946000444725
-0.22992865727385947 -0.11295827528991254 0.76779583276260155
0.27677934383191882 -0.097501132369075094 0.77981124245161482
0.4268447338840673 0.034701266399110864 0.59702332730699936
0.65882639151907085 -0.36559750884867981 0.72531903646972751
0.11132581162180211 0.96652813366580403 -0.29520891501545066
-0.85915228639421315 -0.92222964463729795 -0.46551350962016613
