# XYZ point cloud file
0.053361195126890859 0.23202846967196145 0.55814135558154643
0.13454141562648037 -0.17317240220739105 0.54259854298435251
-0.022998849573676594 0.29944809004354411 0.51693137812707768
0.20920926957165809 -0.17518232741159601 0.68001243554551394
0.29005658582420768 -0.20526606654053303 0.68836568293862666
-0.16678671802316747 0.014568649779230114 0.70167342423965007
-0.25648881737562435 0.032100498780030406 0.50126682061810346
0.1151262076880506 0.13868906902613354 0.51977316072936741
0.087963706117678342 0.20538605642936858 0.52014849839537813
0.10296036694309563 0.093603555222584234 0.56447589256050978
0.018898640129100697 0.25314710324712664 0.52656821320604585
0.14025532027605081 0.55868305766365367 0.16300392866269675
0.13513469813842538 0.23562655396924015 0.41009542174263824
0.081524948838929134 0.51469185251091609 0.38714852758896434
-0.45962596847411286 -0.34983038266650013 0.18973426299983842
0.0031832563312648166 -0.062661854199268063 0.73079238113916833
-0.64481861077035152 -0.62040705169644905 -0.40610788754442817
0.23777828396023937 -0.1884709624533123 0.64262255651405642
0.15995719264522945 0.20148031277217981 0.32452997502826442
0.31756626967616808 0.99439491529681057 -0.41060309495826441
-0.040882389222360427 -0.20786624488107819 0.558115121315228
0.25874387125618759 0.69699227358128013 -0.1057507965463893
0.0835868211486126 0.56777935954084846 0.17698909317821432
0.21168719602460051 -0.17873916807423207 0.6927673711679736
-0.3350625300885377 -0.10728827203352864 0.52340836538838076
0.08733011178776251 -0.13120926198059379 0.70587797271832464
0.17134552308991413 0.92810012432300759 -0.4157874548272007
-0.17693553420254693 0.011238872993656557 0.69900511334477589
-0.74252041527028534 -0.76761672500360678 -0.32623809354933853
0.44867995253962389 -0.30780656778320115 0.68403479099467202
0.33170900681771975 1.0028830326424618 -0.43372751831141354
0.29287314510136087 0.61294067945674868 -0.060430882017590726
0.11513314173350109 -0.17888189146421496 0.53706711553495357
0.024679006626977085 0.22342998133977154 0.56802326321278951
-0.51231964725676526 -0.43668079997466513 -0.10496206884462245
-0.5920195609588097 -0.53969617309642359 -0.36103907121602052
0.3386413934892738 0.93673896234181342 -0.38370144796359718
-0.0048261401116034275 -0.2108781032756486 0.57127381667880872
-0.041599191736772623 0.3465304971051264 0.60218289358351917
0.066306607078901569 0.32857944659049565 0.4823142376210896
0.020286528219475741 0.14358673693763002 0.59917854557656636
0.22731418755650568 0.54580052178308236 0.035480404893959872
0.1648594482694552 0.51793267194151937 0.071946066439661394
-0.55239382258214587 -0.50381797465413136 -0.11908632798972318
0.085310914192073373 -0.098795206433312188 0.70040261261105297
-0.57632417645751888 -0.54376507098469951 -0.11411384551353176
0.23726182286336539 -0.18393218354730401 0.66312699951163001
-0.12363062641183498 0.14948927306463666 0.68810626769028271
-0.22064617333305647 0.011028626130979546 0.65892321732875558
-0.75879788936610981 -0.79051723963259679 -0.35727300045605448
0.00274387044019897 0.29855112870389355 0.56318820226346489
0.2205523178283102 -0.17411903610105917 0.66687690759952734
0.2617691494504526 -0.19986473893725609 0.58493526014309527
0.028179986122909284 0.15713870009885511 0.27739300114638255
-0.017820686310708655 0.22554034195038497 0.62348472940082456
-0.047014022191338878 0.31020233522942764 0.61853908037029459
-0.16542274773771126 0.033616734283469896 0.72146322315927947
0.32630995913579697 -0.28076858227661106 0.66667311239890115
-0.20697146907377606 0.072309903735794379 0.62887324391349342
0.25669699945811053 0.82650509572770225 -0.21916176745135196
0.14392040696359643 -0.1440485498008659 0.57656244201776818
0.15672477822820241 0.48795274791625687 0.094019499947942897
-0.0020904164723052343 -0.083895964297676429 0.72862647681605885
0.25711792170898828 -0.17836216496237967 0.63405596861790414
0.059630215813766929 0.093938033342176652 0.60718267608682197
-0.023772834997581649 -0.067441172101792901 0.73593433554979804
0.39771643283885938 -0.29356319597500757 0.680664214229731
-0.1203383740877193 -0.081288342341236941 0.64048218227693088
0.19252648723257426 -0.25422325428826653 0.60046838896055466
0.052899887539611834 0.42267214618187587 0.51423724508587654
0.17277563643725635 0.33751306649842761 0.29819564551607947
0.20177369628309139 0.55102352000312393 0.03922730458161805
-0.097757034098879148 0.098725987106263347 0.67451954496738242
0.053080138925023945 0.13201534625434164 0.32886835898967082
-0.29691598068292646 -0.075588932565727518 0.59663743561825378
-0.58183731551436413 -0.51748953316070612 0.011274452060520801
-0.010690071306254545 0.2844453874038102 0.48503481185630903
0.20445503942270138 0.3523680948177077 0.2143627286525378
0.1216135846617481 0.52636481801780022 0.29752371451404347
-0.034707961059816439 -0.062589265142726447 0.7243620427344597
-0.044085601888065984 0.20112213784633859 0.64575493735012746
-0.16654298964380954 0.063911371365492187 0.73451606566616512
-0.12615957090845109 0.018367946508867306 0.70237154463852036
-0.45671841669892865 -0.49103938730513974 0.10330754994284597
0.23189818886190716 0.93353626301921899 -0.26768295183544666
-0.54525572988265836 -0.48260280771472175 -0.19928508738588002
0.39476559308280601 -0.24434651628825321 0.68002629398707359
0.43242929029619503 -0.26631172415986271 0.6511845246091843
-0.53393555283881033 -0.4772811750930277 -0.21543703461248098
-0.71420551756589035 -0.747988114821446 -0.39641985852712702
0.25773785205990629 1.1092676638762811 -0.53300358891353294
0.18249693274732248 0.37518214996735288 0.25212872728206293
0.049717058528312652 0.40599650699442158 0.40949500096891978
0.24315966390540611 0.45642037566612004 0.11028421568592783
-0.34735842014820495 -0.1415923612428216 0.4539425327747626
0.066482888115076078 0.23821745835932262 0.53604690926119414
-0.7790784804881441 -0.80619414661453526 -0.38852943982245458
-0.24961469369371203 -0.010069802927501925 0.6470535002967539
0.0089087022823697293 0.29217318663478764 0.58861684258608982
-0.11427777245196946 0.037390592386337573 0.6855894401766065
0.18129697600129324 0.38819949124975928 0.22870399440500755
0.39969729991387859 -0.24403372209172858 0.67408940642942561
0.27843482009787301 0.95343019673581075 -0.33590980463045117
0.10579950923170345 0.37519718819098635 0.3971308815832657
0.41349481392130949 -0.25616630825879305 0.64382031996072264
0.33013070225142793 -0.22606600113677189 0.6685006060566856
0.18077700656877083 0.5296652808788842 0.10994995063799617
-0.36495114075631108 -0.37226574423327463 0.26607312370921044
-0.55655979369514164 -0.49830106364446358 0.046485279810500657
0.016150201464512737 0.27509001197134353 0.57310556585675343
0.058240608601357158 0.32662099173147219 0.49454093736592597
0.25828005596504733 1.0572885626158381 -0.37094994062051789
-0.24552939519958539 0.030646855299954368 0.61446148299203696
-0.19049023364705531 0.12274244415624125 0.62691002968615273
0.097553173880194244 0.1643545040967247 0.52922083405466047
-0.63494471167454014 -0.62156297665702098 -0.34201631978137925
-0.181856461830044 0.070833794176431653 0.71167400913903389
0.030286654208724118 0.27466533514907532 0.51922766403013565
-0.76202689028466986 -0.77934518777300443 -0.34047119655353608
0.066611424897738081 0.19366630555374975 0.56087213537488534
0.34608914999557117 -0.2652516606842763 0.67839543942642155
-0.23201945001279967 0.019575652252081355 0.65254267659073228
0.28011345414845601 -0.19778728978058346 0.68050630164432047
-0.22398332903489448 0.044173904793090912 0.39312728866055124
0.044772716699385207 -0.08196571770902672 0.72689925399191502
0.077954297722376387 0.1098115292980566 0.59308889669611453
-0.44260530254533048 -0.41680231502206411 0.15819096198208271
-0.48880839946011578 -0.40098035948288491 0.12176820079656459
-0.08977165784709995 0.15642407095620925 0.657232243747365
-0.21351085744491671 0.10081493665060748 0.58530047415676467
0.31805507082210327 -0.27046746868973592 0.61687749729656538
0.017051701902565775 0.057130823841117007 0.36450240154149682
-0.60320447637905028 -0.57686561182885043 -0.23344168809218191
0.054863297807610012 0.35552632286183083 0.44088155298398402
-0.17150612379288233 0.12727874492571978 0.62322962151782146
0.21466935650119767 -0.16038112392224946 0.67113198461768064
0.16654565377396824 0.24500170246359687 0.38126495000510729
0.27610153374203961 0.84586152389442226 -0.24858129156505626
0.12849974177809576 -0.12007720156509194 0.63592849323419021
0.22832088864192612 -0.17576345620016109 0.66333486918708662
0.19621466395278664 -0.17247427698207041 0.6971570534039504
-0.44887484916312337 -0.3323643306346824 -0.080032484444379381
-0.5587187652532104 -0.5115859129961482 -0.1495133525477641
-0.24895978527099194 -0.13798613547708882 0.51665131296638922
-0.13674373913898652 0.21052273471732974 -0.0062004165540683331
-0.098985047797351955 0.20736787255703959 0.62737273237744073
0.1167953425052275 0.20104966824349724 0.47002573432513284
0.098057379479374651 -0.19870608421325109 0.5428662701043141
0.1860669684806453 0.70824439152512042 -0.019433418301287197
-0.60479593824142519 -0.56368895599587532 -0.35210466956059694
0.08807150094944971 0.32677597961699334 0.18067188782955412
0.076783292876898557 -0.042679015543361842 0.59740231874587479
-0.20753193547261972 0.05020187069767168 0.63445378181638379
-0.23692831460676622 0.0010947878383742449 0.65953451192401769
0.14832185987198154 0.31229380515207517 0.23940955628268323
0.092144962875913672 -0.14543379328221739 0.61663639241612955
0.27724702614145458 0.87827647892391347 -0.27754440650516088
-0.041578487519950524 -0.05657236850122338 0.71467548673151882
0.062175772907537841 -0.11189782640138901 0.70745271875542137
0.37707479259831023 -0.23322920938378466 0.66324897289612661
-0.071534083703712392 0.03022623752572251 0.68793627090976361
0.079191750633526237 0.47034618427579034 0.30221967580909315
-0.72476880206151373 -0.74763186281553384 -0.42770709162582898
-0.24772308908105867 -0.047949549247201517 0.64826901413507887
-0.69388079922390533 -0.70459768966369651 -0.28757042099234331
0.12195955002733516 0.30378019612699703 0.39760718377591875
-0.067794424183291735 -0.10841909286978257 0.66883496245147978
-0.13306137576587562 0.051131863415568191 0.72020092151165471
0.20266720779553538 -0.16431422930446082 0.58065990423875125
-0.44603624417858745 -0.31997689257776685 -0.25454942428309968
-0.0092452214776519437 0.25523962393417676 0.60560500899403635
-0.61350622333002702 -0.56905951091024853 -0.063375727016129701
0.0060205449237089592 -0.11069241044117462 0.70359327411705674
-0.65233005081103457 -0.6471991827588699 -0.36346868799502952
-0.22523799188220961 -0.19325294064017307 0.18848888698949295
0.15731430509022681 -0.23088811044398128 0.57169964871747325
0.12345341210945704 0.25057508086273117 0.41861432505223917
0.22899249222137974 -0.17948799622126721 0.65860779865283359
0.019742169620951655 0.224732872121292 0.57746348339066245
-0.17971171046259404 0.078802406542529013 0.70321906310159576
0.079270340418806651 0.10727084887113314 0.59198400837099019
-0.21797225262283781 0.0036801623398492467 0.66680619782980433
-0.27635272362685148 -0.011908178406356384 0.44511113009924674
0.18050225918179263 0.42897638590491916 0.19652877267834956
-0.50483101649375151 -0.52484356837742929 -0.014105335137801767
0.074483188393441813 0.37559360869022562 0.41758999508371453
-0.054369896125600281 -0.21269490346358211 0.54775440257056207
-0.37519849290379081 -0.20711381472510304 0.00069963289816588059
-0.074255348869737503 0.15192428454689555 0.65708377579041333
-0.033899136972469046 -0.18957602365882842 0.55049102373186454
0.20646303097414798 0.82346467740099705 -0.18297007339658222
-0.021102688585527218 0.10234570659623543 0.26573674539506875
0.28265670998445169 0.82780536656366976 -0.23688819161767505
0.32312005246655007 -0.22345549080821669 0.66910980742671988
0.23228824085292077 -0.16956639823078934 0.60271080387081
0.10778972418482402 0.15009603229693447 0.37594507072934924
0.0067254333100368324 -0.088969629617302814 0.72360505347592508
0.082196252991384888 -0.025835539542860886 0.54624399991622763
0.22264224308852598 1.0406522157624423 -0.45618462464301324
0.072684232536943449 0.12623171581680559 0.59079659603151491
0.25250296307520981 1.056726218321872 -0.44682068901483873
0.1215643105279649 0.21563489320950957 0.45612245187818257
-0.19730046709503068 0.072329780009271261 0.62898721253130319
0.11446294562834458 0.67390689410087923 -0.0019604846919660801
0.12210799295516983 0.2845114672573672 0.40982856728458206
0.073588531702435844 -0.05707883872898023 0.60492320418855261
0.061793033412736564 -0.067457329147005751 0.69344578529586354
0.30621509939635505 0.84432375894939149 -0.26949779230723792
-0.57277343673040004 -0.52216535406025066 -0.27079248200742567
0.01149446286672795 -0.19674952027319748 0.58225854296197266
0.43610229639822617 -0.26679807076086703 0.68642565320684756
0.10475836253575288 -0.22270116976443788 0.61501002168130281
-0.24080709900082731 0.024298851160013513 0.62880162852448418
-0.66678903217158481 -0.66486054712055598 -0.46596237344376323
0.17881542359812963 -0.15997350279251332 0.66095353976904558
-0.23082481059428717 0.03773125445670189 0.63061467652716097
-0.54845394232209976 -0.50774914304874663 -0.19789652317287798
0.2707846765851778 -0.19429096064597751 0.64339176918806107
-0.219218664429917 0.071216340570407155 0.61637750428816673
-0.7354383946391676 -0.76563911857022315 -0.44300541768435187
0.25040558853628925 -0.18618579221691611 0.67065811986977675
-0.50642776107226029 -0.43230772286774766 0.077391079766397475
0.14783113180014307 0.56291236040957493 0.14554309445076186
0.081735371478286911 0.53110477637285669 0.23885230846218253
0.28730114565902354 0.89783884560004701 -0.30160241615133376
0.16718073371632869 -0.13138568662717276 0.66211236485455238
-0.10939429239255927 0.10363224736913956 0.69861055247067139
0.11248680835480851 0.14761827057824739 0.51590542104298187
0.053484135336888894 0.21777940171314825 0.56558801370906409
0.23933522698236986 0.7145957014578439 -0.11194733953285674
0.064919667782686208 0.31464408496470675 0.49050858556719401
-0.50638691007433101 -0.43375027820735568 0.094132873407628104
0.020638175813389781 -0.21197776706950577 0.56310284859595061
-0.15506458559344893 -0.027848061639163646 0.69437878179658608
0.29853621070176284 -0.21369261410173834 0.66478313756389085
-0.15583592813929492 -0.10715785478122619 0.58793737244029565
-0.2349827119293848 -0.019019078698999436 0.6347173284696126
-0.71592758921532296 -0.71103318024006334 -0.23702231301701904
-0.22296872260836631 -0.31925869454410183 0.33695086814330555
-0.65076904642633826 -0.64505998689846145 -0.34183639476644023
0.32966538426595671 -0.2246147776343328 0.65429416859872092
0.036966211500904178 0.23426185099440211 0.5598723040032727
-0.13762446970271291 0.13583518356534263 -0.020420119820479421
0.099226548708289286 0.077310458445364105 0.57787694859289829
-0.055679072275252706 -0.079319795146480132 0.69766411136239537
-0.62160346486736717 -0.57679299507774218 -0.045296022208713982
-0.021336342946588482 -0.059969192266317251 0.73585379943201623
-0.12245570283916862 0.16617611390613796 0.64464958392230898
-0.22197034273641436 0.056584485511592675 0.61943042955112393
0.14769606421532822 0.32066327749830492 0.23508750557920521
-0.17401146741210871 -0.093216822143148192 0.60362566917981386
-0.41410434198500123 -0.27330531477733899 -0.042911558868906852
-0.47819618815236353 -0.37979610955254373 -0.12562289621540845
-0.092072433314160929 0.16152602599918708 0.65231876908271502
0.020141822750083138 0.13124428083630946 0.60790411449789872
0.17051972135410742 0.50209773818663272 0.081845623673498125
0.16194824317879775 0.42759218734151183 0.25228411846244025
-0.25804366706716619 -0.016378581992260166 0.63954508240314478
-0.74498536237683832 -0.74288983081665627 -0.26973871543959849
-0.096108955764355741 0.23662392418296285 0.6198325621802816
0.086086108141377737 0.20207341984136029 0.52588187324798508
-0.02564607869311053 -0.14591697837032847 0.58494694639666278
0.077476583023438739 -0.082029652400933628 0.69922187342780173
-0.17997602501854604 0.099183977580553417 0.63755786321242436
0.081043483530462535 0.2571452086387005 0.49511778353470337
-0.64616637866117088 -0.63897488352269249 -0.14864272313520788
0.090306383994727568 0.21088453244022709 0.51049958294741327
-0.16697203428325258 0.0086131690770070435 0.70651291725848431
0.097902517122328003 0.10496067664714026 0.55812439445840756
-0.16981371740732865 0.11706199038066245 0.64596864339690097
-0.49226065400367114 -0.40675869661633257 0.027081025084381594
0.090859034439848552 0.029946897652770588 0.61048663038901463
0.11549055224121685 0.27299779485431586 0.42532510292666359
-0.50357414458422012 -0.41474198470448798 -0.17587919352562009
0.11558068875296024 0.18224621473337876 0.48502131182123698
0.092148283872739434 0.18770300241945392 0.3065325947987434
0.13400293359701321 0.50594412208555006 0.25662043675410651
-0.074179224364350871 -0.14200342874045013 0.60985889978183661
-0.23214111859424191 0.08892871313770101 -0.34096702547187974
-0.79597238237261836 -0.85028491799515837 -0.51334887578731392
0.29732803184629031 0.9273851677577909 -0.33342408936766788
0.077803256769896301 -0.087160409364226865 0.71511460546783034
-0.24361444945107724 -0.030790291052158025 0.61702129610893675
0.022498957449234691 -0.079013597870773111 0.73268620297369313
-0.76049067120591762 -0.76977192471871358 -0.31213503225690298
0.30199226351319819 -0.27653217234446359 0.62497391780707456
-0.21923004609037267 0.022355113710625929 0.65298633559580743
0.17884293585737354 -0.16373639388995365 0.69987659671975155
-0.22194600597095415 0.02069404568489297 0.65576734984040552
-0.10742503863937003 0.13759749092251461 0.68485916642433065
-0.22794042931492808 0.01663506730724329 0.65919250481579628
0.095621508367855101 -0.016305102733431553 0.57850557411238057
0.12200785900526445 0.52669614729306957 0.27152127628360301
0.17628685726097748 0.39988723946791005 0.24338084978159813
0.18323758272359303 0.35584039327796368 0.26338873472153335
0.00043172264568003271 0.29533868429199117 0.51065909433262835
-0.25816530542741045 -0.090777623603282009 0.59841274787891496
-0.17919272795937347 -0.031832697871708504 0.68469983369339271
-0.22716709117714751 0.034980772599912058 0.64304197815744146
0.12673537431255988 0.21570254743469164 0.45107341270693002
-0.71551691742168511 -0.7357058168506363 -0.43670679336350737
0.059896052592506521 0.10279149101203977 0.61162074589714965
0.076204269408614689 -0.13589070868661146 0.65213072487975055
0.14028137573657862 0.4009236939758889 0.16351115410045924
-0.079455690968171844 0.20651218798136206 0.57239689105733316
0.2876954265563656 0.91028718030021949 -0.31099518726668229
0.28650187513599223 0.59512731902339766 -0.026370059958161995
-0.079665993973180305 -0.087322749732962279 0.67168088420394589
0.045427815419473161 0.32761013426484453 0.51449120613233301
-0.10694486583483442 0.22134303973577474 0.62200342809326425
-0.14149301474517406 0.16092692713082535 0.63048089273784669
-0.55853945167075558 -0.51373610887808496 -0.12960759301847258
0.22529483409674467 0.32705610222557269 0.21471977927413199
-0.4703178727207229 -0.42554300272103873 -0.13449179658279764
-0.3273878771098282 -0.08630352275817188 0.46128558058261593
-0.55095849177969303 -0.48550429106358628 -0.25658067397767148
-0.65817520479825342 -0.65483748050402824 -0.39175676704631623
-0.015737736264235691 0.26653472189987681 0.56548647805228303
0.051123743712042646 0.09854504632803085 0.61161332790165179
-0.50806299697469726 -0.51284895256583596 -0.077784482061628246
0.1392607690893608 0.36711647997219821 0.17785757807527691
0.4665076522048146 -0.28119074552193091 0.67932335679986444
0.1127629678027553 0.49946718797064804 0.34418706250030606
-0.52020685668279265 -0.51745692040253388 -0.093779931939172556
0.37942356851931436 -0.23524091824937443 0.67386267595823757
0.1086895944648314 0.56140408080954529 0.30706358286044555
0.057269610003372273 0.30635576591418356 0.49331241738979514
-0.074021628312388899 0.11506354578958344 0.66589303815693857
0.078461925923988485 -0.064656302382903874 0.6553167093646115
-0.15608554351854687 0.14250763863371319 0.62926044494883548
0.31078995900069373 -0.2151405290225803 0.67349158142395549
0.082762093177357388 -0.094878710927005727 0.71096653294790446
-0.13452966821564871 0.30525097343087992 -0.39787274859059707
-0.1115338287466261 0.11466074076384736 0.71026778745726471
-0.47802255652386583 -0.38123716530615148 -0.062414046045225824
-0.57170001306469365 -0.53761130330196671 -0.22140195958489395
-0.57226945782350969 -0.5105189006047528 0.012919241298667838
0.27598897203087946 0.76654767375767285 -0.1773449724690499
0.14094765648090535 0.42809160401085045 0.14350627528046456
-0.12154681285031277 0.011479403093783702 0.66835756817392689
0.058222969126752844 0.38131905192306981 0.49108571571969062
-0.32238331105945317 -0.11277240511983067 0.29695124608092804
0.091507101471764996 0.30181272659199898 0.44819026664147188
0.11573941353047634 -0.20357327847460382 0.62597957448605435
-0.20812258300638131 0.092930181068692441 0.62196564419383371
-0.054403851168527639 -0.17980850734266696 0.55769004775058573
0.24581346313569696 0.87880783600480861 -0.24789356104752525
0.14202038434008823 0.42125506443855976 0.1447440183059987
-0.53693948781406764 -0.48095292283147018 0.064374118908086864
0.26457738367319683 0.56900758863027434 -0.0021481042706366082
0.12544765542123937 0.10929136779955151 0.53031346349398856
0.20607316606217707 0.70091151948964914 -0.078038157008665898
-0.0042864163897053942 0.38680315299040124 0.49824971752727443
-0.57051656868755707 -0.5358022314574189 -0.1113873765433846
-0.16635732031036121 0.16427469578767084 0.61090158557261898
0.022224997211835795 0.10839060425570857 0.62156781498194746
0.072796391921003956 -0.075835365737061622 0.70379953596125056
0.15354160730776978 0.48684358733116895 0.081551404826948115
0.2190522641367636 0.97897513838660011 -0.42890419365264432
-0.077079045886843556 -0.09671041299498917 0.66913223047398329
0.23011060973975273 0.77956265752706955 -0.15605140383900373
0.10560143791986709 -0.13868982258546581 0.56533627557785593
-0.1285480740648941 -0.070489803508850812 0.65467218657897064
-0.5092264681613794 -0.43718001808309204 0.065681450442022005
0.45956035771984127 -0.27782648858055836 0.6821293857953199
-0.085935855365800062 0.12063767330475272 0.67248661329101012
-0.48006800220261381 -0.38734717640859806 0.14625211054136766
-0.34311294823664795 -0.12913260135184856 0.48104200717569778
0.34564989683503722 -0.22972006523750288 0.66720751704096148
0.2009851120152859 0.48144995973864724 0.098067667945753279
0.078092144139467301 0.39506656110107841 0.39556903323924608
-0.16264518746132284 0.056227837364181354 0.73780374444496832
0.086885209803137631 0.080318630367258947 0.58699649941472654
-0.036384205713344553 0.25084289573022822 0.62626345923665738
-0.51237333621196379 -0.4233405085253068 -0.24450926972175191
-0.50896136715726348 -0.51086719102967315 -0.011679717489238683
-0.17002531679519461 0.066037849870802745 0.73144143097705605
-0.12139603074158223 0.13642396150840597 0.70861761405969581
0.016086641588808792 0.32846108368624627 0.45653643289707269
-0.75658168746778331 -0.79011384863621803 -0.40067212154333776
-0.02513425506780842 0.22872978642319453 0.62240610015722009
-0.22129232037700142 0.03269984506212964 0.59488839615793498
0.0082492016300219628 -0.14585804822363002 0.56456341278337785
-0.64917723191816235 -0.64127691154423339 -0.21809288746018796
-0.31202746085216804 -0.40393963449632508 0.26838520928182774
0.1942596958901015 0.73719347516573741 -0.12341592645920318
0.18274459572051072 0.5012748466622039 0.12848253544937815
0.21405911441038072 0.73026219717433882 -0.10565343130290827
0.08209542949589288 -0.10094530986573069 0.70471591818483681
0.075533143765944111 -0.057048291459341982 0.6215468478725148
-0.15219135261156147 0.15881628720159924 0.62598622568801687
0.31409950096262262 -0.28607990538655415 0.65231787726233037
0.10188251768812551 0.14112915549164384 0.37478382830228085
0.13048479613480835 0.12840422692779896 0.4995252240407817
0.21187532520646579 -0.24450423152573109 0.64479120799509992
0.17139579048920006 0.52951713295140479 0.13118357452522211
-0.50816339997684823 -0.43426878827288284 -0.031892161757764548
-0.13643906192180721 0.1535970820543664 0.65032786035151258
-0.019474282589647007 0.39655568867426538 0.5565579025104519
0.36783183889957538 -0.23270490903442909 0.62818157887412251
-0.11212797004511899 0.10379460542726626 0.71037904493995718
-0.09575606895443789 0.19248560732396136 0.64348186452580958
-0.75405953671616599 -0.79232888724158812 -0.42550791815682087
-0.16144042747976362 0.045619133061080674 0.73703449024994505
0.18117661023942877 0.36380469696608131 0.20033671468835479
-0.7529319559103107 -0.78406934194268452 -0.35427288175212945
0.01634505032700484 0.11091034585281712 0.62414290155475971
0.041752377569547861 0.1726214581156551 0.60011725843375086
0.071551256298767463 0.048330298841014141 0.58180923232016468
-0.72122876709020978 -0.74688163377200478 -0.43916404106624185
0.26673891803215799 0.8510284313896701 -0.2469395167514925
0.13458265736168951 -0.18229478522244236 0.63437033531393539
0.27160176765147725 -0.18543217993214789 0.64577762356580148
0.035023961236872125 0.24327983495398087 0.55219414028716063
-0.5054645808529088 -0.42868791382412219 -0.050406981045456156
0.12714120010924823 0.1972117554163102 0.35197498773751601
-0.072756460008383428 -0.22207176155223785 0.53230229918440841
-0.018000481222026909 0.27329158717764379 0.50741053397520552
-0.034475481514648632 0.34298431554218567 0.43442604692757136
0.043611670219400045 0.14962278858824085 0.60918053526812699
-0.054072687047715728 -0.20754024884804956 0.55539020695297925
0.0026342559734522375 -0.054060472899381651 0.70247115867621002
0.30826453558026823 -0.19876850886480035 0.63944538090671088
0.22630078371724771 -0.17362317251164683 0.5856285666512866
-0.66285826512775614 -0.67003062127253621 -0.22684542072544112
0.22438076372505766 -0.18092984017190616 0.69659014507399064
-0.62996084815154818 -0.61558349397391332 -0.21023584893805358
0.17127269314016558 0.30612443449463278 0.25411466309205721
0.0033050427414906824 0.13598230455770199 0.61989450916871291
0.17025298515300902 0.5521947035708763 0.05332497054827634
-0.044626264385261294 -0.046160059031794987 0.71500785958993784
0.26600919699796099 1.1103756674450516 -0.44316198556930608
0.21386770233516361 0.55408881371832841 0.033836169635064195
0.056137175070562595 -0.13354837918241635 0.67907002244976322
0.12148718067735276 0.16908912113814978 0.37330464286399589
-0.10956153045030725 0.17723767685620828 0.62719983845410798
0.18477555785650002 0.44781012450557789 0.1277772881982564
-0.042586932328174232 -0.020067005975260344 0.70319599847145842
-0.02698470265923647 0.082458878243530265 0.65082190602087042
0.25536890142809865 -0.19685658554974239 0.64589571836413029
0.041265466656018823 0.28650215695470926 0.53284400038640456
-0.16306239076417905 -0.049160523892188834 0.67451583541725846
-0.38002250704263929 -0.45326288048598506 0.18202844462706658
0.018871836059579206 0.14036979230451863 0.6047088761532482
0.12596790407764846 0.51091200168424145 0.2863334501023882
0.29711509300544936 0.71200431059163982 -0.14196459681668205
-0.13650337829251136 -0.26416402578395548 0.47388381077139385
-0.11849481681222129 0.15875233655459198 0.66100866456521867
-0.0007871569354200858 -0.063516868825463035 0.73352920351254802
-0.70606790337256009 -0.72406676193758468 -0.36766816300319594
-0.56014519369368276 -0.49937059148489027 0.021861573861093664
0.13363261562430107 0.20911277702705178 0.30829957631327254
-0.31177349355227424 -0.12999767048475164 0.51028299042498482
-0.2521506238269291 -0.11228219462640432 0.55635743673669324
0.02590782223762389 0.085571445299940763 0.62843747560681962
-0.35048287593388139 -0.22963771893524942 0.37381005673959233
-0.39793730890739099 -0.24314525253827668 0.12147695922287394
-0.16763161178190411 0.11301145086911824 0.63968064046661066
-0.11068430060686696 0.17892630238292995 0.64283113198330621
-0.14302806070862384 -0.059186029769312754 0.66721051812222587
0.25802954077595519 1.0791752006224229 -0.41469924510446443
-0.24672930419264194 0.00697182104553562 0.63946536331625037
-0.09194190172947625 0.28014666017421774 0.5779326960053579
0.035418942070989612 -0.053285927004601774 0.708615691820218
-0.59662877738612474 -0.56322608188005852 -0.071384944975285691
-0.77037633439953845 -0.7946985947747196 -0.37644703228196708
0.30094221528813003 -0.21123941003162727 0.67123252697995373
0.063309943221340204 0.2064841214930091 0.55842416623153568
-0.20025712000605744 -0.016724010508060161 0.68427993109938967
0.059013290403358232 0.33670723325136187 0.48973930152209366
-0.49341618465240256 -0.40186244751954625 -0.19841839731250088
0.1006035499981488 -0.13009340180080819 0.62073241570498894
-0.41264349380371446 -0.26297012540911169 0.2706834409344383
-0.11713892108584467 0.032038506385095644 0.70281924998972389
0.085872052049126957 -0.11107189664283368 0.70272268861366349
0.18011472556773223 0.3337866729714154 0.2281013412907642
-0.62066308013903626 -0.58434292512324149 -0.38365699157900224
0.019806120815305528 0.19738609927944495 0.58174828710792781
-0.61563967682779808 -0.59024657744811471 -0.10418394128512887
0.36291662636311406 -0.2259748491720055 0.6546703667393281
-0.5696575245813591 -0.50383796756137222 -0.37029585075933014
0.039071227225822902 0.35517939275916532 0.5343735680310262
0.15658082814424779 0.6310887735742039 -0.045195502654236108
-0.58351054039165318 -0.55317468564993 -0.13466604413356675
-0.14635511911868671 0.18241137896062032 0.62875393305395466
0.095323878667917361 0.36817853274959234 0.41751660682466696
-0.30815625537700919 -0.054583297302933431 -0.33164222066530602
0.38107669606826877 -0.29114123220375276 0.64087740004391236
-0.084650537212684673 0.088827379034619014 0.67724969899936305
-0.027738257038924186 0.44246841899227007 -0.18544520791107288
0.033892676383505238 -0.11452759249681321 0.7074845558673637
-0.15825097997854609 -0.097006859995746098 0.59710887501346033
0.2658633605934293 1.0861987192804072 -0.39391337865478349
-0.58207321802397338 -0.52513313918078275 -0.007882107697322116
-0.18646335651132073 -0.17147459044743485 0.51763508893466526
-0.0031869034353015913 0.14692926197066569 0.61953963573386606
-0.12124200720082712 -0.11646660741164361 0.61066268589394834
0.16114226748127525 0.31017993327393967 0.24409477494166332
-0.18616086934739262 0.053373579807230342 0.71600250784816488
0.058880588654613542 -0.088205208510142796 0.72343143199618343
0.014424934769473152 0.21027195946558308 0.58706938823178945
0.017629245004819882 0.16106859096964854 0.59711197161410379
0.22073936299817198 0.49086009428496702 0.083239533391805232
0.13740951894070519 0.27606932225788938 0.39373675556272758
0.052917980333402115 0.077123408426745144 0.6164209192557788
0.17498524967214202 0.64327254280757273 0.041391229409282637
0.23031684955050546 0.40721780995063561 0.16028070264392724
-0.16662047496948507 0.16554098849421273 -0.072310463772096156
0.15212367286745132 0.65402344760235565 0.085951580714425546
-0.20871462220296966 0.054313351416354294 0.63153876443926826
0.31161243344173584 0.83917806926754324 -0.26558018255706983
0.057097633928298031 -0.22737445563861947 0.58267716549067217
0.09950712279869256 0.10119168214684393 0.56058051614397897
0.053320684554127418 0.24839750208051825 0.54774072154057141
0.052964702892837945 -0.12810966618756581 0.70107888563242238
0.041516345277616384 -0.14568817813411084 0.5479595670710129
-0.66715472863753655 -0.64360698115283022 -0.12824774876776601
0.13533217826406041 0.010863838347614063 0.56825945721023352
0.083526043766939395 0.4695128714066712 0.34047680562206839
-0.053301935823268032 0.32312375028126361 -0.064460466237473923
-0.68474348879588121 -0.67204212774926475 -0.18928473582862271
-0.1439330942361543 0.02626345485489523 0.70435429707079056
-0.46538286206662205 -0.35935235186482295 0.00088444733145376375
-0.021437134880572639 0.38540203666671502 0.43728711544619436
-0.03773583656188606 0.35382205659788291 0.43587693548116402
0.15767865418952409 0.40759148599988215 0.27490092521747744
-0.12243472201546424 0.072406380970898354 0.72376751070544021
0.0021954528096290726 0.074905682048047595 0.64148648883550852
-0.11562272052930966 0.18559128894137622 0.637310129201067
0.19243844783462993 0.33688205496697776 0.22826750928635953
-0.26349625906730267 -0.31410577900070358 0.24619132696087132
-0.029805425149998177 -0.054356888003100678 0.73049884467423709
0.25896643633847782 0.93495850324135787 -0.31062330054034515
0.067140394126724567 -0.089006282155343897 0.72073861906762993
-0.64265766286235504 -0.63219139784303735 -0.3673243328916409
0.062909477829438787 0.12183615056695096 0.60415206215242367
-0.18105915695782704 -0.0033581416129546682 0.69818843517378237
-0.065348864928739037 -0.088141619623117506 0.68395914433158644
0.066059764364910789 0.10483658547271446 0.60819850343723214
0.049542632405028542 0.50491489996258387 -0.066472350059596508
0.19839313299523509 0.67187378647729901 -0.051394728890165275
-0.27316135836493904 -0.06055975361595678 0.62565404823573267
0.079222469228810599 -0.082891013926470691 0.70843427351945465
0.25463663611490639 0.51576445940549576 0.048505875956911026
0.021755637523082738 0.26726640101097487 0.56200750830232149
0.10338973078644265 -0.023694601669877358 0.59819746692021436
0.16283314970388441 0.49925546381344788 0.18455501904096572
0.33197494004542505 -0.27213701729694684 0.67261411014211614
-0.1731885433752125 -0.13165046871431407 0.55879630803593994
0.1176362004751863 0.57928328852210242 0.32049536456720507
-0.55201210015075519 -0.48766354087987906 0.057129940000695711
0.017726348488884547 -0.062000337747639023 0.7189010456533298
-0.64993695621181802 -0.63054468371591543 -0.40231149169976321
-0.22656340295319821 0.041042562063184462 0.63576251599591416
-0.67222826652536138 -0.66416545243771807 -0.41452796000388936
0.35396715291763114 -0.23013534302504546 0.65974914691657993
0.037153220587126778 -0.063006423662969269 0.71907891499809562
0.12502825854329269 0.29116222723490637 0.40099706918421418
-0.67850951094611611 -0.6846286353063693 -0.3435093609062414
-0.25071880050681816 0.010783795321346545 0.62712047080682076
0.19208278333427753 0.95847976988768302 -0.51455441002263136
0.20011048052127922 -0.15830129867270148 0.6185542720331858
-0.011364015331853272 0.01209515896135116 0.67578656262755121
-0.50243330590806279 -0.42545423546746086 0.092451865619941564
-0.023699961568985017 -0.2044336404599072 0.55438661967446023
-0.082782402605657168 -0.22774435321554343 0.48583990016906675
-0.072974402127979898 0.21169919950023974 0.63617492009246845
-0.61440648627721517 -0.59108843270714218 -0.11339407528188117
0.040257350199848885 -0.059831056062966681 0.71480593367413281
0.25270246432148213 0.39298130241191309 0.16925542937201143
-0.1445486319946907 0.13279989118725766 0.6819453582323538
0.15553818383402085 -0.2044173907038207 0.55337453578457652
-0.27458128476586241 0.006033619358293052 -0.32124391082561843
0.15972307051436307 0.28011552205578027 0.27727328093319148
-0.031675209646490954 -0.050583537051036132 0.71737515734349522
-0.042316174265780937 0.23834413050062686 0.63858075798504021
-0.75933513945874109 -0.79493024340499208 -0.37810699699934025
-0.084964219225338145 -0.015756162754723135 0.71385595979849192
0.2793373918790738 0.609958680430708 -0.044749203410667349
0.13879985227421332 -0.15256389203233311 0.67461283187507526
0.028551350863195379 0.10497067860132248 0.61319076327650102
-0.22938688059693124 0.079762412254183346 -0.2639314825393706
-0.12901359815092728 0.15968622322885118 0.64647119111192897
-0.34312012382712886 -0.12795167845204425 -0.27689266074169527
0.063872750709763837 -0.22661263623329653 0.57492347512075348
0.07317689397517424 0.10336976135347342 0.60051813941351373
-0.069120142705673349 0.18909610028046409 0.57037535538795847
0.11298834969564342 0.55936040799719677 0.29471007501457969
-0.27193558092108949 -0.082520767940030382 0.60578521982574429
-0.080348592878251912 0.22581136627243836 0.62613498117630506
-0.7987190953951484 -0.8309416989846774 -0.39627770367595438
0.28207131973349431 1.1688243683932136 -0.52553315567026448
0.095142714615169544 0.10125437398047765 0.5681611918112095
0.02995110453238814 0.094626497959412248 0.62409955135411099
-0.0077256621374113266 -0.21115012392800914 0.57420939167606821
-0.13679645763525827 0.12508843137103298 0.71349426647951208
-0.55750097594002268 -0.51559751045403601 -0.081380936595949471
-0.036619992119057754 0.26823957537949994 0.62306438569947442
0.018578208438143617 -0.1753159901832646 0.52948934368664791
-0.0083691830131815692 0.36412086577149161 -0.0091041954403232594
0.17745591804261118 0.23447295530527512 0.36606910802366244
0.026464968267661426 0.23686560675438706 0.56401779422754217
-0.1225401273543858 0.039884599770942941 0.70513846550938464
0.0041836938259467438 -0.061169634707187726 0.72783094439581042
-0.71428486048442652 -0.73087193932615691 -0.51936049334728951
-0.58701353253271238 -0.54300444825239325 -0.29927025115413874
-0.067856774647949036 -0.075761865780004101 0.68975163571043296
0.12697511156929364 0.79577960075995691 -0.30620639076096445
0.3098680945500123 -0.2000251066006431 0.62904099085831611
0.35681049267808929 -0.22505647128016726 0.65405621112213286
-0.043263165083857302 0.33485296322174563 0.43327338406270766
-0.21513647250757884 0.05404473918339292 0.63695206868840337
0.3878850423111242 -0.26813691187753896 0.62892892857293869
0.15989937008805044 -0.24499851166303799 0.61887477545784364
-0.76743346772740728 -0.80724193578787418 -0.40323277468529994
-0.23833025025675281 0.042973550563118579 0.6137035199937646
-0.36264959027789567 -0.15891950740266836 -0.31552585363894092
0.43863530945014073 -0.28044969134372977 0.68978200087069297
0.022876572016290231 -0.086331106904799171 0.73106655493844475
0.084490237242782706 0.11377708982851154 0.5824360660387331
0.11282177437897967 0.52726604907860875 0.28541570476477496
0.48747186873208825 -0.30820420004751981 0.67916945653915839
0.16946088725345509 0.38736728465686987 0.17714123966021678
0.23115629504257607 -0.18749362598143549 0.64563957956108631
0.086944796160173698 -0.035202872915620631 0.60269630410473773
-0.10111615807004526 -0.22668223784056352 0.51827890849262204
-0.12820395372737248 0.06514862987519443 0.73074322891561394
0.083891146538121131 0.59436620005648599 0.096255077199546513
-0.021261225174221021 0.30212208619322922 0.53749763628089653
-0.51921400049238819 -0.46518917678480065 0.079781626716565412
-0.23084731156074723 -0.0020191704112910713 0.66766010771992779
-0.11790274420876945 0.065669834116896197 0.70660745098624744
0.34553529773264224 -0.2176680352087601 0.63134841636464234
0.22928514459394966 -0.2576741585278377 0.60171167778809576
-0.50878174590591607 -0.45652881827473912 -0.20441635731419616
0.17723976262938379 0.30156619916006733 0.3214601592903561
-0.32605849622591521 -0.11153797231638052 -0.15411990509777329
0.16670811776184902 0.64645920999336148 -0.052923470441076148
0.29112703425053255 0.98293783315971162 -0.37283057640980655
0.31696196095868578 -0.21938942014077156 0.67195826443903783
0.068630501303161395 0.35198017498036549 0.46992902911910228
0.32395190771777682 -0.21842831010271979 0.67714619603074855
0.46360187334265124 -0.31519631508260737 0.67782235922962553
-0.038424196951119649 -0.13611955443150059 0.61486142972989821
0.14808735429631015 0.3790507450894669 0.18663858920288412
0.0010997268003301031 0.10677340376918742 0.59129790039896779
0.032163648837158387 0.64642101933948481 -0.40835109749111531
0.17110943771901632 0.48614775588340109 0.17291662260941898
0.057802125364756263 -0.10812073574531134 0.70911019199501446
-0.22363592433999324 -0.035971916205443932 0.63612085044663491
-0.084944077115429728 -0.049603640824322781 0.69950432100038995
-0.11448984272050833 0.21212925973747687 0.44300855484310375
-0.015245643533076558 0.25282829800068107 0.59983291680597262
0.069910859552634763 -0.17278622952682987 0.60811356365474367
-0.15438464780065186 -0.011398109398216505 0.69814410418012507
0.18831085554654892 0.64823876535396252 -0.021380770516985947
-0.48351786257518148 -0.38686319389241319 -0.14531476051001713
0.056497752841341953 -0.09509473580775385 0.72305237141410217
-0.08484933908791259 0.063566670122140678 0.62113899909614201
0.018843276811389531 -0.044868969948737458 0.6927731051110122
0.034395351558858867 0.14551609210509397 0.61508686187169825
-0.17912725299890453 0.073095950247397568 0.71561302426687057
0.077853258652745394 -0.092940686178105025 0.71560759589230383
-0.014336516187727133 -0.09148921134106125 0.70921355293712196
-0.25364805328641937 0.061630844411844521 -0.36539070158899101
0.21525140988898661 -0.16302537003202122 0.60166712666075117
0.14458279040350042 0.42722144070279278 0.15591534767010895
0.26852199525080556 -0.20229531120918409 0.65273734962292806
-0.59778017624688395 -0.56033741574580986 -0.061538768158419632
-0.74737256223029713 -0.77013052863093101 -0.3219064788556576
-0.022661117550915044 0.28418887644548185 0.54432870691941648
-0.16883499201269614 0.099894495921850179 0.68967648745623755
-0.0020510768929500323 0.41335930473329974 0.45640213504070815
0.20565794879411237 0.58830571591364667 0.0069264411363381129
-0.099377315315182013 0.17724838481805882 0.64619061604063788
0.077913135860759208 0.20247056052636658 0.53883106342249842
0.32675563541248009 0.70862871029626895 -0.16263873534518591
0.080371609310950998 0.47230464857554999 0.45498946860222222
0.23839272220149299 -0.18978241380437666 0.64271601812424706
-0.025387765004436069 -0.049441584446231701 0.71129513632778973
0.026583301166756224 0.10438871907506631 0.61963512054421077
-0.12057593982659975 0.17254590631212352 0.64608672674648027
-0.2222787494571441 0.053942236976988411 0.4253181640189041
0.093327291042533789 0.17671751739625208 0.529859865788044
-0.48831672411743465 -0.39296823777098311 -0.17905289509874844
-0.20132526482447899 0.025210346797258865 0.69209439444747023
0.068447029841396168 0.30648841818718076 0.48706946756436231
-0.22821181634547294 0.023060787174951969 0.57353657204937747
-0.73949064446994139 -0.75428822038759513 -0.30048373232993253
0.031927989165021931 0.38029841273962717 0.48473193462307762
0.091517320196492058 -0.12057973080806406 0.61595379267131634
0.34020700306093321 -0.21534931499729826 0.64875059552427405
-0.12189919228089563 0.071043803300399944 0.71922857820973007
0.074029965799383701 0.090253263751334245 0.58806815101960286
-0.4071602773158518 -0.2608636795731627 0.036483697338687726
0.1331515619247734 0.22059812725419192 0.43959851217231272
-0.001024294918676949 0.42211058896668252 0.50243738342174726
0.16997922641845009 0.31969452101573026 0.2387032354401537
-0.6241063360073924 -0.60574868574816954 -0.31915652502741043
-0.13979871556656454 0.0094757726235208395 0.70241321752090791
0.43844806785198731 -0.28794828839601827 0.65141515963849361
0.38582930511262981 -0.23652616545964733 0.66717083653473352
0.21178020585305912 0.7750555683403082 -0.14553814907464702
0.18808821890222216 0.64313150108680261 0.013564966969951797
0.066010377187629032 -0.21539826351664182 0.60365814624295222
-0.57565974804761488 -0.54225598775069983 -0.13022824948248157
0.10087830262293007 0.26597001990259095 0.44988989988850836
0.015636866655563297 -0.073566896899450285 0.73366282549223794
-0.18474806442843517 0.047787429483337363 0.71996882582061517
0.073190029329311734 0.28252379970641428 0.49089862701503151
-0.1155387173937088 0.23445958910997433 0.50654977080409935
-0.30762909336791555 -0.086609410256450303 -0.05914756466170612
0.043350835155129497 0.24127273070200239 0.55468051719205391
0.14164100728507578 0.42630640763966099 0.14084414671862966
0.18560809316627713 0.61722639921098654 0.0081768477130594874
0.25193966729840378 0.77228453730256419 -0.16853268934064225
0.09458386369403593 0.070039738693798981 0.4488619029412968
0.076960725990683265 -0.041148833331426715 0.60116088336256812
-0.58150824080576013 -0.54781173738403233 -0.16302076832003287
0.1367759987668884 0.400882801098005 0.16689249570165554
0.15783062452118379 0.37243593699454358 0.18817660558318661
0.13977990592824829 0.36003954789545922 0.20381804775103785
0.36233733472701313 -0.22780192698455259 0.65646746183911375
-0.1180458710975143 0.19091880073922418 0.62744599230654696
0.034815420719254364 0.0859805763158068 0.62551959529645274
0.2933645075743696 0.70068669909150927 -0.1396050137182776
0.12753970182054464 0.27633766244923486 0.40721708883746199
-0.12284805172843516 0.11827763049506324 0.71927567426539074
0.2310722050073768 -0.16803653235849403 0.61369206526429743
-0.018877536520655713 0.14109984700203704 0.63283415257872555
-0.2578472031660819 0.038980199089200696 0.58528479880396311
-0.06813716272503223 0.31070140863278262 0.46838777337748638
0.009730917085994939 0.006243182939238423 0.40598905138805641
-0.19069896556624744 0.13137375499751514 0.58902824326260905
0.072018384670837321 0.3886062566817845 0.46216272698643479
-0.14172149476094864 0.058688219616133352 0.73883085555277717
0.078390914976470549 0.34738412211232372 0.45408019121430065
-0.11212849365551336 0.1423187929523646 0.69504964556741644
-0.10312815254927932 0.074953354561950292 0.68402704264888126
-0.028612844577841745 0.11902030194559998 0.64366655331784894
0.1645962536253418 0.5166062670543532 0.074852443284530779
0.28714918634197839 -0.19550201638701648 0.60621647372422949
0.32387437246083928 -0.20679031020837702 0.64567625755104707
0.19187266420100491 -0.16718303187754913 0.6988942424868716
0.28194692951410105 0.52421734134159514 0.041451135228061986
-0.61550648297938926 -0.59392911723690389 -0.13211107631963781
0.093724462309874301 0.35450547862630799 0.42260439292379814
-0.6227429629003387 -0.59412728950393578 -0.10366060758115436
-0.034336825368819657 0.23827302753804247 0.62698352910149069
0.15067519678366681 0.069810926205363444 0.51232187360175363
0.10197783151554418 0.31046559473965374 0.4279667827568554
0.17090088176681473 0.22257123308801852 0.33106106031870652
0.25617761270343098 0.83185686514744184 -0.22292859677873444
-0.69137805668920227 -0.70403791018429729 -0.39529034226614401
-0.071047267184314755 0.23741731814365252 0.62624257995322274
-0.12305857984056612 -0.15961172472590235 0.57330413523639567
-0.030679980576121313 -0.16919069957953248 0.55301932882667248
0.11292708660722206 -0.23446052990744448 0.60815196293134921
0.093947396578151876 0.14720548472242889 0.5486469625062087
0.0072507249444375699 0.17899595504765919 0.60305252898068051
-0.50947341029665161 -0.5242497217401958 -0.048606308803425868
-0.018944916806814316 0.32414466623432681 0.50558102045336284
0.31809673047189313 0.74234301325603269 -0.18018414992497611
-0.12139667049790992 -0.14640216609729073 0.5890904034592932
-0.016179855987408009 0.1776551747980406 0.62502832205295533
-0.093014463259340374 0.089714148702203289 0.6628271479710941
-0.58507607117546856 -0.54765075266088736 -0.068523173563193041
-0.32660732512477342 -0.32914251773459746 0.11800692659328238
0.1706528801948779 -0.16520228891864441 0.55994537704029579
-0.099448543546084789 0.15899570430228138 0.65589125441412843
0.12792297986562362 -0.13901914365773038 0.70273117405681695
0.049253424770527854 -0.08709791565129521 0.72608703500721283
0.041905872586802673 -0.097440773728399321 0.72291470008451952
-0.72774014468400083 -0.75423754806028231 -0.37247710107987153
0.24145424723401243 -0.1884758011576757 0.69387344714526922
0.077114423901024631 -0.073979994135740412 0.68313310422187179
0.032596341694696163 0.30946720567513175 0.5399709622840092
-0.4829615808018648 -0.38950819635829781 0.04938215805043189
0.30064487098778225 -0.2117397962523988 0.64541603558308225
-0.15417172231673781 -0.2822768340410704 0.42834254232359914
