# XYZ point cloud file
0.4224853515625 -0.4134521484375 0.73285293579101562
0.4190673828125 -0.42236328125 0.7398834228515625
0.4222412109375 -0.425537109375 0.73800277709960938
0.435302734375 -0.406494140625 0.72592544555664062
0.4278564453125 -0.4049072265625 0.72789382934570312
0.4173583984375 -0.42041015625 0.73867034912109375
0.4000244140625 -0.4405517578125 0.75903701782226562
0.3916015625 -0.4459228515625 0.764801025390625
0.4005126953125 -0.44580078125 0.75846099853515625
0.4068603515625 -0.43408203125 0.7506866455078125
0.397216796875 -0.438232421875 0.75493240356445312
0.391845703125 -0.4427490234375 0.7607879638671875
0.391845703125 -0.45166015625 0.76665878295898438
0.41015625 -0.440185546875 0.752716064453125
0.40380859375 -0.4324951171875 0.74829864501953125
0.41015625 -0.4195556640625 0.71108627319335938
0.4149169921875 -0.4156494140625 0.71990966796875
0.414794921875 -0.409423828125 0.70650100708007812
0.403564453125 -0.4188232421875 0.704010009765625
0.4039306640625 -0.4259033203125 0.71667098999023438
0.4088134765625 -0.423828125 0.72266387939453125
0.4193115234375 -0.4073486328125 0.71651840209960938
0.4085693359375 -0.410888671875 0.69869613647460938
0.3984375 -0.4261474609375 0.7099761962890625
0.3837890625 -0.44189453125 0.73195266723632812
0.374267578125 -0.4453125 0.73624420166015625
0.3878173828125 -0.4412841796875 0.74114227294921875
0.39111328125 -0.437255859375 0.72750091552734375
0.3753662109375 -0.43994140625 0.7229766845703125
0.368408203125 -0.4444580078125 0.72930526733398438
0.38037109375 -0.4437255859375 0.74704360961914062
0.3951416015625 -0.4356689453125 0.7359771728515625
0.3843994140625 -0.4366455078125 0.71892547607421875
0.4244384765625 -0.376953125 0.69580078125
0.427001953125 -0.37255859375 0.70555877685546875
0.422607421875 -0.3629150390625 0.69672393798828125
0.4169921875 -0.37744140625 0.68661117553710938
0.4200439453125 -0.388916015625 0.69945907592773438
0.4248046875 -0.385986328125 0.70868682861328125
0.42724609375 -0.358154296875 0.70561981201171875
0.41650390625 -0.365966796875 0.6887969970703125
0.4158935546875 -0.3895263671875 0.68985748291015625
0.3531494140625 -0.4471435546875 0.758331298828125
0.3448486328125 -0.4412841796875 0.7615509033203125
0.3565673828125 -0.4429931640625 0.76792144775390625
0.362060546875 -0.447265625 0.7511138916015625
0.34765625 -0.446533203125 0.74746322631835938
0.339111328125 -0.4444580078125 0.75672149658203125
0.348388671875 -0.43798828125 0.77314376831054688
0.36376953125 -0.444580078125 0.76012802124023438
0.3544921875 -0.447509765625 0.74160003662109375
0.4124755859375 -0.3209228515625 0.69944381713867188
0.4146728515625 -0.3148193359375 0.708770751953125
0.404052734375 -0.3125 0.70431900024414062
0.408935546875 -0.3270263671875 0.69091415405273438
0.4180908203125 -0.3336181640625 0.69495391845703125
0.421875 -0.3297119140625 0.70577621459960938
0.40576171875 -0.3060302734375 0.7130279541015625
0.4022216796875 -0.320556640625 0.6940460205078125
0.4141845703125 -0.34033203125 0.68837356567382812
0.3221435546875 -0.416259765625 0.77649688720703125
0.31982421875 -0.40380859375 0.77701950073242188
0.3228759765625 -0.4112548828125 0.78754425048828125
0.32666015625 -0.4254150390625 0.77508544921875
0.31982421875 -0.422607421875 0.76659774780273438
0.317626953125 -0.4107666015625 0.7663116455078125
0.3203125 -0.3983154296875 0.78763580322265625
0.3287353515625 -0.4208984375 0.78598785400390625
0.3265380859375 -0.4295654296875 0.76555633544921875
0.379638671875 -0.330322265625 0.72533035278320312
0.3839111328125 -0.322509765625 0.73535919189453125
0.3695068359375 -0.343017578125 0.73368072509765625
0.379150390625 -0.3406982421875 0.71637344360351562
0.38720703125 -0.3187255859375 0.7184906005859375
0.3907470703125 -0.31005859375 0.72578048706054688
0.3731689453125 -0.333984375 0.74339675903320312
0.3697509765625 -0.3536376953125 0.72420501708984375
0.3875732421875 -0.3292236328125 0.70749282836914062
0.338623046875 -0.3734130859375 0.76054000854492188
0.3494873046875 -0.367431640625 0.75252914428710938
0.3399658203125 -0.3677978515625 0.77111434936523438
0.3251953125 -0.382568359375 0.76784515380859375
0.3382568359375 -0.3837890625 0.75046157836914062
0.348876953125 -0.3763427734375 0.742431640625
0.3499755859375 -0.3583984375 0.76259231567382812
0.3258056640625 -0.3756103515625 0.78007888793945312
0.3262939453125 -0.390869140625 0.757476806640625
0.3841552734375 -0.3846435546875 0.69837188720703125
0.3779296875 -0.3956298828125 0.70354843139648438
0.3897705078125 -0.4007568359375 0.69406509399414062
0.38818359375 -0.37548828125 0.69170761108398438
0.3824462890625 -0.369384765625 0.70148468017578125
0.3736572265625 -0.381103515625 0.70853424072265625
0.38330078125 -0.4100341796875 0.70114898681640625
0.396484375 -0.393310546875 0.6891326904296875
0.3885498046875 -0.358154296875 0.69432830810546875
0.3533935546875 -0.4207763671875 0.72444534301757812
0.36328125 -0.430908203125 0.72251510620117188
0.3634033203125 -0.4150390625 0.71709442138671875
0.3446044921875 -0.408447265625 0.73187255859375
0.343017578125 -0.426025390625 0.73357772827148438
0.3558349609375 -0.4375 0.72734451293945312
0.37158203125 -0.42529296875 0.71552276611328125
0.3546142578125 -0.4022216796875 0.725006103515625
0.3353271484375 -0.4149169921875 0.7402801513671875
0.4078369140625 -0.3604736328125 0.6782684326171875
0.404296875 -0.3646240234375 0.680572509765625
0.4093017578125 -0.3697509765625 0.67760848999023438
0.4058837890625 -0.3507080078125 0.678619384765625
0.3978271484375 -0.34716796875 0.68289947509765625
0.4044189453125 -0.377685546875 0.680755615234375
0.411376953125 -0.358642578125 0.6784515380859375
0.3292236328125 -0.4385986328125 0.74645614624023438
0.3350830078125 -0.443359375 0.74489974975585938
0.3314208984375 -0.4365234375 0.74225234985351562
0.32421875 -0.434814453125 0.75088119506835938
0.32958984375 -0.439453125 0.75075149536132812
0.3382568359375 -0.4437255859375 0.73920440673828125
0.32080078125 -0.4287109375 0.74881362915039062
-0.001953125 0.3302001953125 0.69058609008789062
-0.006591796875 0.3184814453125 0.6859130859375
0.0111083984375 0.3231201171875 0.68777847290039062
0.0010986328125 0.3377685546875 0.6910247802734375
-0.0113525390625 0.33740234375 0.69086456298828125
-0.0177001953125 0.3267822265625 0.68711471557617188
0.0054931640625 0.3104248046875 0.68488693237304688
0.012939453125 0.331298828125 0.6904144287109375
-0.0091552734375 0.345458984375 0.68988418579101562
-0.1878662109375 0.122802734375 0.70130538940429688
-0.182861328125 0.109375 0.70273971557617188
-0.1763916015625 0.126708984375 0.699249267578125
-0.1932373046875 0.135498046875 0.69827651977539062
-0.19482421875 0.119873046875 0.7032928466796875
-0.188232421875 0.107421875 0.70462417602539062
-0.1727294921875 0.1112060546875 0.70322036743164062
-0.1861572265625 0.142578125 0.69737625122070312
-0.1988525390625 0.1318359375 0.69826126098632812
-0.046142578125 0.370849609375 0.68581771850585938
-0.0556640625 0.361083984375 0.68526458740234375
-0.033935546875 0.3585205078125 0.68875503540039062
-0.0396728515625 0.3775634765625 0.68803024291992188
-0.0545654296875 0.384521484375 0.68381500244140625
-0.0667724609375 0.3746337890625 0.68370437622070312
-0.040283203125 0.3482666015625 0.6851959228515625
-0.0296630859375 0.3656005859375 0.68949508666992188
-0.0487060546875 0.3912353515625 0.68721771240234375
-0.2198486328125 0.1724853515625 0.68596649169921875
-0.2100830078125 0.1622314453125 0.69011306762695312
-0.2127685546875 0.1834716796875 0.68466567993164062
-0.23291015625 0.1824951171875 0.6815948486328125
-0.22509765625 0.1641845703125 0.68622589111328125
-0.21826171875 0.1553955078125 0.69141387939453125
-0.2017822265625 0.171142578125 0.68889999389648438
-0.225341796875 0.1949462890625 0.68022918701171875
-0.240478515625 0.1749267578125 0.68024063110351562
-0.07958984375 0.4332275390625 0.67701339721679688
-0.09033203125 0.42626953125 0.67694473266601562
-0.0736083984375 0.41552734375 0.67957305908203125
-0.0694580078125 0.438720703125 0.67886734008789062
-0.086181640625 0.4503173828125 0.67327880859375
-0.095458984375 0.447265625 0.67416763305664062
-0.08349609375 0.4068603515625 0.68040847778320312
-0.06298828125 0.42236328125 0.67899703979492188
-0.0728759765625 0.4556884765625 0.67479324340820312
-0.281005859375 0.206298828125 0.6650848388671875
-0.2640380859375 0.2017822265625 0.66674423217773438
-0.276123046875 0.22021484375 0.66414642333984375
-0.2945556640625 0.2135009765625 0.65830612182617188
-0.2838134765625 0.1947021484375 0.66661834716796875
-0.2691650390625 0.19140625 0.66988372802734375
-0.2557373046875 0.2144775390625 0.66782379150390625
-0.291015625 0.22509765625 0.656951904296875
-0.298583984375 0.201904296875 0.65802764892578125
0.048583984375 0.3172607421875 0.688446044921875
0.0478515625 0.3031005859375 0.6858673095703125
0.066162109375 0.3172607421875 0.68683624267578125
0.0487060546875 0.325439453125 0.6903533935546875
0.03515625 0.3148193359375 0.6882781982421875
0.032470703125 0.3035888671875 0.6860504150390625
0.062744140625 0.3037109375 0.68363189697265625
0.066650390625 0.32568359375 0.69084930419921875
0.03759765625 0.3253173828125 0.68958282470703125
-0.176025390625 0.06787109375 0.71480178833007812
-0.178466796875 0.0518798828125 0.71640777587890625
-0.1641845703125 0.067138671875 0.71335983276367188
-0.1759033203125 0.082763671875 0.7113037109375
-0.1837158203125 0.0692138671875 0.71568679809570312
-0.1875 0.052001953125 0.7208709716796875
-0.1666259765625 0.0509033203125 0.71737289428710938
-0.1656494140625 0.08349609375 0.70932388305664062
-0.18310546875 0.0814208984375 0.71312713623046875
0.13525390625 0.343505859375 0.66165924072265625
0.1378173828125 0.3314208984375 0.65741348266601562
0.156005859375 0.359375 0.653839111328125
0.129638671875 0.35205078125 0.66504669189453125
0.10693359375 0.3321533203125 0.6697998046875
0.112548828125 0.320556640625 0.66803359985351562
0.161376953125 0.3497314453125 0.64856338500976562
0.152099609375 0.3671875 0.65914154052734375
0.1058349609375 0.3414306640625 0.67611312866210938
-0.2086181640625 -0.029052734375 0.71915817260742188
-0.224853515625 -0.0579833984375 0.713775634765625
-0.1978759765625 -0.0345458984375 0.7173309326171875
-0.1959228515625 0.002197265625 0.7205963134765625
-0.2158203125 -0.0260009765625 0.72148513793945312
-0.229248046875 -0.0531005859375 0.71865081787109375
-0.216552734375 -0.0643310546875 0.71219635009765625
-0.1837158203125 -0.00146484375 0.7186279296875
-0.2020263671875 0.0020751953125 0.72371673583984375
0.2083740234375 0.416259765625 0.6217498779296875
0.2158203125 0.4122314453125 0.61201858520507812
0.21826171875 0.441650390625 0.6157073974609375
0.2008056640625 0.42236328125 0.62931442260742188
0.19775390625 0.3955078125 0.629364013671875
0.2037353515625 0.388427734375 0.62230300903320312
0.2266845703125 0.439208984375 0.60654830932617188
0.2115478515625 0.4468994140625 0.62129974365234375
0.1925048828125 0.4027099609375 0.63741302490234375
-0.2828369140625 -0.1219482421875 0.70261764526367188
-0.3076171875 -0.1356201171875 0.69053268432617188
-0.2811279296875 -0.1337890625 0.69676589965820312
-0.260498046875 -0.108154296875 0.70656204223632812
-0.28662109375 -0.1143798828125 0.704193115234375
-0.3076171875 -0.1253662109375 0.69469451904296875
-0.3056640625 -0.1470947265625 0.68425369262695312
-0.258544921875 -0.1181640625 0.70328140258789062
-0.2645263671875 -0.0985107421875 0.71169281005859375
0.2353515625 0.5283203125 0.59254837036132812
0.241943359375 0.5301513671875 0.57951736450195312
0.2342529296875 0.5596923828125 0.58480453491210938
0.2294921875 0.52734375 0.5987548828125
0.2301025390625 0.4974365234375 0.59833908081054688
0.2388916015625 0.4991455078125 0.588531494140625
0.2415771484375 0.5634765625 0.57422637939453125
0.2294921875 0.5562744140625 0.59336471557617188
0.22412109375 0.499267578125 0.60642623901367188
-0.3819580078125 -0.1571044921875 0.65410232543945312
-0.4073486328125 -0.1591796875 0.63531494140625
-0.3870849609375 -0.1700439453125 0.64594268798828125
-0.362548828125 -0.1507568359375 0.66768264770507812
-0.38037109375 -0.1473388671875 0.65713882446289062
-0.4027099609375 -0.1513671875 0.6404571533203125
-0.4144287109375 -0.171875 0.62944412231445312
-0.3634033203125 -0.16259765625 0.66180419921875
-0.36181640625 -0.14111328125 0.67374038696289062
0.2225341796875 0.633056640625 0.58036041259765625
0.2271728515625 0.6419677734375 0.57207870483398438
0.209716796875 0.6514892578125 0.58203887939453125
0.215576171875 0.627197265625 0.58663177490234375
0.228271484375 0.6134033203125 0.58048248291015625
0.2344970703125 0.62060546875 0.57385635375976562
0.216552734375 0.6607666015625 0.57531356811523438
0.204833984375 0.6435546875 0.58451080322265625
0.2215576171875 0.60693359375 0.58624267578125
-0.472900390625 -0.14306640625 0.6028594970703125
-0.4874267578125 -0.131103515625 0.59371185302734375
-0.4832763671875 -0.1512451171875 0.5968475341796875
-0.45458984375 -0.1544189453125 0.610992431640625
-0.4630126953125 -0.13525390625 0.6101226806640625
-0.4775390625 -0.1243896484375 0.6020050048828125
-0.4981689453125 -0.13818359375 0.5873260498046875
-0.4638671875 -0.1630859375 0.6052703857421875
-0.4478759765625 -0.1448974609375 0.61882400512695312
0.17529296875 0.6826171875 0.58696746826171875
0.179931640625 0.6951904296875 0.58211135864257812
0.1595458984375 0.6846923828125 0.58903121948242188
0.1695556640625 0.6717529296875 0.59158706665039062
0.18798828125 0.677001953125 0.58521270751953125
0.190185546875 0.6881103515625 0.57884979248046875
0.162109375 0.695556640625 0.58687591552734375
0.1549072265625 0.6751708984375 0.59489822387695312
0.183837890625 0.6669921875 0.5897369384765625
-0.51318359375 -0.0889892578125 0.57585525512695312
-0.514404296875 -0.0711669921875 0.57353973388671875
-0.52392578125 -0.0941162109375 0.57054901123046875
-0.50732421875 -0.1041259765625 0.57978057861328125
-0.501953125 -0.08251953125 0.5823516845703125
-0.50341796875 -0.0655517578125 0.5815887451171875
-0.526611328125 -0.07470703125 0.56845855712890625
-0.51904296875 -0.110595703125 0.57378387451171875
-0.494873046875 -0.097412109375 0.5853729248046875
0.0892333984375 0.66650390625 0.62057113647460938
0.0875244140625 0.6751708984375 0.6180267333984375
0.0643310546875 0.6529541015625 0.630126953125
0.0916748046875 0.6597900390625 0.6237335205078125
0.1136474609375 0.6787109375 0.60872650146484375
0.11669921875 0.689697265625 0.60617828369140625
0.0601806640625 0.661865234375 0.6270294189453125
0.06494140625 0.6466064453125 0.63580322265625
0.112548828125 0.6700439453125 0.6134796142578125
-0.48974609375 0.00830078125 0.58775711059570312
-0.47412109375 0.0413818359375 0.59564971923828125
-0.497802734375 0.0081787109375 0.58240509033203125
-0.499755859375 -0.0206298828125 0.58288192749023438
-0.48046875 0.00927734375 0.5977325439453125
-0.468505859375 0.0404052734375 0.6027374267578125
-0.484619140625 0.04296875 0.58840179443359375
-0.510009765625 -0.02099609375 0.57542037963867188
-0.4893798828125 -0.0198974609375 0.587371826171875
-0.001220703125 0.6162109375 0.6434783935546875
-0.011474609375 0.6246337890625 0.64119720458984375
-0.0201416015625 0.6058349609375 0.64837265014648438
0.005126953125 0.608642578125 0.650238037109375
0.0208740234375 0.626953125 0.642974853515625
0.0126953125 0.6351318359375 0.63854217529296875
-0.029052734375 0.6126708984375 0.64644241333007812
-0.01171875 0.598876953125 0.65313720703125
0.024658203125 0.61962890625 0.6498260498046875
-0.4425048828125 0.1181640625 0.60089874267578125
-0.4349365234375 0.1397705078125 0.60051727294921875
-0.45263671875 0.125244140625 0.5958709716796875
-0.4521484375 0.096923828125 0.60189056396484375
-0.4346923828125 0.1136474609375 0.60791778564453125
-0.427978515625 0.1329345703125 0.6069793701171875
-0.4444580078125 0.1475830078125 0.59661865234375
-0.461669921875 0.1026611328125 0.59370803833007812
-0.44482421875 0.0921630859375 0.6083526611328125
-0.0595703125 0.5697021484375 0.64912033081054688
-0.0704345703125 0.5767822265625 0.65111923217773438
-0.06884765625 0.556640625 0.65468215942382812
-0.04931640625 0.567138671875 0.65190887451171875
-0.0489501953125 0.58251953125 0.64968490600585938
-0.0570068359375 0.5906982421875 0.65100479125976562
-0.079833984375 0.5621337890625 0.65438079833984375
-0.058837890625 0.5517578125 0.65549850463867188
-0.040771484375 0.5777587890625 0.65170669555664062
-0.4024658203125 0.18017578125 0.60895538330078125
-0.3902587890625 0.18798828125 0.61408615112304688
-0.4080810546875 0.193115234375 0.60495758056640625
-0.41552734375 0.171142578125 0.60345458984375
-0.3978271484375 0.17041015625 0.61527252197265625
-0.38818359375 0.178955078125 0.618011474609375
-0.396728515625 0.2017822265625 0.609161376953125
-0.4228515625 0.1800537109375 0.59937286376953125
-0.4100341796875 0.1619873046875 0.60968399047851562
-0.086669921875 0.5087890625 0.66572189331054688
-0.0987548828125 0.5084228515625 0.66669082641601562
-0.0858154296875 0.48974609375 0.66873550415039062
-0.074462890625 0.5079345703125 0.66798019409179688
-0.0814208984375 0.5262451171875 0.6630401611328125
-0.0947265625 0.5291748046875 0.66228485107421875
-0.100341796875 0.48779296875 0.67039871215820312
-0.076904296875 0.4913330078125 0.66730499267578125
-0.070556640625 0.5250244140625 0.66421127319335938
-0.34716796875 0.2099609375 0.63262176513671875
-0.3309326171875 0.2152099609375 0.64109039306640625
-0.3489990234375 0.2232666015625 0.6334991455078125
-0.3631591796875 0.2030029296875 0.62621688842773438
-0.346923828125 0.1982421875 0.63581085205078125
-0.33251953125 0.2032470703125 0.6439208984375
-0.328369140625 0.228271484375 0.63953399658203125
-0.367431640625 0.2159423828125 0.62239456176757812
-0.362548828125 0.1917724609375 0.62841796875
-0.0523681640625 0.5047607421875 0.665435791015625
-0.0594482421875 0.5069580078125 0.66714859008789062
-0.0538330078125 0.49169921875 0.66778945922851562
-0.049560546875 0.504638671875 0.66291046142578125
-0.0517578125 0.5213623046875 0.6637725830078125
-0.0550537109375 0.5216064453125 0.66620635986328125
-0.0614013671875 0.491455078125 0.66953277587890625
-0.048095703125 0.489990234375 0.66353607177734375
-0.047607421875 0.519287109375 0.66254806518554688
-0.346435546875 0.1748046875 0.63748931884765625
-0.332763671875 0.1771240234375 0.6460113525390625
-0.3477783203125 0.18212890625 0.6391754150390625
-0.3592529296875 0.17041015625 0.6311492919921875
-0.3475341796875 0.169189453125 0.63682174682617188
-0.33251953125 0.17138671875 0.64413070678710938
-0.3331298828125 0.183837890625 0.64740753173828125
-0.362060546875 0.1773681640625 0.63176727294921875
-0.3590087890625 0.1658935546875 0.6307525634765625
-0.0316162109375 0.5579833984375 0.65589141845703125
-0.034912109375 0.5596923828125 0.65740585327148438
-0.0396728515625 0.5469970703125 0.65881729125976562
-0.029052734375 0.5545654296875 0.65584564208984375
-0.023193359375 0.568115234375 0.65402984619140625
-0.0263671875 0.57080078125 0.65512466430664062
-0.0439453125 0.547607421875 0.66089630126953125
-0.0372314453125 0.544921875 0.6575164794921875
-0.02001953125 0.5643310546875 0.6540679931640625
-0.3897705078125 0.1536865234375 0.62046051025390625
-0.3780517578125 0.161376953125 0.62479019165039062
-0.3919677734375 0.1578369140625 0.61867141723632812
-0.3995361328125 0.1434326171875 0.618865966796875
-0.3865966796875 0.149658203125 0.6216583251953125
-0.37744140625 0.1568603515625 0.62557220458984375
-0.383056640625 0.166259765625 0.622467041015625
-0.403076171875 0.14892578125 0.61746597290039062
-0.3963623046875 0.140625 0.61609649658203125
0.010009765625 0.596923828125 0.65261459350585938
0.0096435546875 0.6005859375 0.65392684936523438
-0.001953125 0.5867919921875 0.65570449829101562
0.01318359375 0.5926513671875 0.6492919921875
0.029541015625 0.607177734375 0.65142822265625
0.02783203125 0.61083984375 0.652740478515625
-0.004638671875 0.58935546875 0.65565872192382812
0 0.5838623046875 0.65170669555664062
0.0301513671875 0.603515625 0.6485443115234375
-0.4271240234375 0.1043701171875 0.61880111694335938
-0.4185791015625 0.12060546875 0.61701202392578125
-0.4283447265625 0.10693359375 0.61682510375976562
-0.43212890625 0.086669921875 0.6176300048828125
-0.42529296875 0.1016845703125 0.61637496948242188
-0.415283203125 0.1168212890625 0.61436080932617188
-0.4219970703125 0.12451171875 0.61612701416015625
-0.43505859375 0.08837890625 0.61828231811523438
-0.431640625 0.0853271484375 0.616180419921875
0.08935546875 0.6407470703125 0.62878036499023438
0.0902099609375 0.647216796875 0.6300811767578125
0.0672607421875 0.6298828125 0.63886642456054688
0.08837890625 0.6361083984375 0.62411117553710938
0.1112060546875 0.6485595703125 0.61512374877929688
0.11328125 0.6556396484375 0.617218017578125
0.06787109375 0.6356201171875 0.6415863037109375
0.069091796875 0.6259765625 0.637359619140625
0.11083984375 0.6412353515625 0.61259078979492188
-0.4603271484375 0.0147705078125 0.605682373046875
-0.4527587890625 0.0408935546875 0.61017608642578125
-0.468505859375 0.012939453125 0.60643386840820312
-0.469970703125 -0.013427734375 0.59591293334960938
-0.456787109375 0.01513671875 0.60453033447265625
-0.4482421875 0.041015625 0.60822296142578125
-0.45849609375 0.03955078125 0.61115646362304688
-0.4755859375 -0.01611328125 0.596710205078125
-0.465087890625 -0.0113525390625 0.59607315063476562
0.15869140625 0.64990234375 0.59697723388671875
0.161865234375 0.6566162109375 0.59548187255859375
0.14599609375 0.655029296875 0.60014724731445312
0.155517578125 0.64453125 0.59478759765625
0.1710205078125 0.6429443359375 0.59445571899414062
0.1744384765625 0.6502685546875 0.59505844116210938
0.1507568359375 0.6610107421875 0.60196685791015625
0.142333984375 0.6468505859375 0.59693527221679688
0.16845703125 0.6353759765625 0.59250259399414062
-0.477783203125 -0.0712890625 0.589019775390625
-0.4769287109375 -0.056396484375 0.58922195434570312
-0.4833984375 -0.0723876953125 0.5901336669921875
-0.474609375 -0.083251953125 0.59392929077148438
-0.4696044921875 -0.0673828125 0.58713150024414062
-0.4720458984375 -0.05322265625 0.58652496337890625
-0.483642578125 -0.057861328125 0.58890914916992188
-0.4788818359375 -0.0859375 0.59449005126953125
-0.466552734375 -0.079833984375 0.58914566040039062
0.19970703125 0.6107177734375 0.59334564208984375
0.2027587890625 0.6153564453125 0.59218215942382812
0.191650390625 0.6241455078125 0.5906982421875
0.194580078125 0.6053466796875 0.59224319458007812
0.20361328125 0.593505859375 0.59534454345703125
0.209716796875 0.597412109375 0.59439468383789062
0.1953125 0.6304931640625 0.591949462890625
0.18701171875 0.618896484375 0.59009170532226562
0.19873046875 0.5885009765625 0.59333038330078125
-0.4466552734375 -0.1153564453125 0.61083221435546875
-0.458740234375 -0.1064453125 0.602264404296875
-0.452392578125 -0.1220703125 0.61241912841796875
-0.4354248046875 -0.122802734375 0.61948394775390625
-0.444580078125 -0.111083984375 0.6069183349609375
-0.4521484375 -0.10205078125 0.59983062744140625
-0.46337890625 -0.1116943359375 0.6057281494140625
-0.4376220703125 -0.1292724609375 0.62236785888671875
-0.4312744140625 -0.1171875 0.61520767211914062
0.21044921875 0.525634765625 0.607208251953125
0.216796875 0.527099609375 0.60528945922851562
0.2125244140625 0.5496826171875 0.60298538208007812
0.2047119140625 0.5234375 0.6043853759765625
0.2081298828125 0.5013427734375 0.61229705810546875
0.2132568359375 0.5009765625 0.61230850219726562
0.2174072265625 0.55029296875 0.60336685180664062
0.20751953125 0.5477294921875 0.60070037841796875
0.2052001953125 0.5010986328125 0.60796356201171875
-0.378662109375 -0.1256103515625 0.65826416015625
-0.3963623046875 -0.12890625 0.64217376708984375
-0.3797607421875 -0.1318359375 0.65914154052734375
-0.3603515625 -0.1219482421875 0.67324066162109375
-0.378662109375 -0.1201171875 0.65479660034179688
-0.3935546875 -0.122802734375 0.6388397216796875
-0.3978271484375 -0.1356201171875 0.6431427001953125
-0.361083984375 -0.12744140625 0.67685699462890625
-0.359619140625 -0.1177978515625 0.67086029052734375
0.18896484375 0.433837890625 0.63315200805664062
0.192138671875 0.43212890625 0.63480758666992188
0.1971435546875 0.4547119140625 0.62545013427734375
0.184814453125 0.4359130859375 0.63113021850585938
0.1793212890625 0.41650390625 0.6436920166015625
0.1832275390625 0.413818359375 0.64245223999023438
0.2008056640625 0.4541015625 0.62580490112304688
0.1934814453125 0.4554443359375 0.62347793579101562
0.175537109375 0.41845703125 0.64051437377929688
-0.2943115234375 -0.0970458984375 0.6996307373046875
-0.3134765625 -0.1097412109375 0.69237136840820312
-0.29248046875 -0.1015625 0.70196151733398438
-0.273681640625 -0.0841064453125 0.7078399658203125
-0.2952880859375 -0.09423828125 0.69536209106445312
-0.3150634765625 -0.10498046875 0.68767929077148438
-0.3133544921875 -0.11474609375 0.69750213623046875
-0.2701416015625 -0.0869140625 0.71216201782226562
-0.27587890625 -0.081298828125 0.7026519775390625
0.1234130859375 0.36767578125 0.66965484619140625
0.12548828125 0.3629150390625 0.671875
0.144287109375 0.3818359375 0.6621246337890625
0.1226806640625 0.3707275390625 0.66622161865234375
0.10302734375 0.3582763671875 0.67803573608398438
0.10546875 0.353759765625 0.67907333374023438
0.145263671875 0.3780517578125 0.663116455078125
0.14013671875 0.385498046875 0.65877532958984375
0.100830078125 0.3626708984375 0.673431396484375
-0.2261962890625 -0.0185546875 0.7173004150390625
-0.2386474609375 -0.0438232421875 0.71527099609375
-0.2222900390625 -0.0198974609375 0.72088241577148438
-0.2144775390625 0.0045166015625 0.7205352783203125
-0.229248046875 -0.017822265625 0.7127227783203125
-0.2432861328125 -0.0416259765625 0.71044921875
-0.2349853515625 -0.04638671875 0.71929931640625
-0.2099609375 0.0042724609375 0.7236480712890625
-0.2191162109375 0.0052490234375 0.71401596069335938
0.054443359375 0.341064453125 0.6879730224609375
0.0521240234375 0.336181640625 0.69171905517578125
0.0692138671875 0.3406982421875 0.68635177612304688
0.05322265625 0.34326171875 0.6843109130859375
0.0391845703125 0.3404541015625 0.6896209716796875
0.0380859375 0.3367919921875 0.69207000732421875
0.06884765625 0.3365478515625 0.69099044799804688
0.069580078125 0.3443603515625 0.68479156494140625
0.0399169921875 0.344482421875 0.68323516845703125
-0.1981201171875 0.0672607421875 0.71261215209960938
-0.199462890625 0.0498046875 0.71660614013671875
-0.19287109375 0.0672607421875 0.71545028686523438
-0.1966552734375 0.0799560546875 0.70566177368164062
-0.2037353515625 0.063720703125 0.706207275390625
-0.2052001953125 0.0479736328125 0.71007537841796875
-0.1959228515625 0.05078125 0.72023391723632812
-0.1944580078125 0.0804443359375 0.71141815185546875
-0.2025146484375 0.0762939453125 0.70015335083007812
-0.0513916015625 0.4451904296875 0.671478271484375
-0.0555419921875 0.444580078125 0.67590713500976562
-0.0469970703125 0.4300537109375 0.67450332641601562
-0.047119140625 0.4471435546875 0.66444015502929688
-0.0533447265625 0.4609375 0.6677703857421875
-0.0576171875 0.4603271484375 0.67108154296875
-0.050048828125 0.4290771484375 0.67728042602539062
-0.04296875 0.43310546875 0.66728973388671875
-0.0489501953125 0.4620361328125 0.66402816772460938
-0.29296875 0.1717529296875 0.66196441650390625
-0.2803955078125 0.1688232421875 0.6656494140625
-0.2901611328125 0.17822265625 0.664581298828125
-0.3072509765625 0.1759033203125 0.65613174438476562
-0.29443359375 0.1654052734375 0.65812301635742188
-0.2808837890625 0.162353515625 0.66158676147460938
-0.2772216796875 0.1744384765625 0.66809844970703125
-0.3033447265625 0.18408203125 0.658111572265625
-0.307861328125 0.1710205078125 0.65318679809570312
-0.026611328125 0.3919677734375 0.68041610717773438
-0.0286865234375 0.3880615234375 0.68497085571289062
-0.01806640625 0.3802490234375 0.682220458984375
-0.0242919921875 0.3941650390625 0.6759185791015625
-0.0340576171875 0.403564453125 0.67707443237304688
-0.0374755859375 0.3995361328125 0.68196868896484375
-0.02001953125 0.3768310546875 0.68761062622070312
-0.0150146484375 0.38330078125 0.67617034912109375
-0.0306396484375 0.405517578125 0.67332077026367188
-0.2425537109375 0.1483154296875 0.678497314453125
-0.2318115234375 0.1400146484375 0.6828155517578125
-0.23876953125 0.1541748046875 0.68341827392578125
-0.25537109375 0.1561279296875 0.6727752685546875
-0.248046875 0.14501953125 0.67188262939453125
-0.236572265625 0.135986328125 0.67751312255859375
-0.22705078125 0.1441650390625 0.68846511840820312
-0.251953125 0.1612548828125 0.67650222778320312
-0.2584228515625 0.1529541015625 0.66735458374023438
0.008056640625 0.3548583984375 0.68506622314453125
0.0069580078125 0.35009765625 0.6906585693359375
0.0167236328125 0.3485107421875 0.68375396728515625
0.0089111328125 0.359375 0.6778411865234375
-0.0008544921875 0.3616943359375 0.68213272094726562
-0.0028076171875 0.3577880859375 0.68816375732421875
0.0159912109375 0.3426513671875 0.68854522705078125
0.0191650390625 0.3526611328125 0.68006515502929688
0.001220703125 0.366455078125 0.67803573608398438
-0.2080078125 0.1112060546875 0.692962646484375
-0.2059326171875 0.101806640625 0.69719314575195312
-0.2047119140625 0.114990234375 0.69865036010742188
-0.2137451171875 0.1212158203125 0.68877410888671875
-0.212646484375 0.1077880859375 0.68722152709960938
-0.20947265625 0.098876953125 0.69089126586914062
-0.20166015625 0.10400390625 0.70200729370117188
-0.2103271484375 0.1243896484375 0.69440078735351562
-0.2197265625 0.11767578125 0.68396377563476562
-0.19873046875 0.3946533203125 0.56505584716796875
-0.20703125 0.3968505859375 0.5936431884765625
-0.1983642578125 0.4219970703125 0.5634613037109375
-0.1962890625 0.3953857421875 0.53636932373046875
-0.208740234375 0.373779296875 0.56396484375
-0.2119140625 0.3780517578125 0.59412002563476562
-0.2056884765625 0.4222412109375 0.59176254272460938
-0.192138671875 0.426025390625 0.53546905517578125
-0.2066650390625 0.3734130859375 0.53559494018554688
-0.2518310546875 0.3367919921875 0.55583572387695312
-0.275390625 0.3323974609375 0.5431976318359375
-0.2510986328125 0.3428955078125 0.58321380615234375
-0.2349853515625 0.3458251953125 0.55994415283203125
-0.25439453125 0.332275390625 0.52663421630859375
-0.279541015625 0.32177734375 0.51531982421875
-0.2733154296875 0.3414306640625 0.5740203857421875
-0.2327880859375 0.350341796875 0.58750152587890625
-0.2332763671875 0.341552734375 0.5340118408203125
-0.2130126953125 0.5323486328125 0.5524139404296875
-0.22216796875 0.5301513671875 0.58107757568359375
-0.2188720703125 0.5714111328125 0.55144119262695312
-0.198486328125 0.541748046875 0.52901840209960938
-0.202392578125 0.4915771484375 0.55517196655273438
-0.212646484375 0.4898681640625 0.5828857421875
-0.2286376953125 0.5718994140625 0.57720565795898438
-0.2080078125 0.575927734375 0.52837753295898438
-0.1915283203125 0.501220703125 0.5299835205078125
-0.3719482421875 0.3509521484375 0.51424026489257812
-0.4049072265625 0.35986328125 0.50211715698242188
-0.3697509765625 0.361328125 0.54163742065429688
-0.3389892578125 0.3433837890625 0.52565765380859375
-0.3785400390625 0.33544921875 0.48728561401367188
-0.4071044921875 0.3431396484375 0.47667312622070312
-0.405517578125 0.3701171875 0.5298309326171875
-0.3341064453125 0.3509521484375 0.55369186401367188
-0.34326171875 0.3289794921875 0.4960784912109375
-0.206787109375 0.676025390625 0.54965591430664062
-0.2171630859375 0.67919921875 0.57570266723632812
-0.1895751953125 0.703125 0.5453948974609375
-0.190185546875 0.6707763671875 0.52151107788085938
-0.2171630859375 0.6475830078125 0.54558563232421875
-0.227783203125 0.64697265625 0.57401275634765625
-0.1949462890625 0.70849609375 0.57503890991210938
-0.172119140625 0.6954345703125 0.52544784545898438
-0.203369140625 0.6434326171875 0.52222442626953125
-0.49169921875 0.343994140625 0.45612335205078125
-0.5152587890625 0.3212890625 0.4430389404296875
-0.4976806640625 0.3536376953125 0.48212051391601562
-0.4716796875 0.3582763671875 0.47113037109375
-0.48828125 0.3277587890625 0.43485260009765625
-0.50634765625 0.30859375 0.42529296875
-0.519775390625 0.3309326171875 0.46725845336914062
-0.473876953125 0.36962890625 0.49541854858398438
-0.4617919921875 0.343505859375 0.4505767822265625
-0.0924072265625 0.7431640625 0.53830718994140625
-0.099365234375 0.75146484375 0.56150054931640625
-0.04931640625 0.7506103515625 0.53303146362304688
-0.087646484375 0.7275390625 0.51778411865234375
-0.130859375 0.735595703125 0.54336929321289062
-0.13232421875 0.7440185546875 0.568695068359375
-0.0550537109375 0.7589111328125 0.56253814697265625
-0.044677734375 0.73681640625 0.50872802734375
-0.1246337890625 0.7203369140625 0.52117919921875
-0.5496826171875 0.2110595703125 0.42650222778320312
-0.55810546875 0.1661376953125 0.4251251220703125
-0.5560302734375 0.2177734375 0.45027542114257812
-0.541015625 0.2548828125 0.42811203002929688
-0.5391845703125 0.2103271484375 0.4042205810546875
-0.5430908203125 0.1640625 0.40404510498046875
-0.56787109375 0.169677734375 0.45249557495117188
-0.550048828125 0.2611083984375 0.44930648803710938
-0.5299072265625 0.2491455078125 0.41143035888671875
0.0804443359375 0.78564453125 0.514129638671875
0.078857421875 0.794921875 0.5419464111328125
0.1170654296875 0.80224609375 0.50540542602539062
0.080810546875 0.77490234375 0.48046875
0.04052734375 0.77490234375 0.52154541015625
0.03369140625 0.782958984375 0.55104446411132812
0.1182861328125 0.8089599609375 0.5351104736328125
0.117919921875 0.7904052734375 0.47468185424804688
0.0433349609375 0.7598876953125 0.49181747436523438
-0.589111328125 0.0135498046875 0.41089630126953125
-0.60595703125 -0.0323486328125 0.4055023193359375
-0.594482421875 0.01904296875 0.43606948852539062
-0.578857421875 0.0643310546875 0.41721725463867188
-0.580078125 0.01171875 0.38478851318359375
-0.59521484375 -0.0347900390625 0.3762969970703125
-0.6109619140625 -0.0302734375 0.43344497680664062
-0.58447265625 0.067626953125 0.44281005859375
-0.566650390625 0.0609130859375 0.394378662109375
0.208984375 0.8365478515625 0.4846038818359375
0.2103271484375 0.848388671875 0.51216888427734375
0.237548828125 0.83740234375 0.46798324584960938
0.2069091796875 0.8199462890625 0.45333480834960938
0.1820068359375 0.82958984375 0.49757766723632812
0.1822509765625 0.8380126953125 0.52657699584960938
0.2396240234375 0.8477783203125 0.4971771240234375
0.2347412109375 0.82275390625 0.44140243530273438
0.1800537109375 0.8134765625 0.46265029907226562
-0.6385498046875 -0.1473388671875 0.40034866333007812
-0.646240234375 -0.18115234375 0.396209716796875
-0.644775390625 -0.146728515625 0.42481231689453125
-0.6290283203125 -0.114013671875 0.40200042724609375
-0.6329345703125 -0.1470947265625 0.3713226318359375
-0.6392822265625 -0.1800537109375 0.36944961547851562
-0.6502685546875 -0.18017578125 0.42515945434570312
-0.634521484375 -0.1129150390625 0.42730712890625
-0.6231689453125 -0.1148681640625 0.37284469604492188
0.311767578125 0.757080078125 0.40134429931640625
0.31640625 0.7647705078125 0.42732620239257812
0.33154296875 0.70654296875 0.38397979736328125
0.30810546875 0.74560546875 0.37611770629882812
0.2877197265625 0.7991943359375 0.42844009399414062
0.2911376953125 0.806640625 0.45354461669921875
0.3348388671875 0.7149658203125 0.40325546264648438
0.3280029296875 0.696044921875 0.35594558715820312
0.280517578125 0.7864990234375 0.39950942993164062
-0.603515625 -0.2843017578125 0.41213607788085938
-0.5794677734375 -0.3138427734375 0.41867828369140625
-0.609375 -0.2830810546875 0.43780136108398438
-0.6248779296875 -0.25048828125 0.40769195556640625
-0.600341796875 -0.281494140625 0.38427352905273438
-0.5784912109375 -0.312255859375 0.3906707763671875
-0.580810546875 -0.3118896484375 0.44439315795898438
-0.633056640625 -0.251708984375 0.43120574951171875
-0.6171875 -0.246826171875 0.3802642822265625
0.3443603515625 0.537841796875 0.36359786987304688
0.34814453125 0.5457763671875 0.39052581787109375
0.3404541015625 0.4842529296875 0.3758697509765625
0.339599609375 0.5308837890625 0.33406829833984375
0.344482421875 0.5946044921875 0.36085891723632812
0.35205078125 0.5999755859375 0.38637542724609375
0.343505859375 0.49169921875 0.40058517456054688
0.3375244140625 0.4781494140625 0.3462677001953125
0.34130859375 0.5885009765625 0.33211517333984375
-0.4505615234375 -0.3453369140625 0.47544479370117188
-0.410888671875 -0.337890625 0.50507736206054688
-0.4493408203125 -0.343505859375 0.50385665893554688
-0.493896484375 -0.3436279296875 0.44906234741210938
-0.454833984375 -0.348876953125 0.44456100463867188
-0.4136962890625 -0.3427734375 0.46946334838867188
-0.4111328125 -0.33740234375 0.5312652587890625
-0.494140625 -0.34033203125 0.47620010375976562
-0.494384765625 -0.3463134765625 0.41666412353515625
0.3087158203125 0.338134765625 0.41611099243164062
0.3128662109375 0.3428955078125 0.440521240234375
0.295654296875 0.292236328125 0.4268798828125
0.303466796875 0.3304443359375 0.38736343383789062
0.3214111328125 0.384033203125 0.40561676025390625
0.324951171875 0.3902587890625 0.4323577880859375
0.3001708984375 0.29638671875 0.44926071166992188
0.2872314453125 0.2852783203125 0.40095901489257812
0.3162841796875 0.3756103515625 0.37222671508789062
-0.29052734375 -0.304931640625 0.55684280395507812
-0.2513427734375 -0.2926025390625 0.57026290893554688
-0.28369140625 -0.3017578125 0.58154678344726562
-0.3302001953125 -0.3184814453125 0.54496002197265625
-0.295166015625 -0.311279296875 0.52265167236328125
-0.2542724609375 -0.294189453125 0.53577804565429688
-0.24755859375 -0.2857666015625 0.595855712890625
-0.328125 -0.31591796875 0.57076263427734375
-0.3358154296875 -0.3280029296875 0.51082992553710938
0.20263671875 -0.296630859375 0.3652801513671875
0.18798828125 -0.3238525390625 0.37690353393554688
0.194580078125 -0.2818603515625 0.3474578857421875
0.21826171875 -0.267333984375 0.35776901245117188
0.21923828125 -0.3154296875 0.38368606567382812
0.201904296875 -0.3419189453125 0.39053726196289062
0.1781005859375 -0.3092041015625 0.361785888671875
0.2093505859375 -0.2510986328125 0.33748626708984375
0.2314453125 -0.2857666015625 0.378326416015625
0.12548828125 -0.37841796875 0.4117279052734375
0.10888671875 -0.3685302734375 0.39461135864257812
0.148193359375 -0.36279296875 0.39961624145507812
0.14501953125 -0.3917236328125 0.42738723754882812
0.1007080078125 -0.3876953125 0.42647171020507812
0.0811767578125 -0.3798828125 0.40863418579101562
0.135009765625 -0.3544921875 0.38440322875976562
0.1656494140625 -0.377685546875 0.41559982299804688
0.1229248046875 -0.39990234375 0.4437713623046875
0.27392578125 -0.399169921875 0.42920303344726562
0.255615234375 -0.4239501953125 0.44060516357421875
0.2528076171875 -0.36572265625 0.41637420654296875
0.291259765625 -0.37255859375 0.42079925537109375
0.2945556640625 -0.4320068359375 0.44054794311523438
0.279052734375 -0.4556884765625 0.4495086669921875
0.237060546875 -0.388427734375 0.42790985107421875
0.2685546875 -0.343505859375 0.40935134887695312
0.31103515625 -0.407958984375 0.43222808837890625
0.2000732421875 -0.4669189453125 0.47698974609375
0.1826171875 -0.4344482421875 0.46224594116210938
0.2208251953125 -0.4571533203125 0.46640777587890625
0.223876953125 -0.5029296875 0.49614715576171875
0.182373046875 -0.4742431640625 0.49304580688476562
0.163330078125 -0.4464111328125 0.48150634765625
0.20068359375 -0.4241943359375 0.44957351684570312
0.2427978515625 -0.4910888671875 0.47321319580078125
0.2034912109375 -0.5128173828125 0.50963211059570312
0.3677978515625 -0.511962890625 0.4870147705078125
0.3546142578125 -0.534912109375 0.50430679321289062
0.3424072265625 -0.4920654296875 0.465484619140625
0.3814697265625 -0.48974609375 0.464111328125
0.38916015625 -0.529052734375 0.504486083984375
0.37646484375 -0.5501708984375 0.52141952514648438
0.3289794921875 -0.51416015625 0.48125839233398438
0.361572265625 -0.468017578125 0.45511627197265625
0.4014892578125 -0.5050048828125 0.48263931274414062
0.2955322265625 -0.589111328125 0.55222702026367188
0.2744140625 -0.56494140625 0.5332183837890625
0.3182373046875 -0.572509765625 0.53722000122070312
0.3173828125 -0.602294921875 0.57748794555664062
0.2711181640625 -0.599365234375 0.56897735595703125
0.2490234375 -0.578125 0.54735565185546875
0.29296875 -0.5513916015625 0.51711273193359375
0.339111328125 -0.5892333984375 0.55965805053710938
0.2939453125 -0.618896484375 0.591217041015625
0.4385986328125 -0.528564453125 0.56837844848632812
0.450439453125 -0.518310546875 0.58752059936523438
0.4219970703125 -0.550048828125 0.58662796020507812
0.4263916015625 -0.5355224609375 0.5494384765625
0.4541015625 -0.50732421875 0.54261398315429688
0.4649658203125 -0.4959716796875 0.5634765625
0.432373046875 -0.5399169921875 0.60729217529296875
0.4107666015625 -0.55712890625 0.5653839111328125
0.4404296875 -0.5140380859375 0.52397918701171875
0.357421875 -0.60791015625 0.64223861694335938
0.383056640625 -0.591064453125 0.624176025390625
0.368408203125 -0.600830078125 0.66402435302734375
0.336181640625 -0.6290283203125 0.66014862060546875
0.3468017578125 -0.61474609375 0.6225128173828125
0.3712158203125 -0.5968017578125 0.6036529541015625
0.3892822265625 -0.580322265625 0.64823150634765625
0.34716796875 -0.6182861328125 0.68144989013671875
0.3236083984375 -0.63134765625 0.63908004760742188
0.498779296875 -0.446533203125 0.47098922729492188
0.5106201171875 -0.438720703125 0.49547576904296875
0.4866943359375 -0.4674072265625 0.49140167236328125
0.484619140625 -0.44970703125 0.45360183715820312
0.5079345703125 -0.4267578125 0.452880859375
0.5203857421875 -0.4197998046875 0.4752044677734375
0.4967041015625 -0.4559326171875 0.51253128051757812
0.4725341796875 -0.4693603515625 0.47409439086914062
0.4923095703125 -0.429931640625 0.43214797973632812
0.26513671875 -0.67919921875 0.70071029663085938
0.2890625 -0.662841796875 0.69140243530273438
0.2764892578125 -0.670654296875 0.72298812866210938
0.24365234375 -0.6905517578125 0.70682525634765625
0.25244140625 -0.681396484375 0.67671585083007812
0.276123046875 -0.6656494140625 0.66725540161132812
0.297119140625 -0.654541015625 0.7100067138671875
0.2548828125 -0.682373046875 0.72869873046875
0.2340087890625 -0.6903076171875 0.68255996704101562
0.497802734375 -0.3636474609375 0.41765975952148438
0.5167236328125 -0.3619384765625 0.44160842895507812
0.5079345703125 -0.3873291015625 0.42341232299804688
0.4781494140625 -0.3677978515625 0.40484619140625
0.48388671875 -0.3377685546875 0.42190933227539062
0.5078125 -0.336181640625 0.4410247802734375
0.52587890625 -0.3818359375 0.44550323486328125
0.4888916015625 -0.3919677734375 0.41072845458984375
0.461181640625 -0.3421630859375 0.40386581420898438
0.1907958984375 -0.673583984375 0.70437240600585938
0.2066650390625 -0.6878662109375 0.70775604248046875
0.205810546875 -0.6744384765625 0.733245849609375
0.1680908203125 -0.65478515625 0.69934844970703125
0.1783447265625 -0.670654296875 0.6743621826171875
0.197265625 -0.6839599609375 0.68063735961914062
0.217041015625 -0.6861572265625 0.73241424560546875
0.1900634765625 -0.656494140625 0.73223114013671875
0.1607666015625 -0.646240234375 0.66394805908203125
0.4378662109375 -0.2462158203125 0.42882537841796875
0.46435546875 -0.245361328125 0.45521163940429688
0.4549560546875 -0.279296875 0.42821884155273438
0.4140625 -0.2474365234375 0.40943527221679688
0.4208984375 -0.212890625 0.4315032958984375
0.44677734375 -0.210205078125 0.46070098876953125
0.481201171875 -0.27880859375 0.45087051391601562
0.43115234375 -0.280517578125 0.4068145751953125
0.385498046875 -0.218994140625 0.41241836547851562
0.1192626953125 -0.5635986328125 0.67601776123046875
0.135498046875 -0.59814453125 0.68260955810546875
0.1326904296875 -0.574462890625 0.71587753295898438
0.1031494140625 -0.5250244140625 0.6695404052734375
0.109619140625 -0.5438232421875 0.63772201538085938
0.12353515625 -0.5809326171875 0.64407730102539062
0.152587890625 -0.6075439453125 0.72197723388671875
0.117919921875 -0.538818359375 0.70963668823242188
0.0899658203125 -0.5081787109375 0.62335968017578125
0.33642578125 -0.2933349609375 0.39546966552734375
0.3590087890625 -0.3262939453125 0.39960861206054688
0.3212890625 -0.3189697265625 0.406402587890625
0.3160400390625 -0.26171875 0.39500045776367188
0.3568115234375 -0.271728515625 0.39502716064453125
0.3800048828125 -0.3048095703125 0.394927978515625
0.3453369140625 -0.349365234375 0.40890121459960938
0.2977294921875 -0.286376953125 0.39902877807617188
0.3370361328125 -0.239990234375 0.39434432983398438
0.125732421875 -0.5040283203125 0.54572296142578125
0.141845703125 -0.49267578125 0.52631378173828125
0.1407470703125 -0.5384521484375 0.5583648681640625
0.11328125 -0.5146484375 0.56855010986328125
0.1055908203125 -0.4708251953125 0.52618408203125
0.123779296875 -0.4608154296875 0.51037979125976562
0.1593017578125 -0.5283203125 0.54456710815429688
0.1285400390625 -0.5469970703125 0.57963943481445312
0.092041015625 -0.4803466796875 0.54962158203125
0.427001953125 -0.4169921875 0.41197967529296875
0.4404296875 -0.39404296875 0.40174484252929688
0.4437255859375 -0.4354248046875 0.42292022705078125
0.410888671875 -0.439208984375 0.426788330078125
0.4080810546875 -0.390625 0.40576934814453125
0.421875 -0.3670654296875 0.39943695068359375
0.4580078125 -0.4176025390625 0.408233642578125
0.4315185546875 -0.4560546875 0.43906402587890625
0.3922119140625 -0.416015625 0.41928863525390625
0.2030029296875 -0.6378173828125 0.608978271484375
0.2227783203125 -0.659912109375 0.63104248046875
0.1876220703125 -0.6494140625 0.62311935424804688
0.1802978515625 -0.6123046875 0.5896759033203125
0.224365234375 -0.625732421875 0.594879150390625
0.24560546875 -0.6473388671875 0.6215667724609375
0.2052001953125 -0.670166015625 0.64247894287109375
0.1669921875 -0.62158203125 0.6107330322265625
0.2064208984375 -0.59765625 0.57571792602539062
0.2615966796875 -0.1790771484375 0.3684844970703125
0.2799072265625 -0.1536865234375 0.38116836547851562
0.2769775390625 -0.202880859375 0.379852294921875
0.2479248046875 -0.2059326171875 0.35921859741210938
0.2547607421875 -0.1561279296875 0.35598373413085938
0.2691650390625 -0.132080078125 0.37633895874023438
0.2939453125 -0.179931640625 0.39100265502929688
0.2613525390625 -0.2293701171875 0.37752532958984375
0.2384033203125 -0.1876220703125 0.34102249145507812
0.04541015625 -0.39404296875 0.48231887817382812
0.06591796875 -0.415771484375 0.49463653564453125
0.03857421875 -0.3958740234375 0.5103302001953125
0.0267333984375 -0.380859375 0.47052764892578125
0.062255859375 -0.395751953125 0.45633316040039062
0.0826416015625 -0.412353515625 0.47463607788085938
0.056884765625 -0.42138671875 0.52078628540039062
0.0189208984375 -0.3768310546875 0.49983978271484375
0.04248046875 -0.3839111328125 0.44436264038085938
0.3521728515625 -0.11474609375 0.45294952392578125
0.3834228515625 -0.11181640625 0.48110198974609375
0.376953125 -0.1463623046875 0.44742584228515625
0.3255615234375 -0.11962890625 0.42612075805664062
0.329833984375 -0.0849609375 0.4582672119140625
0.355224609375 -0.0792236328125 0.486297607421875
0.3997802734375 -0.143310546875 0.46955490112304688
0.3472900390625 -0.15185546875 0.42591476440429688
0.311279296875 -0.0938720703125 0.43102264404296875
0.0435791015625 -0.4210205078125 0.62711715698242188
0.0628662109375 -0.4547119140625 0.63887786865234375
0.0572509765625 -0.4290771484375 0.67411041259765625
0.031494140625 -0.389892578125 0.61706161499023438
0.0386962890625 -0.411865234375 0.5843353271484375
0.056640625 -0.44189453125 0.59263992309570312
0.0748291015625 -0.4613037109375 0.68660354614257812
0.039794921875 -0.395751953125 0.6580047607421875
0.02294921875 -0.3829345703125 0.5784149169921875
0.2325439453125 0.0294189453125 0.47454452514648438
0.2420654296875 0.0184326171875 0.46951675415039062
0.226318359375 0.026611328125 0.44886398315429688
0.2239990234375 0.037353515625 0.478118896484375
0.239501953125 0.0299072265625 0.4998016357421875
