# XYZ point cloud file
-0.16412835448871022 -0.75184131238397356 0.45544351636084457
-0.82114706636272672 -0.32389714605914577 0.0065614309153545491
-0.63076944630073228 0.27051246365527959 -0.22339339024152594
0.11633334828862019 -0.82178234487125223 0.32018106784958889
-1.2058537062840458 -0.59534243820552746 -0.96092646186269803
0.7455586205703213 -0.51058147920040398 0.19666858959060107
-0.76850507823850478 -0.74234709104249674 0.087746805673063477
-0.35591269455279928 0.50262157175993849 -0.22591137709085274
-1.244956642847427 -0.62617838051770747 -0.81576770323438552
-0.33877331722308668 -0.066579128254836917 0.42175567404920855
-0.94742648822091269 0.10030838840197021 -0.017311941969140321
-0.33908624049753655 -0.74672076214067573 0.61650663996695698
0.071080115683940903 1.0885307326309714 0.11762831208793045
0.76521542755666871 0.69418615474501877 -0.46850417743146977
-0.14670666986069136 0.68267000650872234 -0.25339666539449013
0.05869570413850056 -0.99841495850242268 0.016935619133775504
0.2044758977212382 0.92439056269599007 0.3156339319461523
-1.1407967042502207 0.19945922155174145 -0.33196187216762496
-0.16773793206161258 0.81023132171888079 0.22918890698717576
-1.0095679955585695 -0.55189875283387124 -0.63605462210782093
0.71809337328481604 1.2416662731946175 -0.11210074301226314
-0.3274805980250477 0.88516424609067457 0.24192002304741322
-0.19888292160173648 -1.1005362722480356 -0.25537189220048617
-0.1096576372051743 -0.13499227488331655 0.32721030491673275
-0.81684580715580068 -0.19504129015678018 -0.036869347799552088
-0.83438961292634417 0.18080454642830546 0.069833961034788672
-0.63846061926443554 -0.29535968354601039 0.10929631382292371
0.73326831983857232 0.46307245301301236 -0.57306840598424458
-0.36449472760595825 0.56158008712380081 -0.18305878599188929
0.15568445164871036 -0.95254058113940943 0.078815306203978253
0.03625718341169204 0.38600639027929873 0.61587743366996506
0.84259041862149786 0.24774517193935708 0.59730875015216611
-0.99542632043169021 -0.13753385359370895 -0.3589618954091236
0.23056031859825055 0.33929429563541191 0.75052735015930239
0.55995891677368093 1.2729634700578814 -0.042548700736588785
-0.77089030654981627 -0.1402248426698165 -0.20334468737380007
0.83530454201559223 -0.11597481144627153 -0.54728482995979277
0.12429243603679652 -0.88842733766947646 0.4232325700541395
-0.11247533813556743 1.0108472165030946 0.0316387985566422
-0.61978608639108757 0.50164807200643224 -0.11005310411150049
0.16998575214535094 -0.81115155067064393 0.29827419688014345
0.089147395748440772 0.6432058344014564 0.54275657636289054
-0.057646414293699877 -0.98344171487622134 0.26541577695277851
-0.37040787524065877 0.57345758225207533 -0.16524623149183526
-0.043134475761306135 -0.92581915499371803 0.50915737891970991
0.21991833077869671 0.19342594755907783 0.69649468970052908
-1.0686327593389393 -0.70135907119237118 -0.67264901696370316
0.36730768006756875 -0.61589903144719926 -0.13898762331524495
0.76347199386964348 0.85265438313487607 0.48250157101320212
0.034808907964347213 -0.000456063772567461 0.53918696509524011
-0.47267348406397502 0.56018220622551951 -0.11809212586496187
-0.80986225476615914 -0.84004747444188865 0.39336511484222569
0.65072601796740059 -0.028825677950919726 -0.43931056594652773
0.2001877333148343 0.77056958539895959 -0.58938306131987872
0.0078942249834170752 -1.0138395440879577 0.32385763420138858
0.86243385573203568 0.55937953870964918 0.49462394853547664
0.18115132011685375 0.43193581151513882 0.7411829208381846
0.407568992888244 -0.18206515772678245 -0.54265383645369525
0.14102674229603451 -0.50530280872210653 -0.39723309008657282
-0.33888881302513596 0.72726645209672824 0.3972229544417587
-0.26732325304854498 -0.76325113068178041 0.2656100480468524
-1.1954734095314734 -0.0576219109516245 -0.36749507530494441
0.30150077231211014 1.0358728725312716 -0.19786002402612723
-0.51992158144871325 -0.76777121766052403 0.56730126576678686
-0.15848036823842904 0.54077421308849694 -0.31092355120902937
-0.56517269874657927 -0.8342349190429772 0.24742975406456935
0.65536536465045003 -0.51157888500964788 0.34613886271850447
-1.0784172526355462 -0.82662059509704022 -0.13219071338470201
0.17265336752521421 0.084014423961889406 -0.61038300498307763
-0.070408181418230242 -0.89213643874801107 -0.091171611842895572
0.49604354906109904 -0.80649697913274565 0.43164307423633375
0.13953733728044426 0.74123226810718279 0.69588674565748931
0.46684326203562421 -0.24476516750773669 -0.49437730060090246
0.45273478126415512 -0.41754930051243377 -0.41375680210488497
-0.81468159381654459 -0.80087243822102039 -0.45861405228120589
-0.47876200639150568 -0.18561478876171833 0.26641999181246945
-0.16101970602504423 0.72149433887305037 0.41992958396875224
0.69247832478743021 -0.38817936612394277 -0.34729261865979311
0.034410842789938556 -0.84098841990540052 0.3816622389227291
-0.47689027090311242 -1.0106506197865386 0.20093872718329919
0.0070594750445991394 0.79347202883204915 -0.53540631892049362
0.59758094841218679 0.064938745100384665 -0.57499595231820422
-0.21952297992018543 0.93872275179621312 0.24896022572670518
-1.2292653355393952 -0.021160178534323393 -0.41392492723841201
0.71460091846516605 0.022668058866820218 0.64651368296689782
-0.79254831684424687 0.33089016951683448 -0.18317199155099217
-0.85790017815332931 0.30672966766655207 0.050793219244738452
0.19076727626095646 0.3089790289396035 -0.62968855875715235
0.12636386261854682 -0.48224288406190396 0.50588518851600384
-0.85363070660964979 -0.92831665128903751 0.036659107845480321
-0.71826971347483948 -0.82715593534971532 0.40789951879314401
-1.1053560991006748 0.22297608876412056 -0.1600628312286716
0.02412996770050313 1.0370648338974959 0.21330089812721553
0.93956560862180538 0.53573707694939543 0.15127432491290449
0.03696729565466228 -0.60949649383896798 -0.34663348681240791
0.87299086964750927 -0.32316915074993346 0.085421883369875218
-0.60448276865388095 -0.47212156568998864 -0.01485269395971045
0.073315280664246529 0.55546209039201244 0.58100681719592728
0.75377008330244166 0.2369020326055562 -0.43678370113165954
0.8596947956055061 -0.20685811892272454 0.057794525573669375
0.027276277675596816 0.61169368576057792 0.5505146261228191
-0.2260010085347659 0.79173816815797693 0.24243863895445372
0.85880404527613052 -0.17968169610103502 0.17516773731126989
0.34948607657004516 1.1736523318206196 0.18829124671692909
0.83129051320938174 -0.16646703864122969 0.3660186246405317
0.013136559600397391 -0.20867741949118113 0.56025096873752034
-0.76470745338389179 -0.73257288771048934 0.3089479424955357
0.62863733440565284 1.063005042819384 -0.21438831412004333
-0.026113203447437172 0.80877157398826682 -0.50653631733680982
0.90962980108598401 0.03109918229979769 0.56356993248844844
-0.05980416204299388 0.86633408954629942 -0.0306643227595913
0.0090659808685700227 -0.72490306330693954 0.59455675796921525
0.36609878059300627 0.42785685314274957 0.64667452478094845
0.84381525248251421 -0.018561798323432299 0.014452776537339673
-0.098822665131777399 0.99970431845415675 -0.097098177816775433
-1.0344452092150789 -0.80740083295395237 -0.48710541455406542
-0.36330087085100615 0.87452575703793656 -0.1565685891072377
0.50680197118492742 1.111353672095774 -0.023341466810947509
0.11238037290743819 -0.94106101077535698 -0.042961835293638728
0.3475587618831355 -0.74869471361131446 0.35684615510999151
0.55366136122806608 0.89011072291218341 0.50076406343967506
0.84448792439390274 0.8830120148185614 -0.077225572908503182
0.81246440028625955 -0.25530961416863107 0.33561569870212793
-0.16948775384560122 0.94315961480339894 -0.16172706587335028
0.91051399642678632 0.065245352407032442 0.48622068384248962
0.97680545229181348 -0.37649204453932583 -0.14601331322792532
-0.72271687497074311 0.46065113468234387 -0.088924240194913295
-1.1381187835211648 -0.7687105497065474 -0.24918129762350816
-0.23885451730602369 0.47848840302408746 -0.29516235667085766
-1.0801913117326478 -0.33126261778183164 -0.030357734633469136
0.47547946508258576 0.034083142988322379 -0.61038452724532988
0.79292810032293914 -0.21435048992697148 0.51270760598463028
0.17850885568309138 0.80186165354576389 -0.51933097823282992
-0.096015850466514507 -0.7471693262797956 0.23878308729855746
-0.069034007346530757 0.85024750973288832 0.18586882573696073
-0.93263423416541968 0.23791427061139103 0.016962012453703323
0.65324218442707149 1.042159715991076 0.31704003596443897
0.034997564144674698 0.93782337107580815 -0.21443216515635299
0.80503075019298365 0.84649291920726455 -0.23513859324798148
0.85534979846430303 -0.064639044366650467 0.31138164380882927
-0.99794077759692357 0.020640205097272712 -0.45323041799208852
-0.3037923217284515 -0.25859407931194056 0.50812676377834975
-0.23017060076908535 0.38074749621622317 0.47534716666299914
-0.72529733346915748 0.24870196728229388 0.12307854328476253
-0.01096514840442353 0.98733790193962534 -0.17519259571196244
0.95257790652452456 0.22126725326118901 0.44478009538664764
-0.71049360464664346 0.043992159858497359 0.061163106015271751
-0.079510722286769919 0.68625012588336176 0.53150343735511285
-0.12849576993694711 0.32438681788287482 0.58606167335938153
-0.16649610558293659 -0.97549675455157825 0.13439245521678345
-0.89723011401682129 0.27886367253983479 0.019108110591801619
-0.65784296901904327 0.5949156753891458 0.032931284752706347
0.31224431003303721 -0.82806527678980757 0.010368488193179815
-0.78022670397989202 -0.85642940964500269 0.39037538864833721
-0.81882746356239977 -0.24387177374772762 -0.20238205055909475
0.37181891257780819 1.2281536333646699 0.0200505260010857
0.93992175602612349 -0.36851683266625912 -0.38511907337944251
0.96123413554762749 0.46226628924204505 0.33503266190450631
0.95775471630844322 0.49005820726490867 0.33622061882870469
0.094508393076665698 -0.81319354770420205 0.4316433268199944
0.79472588118716203 -0.54377840544179179 0.11855826806475989
-0.49093755976855391 -0.22064506206503864 -0.21303174079838527
-0.26912934476929706 0.90754330398923599 0.20310352035025403
-0.57970676826062117 -0.72903732084871109 0.48251407640758259
0.58066202416718227 1.2344962550066541 0.2579155775102322
0.67835758594257811 0.74520450866121735 0.56989709923472276
-1.05906439437166 0.032439269844303453 -0.17929900761832585
-0.34877045290389219 -0.32432080478531589 0.47617479950912411
0.97240191402573828 0.3081937308712952 0.25069940973794758
-0.82245763850718845 0.023602646084420087 -0.36153967462259118
-0.53177386483166345 -0.5988923213276891 -0.14026309806232007
0.56005822999233601 0.13835868106578886 -0.58698569144090129
-0.39675886096088675 -0.97763529483322742 -0.022979070212883812
0.68742864472302756 0.34452054917996122 0.61656652060786143
0.63709856816313959 1.0871695300898097 0.19385236155908103
-1.1709505808816374 0.075244418271573466 -0.47861628074795703
-0.069929714806178822 0.61370711685952273 0.53233918825522153
-0.81369798466408838 -0.56830098205573876 0.15813454911545932
0.4227513676820962 1.2084217312493166 0.015941076820666922
-1.1318837030636928 0.035616020063891085 -0.27010811965159576
0.051678680074090266 -0.89464618051778189 0.36341004180940217
-1.0434405453661384 -0.76734928149807047 -0.21545098518033967
0.37589816252467756 -0.62026991207958559 0.056672625112881292
-0.45631372566489858 0.84760664659940232 0.071320522275911458
0.22488777320590714 1.1567306975895804 0.049708011249961714
0.98228535571213627 -0.3775800818526136 -0.24126992499917321
0.19450138849012433 0.88316681779121353 -0.37051376143305959
0.73702009200442831 -0.06642746028517621 0.60658052238719051
0.1789314235860644 0.24599702712785643 -0.62443743281804132
0.87724374959090312 0.78658692535999108 0.34599020890158272
0.41982175129341215 1.2133765243158123 0.22063810235032122
-0.98185372469022525 0.061572023877204174 -0.4333607550979508
0.28040315567314167 -0.76605635303739916 0.34486404902843049
0.31137781016681743 0.80989464694338409 -0.50399430054237371
-0.83689817668013688 0.50385665029211424 -0.002330631335439648
-0.99771819226673131 0.32775354690792824 -0.14610643762799214
-1.0262814743965407 -0.25246199710937844 -0.20548142591297847
-1.2438586580818338 -0.13568655027774668 -0.41897391494451597
-0.41565202533580248 -0.60636900410267458 -0.16821119286034047
-0.78879928942008348 -0.8460123891301734 0.40280130876261921
-0.10605095551603938 -0.89758480421228626 -0.11033615479784942
-0.25518759763151877 0.59268047166376192 0.48257522670556341
-0.4421137454741455 -0.76308637825771086 0.28975033103887426
-1.2314197365160169 -0.65338190204820279 -0.55742570453273288
-0.12963166691750416 0.96451313446717535 -0.19692612462942805
-0.43212491283252064 -0.41653256747712675 0.47357016691773879
0.5453699150819773 1.0788816233201359 -0.22716786300834713
-0.78645055027674005 -0.049802065858294498 -0.33279994519151046
-0.27428413125188911 -0.3971522927262896 0.52224459649168864
-0.5379550813457854 0.52134407506423486 -0.11511714698738729
-1.1973945008854372 -0.65262673136071214 -0.48108271641146416
-0.00033636728228714219 0.89284606095411334 -0.3444283115210709
0.53835673426419817 0.0053625226775224633 0.65491282181197619
-0.66441363697417444 -0.19299313617791825 0.099553120891528124
-1.0817741165883348 -0.27036211384122311 -0.21573956850096465
-0.021510577976371792 0.90934958075360584 0.47614445147665663
-0.24367353869658359 0.13409334140044393 0.52425139999856185
0.23635087476466765 -0.81040009730318729 0.21967559659441349
0.12256622549439555 0.1473433342168633 -0.60683061454248843
-0.8538337612172171 -0.83074488853165462 0.27066919422762226
-0.14163738683447491 0.53873595177695677 0.55750313423901332
-0.71864580460673722 0.20559682268945778 -0.26434244353190195
0.20605804767448888 0.83684437655833221 0.43344245112790247
0.75123590064502821 0.0019936022461877201 0.62849051413569157
-0.17169585335182092 0.87455710545314957 -0.36248039817144218
-0.22151018784659016 0.72040704914097375 -0.14529703854204001
-0.20003168095938406 -0.98800121247381867 0.114482777066371
0.90756421423056111 0.096030710248264484 0.5174747268780493
-0.033241163766717818 0.98628120230023342 -0.094419459808690931
0.44617263220463599 -0.48660372935760421 -0.38532992425135149
-1.2404322302521535 -0.13790480322788312 -0.42583728219985062
-0.11711367516957694 0.39871325546918257 -0.47925661550343079
0.13073076102894277 -0.71104374081884458 0.56621464733699156
-0.21910669445452413 -0.16379125755761947 0.53967561912250517
0.27715871027845651 -0.74031321345623269 0.47757329253668956
0.61995069965480809 -0.65419374284567766 0.19009958135370653
-0.42995210640584958 -0.014869499517978113 -0.35646691011760367
-0.25891631652640967 -0.08612405008698687 0.48471501159302477
-0.95310546936349283 0.30710451396731031 -0.19114653710906282
0.19811848842834934 -0.55333429079497876 -0.38979521200991485
0.47137110004953797 1.0431073745569108 -0.29954713571808611
-0.07602407587424409 -0.61625210477468073 -0.34752874705688441
0.96562247854713235 -0.14142503159623487 -0.55225364576746472
0.97130569804524214 0.34092962967000062 0.321126914647067
-0.84655221478122655 -0.80413092762694305 -0.46388911565513524
-0.62971773130055908 0.52507709039645079 -0.079257414842260232
0.9899252328373791 -0.36681252263843334 -0.20864788211046914
0.033593975507315577 -0.90673889900232751 0.34524524096178766
0.51128178812808756 1.1101446017361738 -0.084718342507883904
-0.2324128648709376 0.75720547881000755 -0.057902995295563642
-0.7192858861630782 -0.35702251314518918 0.23154553287830026
-0.27378708484017977 0.7909800778800502 0.257959813651226
-0.67072665885899596 -0.7342292660921288 0.38586374363123355
-0.8822057179972802 0.28994392997331886 0.031010642757877349
-0.18886207516389675 0.37348811130374315 -0.44770245699704958
0.89104451131449025 0.4761431416548092 -0.12407470426101952
-0.23859038787139752 -0.51606726437108819 0.50798833811799682
0.33313426705583993 0.99423807708400602 -0.32625898378647378
-0.33557478210045133 0.12423021789820154 -0.44750362121101261
-0.97315858500313368 -0.65387639088362448 -0.13747251319892939
0.18715469726767253 0.95100346470012198 -0.25903970927366515
0.54668087242868069 -0.19453139027961441 -0.45966313509812551
0.24911444110281877 0.49728469123360952 0.78759438771731993
0.40287561867721422 -0.74007296224188224 0.28955720450640854
0.66150887296285532 0.033470365096214039 -0.47617920142184289
-0.50113865867527352 0.65677151866326966 0.0049077851348187096
-1.2207349319497354 -0.65841588738160794 -0.7203386992721903
0.70501840021537987 -0.43962395610287786 0.31218436634202362
0.63017531980219132 0.21842233639707587 -0.58152848175289762
-0.11794795148725257 0.90072682199446064 -0.34788979842254264
-0.99676600166850449 0.32799262846201316 -0.02968048318773242
-0.78405595381730109 0.43164229533987708 -0.082803700758901755
0.3875998019810396 1.2176276009831852 0.15083924083450029
-1.2454337317675481 -0.11765227642440124 -0.43795688092757246
-0.17617307028191931 0.79596877084124174 -0.048479539653698112
0.80747044700629544 0.45779284496397565 -0.37269511377292019
-0.63216936408143454 -0.35867395694648962 0.29140534334663926
0.67957580943426876 -0.097806076323088575 -0.39509266512283148
-1.1761880689494575 0.18063552595202736 -0.31778866922078919
-0.24418225715291442 -1.1019017792154031 -0.20548150521479158
-0.86480387533075032 -0.13227703426285586 -0.30351808278689418
0.23707783071327526 0.4551289992716292 -0.60113322037807393
-0.3849357827172355 0.63477127205501915 -0.099602471271836635
0.81256177085488446 0.63394597001857278 -0.36709952573805538
0.59189907540074671 0.024610249704551279 0.65805442788749247
-0.3398862806016183 0.81222164622974447 0.1763666737086993
0.12257705021558252 0.89870783329431703 -0.28507556335709694
0.42904096650697454 1.0798383200968686 0.11255730975564404
-1.0643754707813713 0.2920714570500067 -0.14015092626239323
0.35051915394240041 1.0615946858712917 0.084929144484291896
0.30631401502144229 0.069864934226487208 -0.63255398659154594
0.85164015192277986 0.75396828927632953 0.40645620136849914
0.861539185080332 -0.33146783058206353 -0.47367605283199055
0.34953558081095082 -0.81496017249598651 0.49756477980345437
0.25516596537241298 0.88381888846969758 0.40735672252448296
0.12819398176854691 0.90284988406590827 -0.38017772179486542
-1.2408862207165328 -0.065106267487905711 -0.49070419906396978
0.023812757534912521 -0.097497265748536677 -0.55981299286538899
0.068418582731311517 0.59854945387409941 0.67497340515595283
0.70063450601108457 -0.45246092038882324 0.24958036869975331
-0.74276056989779704 0.26160424539022387 -0.22675885506393456
0.92643725133460464 0.43739385013597598 0.055835551405280626
-0.939580569369042 0.39307348572061329 -0.03243688585972393
-0.1719187900273198 0.15108679728668761 -0.53679852606643408
-0.47385033660295051 -0.11884123406507285 0.12237466922751139
0.46576002261647886 -0.70363674944534438 0.15698599070579178
0.017178306668839127 -1.0044397828774478 0.31348231521442926
-0.3767065610932292 0.60313040270536078 -0.12695508289978363
-0.97772725837232599 -0.10971029847006264 -0.14728046723610078
-1.0336446353085336 0.30991477089028763 -0.077925037783259654
0.26410341504315227 1.1065528763551811 0.4077553781524017
-0.34483581262234964 0.82199425602510701 0.17353738732204249
-0.34612167871871691 -0.71914385170839523 0.60070438401290005
0.80910924621588265 0.28428167038094898 -0.29506526888624762
-0.69345856679044005 -0.83428368106353901 -0.31049318698779871
0.82074662014204591 -0.10766520572443028 0.54677967925822202
-0.014450627649580383 0.64664969313029985 0.52818690777914412
-0.66939987174816906 0.57044878978950919 0.027697649874085073
1.0177028224104987 -0.048377833833143313 -0.35886786544806171
0.44397565864133526 -0.64796275306450468 0.064637487342281474
0.92818043202217382 0.15115109484227673 0.20892153684516757
0.63300983070494965 -0.44417356023544841 -0.25408512964362728
-0.51732217984586271 -0.8220599653113041 0.4805345228723894
-1.2186561255463602 0.098347156185823792 -0.37007495351488728
0.90442227084484728 0.14809366287802561 0.48579315153082803
0.93183409303870235 0.61138286206829662 0.26713180451275775
0.74130378352550963 0.6919243147055596 -0.51723402894317871
-0.60314844562169867 0.53556706243067254 -0.083803452705538461
0.81679664329297452 -0.30722825821752053 0.23491097847879416
-0.67079417215114745 -0.34631609166498123 0.21868475725132441
-0.12175047795081184 0.95548130696374045 0.23069383037868363
-0.34360927380996031 -1.055311875253949 -0.18486400269188152
0.014649108499597219 0.84058393119391894 0.56697939841394884
-0.049073267331891657 -0.79838557984277969 0.3892664137730435
-0.9621816281547666 -0.25875327559360528 -0.22844358199932913
0.85929295844962894 -0.17403652268033198 0.43455352524956936
-0.45398675188265258 0.78453529001555466 0.11492901403690325
-0.2004355062119032 0.093013242986536682 0.54232687754740994
0.61430868134343086 -0.47841479414699961 0.46197912172345923
-1.0593322734056585 -0.59596242192899496 -0.87919250008387451
-0.063073364963400991 0.71653775145011878 0.5391542264105027
0.89130154911137538 0.88117267044328429 0.14425020312489778
0.11541825263624617 0.74948182153384835 0.67907355928358015
0.013093287178151058 0.40307622318935188 -0.54780499985480446
0.74131740962702963 0.73712488589678316 0.52741804122945268
0.96173233781266276 -0.38008753929077699 -0.077731471436209176
-0.27739947844598589 0.85730817793180591 -0.3195050084226807
-0.12823852289696447 0.96748177072163344 0.24103315050896867
-0.92224756803520336 -0.19511491643156376 -0.22209420941935321
-0.93738704091568081 0.013838244857915072 -0.050490420396769764
-0.68498923979339565 0.27491282104155346 0.1607868138876114
0.52489311448304932 1.2171580135435534 0.25390414661086425
0.36943768492069751 -0.22838139880542485 -0.55050399001471817
-0.1236070811258827 0.13747725720381965 0.57736690082889197
0.19446783988273353 -0.90337321343393029 -0.066734936596660077
0.13450642218060693 -0.92877699368447253 0.48106678488308319
0.8186270654972958 0.89770689282722316 -0.13466676118935084
-0.039452009644563191 -0.68743690466377672 0.48105169869199926
0.13290288539401729 0.80394586464387174 -0.52402160792568964
-0.6880875463826186 -0.81361223123187898 -0.034287502003337522
0.56674060097084578 0.51012249398304732 -0.67615267332797657
0.42320726566153155 0.76540995152210201 -0.57159566262357941
-0.46979319607473258 0.82313437132287248 0.098172725071961509
0.92651598930945056 0.65690819688533963 0.15319588177192145
0.33661139555788111 0.96841877357522321 0.33249056306307523
0.77846548366541413 0.85744728109394686 -0.29642469814550054
-1.1042936006090827 -0.47422292459277315 -0.10394667470887953
-0.26513438442577808 0.89219456855263957 0.22477357851205682
-0.51788185188618741 0.77574138517169899 0.1183606588287347
0.36307726872914259 0.54686661245651891 -0.63981242074781619
-1.1663308456664367 -0.76159161402303965 -0.33405859178400021
-0.834192398724241 -0.9781339586493587 -0.16771989953858224
0.49231339742262037 1.2712420951668904 -0.09938300028419178
-1.1709012271365395 -0.47338783915968463 -0.34002513955609004
0.77659280231324601 -0.35345558633165552 0.28905250827811813
0.62339874944207452 1.2677955390670732 0.049865615648201356
-0.88812510364797959 -0.10388974402981432 -0.053653487005135503
-0.51682238128633173 -0.63812030701812006 -0.19026285475938209
0.79766462240328906 0.741846300644454 0.46087612287099944
0.33119570794731601 0.2936897057964174 0.64342315681460605
-0.41339544059195532 0.84339124766086115 0.096784703894002178
0.31186898839860078 0.58758988906625831 0.61889075872083765
0.069786769539931015 0.69140979962990201 0.67218572380903652
-0.10172701133379292 0.81149041930947874 -0.49030100814127309
0.72257696205686273 0.90951003367113259 0.46641828943037922
0.30329270054448898 -0.88465531667575448 0.47620513251617069
0.30191231125198215 0.82437791098629987 -0.46622638277919748
-0.31177752203183218 0.86196569877868257 0.19213898238656668
-0.44235006912269625 0.8537451950697843 0.13256322744057059
0.043730442187339236 -0.94176598614902218 0.34874251973710102
-0.78052624819527239 0.25579351393299277 -0.2266919107136971
0.081651808938588033 -0.31645488713174075 -0.51090482513011182
0.22831560630422132 0.31179557635472577 0.74324837329761806
-0.25648449456181766 0.8441754355311204 0.37015819417538864
0.086792454707818933 0.43629416405239851 -0.55773438565375955
-0.14047811901384932 -0.80624555256690655 0.55220304606253023
-0.046354822373729121 0.6133970418327479 0.58585479771190307
0.16279618194207046 -0.081896524505943091 0.52975413144370975
-0.76153771804524695 -0.047423139240635237 -0.29888211251106611
0.94081959765303225 0.083200019519736657 -0.34016669802750243
-0.29343352873648598 0.6739703167712392 -0.11811571678097721
-0.45665341891846367 -0.19923318705027526 0.276073896064716
0.26820028879586744 -0.82323956883197269 0.47057611904907048
-0.9367083944246275 0.16392711975186103 -0.34419018706270776
0.87587972129092861 -0.059051212205531556 0.16723000030705748
-0.013439487327644883 0.55360710579181927 0.62450805112101193
-0.60284366671453427 0.68365280761540959 0.058124415304575905
0.47940399816518209 -0.71728579279012905 0.30667532248897089
0.0041335683958720892 -1.0041232835631675 0.37068962924206517
0.13784905021537952 0.56448281875338324 -0.49690586937637704
-0.11600042651032538 -0.63952273238805901 -0.32257225431570191
-0.61361917561019652 -0.085729280307212719 -0.14709013980495911
-0.17228441137545758 0.98004799933382003 0.17376496261917396
-0.53800880278866714 -0.56019581250653516 0.41498333430125456
0.71866722804325889 -0.11765051715988761 0.58895924193252824
-0.35182710869742095 -0.82196360317191619 0.52513694535076638
0.65114929628097684 -0.54655020381851216 0.31049605869939967
0.58802504202016337 0.57612861570817842 -0.64814709076999577
0.0095927447625427931 0.97454461552366922 -0.21754950419261831
-0.0092411718993758996 0.79126489211169115 -0.54479383323723596
0.1437563694943691 -0.87699607263622426 0.43433004090057636
-0.65548825496965435 -0.041733535479039574 -0.19741495589845215
-0.45415152150933125 0.28897988144804998 -0.24510401321597897
0.44929002298994192 -0.66846037604761932 0.43804522973914573
-0.61919957703109674 -0.22720139298808562 0.1375174523220295
0.41552201656692489 -0.49930471005757227 0.48360235420301478
0.94824088561205144 -0.41370649907953805 -0.25105669206567427
0.82163622678326931 -0.24135363063705029 0.39405046181227021
-0.035439350184432783 0.78036421629392549 0.38194795990557395
-0.19504651485517854 0.80358306177626559 0.062274109779011155
0.20055124894818732 -0.06236257970127923 -0.60449919442760347
-0.64480638813533631 -0.016547499894826956 0.089213049954906865
0.2546291929407829 0.78191898178094021 -0.5387443538244554
-0.56789912959142441 0.18649742325040108 0.20206111204026911
-0.30604062746610339 -0.48090190908237673 -0.3014494909172214
-0.29052821453211664 -0.88348771565647155 0.2780651519552606
0.066740499857189661 0.83290293157653394 -0.51176655283735784
-1.2138723630325501 -0.72628533181028843 -0.5163887418884201
-1.0381567577819908 -0.42997506420552867 -0.32225338671270265
-1.1968227609480806 -0.17632402159784988 -0.40505154681137867
0.71499563322825566 0.23344769524420173 -0.51743449303724276
-0.80194372131603586 -0.84610070662277082 -0.28941586422975263
-0.33610225919275649 0.57885063859701091 -0.19116866935202381
-1.1112352848111868 -0.48635878903461816 -0.68426740369368133
-0.77419908659736336 -0.84313518956476941 -0.046526054386291094
-0.18393256301152405 0.8853962681456764 0.37802425943377216
0.12512805012039507 0.91579702358397697 -0.306400914365625
-0.031513804800709977 0.58630912560101223 -0.36316253133075804
0.35760809064434795 -0.5787515323020358 -0.2963017521152409
0.029746700878149568 0.90807121945521629 0.15653903516272294
0.60901232143770301 1.2612928868172446 0.15695854442721213
0.44170648421507508 -0.70669973063601077 0.40425550224500739
-0.2288387778975931 0.52747946704777604 -0.27557487368329703
-0.10283748485855426 -0.13931464047029607 0.30675296105629002
-0.051122278602306892 0.77032161025305612 0.39677863885856368
0.14131609561651715 -0.58240716934649583 0.48137389819983412
0.9522599468064783 0.51229899009954494 0.23122761167027761
0.72155006130780919 -0.44921191265536464 0.44274683342274557
0.38417044837176206 0.77069999353545882 -0.54648688499248976
0.27776577897806476 0.2517974062109829 -0.65091380882226701
-0.34413892397991219 0.43470406245165094 -0.24677837895933408
0.28720116350307023 -0.82106493103096057 -0.12247150000931128
0.41046883182363558 1.2150724284915029 -0.037230980042636475
-0.14251025888638935 0.9340038749801991 -0.20286037546104296
-1.022364614272206 -0.51326118637969387 -0.52694578929070701
-0.82457116126475682 -0.61975974250630372 0.12281241273710464
0.52387747970354326 0.94412009536549846 0.44645089314425945
0.0066284616231229165 -0.10676265701039256 0.57941699146536507
0.10330698785111281 0.8636726380681381 0.33981524493054849
-0.68296493269620839 -0.040637781213980873 -0.20496273570712731
0.9214616544233678 0.31527967647273414 0.06206774548741123
-0.50404927408325761 0.78741519858889575 0.19327240142126811
-1.0404541734832264 -0.2124460282972791 -0.27630444732849924
0.20994664313120381 0.30809745937764177 0.7317656720804564
-1.1028672015112591 -0.30229997999613545 -0.12027764264296081
-1.2536064640896001 -0.027201589970182738 -0.51994771195518297
-0.16809957569472544 -0.04877572863028945 -0.53419130763695932
-0.6787359469922194 -0.079953199041753464 0.14599642941284685
-0.045115420866636669 0.4107156191366812 0.62547347038153589
-0.4860720839994741 -0.78008274643571696 0.56288278702777461
-0.46277591308238186 -0.078968138705349133 0.089454370555202445
-0.7028498473985394 -0.96361466541955565 0.16390112651266975
0.72457440702241627 -0.045307673143263116 -0.42372693178710108
-0.46492871108382872 -0.73734829589815831 0.5920232292364318
0.88496794454410121 0.86564865649209821 0.25800236642044183
-0.041294724048256626 1.024898122693898 0.19321051281592361
0.81908909655226125 -0.38315968158097746 0.13813315428716066
0.76009764568338767 0.41991125217078462 0.57728782622278629
-0.8260565186991613 0.16579272965523728 -0.2938463021576041
-0.063489552084433853 0.73089300265561263 0.44578100917331653
-0.38526778720101618 0.74364289574483422 0.07056394377357833
0.086957936539889147 0.89066606783955393 0.56111485048262466
-0.066246788880960139 -0.76660651150198333 -0.18913169731976609
-0.27625268380840851 0.24258792084478387 0.403398146740372
0.39197271734492745 1.2068546910753284 -0.014096435440791311
0.20078006932027392 0.87677066399410108 -0.40185895935626093
0.37407823208476998 1.208151033779167 0.17979004556107725
0.64774261226639851 0.28070451381503858 0.65041478666448427
-0.073387401470341729 0.63823254172270794 0.51694150539417194
-1.0964523463105991 -0.85181333746952248 -0.42464742197631722
-1.1478443042213655 -0.63904122711855393 -0.88760062879741497
-0.66241108858599773 -0.23328276770815393 -0.078048162528759235
0.31476254259418113 -0.32570821764731761 0.54280420138935881
0.13666168942600621 -0.8379900641105138 0.27234751325714512
0.6437970329584175 0.58000919109640137 -0.63237326004568217
-0.23827719220543031 -0.14635109223354448 0.50830137352380689
-0.4921311212961399 0.17762760627889662 -0.25924719940934438
0.72526744547283784 1.0601107347448888 0.19298214743120923
-0.11018763958411171 0.1105932807249701 -0.55505149681815169
-0.081835136728955149 1.0000457756744368 -0.0056823300104014152
0.46698413445459153 -0.66424624975554281 0.076183324751426085
0.68515451420660156 1.2728502530383352 0.033894978546513244
-0.013472637150712785 0.87652133729556425 -0.38738864735341849
0.35784498214133009 -0.69893377221586661 0.47167429691795348
-0.59129427114294231 0.3404818196622017 -0.19921550939672272
0.35077788823917899 1.1978026882232697 0.22408114489599029
-0.15219908831284101 0.89881413514927999 0.38477775933543512
0.47429572616591997 1.2697769448965417 0.0031403961832268124
0.94417912880324195 0.50823818278243493 0.3658227277822732
-0.75103416792404687 -0.78851132273978664 0.034284803539094355
0.50396777544378324 -0.72695448097165638 0.41651459246349987
0.99752720196462974 -0.19731743178644479 -0.47368771829064826
-0.20671788293095972 0.95520290620578407 0.20041071407358402
-0.0495100554463761 -0.99236716025530569 0.40444910529852507
0.94594887510011461 0.41647367249134248 0.4600908036710365
0.28504171313834092 0.93494131487306475 0.35452606634495964
0.004394042171043111 0.90788367094260991 -0.038950520475722783
0.25286515488934924 1.1362295771911519 0.30401155137269598
-1.0352638336245121 -0.37353223327483676 0.061877968712011011
0.17283007923286675 0.13165556562307046 0.64020050052234012
-0.51408091671842726 0.78849143924185228 0.13448021313467962
-1.1298416889473941 -0.28359046751919692 -0.18244451790060623
0.73801320327437736 0.84304907992786582 0.49710894178002718
0.79014482953358822 0.71639122615703599 0.47353157603964746
0.58037180992380399 1.2466497980769233 -0.24151975305814233
0.24072398500990744 0.4088782710444292 0.77055849236157314
0.35992432196233892 1.2075219444190424 -0.021597294944882606
-0.52579447717073435 -0.84610711068246758 0.43008527513025285
-0.42430526969793902 0.86361697342962174 -0.061863378942788927
0.3574509286484755 -0.76032290668306501 0.48045856494158556
-0.2856996552552431 0.85595694469893857 0.20909484569645542
-1.2125698726075314 -0.077395434806163621 -0.39391147275688354
0.22461593364904786 0.014124933403074635 0.61196125670161905
-1.0917721446199806 0.10615861471535482 -0.43891256844769089
-0.17240268569129569 0.81330808974708191 0.36906483890773245
-0.33360631123520079 0.85854231413112103 0.18124920826244306
-0.1566075751662197 0.86111739050113556 -0.38361199597284212
0.085201910012642657 1.0159689482472203 0.41349025123223271
0.25186745328427662 0.32540463416313514 0.75942235124480817
0.81029222207531859 0.90235589968168028 0.38737186242340726
-0.16396707534580912 0.80832099570142901 -0.032807298998619672
-0.35217016206330243 0.42062141319416213 0.4038369678187621
0.63989049302638534 0.72655284785378882 0.58831807671361958
-0.96898959919430183 0.27168533112162407 -0.23233650777568471
0.5186216141265021 1.2567051008463537 0.045769514296551961
0.8578439455855289 0.19702900902729681 -0.12871414012697358
0.61574232072379687 -0.52756879316034855 0.4389513890064336
-0.30380158456571849 0.88925411593181991 0.18014516385615309
0.19701362028204983 0.10171766816863226 0.64032748961500374
-0.60266213776097288 0.72949018609619287 0.14172982363842834
-0.058026730616802524 0.0044504508608085303 0.58191704268719491
-0.44845793937713552 0.17489150286363042 -0.30203931423947949
-0.19508485971006451 0.80392871325585702 0.12747510484560109
-0.17437647143874813 0.95687926232508147 -0.10968244489831136
-0.15184680059563505 0.19028129521461778 -0.52953719335344829
-0.07340719961833031 0.22477817483395768 0.60012927210959788
0.67904934999508271 -0.62435582065874939 0.12580998297846691
0.66697321564323886 -0.48071375933935911 0.35424024166354684
-0.32652210116698654 -0.39931190390183957 -0.32776990862197408
-0.0081320705796201764 0.36631882967667195 0.61534897932635602
-0.34622730192256768 -0.71875687037436364 0.45568484976051593
0.37736124411075878 1.2187650329635318 0.15784357891755008
0.68693768181455539 -0.61536530723982708 0.0023175844422667069
0.42369524290769789 1.2242863147140355 0.15466931733087108
-0.97689195461678935 0.20490770723382212 -0.31771183533591341
-0.912456529164416 0.10652935273812147 0.021692967711103961
0.7221844184043249 1.0711549545732524 0.10599968824050165
0.038088376731565177 -0.67823798869889629 -0.29456346643807763
0.95432605797482495 -0.42106254180686875 -0.15163659109650496
0.52922309980728244 0.62682991745241878 -0.65213783532638558
-0.70797312640902987 0.64249347127518774 0.13698661673518586
0.83528928984178208 0.38834035010025758 -0.25186401011562509
-0.2513326822610793 0.95992230543678403 0.09073999586264847
-0.27907291638268816 0.87536427245298398 0.21367030604250203
0.82796158260930497 -0.53157233931017345 0.055054195898534886
-1.0969119961730058 -0.58887475675358303 -0.16402902056074709
0.056277231664026317 0.78843149941876334 -0.55088856890979798
-1.2381171939674971 -0.59048060122358237 -0.94086164345711154
0.82167709003191192 -0.40635609907320713 -0.39439379442535483
-0.97012248806126422 -0.9280908891011066 -0.33108592779566948
-0.14653825700432321 -0.5594273989361227 -0.36396727890742397
-0.85947251184290963 0.53814295199382656 0.023735291742468689
-0.94442978912229592 -0.37906499137331906 0.12490647633759977
0.46349421116782707 -0.71181208641940685 0.35175501063079651
-1.124204782947956 -0.67477957869194682 -0.43950448957131982
-0.080621450905567826 -0.64682235901687335 -0.31896774138887451
0.13827026127565034 1.0206606072933582 0.45438032847546594
-0.4348295521280221 -0.36127369877699778 0.41660284815587545
-0.049644634535397358 0.88759405341161823 0.48020058375907126
-0.14643165189316676 -0.79448800641304018 0.48238879366913068
-0.21841951398116066 -0.74708197469668391 0.60754101327033538
-1.0276808234172705 -0.33530017647831301 -0.24097987697400924
-0.21090255283033343 -0.042697476423782632 0.51044341475295596
-0.44818031863417218 0.8455327141840101 0.027612707870602549
0.68823550093779318 1.2713534700519702 -0.20416568251361866
-1.1032377242270996 0.078741092778848554 -0.46212034758609377
0.85176329740575341 0.95574701692510899 0.2216227787777143
0.78969601376620346 -0.11972336247128368 -0.50910063552467477
0.2260740607858196 0.042703185732619886 0.62844941922838871
0.82122482673567276 -0.32641815612777947 0.12664814207509778
0.68628247067378823 0.66181101788647823 0.58470428340336866
0.50253286856761292 -0.33996448283273395 -0.3417789275291625
0.42916537814070921 1.1936706115314806 0.19542203132562008
-0.37596008144240045 -1.0323496147963382 0.21275471322628903
-0.50687118358811745 0.47090932612201186 -0.15632069897941392
-0.019243338072627125 -0.87224534890592764 0.17638687158384414
-0.20799726599014434 -0.61490301511668832 -0.28855476574180727
0.038987160887046457 0.73168631787970639 0.4568051331857248
-0.7983533688816209 -0.69549718985765452 -0.28097280888904663
-0.19352579187994934 -0.76535615054343253 0.50072620850761496
0.62800960988336385 1.0492321954320545 -0.24986857356485359
0.12904649275517954 0.77837376301899752 -0.57109417654763206
-0.1282872867636371 -0.07765060277638014 0.56437238856678107
0.11722224084118693 1.0875032934322348 0.25273241688668691
-0.54098640187737601 -0.78132082185688745 0.29346287209266109
0.11820797612020328 0.86999297651946961 0.60413766201645558
-0.056226669523553596 -0.17778570191942578 0.354124731887552
0.9103300160810619 0.58528593857553091 0.37684326975094962
0.077585866816662019 0.92317456053218905 -0.15799788406313553
0.76384660225286893 1.2584557582907294 -0.17043726682781823
0.48459901131801075 1.219798727382134 0.010040799237401643
-0.22415970957628417 -0.92810018253705096 -0.24834216127550235
-0.65116762161014208 0.69233687094838814 0.12171752611661191
-0.21340330712308742 0.85933720744277053 -0.35809878562977815
-0.30365745206610484 0.85866216921957772 -0.28598044407895884
-0.046973261335409688 -0.80361674728624877 -0.11739389318060489
-0.29021224707773285 0.17309928031713184 0.50828646104694997
-1.1865055949098036 -0.6328859438438954 -0.86843570898025746
-1.204964132507186 -0.23591460221001626 -0.31519543957001872
0.76678572814451229 0.83084633878812042 -0.35923487267231735
0.49371831179551862 1.2697442399118799 -0.0020426786039848821
0.9222396585036563 0.62478885108809834 0.058460235855278597
-0.91133991524628755 0.40923443548744842 -0.023854629673323302
0.85518598601530016 -0.18379714440023065 0.48486327869946422
-0.11299446657505996 0.77757151593649354 0.45796331376682531
0.67508242813649133 -0.33605058506500285 0.51333183267804827
0.66148859045394204 -0.51886861482839919 0.29265853329366109
0.5690435417733255 1.2842992508681377 -0.098793972529065854
-0.66652890779026563 0.21407344930383942 -0.24615057310688826
0.79432651452458458 1.260568980913007 -0.069685407274889144
0.24687957109735237 -0.90477084003300945 0.45494293688949483
-0.59151387214788542 -0.034295065023911775 0.23696385212885218
-0.65827432898777261 0.67906565022425269 0.15206863545977001
0.63537357313103371 1.2404058378766152 -0.010662371561380724
-0.28201757544316308 -1.0932474242114125 -0.36520113217743244
0.23950931466880832 1.1692183732318924 0.040070316995539201
-1.2195842281526978 0.13832616308271639 -0.38858918191309044
0.070862434636836724 -0.47294513000252891 -0.41800685872198073
0.043721710502140354 0.47230286909343988 0.67430458184004749
-0.63035679710257853 -0.31099474402116556 0.138102927413982
1.0101853009721111 -0.2763365213583171 -0.17932364893884767
-0.61418792718053794 0.60357216600476704 0.25231243891569477
0.90155706703454541 0.46045407507763514 -0.072623084063351939
0.0050568481272534882 0.9811557020117192 -0.14548505428849978
0.92976207489138574 0.66749720618039987 0.31353522906603359
-0.51618124353653627 -0.10281187199448283 -0.22458368022783759
-0.85551753153278298 -0.31194138507565583 -0.035755828700104075
-0.6301187829424606 -0.033683934547681815 -0.17257743814884918
-0.52898535006794134 0.67752419020558818 0.28574534870666923
1.0058216271638258 -0.31484406640183238 -0.19885732503091447
0.5301779502988353 1.2729503494415653 -0.035247177276175989
-0.11794685709705277 0.96763893610517471 0.21488499052023258
-1.0523048189974418 -0.69112055765348401 -0.35446062411067203
-0.11252505192675244 -0.54186431532320967 0.50320254736733716
-0.054437075604383267 -0.14465336248729699 0.35266628001652123
0.62748299301003385 1.0047335077294406 -0.3444075492494818
-0.01016680339745335 0.68945516395162088 0.49543093252530923
-0.87136736914089852 -0.82104139681372601 -0.27228919902489679
0.062606998301674821 1.0758945850976858 0.20144891440766344
-0.8225177233325951 -0.16790772498928419 -0.20725198628871055
0.28148280703605622 -0.48206171611812465 -0.44381351845511574
0.11469085721279271 0.63605601098733899 0.70939262142540827
-0.29987650809913191 -0.17082303559100609 0.16487188074333403
0.71006189063889735 -0.23275286201803169 0.55042027824092088
-0.16055029262604137 0.9081740797150033 -0.28752209024581532
0.46598791277321538 -0.51146264855169932 -0.084363387937031575
-0.21191102350057633 0.85994546324864274 -0.36070958681666809
0.54079811655468291 -0.4950688405492798 0.46999382814644264
0.76406400437608113 0.76589097579179111 0.49118502933956165
-0.31175422272723097 0.83248460253688705 0.19954294031569475
0.044904739346023348 0.3283008247872985 -0.58297468886615889
-0.3461223685477961 0.53914069554636512 -0.21236239348738195
-0.10772478131565322 -0.72912780924917087 0.61414485348565506
0.74310961903259454 0.6292195935610323 -0.52694655237372956
0.17556472750705154 1.0680394262051465 0.38303622251936531
0.15794366125720671 0.94986130113502298 -0.20846969145013361
-0.30031352184757054 0.88016824365139712 -0.23509764869012884
0.49835457247873194 0.86382604828732923 0.51304653955742197
0.10560906312326779 -0.62826033637557543 0.47434002483957727
-0.19806636229976959 0.46801820257609705 -0.35351925518503435
-0.66908432256812489 -0.88460433904897684 -0.32817623242743821
-0.083691400017514184 0.82638796704269168 0.2408915794543276
-0.64088306964357855 -0.43323514982149902 0.29484461097490566
0.899086853436458 -0.44607876984456851 0.043605370435074065
0.56373400225231762 0.95789156271618481 -0.44135142336482147
0.34141535832006298 0.0079090366722596173 0.64198323771441324
-0.49967634098224778 0.54151953414829279 -0.11786249558414852
-0.55765391099333783 -0.86134367146456015 -0.049479900513190955
-1.0599247494483564 0.26668735821846212 -0.23679956376793143
0.22404445443544319 1.1608954934586535 0.037123420441787403
0.064622767026406791 0.057347515773606972 0.57920168258060301
0.85074585718564322 -0.38251168612588771 -0.41880164928565478
0.042305753744557251 0.80318698593237059 -0.31884679268122795
0.95669472404586031 0.2611365810554247 0.37189237321783253
-0.56708811304616802 -0.74896979269732356 0.55937401517132912
-1.2221171507741815 -0.53707295129333232 -0.94451352639494246
-0.028489642000238291 0.95448649940460939 -0.2767325203217581
-0.49076553051948224 0.61450203812855619 -0.062076050459168641
-0.041137026861363779 0.7485328912767244 -0.28929276046019936
-0.6296751416741273 0.60747254858967636 0.04127807208806189
0.81684760205753548 -0.44878236684237294 0.14669207795168404
0.92589007972618731 -0.25573502474860987 -0.51287145057342798
0.86975008020459654 -0.2799124579120047 -0.51490373310724635
-0.20665982697923369 0.22274751622983757 0.55506773515948282
0.71467815684795255 -0.58737399076207453 -0.077988720106205278
-0.16104173155231649 0.77375005015409215 0.40564309205518612
-0.24883964020233407 0.88807665874460184 -0.27470032004373479
0.97719232173839998 -0.29592854812671732 -0.40396511634719445
-0.95904416540309967 -0.86401590379992399 0.11205902688018909
-0.026206451690754307 0.2443832401948498 -0.56015470352745922
-0.96652026829914917 -0.7911327929642411 0.074632821389442938
-0.8803787941868535 -0.82442313864151373 0.09056265103657779
-0.25799482372413252 0.34702191509162361 0.44957344359528406
0.48890449692179061 1.0678585378724819 0.21027160074294216
0.73781015671841033 0.99441600306908384 -0.20009126276359268
0.39930820071111839 1.0283009290745682 0.24951132563444389
0.84434015445343391 -0.47951647638157624 -0.26686274412716671
0.29878651954375357 -0.73715261476561977 0.073566913078252583
-1.1352747146982836 -0.60322458692679959 -0.97221042201965702
0.37168578219601045 1.2111400279485522 0.19919726973972729
0.51808657184167828 0.12207512899765049 -0.60627024012325137
0.16688552943378454 0.81466773768581646 -0.49415818710090775
0.28269043601228816 0.20495664755863174 -0.6454615953196452
0.44333161680938815 -0.73068685065523198 0.23495958923462013
0.23378698123048025 -0.78657810858669563 0.29133119408189145
0.084274503845847448 0.10302366554014952 0.60620112018533234
-0.42222470572592385 -0.77338039229546496 0.58647477167902196
-0.86349022975693401 -0.83524857459648416 0.32928234095085429
-0.47003171632567842 0.78026523182609964 0.25295535182000606
-0.9489739251328615 -0.086883428778385507 -0.39809639203168956
-0.88595309787041288 0.47548938538054841 0.053178128609005171
-0.82561696060594159 0.56038365873255458 0.066637940340513069
-0.040812904782157489 -0.79083634160760852 0.58966613993855788
-1.156513212678135 -0.73868822264135048 -0.35177772177981126
-1.2369623672041854 -0.14298780385072263 -0.40976423271163753
0.060176687339122736 -0.18534058114918395 0.56821680275794506
0.77303940956117856 -0.33272211880142777 0.18771128137539961
-0.24858055577121263 0.055305789782210013 -0.51274130568504006
-0.021148298332050786 0.90814557928251816 -0.26540274918301066
-0.33432195844838475 0.21886205769207834 -0.42195720169000595
-0.59478119867721091 -0.63737079697669685 -0.21298821136431911
-0.23987250451119735 -0.93682194072565039 0.13345150250486881
-0.52629918606750437 -0.046911366336047422 -0.22757826399855219
0.21836655350105616 0.85706338230018275 0.41819640650783185
0.63251418671931958 0.57055042423808544 0.61008643752323621
0.19627160079576811 -0.058788768639217892 0.55489386575844435
-0.10260872669741161 0.82756948747932313 -0.079600687543646131
-1.0623058389823541 -0.52041105018785316 0.0020377086186584847
0.25306193434256841 0.2603288317356558 0.74042497784679995
-0.10680877470529992 -0.57160077243221963 -0.37691651550855454
-1.1045149645633501 -0.80977217735504325 -0.16116108301386589
-1.1540041075130887 -0.43792068840280507 -0.37828768595707629
-0.39973303262027571 -1.0095433292646021 -0.082138577228050735
-0.96989493430044149 -0.33986313337213403 -0.039450621422190579
-0.0097820539804871487 0.75448366264058109 0.42600780953988249
-0.74277818935580342 0.095236591036695017 0.10541345494212351
-0.15265481993795049 0.033607303700051716 0.37622618464038737
0.80754748648955399 1.0118244902607216 0.19008538756614257
0.15996536219168433 1.131498241914322 0.074790798113539836
-0.56855613796659554 -0.77392970488201485 0.54337829595293385
0.22986149660761157 1.1107393511189869 0.34055152425504787
-0.38815946411567381 -0.4427121378259713 -0.23802931250583015
