# XYZ point cloud file
-0.52594326563414029 0.73586179900288329 0.086785557729456286
-0.62733284680183488 0.69507832189546548 0.080834373864732356
0.084209328691542851 -0.73735615038047087 0.58002400720974379
-1.224007324603761 0.12687651151276214 -0.44189365124611868
0.43616221040618086 1.2045500616117337 0.088534608112439628
0.69085141641271264 0.51454745252026157 -0.61668272890985065
0.55571732224856873 -0.73489451972338315 0.40804750158989123
-0.37529344519462882 -0.10074815163555684 0.13744269433743739
0.98554921207700374 -0.17990463340347418 -0.083619644616490518
-1.145792014176962 -0.61355855117336944 -0.32984684270061848
0.35286591753612129 -0.21718280062199824 -0.56390658713979747
-0.94086417509706166 0.42946154115603719 -0.021275932880072901
-0.59861124859652648 -0.29176610965991046 0.14266850264537823
-0.11114246384897797 0.54201611781893888 0.56556761871785
0.91687184597718385 0.08796294421517814 0.19860309962369627
-0.31828872910196537 -0.37414511898167291 0.51959567202108303
-1.0438997912278865 -0.46274124189027788 0.04899514985697806
-0.49453231047952784 0.63970140119941732 -0.028603040858357076
-0.98141477101455621 -0.78927893583286846 -0.15161383386077887
-0.15418063879238275 -1.0700822726326891 -0.12459699405047786
0.84946322534797503 0.60437792706912319 -0.24713837736909738
0.41575203560205409 -0.7770501908142009 0.46552323415458829
-0.23428387050786625 0.28262140197522001 -0.4655387135398712
-1.2574984367368245 0.027257061919655712 -0.46150232197472008
-1.1300074706147996 0.17336371392570271 -0.20369483025456248
-0.30610631580044867 -0.77226319929857823 0.25455301104594241
0.83733482933348569 -0.11079560503740993 0.31033705884972562
0.32053876033542394 -0.71024782977274725 0.0074265999551670348
-1.0642271658348079 -0.29105470753172824 -0.17514287165151643
-1.1315049254732656 -0.014390816521057559 -0.52288466328617744
0.012143739680425369 0.56261651533704793 0.6425670878601295
0.34778333437520814 0.70150769586376072 -0.57033269067977699
0.39820609389859385 0.22879777711995075 -0.66295887354353056
0.0098172275458097147 -0.92044964114955263 0.51131397803985124
0.68813388228578276 -0.5957408466569305 -0.077272042133387231
-0.62639317095177205 0.49272728648828945 0.25433744415781234
-0.025026949844601631 -0.61776027927984245 -0.36785777049497881
-1.2029105214749052 -0.20337450705341098 -0.36940496889165786
-0.38114188326939313 -0.040053222721745385 0.17450016194052864
0.86612349535644739 0.069867263890685649 -0.19178691700727768
-0.44315870131856627 0.49053738580930428 -0.17208810070496838
-0.86867181556551998 -0.32490665696270327 -0.21362572645438149
-1.1200949268367992 -0.7313035075321821 -0.39040919089886472
0.16008682973631494 0.65791889678767745 -0.47297300285201516
0.29854655597618773 1.1691892686275551 0.24882525330590965
-0.13247961869356573 -0.1872211009674416 -0.53927081371386976
0.42756812832752189 1.2340312948456145 -0.077802269279771963
-0.50501475562398923 -0.58612819593646037 0.4434781356286237
0.15387250319008672 0.77979459206013502 -0.41187324210152099
0.43007412784598387 0.146240953908368 0.66347744398940733
0.3322815984348324 1.1597973304645706 0.25661151082775291
-0.3319454184699282 -0.72770768665620267 0.61297588172091366
0.78356881897458663 -0.40212765472138301 0.35860316189030073
-0.12604033678272231 -0.80622434060730086 0.54777651918789161
-0.28551328387159458 0.94836838772318544 0.079175238875578202
0.30429200476976348 -0.73627783697352811 0.37658217822117024
-0.35455904402314786 0.64556670966854313 -0.10724725155661474
-0.28025082584882455 -0.79314390221862396 0.57455023482154388
0.44531788170439768 1.2530432106533951 0.061453228443028252
0.69012297562791503 1.260340591409296 0.18639911594704017
-0.16277889900075593 0.10593893492715978 0.51819155765596747
-0.79344612305735041 0.43480171380858934 -0.072745833923349323
-1.1905758374438733 -0.47095481962031016 -0.42650885639022817
-0.4486024930931336 -0.27453127953438639 0.34726272047302587
-0.064973561639192212 0.6634649294603463 0.59821291232343299
0.15521498433649583 0.2169254647562795 0.66959710207692069
-0.26207213661277251 0.3869522896449098 -0.37533488132103798
-0.71308587836368531 -0.10900608947070367 0.10462290952921194
-0.056225420941345305 0.57092802625325589 0.55523320685871624
-0.39634321909674952 -0.30882585309924337 0.43925716125589531
-0.049356072406027351 0.40679668685754677 0.59811744892138563
-0.041407158024298951 -0.030435627360745343 0.49419720011843538
0.75062989469826391 1.2729643238463524 -0.025499173161904309
-0.82982808107588824 0.42274491400792158 -0.071725857023210438
0.15209258029847206 -0.35265606782057546 0.53442459927146047
-0.81268009277277997 -0.83772511236237079 0.37965144981373555
0.27044046962785728 0.0027053917072734635 0.63366357314777133
1.0094015875670976 -0.019362791094167164 -0.34584209606057925
-0.51555123746254594 0.011447662023385874 0.31699208675524915
-0.32694096946318041 0.92661698025571582 0.11443205094921893
0.77976827532154402 -0.18585546878274783 0.53911005032031767
-1.1896689547488393 -0.17075289412018435 -0.35601721503400086
0.035514540042555609 0.90519972874032817 -0.13435920443663463
-0.71826157471001295 -0.7747574357167224 0.46339083678857662
0.93680122834406632 0.11518887758667518 0.29586777252617935
0.6247133414545516 1.2790778058780319 -0.1018324505778736
-0.2860006440579923 -1.0635734768599008 -0.098972814162792133
-1.2206300604454157 -0.19765742007260201 -0.36109277112019811
-0.80486079129462951 -0.13962192045985944 -0.22746273289313024
0.069000630005490393 -0.052886209399112261 0.52329210056875297
0.30727598183088389 -0.12620491633956732 0.60675409405418179
-0.70838978927199037 -0.46882851615459487 0.25303145966198315
0.83352298802792291 0.19378588196965296 0.62396518865995176
0.21785034622499211 0.49298431004594789 -0.57695579877778869
0.58219306021696582 1.2358916197917154 -0.064616062626669191
-1.1429747775339081 -0.20429876322280904 -0.32939598514890633
0.82079184025921847 -0.25343574626472787 0.47654862083366822
0.27917757913735386 0.98834377082105362 0.24149320906722949
-0.44954630424264508 0.15918964737005581 0.26517256555256097
0.78151895730314891 -0.56377199580781934 -0.034119742803099484
0.48865012346888648 0.57816833340996254 0.63427555829149185
-0.67362736213186736 -0.77881783690141759 0.17804683384207465
-0.74543004069496988 -0.97927962056240148 0.0096194625265866307
0.056537674315848108 0.85651073155653989 -0.42557711947917198
0.36142850949201488 -0.089701202680814163 -0.6093467308166538
0.40127564589144527 -0.84577402273089319 0.44846090693138763
-0.81593683453607468 0.48212936224577874 -0.0065305362794276789
0.0013182283466761646 0.96093101397183744 -0.26097942911088978
0.20212764004165251 0.78456539818449045 -0.58481994188812791
-0.64162220556410432 0.088617871137877557 -0.23792515556512228
0.27494515174247169 0.85198395978006403 -0.43978883952850367
-0.17977736755834428 0.015542626514459812 0.54783823270601317
0.68368557980109301 -0.45479422863566299 0.33651439356063406
0.20534339428623127 0.8284274561120597 -0.39697088438212802
0.3958916138285673 0.29322142338719459 -0.66699576373318337
-0.069647130510233524 0.84515015162251927 0.45300523111151847
-0.48534233566977036 0.46535052528774656 0.33272490053076353
-1.014845211207799 0.10747252778094918 -0.086026222789044482
-0.77039512753790973 -0.36311961001862869 0.14535877583405465
-1.0112528510202594 0.33381481399189994 -0.083027047767544104
0.027907115740944732 0.52213751735822456 0.58435184757014724
-1.1679495637757782 -0.16878275955908606 -0.40205401346895542
0.73191110292515305 -0.42423606913788348 0.2707862540417949
-0.079576854157593857 0.82763011196328762 -0.12936207459739535
-0.77110758557024894 0.40657009543405565 -0.11267975365997529
0.15921571008728108 -0.78704535799322173 0.37141288796300387
0.28820708764567371 -0.73952109737646055 0.22926946960727435
-0.10516234756703113 0.9700130086541634 -0.19932516019476054
-0.12653724100088937 0.88330625483758496 0.34907841383882499
-0.39452973030836347 0.86927230606823969 0.18190745817493337
0.29353015836242946 -0.82448627124680485 0.51686339377046409
-0.12330419251631497 0.9443682837864813 0.32699472230163451
-0.22546653400601713 0.96716630708742457 0.0099624649199512305
0.47141993589966091 1.004308480226058 -0.36946216626246553
0.6003106473854416 -0.57877016294001749 0.42699716395769372
1.0083678944833565 -0.27851992816494686 -0.14382224188949522
-0.99349318282442312 0.22068860988733263 -0.015871739196853696
0.60971052773473389 1.2421765248089685 -0.23996437219290101
0.64033160250208709 -0.51826291829793547 -0.18622421612560913
0.8239162052049096 0.12211729106690683 0.62978535294323024
0.93990765262634568 0.2832052732888144 0.17180554765793943
-1.2094270414634565 0.018212443031636383 -0.52125412884234379
-0.85015286297813475 -0.0075387275256630915 -0.38801960415487713
-1.2176639840073591 -0.71453907610506207 -0.56731176137522255
-0.37878333108213269 -0.8521909627860893 -0.33291823740523796
-0.69191233795052653 -0.55773023252440623 -0.10961935961293534
0.10350943633521581 0.13849393689931588 -0.60358321829600925
-1.0891904774294261 -0.39503385170690564 -0.095295616316192877
-0.87617361341753508 -0.20010246267193565 -0.090027646291446217
-0.31131931010342839 0.78198587643706219 0.21590940558132843
0.83201987315823089 0.63341087986302114 0.46442058286825727
0.016677015675952589 0.88883571065918687 -0.30925958304383983
-0.4722619022875989 -0.019232385842663291 0.28392057914092561
-0.21933532100091213 -0.50023960267886025 -0.35655443315508251
-0.42943812235625956 0.86723420630308112 -0.029110331174294402
-0.085182577385381819 0.49355826568042005 -0.41577014656465394
-1.2132153946382402 -0.50203344482206802 -0.85658111480300647
-0.2775343455210475 0.7722155845666876 0.060149462961007316
0.18700994532009929 0.84920944520196429 -0.3858384389880456
-0.26548533308688604 0.41435161030707945 -0.34188384281176809
0.60822719668965419 -0.69519772365467247 0.37535911828578605
-1.1152633565373691 -0.5311651710029679 -0.11786283385656304
0.26489448893595124 0.76829010089787175 -0.59538556594378633
-0.35277310194732081 -0.035082936282620381 0.34455383897838487
-0.21053461372120807 0.26692615555386823 0.5569437683815579
-0.49374885735340968 -0.67060587219238244 -0.22634424964043376
0.92997024271687678 0.17338618188816923 0.32958511473272267
-0.88254887538484184 -0.80567028383560313 0.30026737617826882
-0.15877111903964192 0.73965181444221884 0.42300359426992884
0.7221981586955053 -0.41638474326080654 0.32451832769295663
0.40788289931654731 1.226327200093543 0.12436323776913127
0.7557978616583938 -0.49826717404079801 -0.25457753978520259
-0.22366916236597945 0.15735703907919429 0.51544378245303335
0.015222212863079676 0.64279423784913092 0.6295980304583253
0.16049289524202948 -0.80328759603794708 0.33785030593486454
0.47369530608276023 1.0332882046280218 0.28223694956813006
0.40696924057446893 1.2363925980585293 0.11671436246918176
-0.27475342057522312 -0.01186435336837377 -0.4978850084275166
-0.27829378105882085 0.90177234598908029 -0.21975744769191863
-0.47007609116512583 -0.40728136666275105 -0.1680352177029647
0.86013567305015215 -0.19853349978540535 0.2230619373254541
0.015280887129605958 0.72981140251248888 0.59887507805730422
-0.12006921217788147 0.8354175930053529 -0.44027491459537771
0.18361958205505857 0.45144675436534243 0.62839099337550408
0.40885346347177176 -0.82882680111241314 0.46773740053394874
-0.089473996915515386 0.34865352859248588 0.59553726962755604
-0.41933888838005373 -0.7231542707458587 0.57724532084333191
0.056585396738171312 -0.4583005716905646 -0.42961176275650814
0.56363725950527055 0.74830011166778121 -0.62099486003141635
-0.58675199259832311 -0.9750162923774468 0.17802982866354
-0.98396438500603267 0.30512522246512219 -0.029244515369740043
0.019538173158906602 0.96170623668236033 -0.25438451336887624
0.053001731631866278 0.28249093925685287 0.65244385971134022
0.64030211724883657 -0.62866184505421074 0.3542457181991665
-0.74453354665863003 0.42785791648079652 0.16499499942943885
0.21829505795949444 0.37601515251448347 -0.61875701040816011
-0.31867734224648814 0.72383063112795298 -0.0039446025619440661
-0.39565760008785844 -0.90795910442669481 0.026109995794797669
-0.030537598818739298 1.0054558482500227 0.21680464081107687
-0.76046858401943496 0.6137553379084224 0.067637267784348865
-0.66209116777997679 -0.75631784163127946 0.23628487139181686
-0.34160182477762646 -0.31086923085442209 0.49098813323639945
-0.31706642850080868 0.93660775932732321 -0.014914768456947058
0.97426623750196484 -0.37165146841476826 -0.28199756818519006
0.62539888302421787 -0.63036770111952478 0.26134412616626435
-0.18484442289447145 0.13393233026614837 0.55561897409299377
-0.051048430063588057 -0.0083990688246657896 -0.56660237962537963
0.46229814938998004 1.2271132462420624 0.20539085763734022
-1.0041872781576728 -0.35229702296769005 0.074948117610176723
-0.74806869923705221 -0.24031677470235024 0.021878086357645543
-0.047954520066312512 -0.2600755461317803 0.5496579396071013
0.77408007429765746 -0.097706281347512913 -0.48965931610599966
-0.52451155563848317 0.59917688005425163 0.30752061846341405
-0.19727138469751537 0.9316724037895483 -0.21901626195466406
0.75068046928365106 1.0473509613181307 -0.0032356580095154186
-1.1649275530040768 -0.26325479677581143 -0.23181172264190764
-0.57472281316049134 0.15554565651700614 -0.21760644243174454
-0.11618873670749963 0.98831422090228926 -0.017715447683997354
0.76428554209367405 0.74467453412643181 -0.4487830634620309
-0.21369523193899909 -0.040384276567941413 0.41360526465740577
-0.35790407023989701 -0.88675241077346811 0.26244318756631912
0.45005653080474417 1.0949195428885901 -0.13478236795984344
-0.30569011979733318 -0.70987019087333891 0.55438444004458631
-1.1643230226266041 0.063010153220410814 -0.29984300629337213
-0.099901332834207324 1.0007657685722791 0.024105160623022925
-1.0511104014485113 -0.28654044623105079 -0.20336972594394354
0.59981110483748523 -0.15191949062845111 -0.44460237612914
0.63413929107640854 0.33222619248444119 -0.66289905984164932
-0.46480170063797743 -0.73089501017035019 0.57575237703024129
-0.072372594611891827 0.96241652766816799 0.26723610429635869
0.22553125305991273 -0.84546092695050845 0.17676576293955293
0.37818878006292778 1.1596516995073856 0.39205193005989258
-0.37181134340355015 -0.82834351906388548 0.11931025629903047
-0.76444510202180993 -0.9525527585675988 -0.23314302835667888
-0.33334869385349464 -0.72593163695793095 0.41401830819657448
-0.095680017850810373 0.75425767764830454 0.40139251070348791
0.19676028052225547 -0.17523861820992437 0.58269305920410375
-0.95130784213043285 0.33727171280069257 -0.14587280764902744
-0.15534694635283586 -0.14680086006345761 0.30248991225202815
-0.7617542311856198 0.25629790830350174 0.10065709527012245
0.72121242617753012 -0.42989402615909711 0.25478668320340603
-0.2326138070995114 0.88989279374233377 0.32911640320666891
-0.57065797119865636 -0.62120671167583907 -0.17460647972063725
-0.52990557728031717 -0.26853822370437541 0.20655530035497804
-0.47113081593487038 0.82941528389926589 0.084143703940767978
-0.27956268817821694 0.91254017251358022 0.16283297657264484
-1.0333816842475869 0.028213821794771832 -0.45607597521697585
-0.76626797150268544 -0.88683255784685855 0.33117583974981812
-0.76244810138854291 0.013787401798140309 -0.32918915704669871
0.29312933090463389 0.27357613057811392 -0.65556494146595412
0.9615874420550341 0.39821691930509218 0.36324228893575139
0.51477176266355684 -0.34238163560303292 0.53004919106585646
0.31211198533461015 1.1792937892602424 0.22827540331323348
0.0044094182218827882 0.47852739459425209 -0.48786077523340055
0.86064823701181581 0.77472925989917485 -0.13329730628041148
-0.46941766556071229 0.47470833883257768 -0.1642515838737495
0.53239242356394811 1.2512415764618723 -0.20179652855044594
0.026704304964070502 0.36842911297677716 0.65828388691681994
0.16528400664297749 0.69495296780721105 -0.44824356892554817
-0.094881748985585546 -0.72166586837573021 0.32944676837226439
0.95408889444532008 0.41147152477818594 0.39158658327136209
-1.1861116015291202 -0.77897937889974855 -0.60763745450985596
0.48879789398770868 -0.17195990609382505 -0.53067505719720032
0.24156880329914543 -0.41051233098987439 0.51812918375082972
0.58126362313647917 1.2762105008053055 -0.20774971783667695
-1.2097139477763506 -0.19074579458874297 -0.34468772128887792
-0.23786069603704618 -0.31835047014048712 0.53194281243553121
0.70740598078447192 -0.45154464608577172 0.23310080217662232
0.71669719223238815 -0.46730965273676617 0.40783368573704593
-0.32931061531503758 0.87720703123689958 -0.22964302885860377
-0.1620607944884398 -0.7529421840376429 0.45479055830521986
-0.8227946652451692 -0.32549603660351067 0.006838283283670421
-0.63024665358992138 0.26682144268878005 -0.22478554624103708
0.11818251332616114 -0.82173505992076201 0.31942322707193682
-1.2055895654067825 -0.59493425816965129 -0.96012447648925558
0.74734221443812032 -0.50944337726156164 0.19614985936804885
-0.76746316359680122 -0.74480163255652343 0.087059116341350773
-0.35497500329637433 0.49904733777630383 -0.22693889572741455
-1.2440591675836856 -0.62584486544258056 -0.81466577701931442
-0.34232983541936335 -0.068446577800735042 0.42123458071662867
-0.94860006123057872 0.09834311537294127 -0.018096444122875255
-0.3374325863590002 -0.7475087639791127 0.61575215453483167
0.070822363400949939 1.0872016395070361 0.11693871045297044
0.76494322092737832 0.69297366690746287 -0.46929278978663547
-0.1457280836173851 0.67944744588196926 -0.25429177823900773
0.060235557851370913 -0.99810826800990071 0.016752211392201843
0.20438563452616165 0.92248165640788926 0.314919286703784
-1.1408014331071286 0.19706197144108017 -0.33327071571819999
-0.1677775351159454 0.80746636408679962 0.22821101301532565
-1.0100259937316594 -0.55322205618043085 -0.63663328300430067
0.71771637037279845 1.2416188129802848 -0.11094810328981453
-0.32864861206549278 0.8841444111569885 0.24078302309497701
-0.19854092836699522 -1.101225651696403 -0.2561345815541074
-0.11619874335914915 -0.13589831988657153 0.32644990407661112
-0.81892852469407273 -0.19663985057500355 -0.036850725792945127
-0.83616368197549207 0.1789972762085128 0.068779609477289227
-0.64130281082479712 -0.29697241706540467 0.10937586745605188
0.73279139650819047 0.46203986939863029 -0.57347022906981238
-0.36366312035072212 0.55801557471239249 -0.18413854595284818
0.15719843299676484 -0.95188749210419132 0.078510844330892837
0.03411119936784246 0.38416714801208229 0.61537493035191915
0.84083011495066273 0.24834142234048784 0.59801428827864811
-0.99545914210909814 -0.1403590285028784 -0.360163010872526
0.22522861607961886 0.33934097087049508 0.74955705025216446
0.55995780321045174 1.2726362486267178 -0.042426700362398151
-0.770470389216797 -0.14369886026040035 -0.20453348259697179
0.83441875986147807 -0.115767172998261 -0.54742517581303218
0.12358119333832462 -0.88644597320678997 0.42275270442283386
-0.11336763435475916 1.0100414303788909 0.031136041754734833
-0.61944362586930879 0.49805517904759711 -0.11151787793711776
0.17177262752144884 -0.81094334183413963 0.297484316094625
0.087965491874030022 0.64127049732778119 0.54216709034096766
-0.059484057225120068 -0.98152744556288241 0.2655040607590422
-0.3696087550198115 0.5698909203918987 -0.16633695315879038
-0.042447690338690336 -0.9242309809553575 0.50828292049888546
0.21359952086361034 0.19363355302697727 0.69544153604992687
-1.0687116194527135 -0.70194131280168648 -0.67267482439268633
0.36824303905224554 -0.61536711653239706 -0.13898618896347159
0.76324623170185646 0.85234393609891157 0.48225974862025112
0.02883827216871282 -0.0013983898105891512 0.5384255168275871
-0.47207842491118868 0.55657086341300044 -0.11933886444433028
-0.80816255384077351 -0.84152781757006068 0.39287438046817158
0.65051589483790906 -0.029202571383109444 -0.43920391995639818
0.19788200540016021 0.77031273379609644 -0.58925060521910666
0.0068882697952119543 -1.0114737502068678 0.32352296827691873
0.86193140664821044 0.55944993890877726 0.49499995688350396
0.17658314643200868 0.43176679159668652 0.74021333132749589
0.40820144991539564 -0.18226654222319638 -0.54229485789097964
0.14251650402007954 -0.50577953208873794 -0.39689559102760086
-0.3409196518133939 0.72672091169935271 0.39591663658383425
-0.26550788860301111 -0.76483405840847496 0.26522931868883859
-1.1953594458287284 -0.059013085949004562 -0.36747748494160248
0.30218605245642038 1.0337746650166224 -0.19891275151837817
-0.51844548501239274 -0.76882302915068124 0.56668805822317836
-0.15731767272997388 0.53751478257402852 -0.3116713290310571
-0.56571366571361636 -0.83421376533361524 0.24780493638218104
0.65665593126651345 -0.5102153859157923 0.34587615406211114
-1.0769976026164585 -0.8268805355654294 -0.13138684743498175
0.1739464367630319 0.082467025104875802 -0.61032563855891908
-0.068934641218859838 -0.8927475237833562 -0.091301109348378873
0.49798090193509381 -0.8040915800728925 0.43031983484671343
0.13672030478019792 0.74130452795024127 0.69511278716036884
0.46726298029079771 -0.24468352195292198 -0.49405345511191001
0.45328911970281638 -0.41704900998999506 -0.41345476487433075
-0.81517986873241455 -0.80232016449936339 -0.45944207178187924
-0.48228802349154876 -0.18737018693838081 0.26611711741774968
-0.16182787052558467 0.71907383111456369 0.41896058388653046
0.69231551484695331 -0.38746515568305284 -0.3474968388023143
0.032600470976490215 -0.8396016624537026 0.38160884025869279
-0.47722749167496659 -1.0094681299423556 0.20131528250351494
0.0052359408951474506 0.79285675255966481 -0.53597444402376482
0.59741234802760346 0.064479326852094232 -0.57488227105096712
-0.22067088329144724 0.93795009767480764 0.24808765897867602
-1.2290066532233936 -0.022529919298236223 -0.41400621452652331
0.71104913971350925 0.023306240008722057 0.64706332129381394
-0.79239657209794245 0.32737797279014558 -0.18479263059163031
-0.85945688850389956 0.3051274020024195 0.049464382150091524
0.19193191270304055 0.30708539995141138 -0.6298777657554524
0.12373916645327654 -0.48221822685130178 0.50602586758675727
-0.85283514550651773 -0.92798040512500535 0.037471905845208653
-0.71707803821615812 -0.82797232422201716 0.40764467639361612
-1.1055666855255595 0.22075841603668067 -0.16117369847260932
0.023821353882766516 1.0354860227101881 0.21245137911508039
0.93976735955901347 0.53538200728768004 0.15148667377545166
0.038526937061163835 -0.61024640607757163 -0.3464621935260368
0.8742646011210411 -0.32241851816196743 0.085534239473545881
-0.60342205156030104 -0.47521318098031173 -0.015529075027799877
0.071776932314818964 0.55356905297805525 0.58044764340777988
0.75336918000365927 0.23606419562162984 -0.4368061137827226
0.86067830770589637 -0.20652710703773636 0.05810252111717773
0.025937357585931409 0.60967565804246959 0.54985286828895141
-0.22615104510455808 0.78895416394392015 0.24139114073695112
0.85966573131187829 -0.1791255123882749 0.17569679718013731
0.34892539117075216 1.1736130425828293 0.18866837698524819
0.83116253344411462 -0.16547901993568104 0.36676171292175752
0.010227781089383825 -0.20978579248721019 0.56024499555475415
-0.7631862060763126 -0.73496754186213309 0.30834653604965467
0.62909022603609799 1.0616024346498918 -0.21565441687880593
-0.027841217324322542 0.80809902304535797 -0.50715500685308257
0.90740283595803817 0.032310837864308439 0.56446810973923789
-0.059232348647626054 0.8634704715527306 -0.031599390709487807
0.010649861863413435 -0.72462329009132986 0.59368857160444577
0.36411114285705537 0.42681761870103685 0.64659299281237281
0.8444188113475235 -0.018757896532122231 0.014922337219758219
-0.099683947407172013 0.99875528705684502 -0.097599378671787917
-1.0337518323818244 -0.80661253538913513 -0.48479889287430922
-0.36385742761493134 0.87264333376042913 -0.15788278335779182
0.5073313779486881 1.1098774783239023 -0.024425290194116656
0.11388336624169426 -0.94064891208697077 -0.043018284742146307
0.34962162584976397 -0.74805403956273153 0.35558106731272687
0.55321491786935439 0.88930682401245775 0.50035776702218016
0.84467381934358343 0.88208944350439822 -0.0780964387247991
0.81271831693682373 -0.25420385997514217 0.33619624423643302
-0.17102114252838874 0.94293420819872154 -0.162048190143949
0.90933095534309416 0.066214649846507712 0.48715486816075781
0.97778171444468853 -0.3757803359218812 -0.14630695263198845
-0.72252955458208135 0.45711208944992165 -0.090485616093531007
-1.136782537845761 -0.76933124813224651 -0.24862913862484959
-0.23770075742623931 0.47509017142463961 -0.29597180110087606
-1.0796937711133126 -0.33348321291450844 -0.030432261916814696
0.47577937393947423 0.033539196975532093 -0.61017701792188461
0.79041186693127941 -0.21298624130350419 0.51345983740434065
0.17612196861101381 0.80176648745610635 -0.51898780984484461
-0.094207783029872871 -0.74817993017393292 0.23848008417235178
-0.068883361806712173 0.84756083436849394 0.18497876337011121
-0.93376351644451461 0.23592202019781183 0.015811735616580336
0.65343554106330259 1.0413806400580583 0.31631842517847986
0.032996807852256893 0.93809108647521811 -0.21383698844554999
0.80507773476348632 0.84536704027024001 -0.23606839685015757
0.85552506859576738 -0.064011927557139359 0.31217702242034306
-0.99826642952361055 0.017975250155203071 -0.45473598876603205
-0.3055835922151573 -0.26039308239729309 0.50797588691069961
-0.23418487600432059 0.38057345565399459 0.47395298983640544
-0.72766833373792394 0.24733304547544321 0.12180492059835046
-0.012225476221374265 0.98686605967086649 -0.17521296810913611
0.95197258654729922 0.22196151751428772 0.4456757258482611
-0.71331398847341632 0.042529743283026278 0.060381412592278139
-0.081047856384103056 0.68435671907705853 0.53054633618633318
-0.13099563886170529 0.3223575956528677 0.58532800583186884
-0.16489133311769422 -0.97621980447657108 0.13398800460153382
-0.89862096995186391 0.27717256720164585 0.017858254267224538
-0.65788334682142136 0.59163981477293959 0.031395792527646904
0.31345590532281165 -0.82711996447596192 0.010051049049963012
-0.77873934456010829 -0.85735576782594336 0.39006336054269752
-0.81846919110408578 -0.24716764318279161 -0.20349589464976248
0.37195278692487932 1.2272703669790843 0.019520185104639154
0.9395204413824132 -0.36782032593541203 -0.38571999109859689
0.96123543884117169 0.46239486817582787 0.33556516117484136
0.95776224730519743 0.49015188426321288 0.33670116435980901
0.093248965094147707 -0.81174317883549918 0.43140961825541524
0.79656228039441146 -0.54258007357817206 0.11780458805310445
-0.48992270663033821 -0.22390945070873158 -0.21381949438136871
-0.26980801665838783 0.90575657285693723 0.20195014315163462
-0.57785741617531983 -0.7311412318000734 0.48187836388134997
0.5802609304781754 1.23498766792639 0.25885452009387677
0.67760358145164901 0.74481773204106361 0.56981567126312882
-1.0597609275462503 0.030766614503825451 -0.17973003516320318
-0.35060247892775465 -0.3260076012533375 0.47606794475913716
0.97256633523437586 0.30835474437053989 0.25141506891428378
-0.82256617387700715 0.020405704488574372 -0.36313196493227906
-0.5309979872987185 -0.60154109654990151 -0.14102802306281603
0.56001978430623467 0.13766991826556563 -0.58689886345615605
-0.39586903634975101 -0.97913306226347174 -0.023679864766307901
0.68571516424829326 0.34447566813789621 0.61700622866700883
0.63746314940071613 1.0862048322642792 0.19294846056472181
-1.1709748373968694 0.073127084365943062 -0.47973074829927498
-0.071317505555455796 0.61155643834500495 0.53152440663325251
-0.81407437951079942 -0.56964394279641795 0.1584895706589009
0.42242605562805124 1.2081234796394185 0.016278351600490737
-1.1321933415899679 0.034062597654255455 -0.27045204478152129
0.050056441316783662 -0.89289947659459301 0.36327278771383931
-1.0426029587798809 -0.76871619621481102 -0.215619719037349
0.3770438523439168 -0.61993873107333997 0.056265433745963378
-0.45696372298651511 0.84567397153376334 0.069905887104894759
0.22462333853619043 1.1558972306153379 0.049421242199414905
0.9828102938658958 -0.37695317647824567 -0.24173002522860543
0.19221082908326537 0.88330542275191704 -0.36958530749262763
0.73359436352899365 -0.065566813539042812 0.6072217832939657
0.18014484494889871 0.24417126159721647 -0.62455547565873815
0.87734059796532904 0.78632123419981781 0.34582404531145983
0.41950537745807992 1.2132843650682332 0.22079621413044492
-0.98216890771114151 0.058821790364085302 -0.43493736873331557
0.28234122528581906 -0.76560556554260017 0.34375220812360396
0.30875979540314802 0.80996934519549058 -0.50291796103041975
-0.83712385544926349 0.50081660511958148 -0.0039998784235137919
-0.99778743855409857 0.32476487389322983 -0.14768869029944653
-1.0269425833399595 -0.25386858808707302 -0.20506686339064117
-1.2433388206697629 -0.13723375596455156 -0.41899108606070001
-0.41468199209890599 -0.60880018584926887 -0.16883732289434761
-0.78721390401527458 -0.84715471293676359 0.40241157432201646
-0.10465433063779983 -0.89835216530689621 -0.1105307072125612
-0.25812421027696075 0.59256875739622927 0.48126306830468479
-0.4403887957143553 -0.76516392030126923 0.28923855999801162
-1.2301538252616666 -0.65347802343255523 -0.55633198079911494
-0.13045884597858048 0.96334170882710168 -0.19760387102451205
-0.43314080840758606 -0.41819201436843656 0.47346036910090561
0.5459178659462367 1.0773087506216115 -0.22841106731695504
-0.78642109105025781 -0.053076988741516118 -0.33427469408329102
-0.27549717661301543 -0.39854622058150824 0.52215255634405366
-0.53744173378676408 0.51770151061047898 -0.11644728543872418
-1.1961164211593314 -0.65258715682666235 -0.47955963022288017
-0.0022350854697918976 0.89266503982123879 -0.34438736423629734
0.53445772237260769 0.0054429936393844969 0.65521762015836771
-0.66728470540220997 -0.19469364832063718 0.099388382261608399
-1.081966953597842 -0.27182537341379742 -0.21532785560084733
-0.022981666013137669 0.90865381532891121 0.47532627951405004
-0.24690418704747685 0.13213250240237784 0.52350835187230871
0.23794282555390112 -0.80993942789158524 0.21896471020667718
0.12393307148724375 0.14550087559376124 -0.60689956768220554
-0.85228505185393999 -0.83263607577120524 0.27012458915410775
-0.14512641278048477 0.53878978571346892 0.55626747927901476
-0.71838660961824985 0.20204491314354556 -0.26588940392299776
0.20557288942035257 0.83505010802198854 0.43282678979876721
0.74787749898675315 0.0027823884903099838 0.62911938785185839
-0.17269345274289094 0.8732747756823116 -0.36343333318168902
-0.22073755906315284 0.71711437903034181 -0.14629895613683175
-0.19850217496964717 -0.98883592015089761 0.11404679490226499
0.90614581465470678 0.096988861709462526 0.51838616627181011
-0.034745477101608913 0.98625558274494551 -0.094212389188655266
0.44678869641897734 -0.48592212305158711 -0.38504785274675157
-1.2399219766524823 -0.13957890786824123 -0.42599907930950565
-0.11577969944974598 0.39573722569009817 -0.47993043228210297
0.13246950296522186 -0.71049660125292036 0.56528917552162739
-0.22110051389617524 -0.1656304048686863 0.5394955280795557
0.27949036675391881 -0.73965611996589331 0.47629463082805046
0.62181110101975889 -0.65314444349298384 0.18886333527099453
-0.42901826124655429 -0.0181553771829428 -0.35746461739149993
-0.26220030030825114 -0.087965481744390672 0.4843210141474259
-0.95313937726587028 0.30394722630816773 -0.19278906960715858
0.19952284235608886 -0.55342947983592694 -0.38941221068766652
0.47197812135107142 1.0413228381934232 -0.30074132824904609
-0.074574915114610008 -0.61751642075123669 -0.34761742728146316
0.96453072200320378 -0.1412000260838937 -0.5525695761502476
0.97131006162382505 0.34120223588131893 0.32185179044567747
-0.84698662094379529 -0.805493756935725 -0.46463804389823338
-0.62943927511564368 0.52152400747034022 -0.080736136901592204
0.99063267046052772 -0.36618148648545201 -0.20900418124583098
0.031844073348963775 -0.90498947317264822 0.34516427678627792
0.51183956685611065 1.1086231176162542 -0.08585892319638333
-0.23180423026944652 0.75396954839737163 -0.0589297022977604
-0.72059309480316358 -0.358936496634783 0.23156690108892519
-0.27411601715307654 0.78830189494662761 0.256824956771041
-0.66903827295487872 -0.73656771549006095 0.38524621001211301
-0.8836621438923089 0.28828858262399848 0.029728956178729504
-0.18757975568519214 0.37035562634156349 -0.44847718381167567
0.89105866896086638 0.47533054435070454 -0.12407708602739831
-0.23976613676524039 -0.51694107882121898 0.5079249266225645
0.33386867445148027 0.99212510994249925 -0.3273421783685535
-0.334533000531124 0.12105503636728798 -0.44850958580944678
-0.97302520612495869 -0.65446469235424587 -0.13640266721805006
0.18794256732874715 0.94857398585767783 -0.2600239606021546
0.54678639939719176 -0.19450600511706995 -0.459449927546558
0.24459860531358402 0.49767781356687379 0.7867251073924848
0.40473850408447731 -0.73933261691340846 0.2883280439632756
0.66122346607730265 0.033002257046724992 -0.47608955981826284
-0.50090853260604717 0.65339409360274203 0.0035598846221631675
-1.2198565024342116 -0.65833066214731417 -0.71942957621568837
0.70620697966693058 -0.43844465617601003 0.31213729501892828
0.62990492136681553 0.21765169141364993 -0.5815518397616728
-0.11900931077894938 0.89960531358941864 -0.34863360729268322
-0.99735472857319962 0.32572222002556828 -0.031050066613332206
-0.78394364017678697 0.42815887095339633 -0.084400558237575751
0.38743069191852442 1.2172201208357336 0.15072991992720119
-1.244938368871999 -0.11929438939909431 -0.43813303965126238
-0.17557626262454562 0.7928497904280789 -0.049472021166224067
0.8071397796671107 0.45674626022977094 -0.37293476861873387
-0.63375807865040201 -0.36054468062402378 0.29139107790328467
0.67936674148158716 -0.098031189750138026 -0.39502841848317871
-1.1761208882769694 0.17846242713363125 -0.31887917851769032
-0.24379211668245659 -1.1027065771885347 -0.20626093007972202
-0.86474779415017622 -0.13546125209830251 -0.3048437273506579
0.23806673555912994 0.4531120517970777 -0.60146861055002887
-0.3843040056221696 0.63126237025340259 -0.10075425921046133
0.81229883142776771 0.63281693440061559 -0.36767846300638496
0.58811815766365783 0.024836654266849223 0.65842370881776446
-0.34015465583705407 0.80956282232485677 0.17512087096972095
0.12018746537299307 0.89915457859975589 -0.28409746854086393
0.42944012778768581 1.0783065201855493 0.11165096343377456
-1.0644960214281411 0.28942712316909791 -0.14155826649734138
0.35093447609934003 1.05984651004988 0.084028690363297187
0.30724322516773839 0.068807535816830523 -0.63238347271821738
0.85158251971728305 0.75374578229731526 0.40640888310325352
0.86075147236307714 -0.330651323833969 -0.47407723097850862
0.35156460519571908 -0.8130683365447311 0.49620310302105963
0.25481514574809694 0.882130074518372 0.40673316369840506
0.12632001286925743 0.90262604465542751 -0.37976389238350805
-1.2405300682498961 -0.066824938656708355 -0.49115520207823238
0.025387426376283884 -0.099267402899016588 -0.55984553962305483
0.065390226910665206 0.59770886360109898 0.6740071546056754
0.70218624591625201 -0.45152494075581018 0.2493244324217585
-0.74251327969682279 0.25802791222823629 -0.22832292571425228
0.926643417682115 0.43691182503852843 0.056127609728903849
-0.93975748244712065 0.39006235687948276 -0.034013081138084544
-0.17054702368707808 0.14828561898465153 -0.53748504530298646
-0.4783395795364811 -0.1201357425107048 0.12184022258163907
0.46715376396994657 -0.70283741008270795 0.15598834860462318
0.015943339522380029 -1.0021199523523876 0.3132265692665186
-0.37598120607361807 0.59957780015619022 -0.12806534355307519
-0.97887962120039163 -0.11129082107223809 -0.14733371805726847
-1.033881997521874 0.30728703329050688 -0.079323679911965428
0.26335565494431989 1.1063057536453371 0.40748814811098555
-0.34515639992309843 0.81942154599720851 0.17227450775810382
-0.34417099403196971 -0.72042182046543957 0.59995446414460218
0.80891504869327946 0.28338411071045755 -0.29500181806220382
-0.69366340644037905 -0.83608272046891585 -0.31144608861755785
0.81815506547543748 -0.10646266519720626 0.54758051751636572
-0.015694818019312606 0.64455740483548141 0.52743696161121534
-0.66938874589182262 0.56709351440319011 0.026176114160051611
1.0174318861346165 -0.048528426772477928 -0.35884253297896862
0.44508273540762389 -0.64735315658921877 0.064016659197022818
0.92848794763906994 0.15131448046786034 0.20971319671430422
0.63315827031463812 -0.4434977916674967 -0.25432842985644299
-0.51654074648045878 -0.822416143918133 0.48018133180687528
-1.2185059159453573 0.09670942472421018 -0.3706460178408264
0.90341929491759743 0.14885321030742915 0.48668825588825371
0.93197216210293732 0.61117361247381297 0.26730026606307433
0.7410286569773632 0.69069128480856534 -0.51804687624940016
-0.60282709488167541 0.53200387343661504 -0.085250962718518508
0.81780800789236707 -0.30628491073547792 0.23523554572228988
-0.67261088990528606 -0.34812518732154984 0.21873391794916586
-0.12220223193641289 0.95360898311528075 0.22968282082783276
-0.34329484017310108 -1.0564586847348423 -0.18571300948390501
0.012658594971867387 0.8402014514263243 0.56615349326445141
-0.050950834576767079 -0.79746971780402021 0.38930074053040187
-0.96190056042890149 -0.26176122969301474 -0.22943966694091955
0.85824744563161914 -0.17270882117220765 0.43538469848095929
-0.45431831126485633 0.78189837299559173 0.11352497733345501
-0.20361316142634678 0.091080429727540491 0.5417191809121249
0.61171613531382718 -0.47681034718897308 0.46238126495182996
-1.05999750937778 -0.5963337146957528 -0.87934346071469349
-0.064696386686080132 0.71483010129960434 0.53817111483405711
0.89158731815852832 0.88062307679010843 0.14361941980335757
0.11268440229474663 0.74951266901015146 0.67828450114228644
0.014441518971452183 0.40047152604353187 -0.54829911153525757
0.74078891867604568 0.73682502405424799 0.52740004552146047
0.96294141920863296 -0.37927915620726793 -0.077932826942145539
-0.27841166072734325 0.85597178532484008 -0.32067229628549399
-0.12887362709061279 0.96591864411747252 0.2400711912190161
-0.92198373623395469 -0.19830497202932662 -0.22320886711204935
-0.93872232101568898 0.012026040271067018 -0.051011866382609128
-0.68748746368382285 0.27359928716828819 0.15944529260197271
0.52441788687235658 1.2175718504095201 0.25474664474543829
0.37025153897261021 -0.22854862396014397 -0.55011011740506888
-0.12676602219856647 0.13563419755033834 0.57678940102850618
0.19587796370738886 -0.9026581922228587 -0.066757487423998896
0.13514750727627245 -0.92656564303077005 0.48005972729713164
0.81879339708646626 0.89668368071540527 -0.13562135809974052
-0.040717385156710861 -0.68703042102225709 0.48094577234802216
0.13068368521918217 0.80371356759363266 -0.52394002749417723
-0.68739598679439951 -0.81582500471747466 -0.035074106147007456
0.56674978962685429 0.5088781431712377 -0.67660571439562034
0.42377099552803088 0.76353309242992395 -0.57242800185913723
-0.4703823358250645 0.82099317263312344 0.096728717869694947
0.92672069567151993 0.65646677249831242 0.1531383004229383
0.33655040163698402 0.96686848103058054 0.33181391747756095
0.77849303059961983 0.85624607062754166 -0.29742899898539576
-1.1034207567725218 -0.47632092552769478 -0.10407278367095785
-0.26577233400983857 0.8902548740243077 0.22360185421810286
-0.51843335571386717 0.77337554190660995 0.11685789082329734
0.36374871981544743 0.54509103574282136 -0.64027340775119512
-1.1649266730237429 -0.76187293715231874 -0.33318524654166026
-0.83380535169627024 -0.97712141074055126 -0.16617097842495809
0.49252045438052505 1.2705301205161064 -0.099808084153934828
-1.1701307960704668 -0.47495945547581186 -0.33997057945146025
0.77750304216380073 -0.35233793226332466 0.28930858570994644
0.6232239097185186 1.2678535213311903 0.050548384154083692
-0.88977920947148448 -0.10558744579948609 -0.053852629417946218
-0.51621698365396185 -0.64061880995632947 -0.19108911814923601
0.79741220718302941 0.74157294189168255 0.46086645887272937
0.3289770809896595 0.29264185069234827 0.64342576934028273
-0.41386979426282267 0.84114459645198991 0.09541635543750715
0.31030182031292952 0.58631418679853198 0.61859147217252541
0.066747135086956177 0.6915179598962311 0.67130816647593861
-0.10308952270226257 0.81045431933748802 -0.49122663707437653
0.72241404846838009 0.90908078541382054 0.46604549611583934
0.3044252320925267 -0.88220355779764503 0.47501693961930869
0.29927028393254318 0.8245420512460413 -0.46502806209227288
-0.31226571631289346 0.85972169378578656 0.19090171380216248
-0.44319475141763576 0.85211279509756821 0.13119111008212769
0.042343588739484517 -0.93975550725343737 0.34852215406917253
-0.78034824328952368 0.25226516751395422 -0.22828802719217833
0.083222636311376164 -0.31757273096333449 -0.51070902248662264
0.2226846155480473 0.31212427456124914 0.74223854795197042
-0.25801157746604986 0.84337201177405774 0.36905278620369586
0.088052312430193069 0.43385678144636586 -0.5581653426730071
-0.13985543077650675 -0.80568868726390974 0.5515632976907483
-0.048389051614236678 0.61169136956985426 0.58492484643070952
0.15542127245483073 -0.082409126225350349 0.52894501208523081
-0.76136938279019262 -0.050802393018443581 -0.30029694305409294
0.94049387799326212 0.082758190444074842 -0.34009063997469013
-0.2926986685686046 0.6705514651654596 -0.11915821079183786
-0.46026912151849331 -0.2009589062875321 0.27579753106192584
0.2684055104356986 -0.82118691882287465 0.46984150905755939
-0.9368854811013847 0.1608886410189001 -0.34586098724537351
0.87652618512495906 -0.058748645449959724 0.16790292288273179
-0.015984634435170619 0.55211999166651538 0.62358376563298634
-0.60308540011011758 0.68072423598845688 0.056568157508380068
0.48149882057342097 -0.71633594592353944 0.30531645706878408
0.0036264867432294068 -1.0018115891860546 0.3701628256222449
0.13894545446943596 0.5619985065264359 -0.49741868227675923
-0.11462384785733093 -0.64091384575123556 -0.32274854253613228
-0.61274003665279508 -0.089368074211385817 -0.14804199356987624
-0.17321136272219917 0.97912049602900453 0.17299723106467013
-0.53859401673283003 -0.56152938561650956 0.41495427822175657
0.71524251433694985 -0.11675235435085796 0.58959694889412617
-0.35117131473747065 -0.82191495068475717 0.52464646126287562
0.65287676286155261 -0.54527526559483874 0.30996739090281267
0.58800510150702223 0.5748114838595626 -0.64871321863130049
0.0082398705712876108 0.97410817067253674 -0.21750167312747237
-0.010902809490147547 0.79049308081230407 -0.54549002985822881
0.14317174982832626 -0.87501717978489069 0.43380994511163351
-0.65482039134774084 -0.045361137459885015 -0.19854754208043346
-0.45318877583831352 0.28531355263715596 -0.24614577591762554
0.44790374035760294 -0.66657572173186708 0.43796380800156953
-0.62221473528879301 -0.22890203379882479 0.13740122294440482
0.41249589943585363 -0.49831636751867592 0.48389636091604871
0.94861874524707446 -0.41299925413134986 -0.25168548752860431
0.82118259835975493 -0.24006207982797179 0.39474295400636095
-0.035886551456215443 0.77798301009848103 0.38113557946850563
-0.19466400090136915 0.80053482870421533 0.061274156223987575
0.2018513326252247 -0.063496449988399206 -0.60428896561897716
-0.6480542673787113 -0.018025629892704842 0.088543053300284669
0.25199452529261634 0.78195725300369645 -0.53807259093890991
-0.57121936203365919 0.18533711224647931 0.20082871885597342
-0.30493821732670767 -0.48326121792123189 -0.30200323020322628
-0.29207423787089226 -0.8827116870544458 0.2783588800093213
0.065023362574294197 0.83228211504373917 -0.51205302983353818
-1.2123823871449417 -0.72604083006143583 -0.51495647334016326
-1.0378877289097517 -0.43227290833524989 -0.32290812117805956
-1.196419617660851 -0.17832453034556295 -0.4054926217427095
0.71454676921999294 0.23266237499078102 -0.51749253571388465
-0.80196747512999877 -0.8477522627410039 -0.29020519360818753
-0.33524473837375979 0.57532313118606737 -0.19221976627621018
-1.1113820003590575 -0.48742609522952307 -0.68452306300592625
-0.77353779151764002 -0.84516777562775758 -0.047274186912090954
-0.18530669575716274 0.88450649175359075 0.3770285455516813
0.12306099524919034 0.91590012596190462 -0.3056738585235621
-0.030349093945147843 0.58332305562870346 -0.36380939532270418
0.35854816120662747 -0.57818161398508039 -0.29603051637838007
0.029978497504856705 0.90558812115167342 0.15568083233578989
0.60878406914699212 1.2615478397694275 0.15771903971887014
0.44400847754245376 -0.7056092245048049 0.40298883082094505
-0.22773166242268417 0.52408382502263606 -0.27640912913386728
-0.10956104540365175 -0.14010468943957477 0.30594377762261615
-0.05165643525157293 0.76795444850677086 0.39594574106814662
0.13899343473592296 -0.58193982848484183 0.48146787091799581
0.95242632086004164 0.51214293597170268 0.23157313609002017
0.71941980447188314 -0.44734332686032729 0.44322979353478331
0.38482072083311891 0.76871579249352351 -0.54730499335848037
0.27872863014559357 0.25028479055683306 -0.65096922187073858
-0.34308988495162396 0.43113025598184862 -0.247713534297759
0.2884187736667343 -0.82014473614715655 -0.12244498187611441
0.41027950351880804 1.2145611227228628 -0.037143628628967917
-0.14411685505450578 0.93378603184152098 -0.20312507169784055
-1.0225532148999434 -0.51493505351106705 -0.52755954857421727
-0.82485864917909169 -0.62086482146490596 0.12329492673856635
0.52362115888630001 0.94317923855116703 0.44593518375369001
0.0037515075202492199 -0.10810600134859527 0.57932784696475892
0.10309722041124303 0.86153086532451795 0.3390813311670513
-0.68237982863516322 -0.044251293005444836 -0.2061480108429663
0.92173397023454129 0.31490331818529427 0.06255053509941888
-0.50502079889548668 0.78567384005302898 0.19178189521375089
-1.0402108444431803 -0.215243817566666 -0.27723348973158579
0.20432585830238281 0.3084340247120565 0.73073412623502065
-1.1025763865667528 -0.30418297364018088 -0.12014146405478243
-1.2532657100120588 -0.028813115957902369 -0.52041442096988533
-0.16670871112286534 -0.051304927556017788 -0.53476717724643663
-0.68141709829637875 -0.081816556993075551 0.14551799756377193
-0.048218807161731547 0.40918300546565689 0.62457206359484019
-0.48476412772069466 -0.7808695264219736 0.56229562900902863
-0.46745833980236284 -0.079992251694406491 0.088761620161079691
-0.70237189812854695 -0.96307020478226235 0.16439665153224325
0.72422055218591197 -0.045591662196521554 -0.42368625023956952
-0.46312046442359645 -0.73873468123535702 0.59131563298964807
0.88521380299494012 0.86525629226099454 0.25755083325447004
-0.041779160500396983 1.0234746915047808 0.19239114356190612
0.82051566741034776 -0.3822940287587997 0.13807533637049119
0.75887912938445368 0.41994166456303361 0.57776066768290946
-0.82603867678385257 0.16243404328869815 -0.29548285830405518
-0.064285054801644037 0.72860198509731333 0.44493837149815363
-0.38511370895854213 0.74048447996636213 0.06933174421970989
0.085340191958707123 0.88999239139262443 0.56032872653359789
-0.064757063742646892 -0.76750214253330995 -0.18916912272136699
-0.28070129017041268 0.2420863255991037 0.40203116030045294
0.39173036378933546 1.2063752954991358 -0.013972740520898697
0.19855480187075614 0.87679045173058512 -0.40104502706947187
0.37384695791773481 1.2077868799300404 0.1797065869528609
0.64548402362154889 0.28068326187408132 0.65081086106691544
-0.074654865015006067 0.63604852829799086 0.51611415722787513
-1.0951056193866151 -0.85101261244652449 -0.42270941831655762
-1.1478614464619028 -0.63894403267467226 -0.88715189591837884
-0.66151172094434685 -0.23681506789978357 -0.078904511438366853
0.31100262155797509 -0.32564957493238467 0.54307223299588259
0.13841349960337368 -0.83781512058853735 0.27166599568266747
0.64360885260258272 0.57877252350522213 -0.63297115151557648
-0.24103059047219233 -0.14815325406234336 0.50805261892342912
-0.49120973117247502 0.17399087008470815 -0.26031136701217861
0.72563672744830399 1.0593195034005589 0.19208536936142195
-0.10871114410126381 0.10802078907071433 -0.55555049178015281
-0.08313626349149672 0.99987739584850033 -0.0057355263506053689
0.46811189777028517 -0.66352802772025399 0.075449683634246867
0.68496042156138515 1.272987048724957 0.034801473279387096
