# XYZ point cloud file
0.11336371683517421 0.35952398005101566 -0.074445973474899133
0.23420050136380222 0.22402899841810772 -0.24974566942085297
-0.087714770701441708 -0.045691912988935567 0.30319995744234574
0.37797827329038358 -0.48626716415263127 0.40947446713075608
0.25218918750593078 -0.04379086940517065 0.3866283384897688
-0.436256364591461 0.17110284646637675 -0.11540399857364532
0.55649850439221282 -0.36386524439451262 0.37130052543702424
-0.098831037518808312 -0.27148392573841063 -0.66979827220997556
0.024878992636457764 0.99795075962291291 -0.037959911454656672
-0.29375558333023027 0.50437150335665892 -0.10596861255034086
-0.42062251776596837 0.96057603332940356 -0.32092851944152395
0.20573279219226848 -0.35378055924592272 -0.46781878344476013
-0.050867848703140789 -0.17365867453295991 0.29158409270409558
-0.2884043494512275 0.60782482501011814 -0.041600632516623728
-0.35760701344137308 0.15659945332262956 -0.27713054498674994
0.52489706950477155 0.30407278544194694 -0.06783717536813931
-0.39133654647286142 -0.31591130815904667 0.080297081112581589
0.93280082402664966 -0.28985303978838606 -0.13356338707927778
-0.27971084094268067 -0.013670547346182498 -0.41448236661245141
-0.43903257076917829 0.41563632013512947 0.13637154939219501
-0.11470409056944611 0.25799623423219542 0.2515460605780856
0.53058465246731989 -0.25444978140881758 -0.4006918264575216
-0.37536446812250251 -0.59104899382561882 0.22578064571779094
-0.17407149245632716 0.33928243006968034 0.35262044225840344
0.46732334326294878 0.086645052919355592 0.34002407082112718
0.51096136070976428 -0.089700142899805935 -0.38144160591029369
-0.39573094297483291 0.41341772925988707 0.047026356224286088
-0.3014385658727653 -0.3123798915926706 -0.59105711708433062
-0.10686731092997889 0.18165711293505468 -0.42156960967876322
-0.082507932142197454 0.20187319490208835 -0.39862157049135383
0.39825113745137436 0.28291238296221149 0.28620382335052069
0.31766037068433051 -0.45063488284233821 -0.25870610898499524
-0.63664176398353922 -0.17361274561694334 0.074913039454060151
-0.13896629674931296 0.37551671721051183 0.057941426903351613
0.4037369016518042 -0.56040233644722082 0.34534823228077322
0.014267073148086284 -0.41243263089290583 0.29085641262033829
0.74832537783843456 0.13297291674215048 0.18187292013204742
0.48204677455889866 -0.34568238618764824 -0.42886366356475702
0.019003153442708046 -0.2972509372856712 0.34775949779370041
0.48895161641128637 -0.33110602189375726 0.43398417209142265
0.42090734524562284 0.015387374935534527 -0.38741778045376735
-0.44726155562945891 -0.0088961075023759467 0.50030281200185334
0.12662724892516103 0.059315488687711145 0.3151602907659577
-0.47543156686264648 -0.593469413535191 0.10069261686077013
0.46812722756654684 0.068550668620955602 0.35071113780780827
0.25409628197338635 0.22718015618510082 0.285626473895502
-0.56143955256325317 0.078913744229092975 0.02397811103654994
0.62591154744040456 0.26252441001611676 -0.012372038080687792
0.54820623246159805 0.34880073834423797 0.062307880393771164
0.18221709335996428 -0.53712440537883177 0.36990842787460559
0.73023472316957638 -0.11052429203266304 -0.17942721464286204
-0.052714792614560725 -0.43601930913932785 0.20489039876177956
0.80748588575999614 -0.066638815813534646 0.020703131949884199
-0.44610989898760395 0.90066870547851419 -0.35659848184999116
0.75645369935920403 -0.55443098559863491 0.084845398139278855
0.21541220712342449 0.28366157540821274 0.21695092010271072
0.88007519169703308 -0.36724072738647723 -0.16729664100583919
-0.13663909724477927 0.42932813240363815 0.063164771423024679
0.91270090219963307 -0.31156359136366135 -0.15561505465699305
-0.2130848254837012 0.4298211163643833 0.35003520816922551
-0.40603377120535644 -0.19900375430627346 0.31288188485781776
0.28231945432649208 0.40956723490925234 0.071201217258355598
-0.17612956674752317 -0.17004622087175447 -0.39507159658390706
-0.23475200700290594 -0.15070351282478978 0.31577581347649752
0.11841725177680432 -0.67803179872068775 0.2730043444603118
0.73521763798015416 0.16659343711569652 0.10249727311150403
0.50266926174877891 -0.58801594938424395 0.022174118997210265
-0.30326576957282936 0.64889877471467883 -0.054860596659698377
-0.0388950292387088 -0.21682405224589371 0.2737608968368746
-0.47133363023442859 -0.24694324112503638 0.25724319978985144
-0.40464126677934786 0.1425868361989463 -0.20210690426766575
-0.40840644023675438 0.84539285659113972 -0.37509279793325134
0.1579916018945389 0.062706472038577571 0.32395520585012755
0.94459367933885785 -0.4498871239655276 0.0205614293363027
-0.013874687207270597 0.62706304873028984 0.047110095519360247
-0.28612187838545133 -0.054884834255915164 -0.42085759710635995
0.64840282325216081 -0.26647421065249882 0.34501384431816112
0.73483385479755747 -0.010861517422359065 -0.12323154809186147
-0.24574967201111633 -0.45733856194009359 -0.17604951561457077
-0.23681578649497523 -0.33979663410114336 0.22102530699967909
-0.53458949315427506 -0.23638480465661432 0.21720389296984288
-0.26033276617406359 0.49403902134665323 0.034997281704977089
-0.39105726951382025 0.25594197713647177 -0.098153790566503543
0.59286579229753911 0.043309998177820684 -0.25015781750498822
-0.55641149690442393 -0.62305650358834641 0.19032858948469156
-0.16658614703203811 0.027190541580728221 -0.41021573207423956
0.99515040514716457 -0.27206379346324461 0.092219580113928765
-0.32110726757925917 0.47174472900957076 0.18564465200779051
-0.13587606566470292 -0.60167005879622337 0.32106141554162837
-0.40963776025666215 0.84146965981521127 -0.1776335738985324
-0.12025182508434226 0.41721413735567592 0.13746204298500236
0.015671632700313118 -0.49646321885530637 0.2865389525090643
-0.3260226409893201 0.45230587779660458 -0.09218142333620287
-0.33114662600085409 -0.26113377403463617 0.28437889435298613
-0.2412420515845109 -0.62225688878270202 0.16471628019741791
-0.41968356076789237 0.74073135707087001 -0.26914414528651287
0.31050767242832167 -0.47328363617463831 0.4298804289832216
-0.46576379976113003 0.94073110491051326 -0.25510163136360453
-0.27340849540154105 -0.036617227601886862 0.29976259642924025
0.3103947581859644 -0.35740028123454715 -0.359137850622123
0.2983295700756155 -0.17307946734388144 -0.51997283422853724
0.03019316304952243 1.0062770180020073 -0.025375476628750893
-0.07329626128982733 0.50642682240159387 0.12336442877675521
0.27552876427389411 0.14005104482374758 -0.36334130044583451
0.035474739908116684 -0.35839605955052539 -0.3340833277642507
-0.38082327477082029 0.45645574763960539 0.05181864248388568
-0.5195541855946334 -0.22086779694650652 -0.22841614146913591
-0.53429559914167568 -0.28859340746835122 0.11864093022332903
0.15858209758707933 -0.005774288454859916 -0.52792019596203466
0.78205957807951465 -0.093202830403365397 -0.080307671482058599
0.9739063459874715 -0.4075848652839405 0.098535856117909049
0.65427701065255761 -0.37796323719845232 0.30473826110199204
0.060944229421100664 -0.30961409490104658 -0.58226191956464313
0.087036260011149308 -0.67759255662246565 0.33359920192028947
0.22305326103264558 0.19902213211527661 0.28932091284422018
-0.15634169453518942 -0.40190395816150204 0.18369090856779619
-0.028612845675078456 0.30740416730426962 -0.057219491786330748
-0.016553828521422169 0.92687226831268243 0.11059359283308824
-0.40368179063538279 0.42996949274199603 0.078678314956453263
0.096780715153631069 -0.25252257011659918 -0.57234716504341365
0.40277963480165546 0.36114584963747304 0.21325325474165213
0.062133908306280385 -0.36429548538463108 0.38754817742256781
-0.35169722443865281 0.75125075420734921 -0.10942028613081868
0.613071506723735 -0.15165802562295388 0.40236630070660812
-0.17399161316651926 -0.18353511340038323 -0.63869026653603533
-0.62866033363838536 -0.057976947288630044 -0.25461116472080869
0.011607801090015295 0.21806144489607668 -0.39370033427123063
0.066763999824955095 0.22189924298133148 -0.36908099707983583
-0.12647436902305689 0.61648318474919073 0.028697353877919128
-0.1116192526287588 0.55682857691638621 0.031390173457803559
-0.5244921709654764 -0.07332758054890455 -0.39053610514322862
0.040358279925094866 0.31378936832520404 0.0032920632635355107
0.12092039296580295 0.31939271248903917 0.08879012944391837
0.63049400689247215 -0.17565134773584187 0.38954820851457206
0.77408366069410639 0.016274642893239676 0.22612766549614249
0.58559239220113357 -0.47520775181178149 0.2953713465908846
-0.20240513370712357 0.43458146512276713 0.034690701645081291
-0.023080484806400393 -0.29057821864770556 0.26302984075295927
0.73477201676213821 0.16707451265185627 0.071564293084506417
-0.45306176688401562 0.30373648410230192 0.060632965133629577
0.12467292233972616 -0.44972902464298015 0.39918677427830068
0.1894455222378422 -0.42128088601038582 -0.20711345650051483
-0.28418156714996567 0.3859087423923237 -0.045244398833004032
0.83167690958258145 -0.52296418898755304 0.10747068229298765
-0.23937561606815533 0.22249803108571839 0.38114817256906891
0.24568695655083955 -0.6836078011651332 0.29386664351861647
0.39819840140261442 -0.045496406336883642 0.41296185272638114
-0.051056554361212703 -0.43303354673735212 -0.17815922998678696
0.62348461623362639 -0.053511704602661206 0.38928458069219096
-0.2336543545931889 -0.12378068544102147 -0.40019206562174703
-0.18319691589745807 -0.25021405446872191 0.27094861436090095
0.6086732382907023 -0.55668493743443559 -0.06788119686070114
0.67840749995902128 0.094350630773074623 -0.14654910531149484
0.043973073228282887 -0.66139824368748534 0.24208180590905037
-0.43050713347001918 0.36055626060790735 0.083402057957709066
0.22182998798902037 -0.37125424275419711 0.45241450328756455
0.35609844969464027 0.12538530070620454 -0.3354655116904644
0.19294439920017173 -0.56021094223643519 0.1051195124108887
0.4794297131682107 -0.18779560034857595 -0.446538877920866
0.14536665117430753 0.26092062779801467 -0.22005510714997401
0.21768554930375331 0.039762482190113684 0.34741283431148362
-0.035649305233956916 0.16516342386281591 -0.48222502401957568
0.038416431394353003 0.26049260124086154 -0.23604079133460271
-0.130187081416551 0.53069121090299443 0.036153660420429827
0.42857715897605747 -0.3905273637502138 -0.42242327038279393
-0.59602700313425272 -0.11819559076411304 0.13036575150166901
-0.39320726324703303 -0.26503657425233357 0.26172024182585246
-0.14075742848321457 0.035852332072755476 -0.48219655040324438
0.016828819271698062 -0.24278319464794737 0.3796158571301057
-0.29850206066291063 0.46839414385054678 -0.090974560135695728
-0.53445193671835667 0.0067890076432068625 0.13492388865659286
-0.50482960740221794 0.30541700648085185 0.34003445847757752
-0.21118688897467161 0.27395283268309295 -0.10771535087991783
0.46641465402350191 0.35185184767909722 -0.039738135545083639
-0.26044689675947236 -0.40905910069238077 0.19261262890124858
0.10833481470528866 0.090111087859465561 0.28793329799681205
-0.3432626564602973 -0.12641359153146978 0.31254037085190745
-0.52089656252677186 -0.0053405190102416705 0.17277497501212935
-0.41317568712036284 0.30802003157411889 0.45131445049940988
0.59710432251565226 -0.5508441422130711 0.23211944690742109
-0.59189623076385867 -0.4874476434238168 -0.14511594146812706
-0.00070764291405182519 -0.37719671924057419 0.26810001633776931
-0.0081276755933225534 1.0307234472548727 0.054622134583697017
0.51837094946047246 -0.2346591027243502 -0.41507943616223908
0.28518533075398705 -0.13643647395972347 -0.51476788376116966
-0.30903282685171174 0.67740244942974703 -0.097522197486602721
-0.13004011990860612 0.051263245208273502 0.26618901804192108
0.051523967886460929 -0.68043853762326301 0.34222381757383358
-0.074918244999898007 0.11701346232333254 -0.52685275241454943
-0.33900209257971164 0.43730626828503544 -0.075039629241866732
0.26187179811739864 0.182794684132284 -0.33282181454595905
-0.14943827468355381 0.48962486210187406 0.19059533433462936
0.25959451028830111 0.096312361905898231 0.34531547566733767
0.53109693889320619 0.11753594184326405 0.3402418234208216
0.092644457285786547 -0.6459970610530561 0.33982524050498014
-0.57654455493931378 -0.26787816956213084 -0.076403604678220091
-0.36076501199728045 -0.3993415849544199 0.10928940316982128
-0.64173296474679142 -0.21754149019434568 -0.096869890747897827
0.79825177413817194 -0.53837343118980718 0.058939370463889917
-0.28482457998145688 0.55794227212035585 -0.090255351762525568
0.31831100737923279 0.16745673423519772 0.33527649216464411
-0.0053796958375951776 0.76465169411898026 0.069135795439303857
0.65227701911254476 -0.56448065862041685 -0.028159749790271582
0.12291034297387463 0.24226045568860147 -0.23765809642895241
-0.60782053483862197 -0.067509734657336826 -0.32687525806724055
0.25342888188499874 0.2516249024575844 0.26596213453846473
-0.096289556096272683 0.28043434794582145 0.18148467787895922
-0.29712948296033453 0.28657313885841346 -0.10683139789864872
0.90620025457986819 -0.4748268445982638 0.11041268790088388
-0.074935518833352838 0.26721477446907466 0.10785447949638213
-0.51524310960146236 0.30410512850094967 0.21418772213670845
-0.25264921300469823 -0.25850804678607558 0.27928884463825793
0.36370380914961659 -0.36831273970579054 0.45323359809917441
-0.13014839769389744 0.72340662342448492 0.044897244419241832
-0.65332037951961885 -0.10176669942081119 -0.15157967835781255
0.87507620973963074 -0.38647840544712392 -0.16079652082332818
-0.47832063189803647 -0.29682254687500687 0.0063766404995071607
0.83606577902148127 -0.51160295447926007 0.1358746198169179
-0.28322657420380187 0.18037968435160318 -0.30679136820244896
-0.37039500562836819 0.78564539952118795 -0.13355472118568518
0.64986107812464988 0.27007936710103397 0.17179278743561918
-0.024751313826414101 0.29756239261114387 -0.15244352868467181
0.55292401212519515 -0.10283613041286492 -0.35251570181301323
0.62387116771526974 -0.46851449166967019 0.27083975596111642
0.53396670628655674 0.17785384914681324 -0.17993985364523246
0.3268586539490394 -0.58257055920924306 0.33696271579597131
-0.43983504923860389 -0.37878776741796949 -0.42935230865014262
-0.3684074808260896 0.45508952518134038 -0.013538552325461473
0.45728286610759566 -0.58879550590313856 0.026374768654717058
0.39013023679309522 -0.57966869980614433 0.014793552596046519
-0.54374216528600716 -0.18599396337856341 0.2233192528351815
-0.02829431062153278 0.57296919536054647 0.10505592232380928
-0.084582377618827045 -0.42253474443755357 0.16907885035118092
0.60334977851347016 0.3109298364320196 0.051191006375842035
-0.048809717532441274 0.2091966393785826 -0.33750669981684539
-0.22902625359632323 0.46125521935867464 0.046731015672131136
-0.3007311876166805 0.16987463302283726 -0.30727885520725545
-0.3247344790315892 -0.58363813496221451 0.078502209098099338
0.89376103012687036 -0.4400480832713074 -0.089743569328714426
0.66699775341133427 -0.52716232691913478 -0.12317069601535112
0.11779931145077693 -0.47328087068172098 0.37421706141176192
0.026885129980629953 0.9773664714705379 -0.04130266111969462
-0.083157117407428108 0.24269616593222545 0.19021550682025445
0.60587902086628509 0.13072978196274543 -0.18053874504627043
0.089096033027389748 -0.24151248820840768 0.45851454776208278
0.27243764023359968 0.22467426891062961 -0.23082608058993997
0.20806995209011994 -0.15132790203749655 0.47495371616523152
-0.14030787204551592 0.34653652819173186 0.030366266956968237
0.76698713259513629 -0.24314068851939885 -0.19572902763232203
0.78868735282895486 0.022128430775297601 0.19375716208635518
-0.43264826640298387 0.98944253676609795 -0.32535695571685358
-0.45168883275407429 -0.23855460727777264 -0.40040884598900939
-0.39697282155095437 -0.053752314048696535 0.28536859011331228
0.13902711946090693 0.36426734321169352 0.024698676262596031
0.5374526299952791 0.2240229875339694 -0.14273409475415166
0.43861755942041181 0.10457473193268751 0.3449696542997987
0.20961794532618047 0.26328446230325531 -0.20355315708394522
-0.37077568375807135 0.24334328791043472 -0.11928456031633235
0.75845440154362431 -0.14290470254674698 -0.13013763425898894
-0.53333799343104693 -0.28491891705345807 -0.34100995515980947
-0.037374611757629184 -0.28195407792576127 0.24281412535414182
0.8223783021138702 -0.46233942593114724 0.19949408339320673
-0.14478887928176365 -0.2866788075230855 -0.50163417646169306
-0.43510281863310252 -0.30740088181473063 0.04013665159673916
0.24539713894442156 0.27687033312946951 0.24186169064657448
0.47635903599113988 0.38351819118523994 0.041329574344844251
-0.59716447053409094 -0.024647455244744852 -0.18152619442263979
-0.51979450983671971 0.24564555157341625 0.32287595017211729
-0.50649660649447936 -0.24744469852861609 -0.18204110695021847
0.55443947379618908 -0.19298206540611859 0.42509073833502992
-0.019668643155247821 0.97938716191755004 0.0018345418445453315
-0.10886496106317536 0.11413356462792909 -0.51287715780727927
0.7761514202501405 -0.058900881774816442 0.24087446614122177
0.32227222897951424 0.409153317445003 0.097039065080472067
0.035851050642624852 0.10280356365086973 -0.51291875785794971
-0.26832383627377071 0.34077930815385987 0.44159104022280532
0.24304908611326975 0.22069664024822902 -0.26667569986262585
-0.44028206248439566 0.10797218893683722 -0.27514978346711888
0.93915187530761679 -0.33536598520863492 0.17246918354522411
-0.45658721564249782 -0.28564236786140002 -0.087235376069058804
0.61136515905214128 0.042271505411267112 0.36082915775020219
-0.67405532355649322 -0.16885568238887402 -0.062944750131852981
0.089152089100290655 -0.39803279569034516 0.39281451919553872
0.11685726121725382 -0.0076593996102926887 0.3364257266837905
0.69034856932390409 -0.24779861057546071 0.32469167040720703
-0.5134029512743945 -0.24269880245755923 0.23001460906841376
-0.45145530901011693 0.82636475628997963 -0.25970218554286256
0.59672167958912092 -0.354254095471848 0.33932690135034388
0.63250645189101284 -0.38416289497823436 0.32159441746172285
-0.19793893565053047 -0.56644494642513477 0.062409391488846278
0.74319322730028958 -0.051382462530245782 0.30165347242293694
-0.49698291635585312 -0.04398103545369008 0.4383276393938243
-0.56665843375344871 -0.53261039769317142 0.1453901323792654
-0.57400505426983273 -0.27426604888838296 0.096670319242669903
0.56683394237729468 -0.46038503971261219 -0.22587553240692837
-0.31140733622807359 -0.23097252129086177 -0.52763632283930295
0.38669370648976226 -0.46013125813026234 -0.26078856539248618
0.6721982870084916 -0.11455440589491783 -0.25248231393925835
-0.25889504983546474 -0.32602312620349838 -0.45474382967589722
-0.59861105387191049 -0.60122939140901177 0.15035162406534974
0.63861879385486353 0.28383718454025347 0.094932747501034254
-0.16330282898499093 0.61489028967011727 0.15877556776851867
0.45543989394016754 0.37369921479978724 -0.0069880842696836282
0.10411071650130865 0.29740362636699291 0.10702483923063333
-0.2268241541138078 -0.62919126176146778 0.23996770551100149
0.040032631758801986 -0.2648129371575631 0.42008753709937696
0.60200764445502686 0.18158808912190758 -0.13318394595193012
-0.47915231876995273 -0.15158310351509952 0.26925240967788788
-0.35305771539676661 0.4323171787914078 -0.042411616531940102
0.60908047963784939 -0.25223443990254973 0.39464376552081948
0.25689080657711072 0.16715019479994658 0.31940041560723181
-0.3894168285028311 -0.10276832823203612 -0.38836798405340051
-0.41330434085700152 -0.39124583777009891 0.014639361854791699
-0.5372229140617043 -0.3963741795777036 -0.16853312736583431
0.71970929143433293 -0.26563177005537641 0.29125867294291941
0.072956988387211874 0.30453294188317009 -0.18080645549312402
-0.15001399241765745 0.16373474443496758 0.3217183676634145
0.33319833454253661 -0.18150467376734938 -0.50356287759894713
-0.015838913763218367 0.065586456881843169 -0.55521449593259953
0.11116908760415897 0.32407962491008729 -0.14588696455367517
-0.45466728070390366 0.046758037472254425 -0.40735979322413784
-0.079071452712326379 0.24312339067478247 -0.26244762543981165
-0.26177372383007874 -0.066564197133062636 -0.41516083648300428
0.56163049885151362 0.33847621699957586 0.050630085782642796
0.46161500336640576 0.36511152393591118 -0.021132956838868969
0.10581595699791652 0.046820328126997941 -0.51442366253843863
-0.64589698428212139 -0.17406159655064754 0.030820099328372735
0.57048966805889212 0.21406668246825214 -0.1319644197796852
-0.22779033303816384 0.48233640472215911 0.21529277640241956
-0.017203732739599839 -0.5165815778352143 0.28990933544981567
0.55689957878452057 0.05253509065848589 -0.26417198342118847
-0.0039813218751385861 0.13097291932931568 0.23985255158534363
-0.45890616562979147 -0.036865673777634847 0.46423001112994305
0.44819623487045851 -0.24167118691342718 0.45937858338453147
-0.63016938833375691 -0.46585447290433807 -0.19372092042063416
-0.44059135346234218 0.98606120281693932 -0.38901432379089923
-0.54510456111108929 0.12735932054129526 0.27881548991294941
-0.35797440992888591 0.41641567276402036 0.33197511619881886
-0.44043625084710114 -0.52211440900645434 0.203226973153396
-0.34702088742699672 -0.62296915956657695 0.22074160783161273
0.27158547508225572 -0.34051549925807389 -0.389319488469833
0.013574435185500243 0.84118777841014136 -0.0046712349742277365
0.37330086927583706 0.25509625037015182 0.29819898790338872
-0.2983055098249649 0.53814764651769187 -0.12449344562298233
-0.32407847167100767 -0.39673506944897519 -0.36975948778018342
0.13669739916359894 0.15561726181585334 -0.43006575930329372
0.073557772858911352 -0.21322494273721071 -0.56607194528602645
-0.20574448706037091 0.28095032258308522 -0.090070534552417189
0.75213714514865815 0.096631549914256015 -0.021946431229634467
-0.2943043901688332 0.20675174520871034 -0.24164022062796453
-0.13942964755565521 0.33413182734283009 0.017378711969607177
-0.33781305915806586 0.058470903579629301 0.52056868922425958
0.34902172934231779 0.14768369860923394 0.34788415510148213
-0.48777359783418128 0.065119329777044432 -0.33455600477107045
-0.41658866489897861 0.86223675057146965 -0.20010005503050354
-0.036151057244249073 0.55158759576501937 0.087663131563571459
0.38349077965389011 -0.26198254157825784 -0.48570567057513681
-0.67479621624495523 -0.3566487705197634 -0.34007351456603008
0.39973901227817021 -0.36734218628209264 0.45349250839053051
0.69466780561224017 0.019638777111993709 0.32142763460522988
-0.15764222512863088 0.48953240109845153 0.041508776133887745
-0.41772680066159523 -0.19581876554919525 0.3068952123097457
0.4628727894938619 -0.59969637733535885 0.055088598489262189
-0.3271814843786639 -0.41268833463236898 -0.33506725138020338
-0.53298932385644382 0.14963487914828719 0.27516724413443167
0.1596899802968238 -0.18693895478245148 0.47099793265193041
0.1596023212107201 -0.031217189769983441 -0.53944613294525401
0.47538898371101201 -0.20643391270333455 0.4529589649008311
-0.31138901742531144 0.56802459590355159 0.03814700775587785
-0.094012750823182889 -0.43201650526245616 -0.18247368933605113
0.34603130283056832 0.39369752142983006 0.14388734645426801
-0.3755824151877119 0.803469071934938 -0.15683203003549001
-0.45506783308293319 -0.05293666697128048 0.27868154485577018
-0.16249708310176433 0.36100037822966552 0.011818080043139903
-0.59762458967791954 -0.50550310883743788 0.067164483075403958
0.617800906320638 0.1843769032244825 -0.11942885137210164
0.13668340899946788 -0.27122071353001875 0.46941692224674147
-0.10500844643539362 0.31762663385679446 0.13434822653991654
0.55197425865391148 0.35047216805451892 0.10753093409973116
0.18668696752064595 0.20913353661199577 0.25878689130126908
0.71014661830926207 0.20021306588402307 0.16415299786824775
0.46507415947393221 0.32068840170442797 -0.078254147402464544
-0.56668720195617051 0.010453146676617987 -0.15358147687851359
0.25470472580435072 0.095198884096169029 -0.42276558085575777
0.76027432377612458 -0.25524849517083503 0.23952459351439859
-0.19432895719169849 0.13591503239292885 0.36687900232707343
0.35799528263624081 -0.17520418136233559 0.48167177689268348
0.52306384781739934 -0.55672865158156626 -0.0180529260658647
0.65139724268078103 -0.19670253305790625 -0.28392106591510913
0.021014464874900864 -0.45865430678370372 -0.12438760118108359
0.48741187247447593 0.028897879582968918 -0.33508642228815905
0.55941431425836718 0.11782247249723993 0.33745037190062305
-0.32210205495640887 0.16387946250435773 -0.3076977083876169
-0.51087633960341272 0.31773542321392739 0.31788032455983367
0.018360259610238343 0.053440342202150763 -0.55433884400402267
-0.5897853253664781 -0.010064980093568904 -0.26186060214163337
0.008855411074029533 0.91814354889375682 -0.024726206488098854
0.06636375565117561 0.26311951049002702 -0.23262367448556914
0.7124311395270877 -0.25163988657755143 -0.20935286592068086
0.060526455350686771 0.22963149551336068 -0.2712492683679234
-0.16586366239359421 -0.32787677356125167 -0.40530127657978532
0.083678473495523903 -0.17139955661687453 0.42295304457175548
0.53910478079222812 -0.52483704514106289 -0.10184568294388265
0.32864657090275123 -0.56784049058789765 0.3682617734743614
0.19059732572236621 -0.19676000959455922 -0.54811374499991361
-0.60520517974112376 -0.083145644622479004 0.076939310788984916
-0.29642003576708642 0.044199033687115259 0.47712319158173078
-0.38635846810375823 -0.29608461440191397 0.21552357650796367
-0.3676907039629585 -0.33299573747079853 0.075797350067628624
0.47817531028682769 0.33791321090158 -0.048015958696352265
-0.11793053309610121 0.032363325480115161 -0.51837373614856541
-0.52357206155456382 -0.40639279049332094 -0.36707344771857986
0.90355643940008523 -0.45327366287239584 -0.056294272701213774
-0.098474556890297743 0.8209017711721488 0.045375347975148035
-0.52446982537124498 -0.58631468289571298 0.21510413810849421
-0.36541401177711824 0.18338008839822781 -0.15620465091609481
0.62695286817397422 0.29314521522107256 0.070890245736247248
0.19546590818530249 -0.32734612321245699 -0.40540431564169271
0.56973639300242118 0.28534471014987917 0.26068900813694595
0.026332015840503833 0.64111038259363973 0.096525052069760364
0.56883970656123162 0.19809541945426898 0.31443217664724904
-0.17590462222882278 0.54495586319723832 0.17506135577634244
-0.57691535507203395 0.054690233031767517 0.090218100051859818
-0.46271514373015621 -0.46463067345935477 -0.21865042871709817
-0.020246522133582495 -0.21604510558306686 0.30100278873562564
-0.6343074654836337 -0.38737525086798641 -0.24237696860226648
-0.3310070288693337 0.2507102776635402 -0.12574021626172976
0.59121899282073631 0.1324448169892225 0.32813276201492525
0.34836641812429558 0.18890157931535628 0.33215589833664122
0.89828692228813323 -0.491764692421786 0.078133704685108274
0.15946324808311541 -0.33127146769220162 -0.45542753572323402
-0.097212523539828899 -0.13353037047503352 -0.54354218341783411
0.6093931205389328 -0.57676956788619504 0.14373512475393216
-0.19459255798081931 0.41372229198742727 0.37427356283511815
0.6772944141871825 -0.23206755805151696 0.3437919323911009
-0.023795536901504887 0.10492805561944399 -0.53240440199150729
-0.23823092671292484 0.3851455449018269 0.41273812623735584
-0.53094736176891411 0.024391539067058564 -0.35118964948547626
0.25501582430701358 0.36965031921733316 -0.10038183582948527
-0.50009687339790776 0.15792319645734496 0.49018277690306167
-0.069745020726850293 0.49795909913802083 0.10126960556111847
0.044513778333440827 -0.098211605277892605 -0.58553475109857078
-0.55301417734737024 0.11861004438968387 0.047712828390079925
-0.55324139804968031 -0.12568893637537482 0.18828560295384569
-0.39631563749793197 0.87826636485671083 -0.30606258456590529
0.53594839830696261 0.35082507182659062 0.039880558003148381
-0.60742471605569437 -0.45071680883719362 -0.25852465154795073
-0.21923073138951579 0.15617163128307779 0.37837137934637088
-0.29182153916615627 0.56838873617266372 -0.1105958532525919
0.18970694820498649 0.20586791489018738 -0.34134814526596896
-0.64820283412737523 -0.19423037605766769 0.048165472522877131
-0.17654744157094271 0.10980464021177883 -0.37420381786883528
0.12998515322675674 -0.047271736665052737 0.34524759858525333
0.35151704240203852 -0.43619915327768832 -0.29233276220638904
-0.60973675292304386 -0.30837379773144258 -0.34951011012877681
0.80487511866111394 -0.13758750537128053 -0.059572156835630649
-0.59563419710561594 -0.41894339550962839 -0.34392380311516102
-0.49584575390601132 -0.29424554479590409 0.15272123890050784
-0.66849511941601036 -0.12934826197043864 -0.16519831603279272
-0.11516200533177676 0.44562387174824236 0.15336015246972501
-0.14815531797940359 0.35743759768827277 0.02826434596456797
-0.2762847856560865 -0.18410303210924053 0.31900403977772251
-0.31192864331727521 0.41221951869766771 -0.054116397220452098
0.60354377231288403 0.058059236630467227 0.35210491671407157
0.84203000644228276 -0.15365886419705643 0.0022936791257350542
-0.53918332716684303 0.036578924382232723 -0.14862994572017196
-0.10149569927563998 0.19458331417161442 -0.30798524064440275
-0.64978815861640682 -0.13482560394946388 0.045394367010450985
0.088371326298746111 0.31889063179464794 -0.14874850944797735
-0.21201380711583467 -0.29274273901404324 -0.64213505550365135
-0.45230045734051871 0.87133118754363492 -0.3068408590657587
-0.10466031981314883 -0.039588566673409466 0.31378696718060523
0.23969729031127696 0.38742353531970486 0.085204268718611087
0.28479168362430807 0.17551766592783907 0.32324797765896934
0.4336094088506276 -0.42460334839150887 0.41812767270199236
-0.086857790324757322 0.28448137842099452 -0.16839651188610477
-0.55740732983448893 -0.39322719918382038 -0.40720523552588522
-0.48613630256833001 -0.37341537647305695 -0.16779975435875411
-0.062698631447975273 0.21204926045110414 -0.29457072138051515
-0.40759754053006358 0.91519050156412396 -0.29794666237237938
-0.18555295306501851 0.22211606297206596 -0.26983629815664251
0.64588837836694912 -0.14127473503170901 0.3766685134156339
-0.17443537061256706 -0.54796000805893585 0.25345051833861598
-0.38550574863918358 0.55298401783459039 -0.12169847073367997
-0.19982497896388979 -0.26336597303113513 -0.70126448603846336
0.71444996307079645 0.18765051013283227 0.19209609723356239
-0.38044898808840982 0.83392442199932204 -0.22812148601540722
0.49992776732483335 -0.45335768457008746 -0.27601042311672613
0.4504167729335265 0.31943438294483528 0.26345008320361329
0.4303690065719763 -0.1391354707038002 -0.46691796499769556
0.13187276880659404 0.31137882734908817 0.11378038068902026
-0.060571297996473046 -0.19468622126761426 0.27857290894188053
0.85957103471141494 -0.46271942321569709 -0.09711823482529526
-0.061153547619990659 -0.019845997477218547 -0.56384264077501778
0.34374918630291956 0.054184300914347207 0.36160117034223954
0.91877971407003978 -0.21852159685231104 -0.11514766672064376
0.36840446524472042 -0.34130565624259979 0.46218033610859893
-0.28315549371468579 0.26270616511055916 -0.12103255723485508
0.094018534118916974 -0.52689858074996221 0.33282622236594872
0.53709308456575455 0.29796432383700494 0.25722653744531693
0.20106512097949938 -0.11789732149631484 0.44769926339730493
-0.065173226387762517 0.84726545287650534 0.13460243972108168
-0.39834158657169205 0.65370291694578575 -0.17876842314053937
-0.39319996448945521 -0.59274618259346379 0.10184601191086694
-0.094380800747643184 0.089086351545054204 0.24550011524108761
-0.19095391780068355 -0.19330098546104391 0.30673127978628273
-0.16800950444031884 0.076527036967215439 0.28600095214239662
-0.61917983703017754 -0.041755895828797053 -0.25086629793707782
0.9934199973889758 -0.32972076309973997 -0.0244312718935078
-0.096950684685811583 0.19280224840823537 0.24001368470150808
-0.029547845376126917 0.29162508521988539 0.051806514879452543
0.78003953421560812 -0.061271854222101463 -0.073299337407736018
0.30063182883081851 -0.19932537879610893 -0.51591546843500335
0.80386493886997112 -0.4442226117472361 0.20044674017359604
-0.52919132445504735 -0.063998056218690147 0.16682917989326682
0.77010573071476951 -0.33005863911166233 -0.23031695518558454
-0.30169008058138136 -0.58132221519633109 0.20995182025720804
0.75987683244139781 0.10534572500538478 0.17906507547558917
0.019070573028916626 0.26954911420193389 0.09995835545956408
0.55051225975484064 0.34866547489381139 0.13771554954459042
0.96893280965513207 -0.35471656747055713 0.13819226576960097
0.35257262008331308 0.00651004863924666 -0.43252207133557208
-0.44580311179845056 0.78428743708864623 -0.22936113352304627
-0.18994428922980208 -0.032762877474700122 -0.39913631298367352
-0.058084611307413263 0.29790285156368634 -0.13367783978747655
-0.079907287367012136 -0.26475419645564291 0.24693419341598521
0.26208725251188675 -0.54164539233103748 0.40686294473643009
-0.11117488942409337 -0.28662608883249635 -0.49754072210678446
0.36802671016268795 -0.3944049557335656 0.45059467800602715
0.14424097463908842 -0.035675116311234684 0.34016335380679952
-0.19325900104811944 0.20188337842174695 -0.29397537520601469
-0.31199446341112808 0.15593412649369229 -0.32806385139562672
-0.13448283745064957 -0.067922992138441329 0.31383077661925102
-0.63696208394798892 -0.37742765066741085 -0.45821621845527905
0.67079686298469321 -0.087119927236192218 -0.24281824018698112
0.59526165506548201 0.28802999462280898 0.23802839969527834
0.3793177668365692 0.15302143140505606 0.34754703407913823
-0.13234185801085369 -0.013475161621880137 -0.48984287679285665
0.0042496622075031999 0.7224607924305666 0.080890597647989185
-0.26297309554258574 -0.33006702582076203 0.20653444234146179
-0.46263899444958095 0.95951597909930486 -0.35457183567058381
-0.4476355983134081 -0.027484318710934902 0.48517061456166177
-0.29467639827711295 0.64023314645936635 -0.080498886703932696
0.57555314621220832 0.28023739172786821 -0.056702492566435878
-0.13275101786538582 -0.10447033131560221 -0.46818081776714704
-0.46785217418235664 -0.29655168422086176 -0.0097947991051769573
-0.55528299452340024 0.12802341843963727 0.091798813322721259
-0.20580818115791857 0.26373553030350178 0.35641959856257177
-0.38535415207254481 0.83976297849541315 -0.28505956172119679
-0.58401526451497709 -0.034211828791846879 0.39718510392535755
-0.24337484436289303 0.39655006829519324 0.40208321405166769
-0.11808948990065907 -0.31559322430025355 -0.4324427417626332
-0.33968957110044207 0.12573699899027693 -0.36229652691198133
0.21742209749133193 -0.54420610373152367 0.37928972713297326
0.83829624642575828 -0.35216508402606123 -0.20196917336852116
-0.56380345335152116 0.10627578541657137 0.080461345793904654
-0.0090615803784697864 0.094645902533790155 0.24995837140327953
-0.46603393029752871 0.78680939645505787 -0.17319636133846394
0.11203171806572051 -0.04626779371025673 0.34430273490788643
-0.44426940844691332 -0.19335072225219932 -0.32930918176134688
-0.60280369657687738 -0.26065727774129877 0.060443006977541222
-0.61389090316150863 -0.16022770707793996 0.12041756088145836
-0.17264467088723476 0.37102938323098283 0.35240883787037802
-0.27407428965152969 -0.20449694812439598 -0.50849994195734927
0.038385681539780295 0.080373478113931418 -0.53009109663142207
-0.35635342311662382 0.51491888697786492 0.070897717894509216
0.63020667649324169 -0.074124910464609881 -0.27406580147224191
0.010819041763501451 0.64631011628837343 0.05436815515213464
0.98049942379422006 -0.36308574880748284 -0.035232741074743751
0.25839590367308779 -0.18345660985735909 0.48494809524341376
0.49769991215218912 0.33250448980251268 0.23701607029282756
0.32088444849061981 0.030661577103885403 0.36415684263412151
-0.59880351502539275 -0.1650102941967955 0.14334491585717946
-0.50491762819860442 0.34765184886770417 0.18769142561807112
0.75504590886645895 0.0058760887100057987 -0.080056122740394212
-0.3826582648002983 0.81423034336822431 -0.29142287330870492
-0.50467255186580595 -0.29699810507973562 0.12673709307414222
0.71441274405287014 -0.0015499107263120676 -0.14676789297199561
0.056706907838069108 0.32862484067459941 -0.011969341330318781
-0.41891424188852222 0.11873088143216551 -0.28106558514188246
-0.30156173362188099 0.50363543736456173 0.099759577118181633
0.4592817629706708 0.38539374526689063 0.023496868723845113
-0.320215634485086 -0.60143450927292819 0.11897108349624996
-0.1843663772366308 0.44397617498843839 0.31651115818466158
-0.13890136259259075 -0.29779079613887766 -0.6223679655805493
-0.16373929982082416 0.43911383364005058 0.30746532032563118
0.7635722553844505 0.010600949601348102 0.24974078751697593
-0.52326548923818483 -0.20923548527908584 0.24260659812367663
0.16290276365404688 0.092125785719716802 0.31466170991225245
-0.12349395887044873 -0.47612436191397217 -0.10909594696428289
-0.35403405679810829 0.53251670886831293 -0.17571409386932602
0.70291465121143948 0.08103711007795128 0.28991076687627604
-0.31705805642906326 -0.43156074633367275 -0.23720840487523559
0.66811128283515586 0.14802803044516841 0.29354511570090319
-0.57087326312866249 -0.0071974668716545398 -0.30620686384998563
-0.44178223123910426 -0.48191653375002519 0.15918516640610539
0.38675118338080816 -0.2303700761053018 0.48540159612237233
-0.26371962564138524 -0.31405331385457419 -0.57994661499321787
0.5046543062212473 -0.13333246660778914 -0.42390526574195564
0.42365402871490182 0.34928518015915777 -0.07062948675225815
-0.035146484445155973 0.78999621717126367 0.010751137445404985
-0.042994459712377323 0.05655479776253388 0.27034627425893337
-0.30167791459438231 0.21391536502622074 -0.17626540709800104
-0.28677652317621427 0.20309408042134328 -0.26145496596430085
0.53577575348097484 -0.56741292833424761 0.27233030412271358
-0.082319686211617449 -0.48238015517264904 -0.07355762241858009
-0.17414205386249196 0.6353644151359793 0.13552466554161408
0.52179054463578312 -0.0046940375391837097 -0.33408849208771801
-0.57918575355932911 0.040725682321068761 0.12008385421653001
0.20380453505837209 0.38333070639999745 0.060847071027452362
1.0035818842386321 -0.32294156212377184 0.046636780275202759
-0.33145283306125489 0.19224312562032414 0.51153515984478604
-0.43872742132966813 0.85309633561105336 -0.34758086231914997
0.24700762327763925 -0.58076387394871354 0.30845797055474389
-0.0014933870300159399 0.74387373614507279 0.074347967559886763
-0.48946480228946837 -0.22172737673982004 -0.23379070391594187
0.31194521520480056 0.2835693384038756 0.26796896407807685
0.29366518172749378 -0.55825652520707725 0.015346948651922057
0.30306726498720754 -0.54476240484658012 -0.064901942343909239
0.013766328509242615 0.22129567625505622 -0.28139168282025784
-0.04206289818768829 0.20407965906606493 -0.30874798604266507
0.3663204546715208 0.41806426104122657 0.071975892632431135
-0.60437407777414642 -0.18301550289349797 -0.24595731452498576
-0.59772978885173855 -0.55987075510449635 0.017160214956782355
0.57546757682341898 -0.19706440327516994 0.42172363408460811
0.57364726312798398 -0.47305860544299166 -0.21564683228637388
-0.60908582270051004 -0.037953461864485727 -0.11651437854202913
-0.57752027567708908 0.072465029213103216 0.097911913575933845
0.71099995320320508 -0.37038099187332385 -0.23652798500294026
-0.56964559980248941 -0.26550851286578403 -0.096262244836901115
-0.50900460671056869 -0.042111128340774892 0.17046698119155088
0.19819348161401565 -0.26039164206063664 -0.54161269721740124
0.23229787377445804 0.16913848405889106 -0.36257379404964762
0.039480671976845433 0.6585724469035763 0.076648600791474814
-0.45301223467019824 0.95573108535240947 -0.27302680109575145
0.1798507146187357 0.10566069357083821 -0.4458387125081319
0.24592727082071592 0.39367147049881984 -0.048763903250068755
0.3128723652424063 0.41858855297884651 0.022092489614751784
-0.47773506255378018 -0.10378912401489193 0.24505587697236936
0.58768423719137652 0.19576492358775791 0.30774264195596379
0.52791289932768759 -0.34856822904982043 0.40374415448291945
0.56511800474925189 -0.60866775610646884 0.22912311048790829
0.069467894082804793 -0.37775999974243413 -0.29466224528669654
0.23166612502825729 0.39708786386225081 -0.030058369434561569
0.042816197847481065 -0.13971538243881246 -0.5824805971608944
0.26239001486046304 -0.50582822714078257 -0.13837948695968588
-0.31793902451341377 -0.35915677312507455 0.14965265854599358
-0.086934865333145761 -0.5151139943471732 0.0035926298768151205
-0.11911753534774699 0.32134497978971871 0.20276434842678362
-0.27446570972634859 0.53128102485259521 0.016205061345058877
0.49755225470956665 0.3084290433903405 -0.075509818857924141
0.60107493803593171 -0.43108505209240866 0.32393931530770359
0.49205145179443377 0.18519325585238663 -0.20328036612045342
-0.011763186810050973 -0.40435504283948515 -0.23769589087306553
0.19664131677926544 0.19121985387642851 0.27907886924409336
-0.21530799713541648 -0.048653572343410452 0.30912538722104893
0.59477883102748519 0.31701293059495866 0.15736847801778733
-0.10664925938712555 0.31554717434944951 -0.059874808337196786
-0.035265268706249013 -0.1178579560060518 -0.57312670634988183
-0.13097303628105827 -0.39709566718218242 -0.25523114341882847
0.7190770922689923 0.19163525590569985 0.10506922460138719
0.11764271052737804 -0.22092533892375593 -0.55044675847154967
-0.39855981325877421 -0.36859290477107665 0.02090098223883767
0.17850225376320178 0.38936937204707278 0.013239996591559999
0.1208600657583396 -0.32371231585783206 -0.46699529246028049
0.35412807441928684 -0.38399320521676417 -0.42760709327466329
0.88120350267427527 -0.50095217145124371 0.03433550721351674
0.71979122927459782 -0.12109320921871042 0.33010257577754559
-0.25701176737425335 0.32730841754929124 0.4390953382078433
-0.43092017591971271 0.38860192130045856 0.094825046429491675
0.7718709462467136 -0.30112209423875547 0.19870117605340398
-0.32789805945038275 0.47884915274540452 0.15087112679691594
0.69201561025120828 -0.40354554248169944 0.27518868337972602
-0.51851277746669133 0.03940295031572167 -0.33703963960126465
0.072633790287873562 -0.23974063313557203 0.44851056596303102
-0.41990718604734439 0.73117194782673933 -0.30813494152691445
-0.4384193134196977 0.2961512302109478 0.014716562959233223
-0.6105618390993921 -0.14033060676455708 -0.27846557798982902
0.072920377143813997 0.28285476708953933 0.097564219378572528
-0.45636840388520061 -0.12516674478195755 0.27297076286848454
-0.11568734312931081 0.47562808915832744 0.16688091377883957
-0.56762344499250983 0.11275263994399398 0.1357818444286655
-0.64179820592090908 -0.20403722315265327 -0.13730643240679463
-0.08290946973330926 -0.54290318110634361 0.072608414924826725
-0.24030373509332767 0.050180188190453563 0.35345882239681997
0.33721186278231879 -0.54082107231463938 0.40202026593799656
-0.32443318759594658 0.58460808819225829 -0.18207321829395634
0.61704087055202816 0.17219856929598298 0.30671249038479387
-0.37654843337953953 0.22007065099547937 -0.13098902404657253
-0.59105882378989538 -0.3606781063008635 -0.48797147671832353
0.13555224332989296 0.098773162007962184 0.30024695356743525
-0.059464648404084192 0.73857319616874195 0.1442626284922868
0.83308896824301948 -0.37119549856802164 0.19684736168376665
0.18242693654684222 0.35237566518209062 -0.12566376403913709
-0.14763656189880234 -0.094179862850582149 -0.42836332439276836
-0.42288167460443815 -0.2498486593967284 -0.44299846362780204
0.67433629742839252 0.027495076260050717 0.33638456285882373
-0.49024526418269504 -0.057893061336261216 0.32770158108086661
-0.47260795797160249 0.33669580483463768 0.13459422983208374
-0.40439096950216147 0.62464141380802274 -0.24805009566209274
-0.42676025241822463 0.089354149763544832 0.55765141676742358
0.89483559998170947 -0.38361322420363092 -0.14708038303894716
-0.35650621402569888 0.56099116169032737 -0.2056271405483367
-0.093206970864380401 0.75277071401321183 0.020302455223737359
0.2452972310073292 0.32796468055366013 0.19000118213687242
0.71173604958631032 0.16815207975555649 0.23441658132011156
-0.2352237682252924 -0.50086879971322618 -0.099927084916259415
-0.057414064244243446 0.31221164756916214 -0.018524110716134509
0.81484387225400667 -0.12571123458408964 0.0064423208740328058
-0.27147352715680706 0.5156984486812709 0.032859704519562757
0.41537385442421487 -0.22369411097778019 0.47910753342843609
-0.12933828559107471 -0.53832574912815989 0.058546924248794402
-0.28971562852006999 -0.43140889275878103 -0.2899345736025889
-0.42111627213945646 0.73048225233186248 -0.091346736836209266
0.033464528864079766 -0.5052318465554112 -0.021337104116033054
-0.049443419067619412 0.94546288914155152 0.059128931421763439
0.20341526397632859 0.056003442306621999 -0.46923335945844047
0.68371082676560602 0.0062018331830656359 0.33782190751692431
0.06920380415149463 0.18297849943282546 -0.42492391966461751
-0.33546215347075647 -0.27891620344827811 0.25167663126420986
-0.18773567899450277 0.19490927078576156 0.35431896786540706
0.0096686798222499412 0.96895226664938527 -0.033634467567980483
0.39597306410414446 -0.15422802520275536 0.47421775456134163
-0.18694179727025345 0.17018054797327098 0.35742174541817712
-0.5320005475201468 0.16796511602278005 0.22177322002955996
-0.14522648580856637 -0.03692748596261209 -0.44173354301837642
-0.042702119398138352 -0.30610545194653088 -0.45000781886791208
-0.37097199118476787 0.49111787766933679 -0.083356339870220994
0.40963890541889852 0.19500448204179352 0.32823195271870548
-0.0081620665866989472 0.71633614445428173 0.085226093516448484
-0.57810107890872042 -0.60074334333646784 0.173485648988985
0.34116323510890145 -0.070010121648673818 -0.46679641221754642
-0.13631274695649856 0.24335918699442191 -0.24305779765384472
-0.29728832096346419 0.0084300666248639314 0.42850590228834073
-0.20739166764177733 -0.55644180801780629 0.014145801852708584
-0.45625117753648925 0.24411781501024485 -0.026944464239106805
0.098178466638614764 0.34970548550109987 -0.0093513075904857468
-0.12347309232042181 0.53834724306962356 0.17711526689648432
0.72920564067451366 -0.06624498260633109 0.32280301214385093
0.03240315849851718 0.73999351458294116 0.068970542181971045
-0.30386880986827236 0.35723782234353607 0.43680287269484597
-0.52863912312243888 0.037047200476196883 0.48745736426513375
-0.098421662539743493 0.07606169304397703 -0.53791384741400383
-0.4660211120705956 0.22291397543639571 -0.048537174109204648
0.26459142753340026 0.32695427829678425 0.20403713278826632
0.46782109470021943 0.11014978362878491 0.33685186940022377
-0.26699162118434744 0.20724825796881338 -0.26612174018995222
-0.11069251845445288 0.28126490933502041 -0.17152703784185436
-0.17437231401967196 -0.1891023562473084 0.29836451447023504
0.43367636320621133 0.042016729015868275 0.35609071840787043
-0.19921908836976648 0.15608632663012595 0.3675455630648769
0.53009615340788963 -0.064929921051231271 0.40861581378260148
-0.41019254916136594 0.88974682869957833 -0.24734794564848961
-0.085558684098253013 -0.41604536488685417 -0.21400727877620895
-0.030275960466932265 -0.014869298878236868 0.29242620036388461
-0.062374906106489707 0.70398438789303763 0.12490963825334461
-0.035204803382122035 0.84279572299834171 0.12590698666033212
0.3751155800882417 0.22148252051041487 -0.22175993603162214
-0.26531735080487717 -0.61328491322758483 0.2048513252922422
0.31155039253938016 -0.08804889758487898 -0.49198563801483086
-0.54629801021021229 1.5653655653716236e-06 0.21337587092057797
0.84887549322458855 -0.23310372922681322 0.12822184627638397
-0.55164956393015852 -0.19071441176707618 -0.26945210681473358
0.74926695681626776 -0.50715777834691678 -0.1121890251698361
-0.45271803288436241 0.90105813392136658 -0.22330424558444834
0.0025299433473207587 -0.047181603024149005 -0.58247211317047076
0.2533221564383828 0.41021836818485463 0.017614354086891632
0.8188946265259528 -0.12009462219920009 0.073050993206076303
0.89950241662714536 -0.400737180267487 0.18531060247668335
0.46195162153097835 -0.31230227863980731 -0.45527438726816349
0.65471611302184485 -0.50722579243228605 0.19775660826678781
-0.070154991552680221 0.064262065325764672 0.26552421954892275
0.13055765351214338 -0.19673514514327192 0.46386191256815945
0.011847287897080505 0.20437543587715304 -0.41911187602150679
-0.34821412735819274 -0.070308129743471851 0.29941121457466274
0.73792322955900491 0.065413671831064085 0.25869715198468912
-0.075051471884618498 0.76221662994326933 0.016294951379556957
