# XYZ point cloud file
0.051585383983384719 0.025784005977099671 -0.53371476658465011
-0.32599963129981735 0.60196133215138137 0.0038765147086725765
0.38546820837074602 -0.11596498081891932 0.45598001093509904
0.33291702462934319 0.38090568110313261 -0.038158215913462468
-0.47007270339382468 -0.032578682622204362 0.2130690790192063
0.19768359967320126 0.38415659343826847 -0.023244803283132345
-0.0396756297553328 0.67494465327023645 0.01420640144942277
0.0045462375742495245 0.21112461088588813 -0.29787077289266528
-0.026444888288406666 0.10159197606715731 0.23985487816457773
0.34800582052252321 0.30118285148794338 0.25100415851572283
0.086145847279231441 -0.28497946442185712 0.42877683725090404
-0.15026107165384156 0.33805704743134973 0.30120271273630256
-0.36663635327922317 0.36050224475111786 -0.016607722581031562
0.30765640358597846 0.10739471848669163 0.3429541100990231
-0.056428499987787595 0.64357073230305251 0.015359252065501733
0.94704655036027618 -0.30963363004573469 -0.05999664209198198
-0.0064336502110405331 0.2437007143303721 -0.23782783965259791
-0.00066134016168161586 0.13676946061457476 -0.47824785752498777
-0.45696871935418648 0.038760658305248948 0.5145682087705381
-0.054314092219399944 0.27893479908969704 0.051411401473524007
-0.27055001768798576 0.42608903200672665 0.3109788686395224
-0.078312200372904789 -0.23952163020931588 -0.62774394501268382
0.54850133034126025 -0.25078047900674966 0.41104930705772424
-0.50406287258736693 0.16817129139230969 0.24903616323779315
-0.34334088500186094 0.031009357223934393 0.50778096592642896
0.45423009949506016 0.023857214905266426 0.37857817401565819
0.064534990612485077 0.23243073275192311 0.14250851870242642
-0.28364824841711739 0.17469281383945939 -0.27954378685625819
0.51467996012458728 0.14901480454757618 -0.20262562190443661
-0.28706659458206918 -0.41433906550549193 0.16740030435110315
0.74029609390468087 -0.18224402679630577 0.2502046266639269
-0.2380119333010301 0.4494489570286343 0.25417204392524473
0.062875860061362948 0.32789793237585729 -0.0358347525500122
-0.10078368800901133 0.65111933265238364 0.15807358142390776
-0.07520702549107508 -0.34325608798217294 -0.34334990687149325
-0.44184664444086358 -0.21101393889866082 0.2759342125441408
0.29681779158591276 0.29943206980895659 -0.14427406394341002
0.74022976044005395 -0.51277997391056596 -0.036333232097411183
-0.26952268655413297 -0.20537591476674305 -0.5308312314975342
-0.27025471453360811 0.15773106453844735 0.41952046110682412
-0.50511841320945217 -0.27859836278386546 0.15598888953936182
-0.52105447117950099 0.061025387974702784 0.46057295264659731
-0.52857472068900868 0.13262611199959734 0.054434902398230907
-0.46846100825295023 -0.43052416270997851 -0.27430958936575711
0.091699938224242189 -0.59686306622477947 0.33705433096959031
-0.50961984288152351 0.040740828940486119 -0.12845720507904801
0.60681943009910178 0.10720195789742179 0.32490190847938311
0.86486825769941222 -0.18456514195227822 0.10184410425337274
0.3329516189272812 -0.21773048284712651 -0.47465313114135843
0.83150838216214595 -0.35957351913630353 -0.16887302755868838
-0.53115875320470018 -0.52819259540645114 0.17077896078816762
-0.49937594574007838 0.23307371604614691 0.34221888859826877
0.02086119125904156 0.16633874350194078 0.20706212702790994
0.36025785087742979 0.23096516799398437 0.29949089961181152
-0.54103729340033124 -0.011646597794695832 0.23137249084399308
-0.29678299738795727 -0.32350429885426135 -0.53085145207197404
0.095174284059972872 0.22753324502673478 0.16526017234190296
-0.11857510816477405 0.1393312447243881 -0.35401879900521016
-0.4348977883754464 0.021297223650243384 -0.41370156877931935
0.41271369044429657 -0.45235623855363993 -0.24178504257207184
0.8125178059787973 -0.43244654448896053 -0.1251811845803622
0.26610684144060726 0.014881874229904009 0.34585194982673634
-0.55252717675749363 0.017472133790995513 0.2183581609486705
-0.62165425204768809 -0.22161735519495693 -0.052016481599542017
0.64223725914233643 0.1885062570614422 -0.058253787221199546
0.10893468530167626 -0.33144571437529496 0.41931280738819221
-0.3136731636718747 -0.074347076124330558 -0.40120029456615353
0.12699491310483557 0.20010818713712164 0.21862039068848305
0.77386990485719309 -0.51727746661925211 0.032116060046655348
-0.29808920994742444 -0.31522842061306783 0.16892620459006163
-0.14667434925607736 0.3752515310291758 0.28438846685299385
-0.027121975722879922 0.8874609700807361 0.11024262157249487
0.20031479544601299 -0.38280895074846727 0.42925490277898476
0.27991285866786247 -0.33551633659495189 -0.49154361219006359
-0.31888929711756658 -0.21552852673603842 -0.42716017257136651
0.51458330347684522 -0.48195615656550889 0.33633889939996081
-0.0067029000435264857 -0.3628113614335739 -0.29765658386946142
-0.49910458046316153 0.88918391184820145 -0.28675645087432339
-0.032106035934972466 0.95872362632761299 0.02192696375912348
-0.015649299764982395 -0.19622922318029451 -0.58383737929299218
0.52550002887731362 -0.022083882814986973 0.39413461740061106
-0.052166396268264137 -0.19293587429855766 -0.59454600313554351
-0.018245537466950991 0.29373788960522934 -0.13392790725456488
0.76889021724691942 -0.47281994805942434 0.19507702851958386
0.83969005062652435 -0.39690711812082502 -0.14026619254794154
-0.072402213818863692 -0.29876019427907879 -0.44123956604621906
-0.61524074677515295 -0.4164581189138416 -0.32663545717301767
-0.20398069205813463 0.19887734505190224 -0.27876612733598033
0.23011064400901393 0.37434202096714242 -0.060072516700188996
-0.35949291006973699 -0.41444199982696056 0.11016238991213481
-0.18999290659494772 0.24902937567715239 -0.18866548858742754
-0.13749356864941625 0.27115661486418752 -0.16093750869719081
0.017364543796458146 -0.30571867768350514 0.32471584077418586
0.11070028667581099 0.30420330902992876 -0.17140713547159514
-0.27676226436567458 0.27665334363011956 -0.10387936566646595
0.3127101563213438 -0.59103463413623203 0.29678636676842957
-0.24899952680821807 0.42742626268111239 -0.019009201330927233
0.73991279712266822 0.1040460652590274 0.14475373708604322
-0.3714858063238668 -0.30963073751216752 0.12708747593769026
-0.56257334244883805 -0.043641369650797276 0.33429999914757608
-0.13848538418902878 -0.15585955224852541 0.28378882505136505
-0.45695493992461556 -0.042694944084250362 0.23198314423634975
-0.35115180255214046 -0.034989895426305415 0.4238691274344713
0.53919984313100799 0.14320330734604522 -0.19322844243136567
0.74679904391248009 0.096453684703382059 0.05886479014476835
0.9689034726445801 -0.32144626850485963 0.083999596276841018
-0.37824646620035546 0.69367527546926722 -0.063706368944739425
-0.51561680490467798 -0.5997019877106482 0.21009691825778054
-0.59471825574373793 -0.24926236764629711 0.027298522872788791
0.48931932177820819 0.1081879235357481 -0.24767140767975071
-0.27942983134193322 0.55245748092702884 -0.0043882752739794889
-0.54643834101557853 -0.11152869053152828 -0.33131848894399074
-0.13782110310853918 0.2528246982370192 -0.19499399333319456
-0.10064476966085098 0.56406941700817903 0.022984254625766587
-0.51936164518832773 0.016625098884352062 -0.02140520249391864
0.94162494702422506 -0.21867526300218554 -0.051175842031480026
0.29196673681084534 -0.02032084229941853 0.35801651547547586
0.050746126536548378 0.72134247089378345 0.022424632894410018
0.66055984755730179 -0.096489024585387356 0.3530491002513213
0.78291650818748459 -0.056842047341424173 0.16885575696980534
-0.29969488893838919 0.63431064433177964 -0.1329378614590998
0.64005382491592411 -0.10018112052268102 0.35850731244340589
-0.36235780409241697 0.73882860509579551 -0.27279831799751258
0.15095412842316919 0.31657186041503654 0.11106115630751379
0.45751173150422331 0.075188010029848151 -0.29567272696544222
-0.10970062789141831 0.15906816005582305 -0.43061438838598209
-0.3668946843641685 -0.21696261626768035 -0.41862952146021137
-0.49384119102338014 0.97391178561731839 -0.32118716026944194
-0.063668580447676607 0.22284012895466726 0.14012101484598843
-0.028173589907919929 -0.39494025959284351 -0.22953371829876279
-0.43790739364500786 -0.018977577181501226 -0.42654072677178967
-0.30838370945593035 0.041624834732307471 -0.4115410340472534
-0.54240712861812856 -0.26331849464876506 0.14544959549130035
-0.4192360893521983 0.92577142119670386 -0.39157984817584496
-0.28186187073969771 0.59749020847239631 -0.080349747242968603
0.29626375121360482 0.35190991117448073 -0.097131379966300127
-0.31326523571391629 0.18604024633285179 -0.20000678245105796
0.73592960652823691 0.11750966624564221 0.11981368179583461
0.48532796970051878 -0.60796180452975856 0.13333140200554916
-0.43737776429091424 0.13215449809910276 -0.1152260347276035
-0.63952013901682958 -0.14467072164067585 -0.18085045469423339
0.793614930031461 -0.098878233833413404 0.11194291711112354
0.11790274764587079 -0.56230014664697714 0.16482852617108956
-0.58581432213620954 -0.24036517162334714 0.094498524066798484
0.41575325389521695 -0.52992323838300004 0.33258217713878763
-0.42262997132541219 -0.44760688257192871 0.12520127806554573
0.16138931045572991 0.3335001047891617 0.093041306238750787
0.4831030405801599 -0.13759463528606586 0.43898889362424981
-0.5662977756167078 0.035738681573217544 0.30527363591488826
-0.11915536695948256 0.2948087094408206 -0.02701520210085348
-0.63651347693335492 -0.11985807099840465 -0.07211892169881233
-0.65128599456384006 -0.15514678517384095 -0.097951403424715408
-0.15111058503817648 -0.11855808493155026 0.30350210640859498
-0.38019599484816125 0.78243213498958408 -0.15071058209483101
0.15325742494709049 -0.30803604222538938 0.4443432246813841
-0.3422396489288872 0.021800604281751422 -0.42095277527707542
0.70884525584831337 -0.18466258480349862 -0.17283612933758824
0.327228881141716 -0.028265776430090751 0.38367740294199731
0.40420751148346207 0.1487121643473425 -0.25881385130522255
0.64540087664079682 0.18625803406618391 0.2667696930203457
-0.39043926255260142 -0.24754464218443326 -0.43760784828142651
-0.53186114026478926 0.020063566516840277 -0.13758669674239732
-0.42523742100567002 0.75345156446194284 -0.23962323279275821
0.020806727740477551 0.13753318034285217 0.22761985317091699
0.15890737401885663 0.21668722146783459 -0.30538982217867722
-0.40502864570019387 0.69963232060136205 -0.35018212752941535
-0.63478433069285833 -0.17452517852616264 -0.11311469746083151
-0.44944154907438005 -0.31048348025288547 -0.49564029313561575
-0.509133591348647 -0.11372376904946793 0.20140497995809703
-0.4684233468586399 0.36714683648206825 0.25664692146940404
0.14116007884104614 -0.43749749711059682 -0.13755564154020872
-0.11862953724777534 -0.0080517425895761385 -0.49405103811521534
-0.31651295087579379 0.63210254318126025 -0.030277838771542998
-0.012205652143849855 -0.19287731404774813 0.30368367090604137
-0.27967181941263453 0.50802860538843819 -0.099825011406314043
-0.47600304848900055 0.025517952704637838 -0.38736776425096475
-0.50794034983280278 -0.053855143572425955 0.40117685928929187
0.22651214028490863 -0.3362584975343047 -0.35276067934233657
0.55493581253488078 0.32764094367124691 0.10565813286379491
-0.21297384223856763 -0.57999863237261362 0.2402226062655719
0.27630586231156068 0.1370110976604226 0.32781902438314559
0.80782417795950279 -0.50752493216281391 0.075185533619833322
0.65217713678397271 -0.16613188790598188 -0.25071383798322294
-0.16518432576484826 0.065589273020536826 -0.38266995740471832
-0.56202395705661023 0.052022852893023309 0.34345859808239271
-0.55841840991824165 0.04408547680133814 0.27083976525257558
-0.59802743701387773 -0.55822119095380507 0.054336050010690341
-0.14032340096698082 -0.37109356029065826 -0.28071326561681798
-0.41889293045707943 0.10795415186399204 -0.23701394412511501
-0.0088919110351926515 0.17430624875066986 -0.44334653766922894
-0.46868216540295921 -0.29660654830791577 0.057308741678064309
-0.18072661063054862 -0.55734907380513565 0.25848256005541265
0.18589059204499503 0.12653289662178294 0.29948078013237506
-0.025174834832990083 -0.31272767864952961 -0.54372087526256063
-0.029962965300605576 0.20803938527998939 -0.339983947763766
-0.33237859862198799 -0.32083645978397646 -0.54218587745252622
0.31019438527892806 -0.34342311896177902 -0.47874370116122211
-0.39080964104664828 0.10751353378306883 -0.30266817062550488
-0.16273068498879784 -0.27432115469699658 -0.66656628877193769
0.26878760223389875 0.25810087643286744 -0.17904819528124755
-0.25961279867975157 0.5025571235078472 -0.018575610165609227
-0.011999095081338226 0.19267658872890311 -0.41454209393014096
0.42610967273259787 0.082644934537377923 0.3343747176092296
-0.60377981936130753 -0.387577398902828 -0.40571129731032124
-0.052330181427630469 -0.37072711931173197 0.19333256850850247
-0.32981385876994362 0.70942759987876103 -0.11673913722257161
-0.6403237450707765 -0.11785122514965421 -0.15973894625128354
0.34314823221481755 -0.65543381055663974 0.25098507010070042
-0.071925739033662284 -0.13270782696196917 0.30621950788466573
0.0016481721381981576 0.77852088489024063 0.050500130425023861
0.32313917729280794 0.19340565722757794 -0.24066184020648912
0.45370235763068828 0.37876860868842099 0.091785226476123347
-0.28665164706387841 0.070468290028433467 0.46181143614814352
-0.13757236272099366 0.015061069604268985 -0.44931166516271182
0.42756580391368254 -0.51195793523593691 0.34889623664505293
-0.25047575589081744 0.46456947332812515 0.18860867164729811
-0.3795372644263893 0.35061029139371452 -0.010109854161666113
-0.33571194675129828 0.092741955899549922 -0.38472551375292363
0.75322620839188659 0.051602907384884329 0.19421752005171794
-0.28760046435264236 -0.01825868610500983 0.28194027785384718
0.82538497386798737 -0.43825134501948909 -0.10792536336622686
0.72130395572263772 -0.18014020787010765 -0.1555396801456882
0.33819895452823023 0.2969786825517825 -0.1311541282951717
-0.02667107934646578 -0.25689399833302218 0.26565960424659596
-0.50980585691796831 -0.066552410983551316 -0.38345067919947812
0.60515286850650984 -0.27685124246853909 -0.27433520238960551
0.78573051952837281 -0.17276430355744221 0.15255569285660739
-0.066788718188575527 0.77571873726972362 0.0097599841981851204
0.20867553718562654 -0.10042454697596855 -0.51381800527321786
-0.12403351502375801 -0.50940539517967987 0.25326594357543331
-0.14459053675695716 -0.65009705853459765 0.27647180134488653
-0.47846446155126715 -0.40746691675879826 -0.11978275624654215
-0.17597960524989126 0.38933330670668842 0.35253732216766359
0.021291616475959313 -0.1798386568159365 0.35181174267782833
0.93471284750825101 -0.27830316509904562 0.14885286886346316
-0.15414107887865591 0.16171200150950782 -0.32336073716662128
-0.48365745120493969 0.25483797437617467 0.38356110564439078
0.56193177223259327 -0.53588790776261963 0.24549340188570407
-0.13622355619734888 0.44618180653603967 0.18289252337505207
0.87704585888981701 -0.29140000160287127 0.17811037952482964
-0.35178977671768225 0.38805451649145578 0.34706197650625709
-0.52010712390313829 -0.089313506234301177 0.17285968034351989
0.0019765642342870968 -0.66255958165529805 0.29541120812923427
-0.069790446505410775 0.55497222902864229 0.03278173929006449
0.45109268114938383 0.36761415936147679 0.01583912414294926
0.26525561034283912 -0.023288797816988817 0.35643571334605412
-0.4817669991330461 -0.60779545337654506 0.22627612401570613
0.010135957044810559 0.82483591429633651 0.038911513813653084
-0.58389579876767761 0.0010437738585924242 0.35383236963948578
0.72331598329576818 -0.525940581129689 -0.011260344249624049
-0.50484957850372225 0.24120202363245308 0.21004084367713
-0.33177231166095172 0.65788435437193837 -0.042361018719152196
-0.27553502430838189 -0.27416014637581054 -0.66018190588260151
-0.61564576257784087 -0.074879283061125984 -0.081813259937688884
-0.61555561164151917 -0.079075051418164427 -0.21882609733090147
-0.35069585273343334 -0.034432065219537844 0.28838210676703585
-0.1787492244632487 -0.39602729395519454 0.18915578314083892
-0.48953564177954789 0.015430378512379155 0.47330809507030669
0.95682808403791075 -0.36585875843540289 0.0074684679876961813
-0.29939352931587643 -0.25184160534102179 -0.60285809552194802
-0.40090569581203428 0.73624858365669477 -0.362686900443564
-0.49614761839665422 0.2735172183381317 0.17673815577926943
-0.6136392083145995 -0.088674939121238916 -0.22737763267715738
-0.37719228081538403 0.20857232723544311 0.50591855558393173
-0.025574514902098354 0.60605429007910216 0.12478773217921911
-0.330654596764485 -0.26368396858654275 -0.52551765486930657
0.4919908095110242 -0.41047178556753128 -0.29460889665741136
0.020400599346496809 0.87325426157056296 0.026295567225647062
-0.27399689536717431 0.4880254494867946 0.064703661773339263
-0.52862148974160006 -0.011368123985383609 0.45273723615594319
0.27814363067547332 0.19706939292162962 0.30351368397192413
0.37972431030802711 0.13410783570044865 -0.28868730869087883
0.29169763353904177 0.38366686020148244 -0.042915721851086733
-0.040591452641628799 0.54317928998177933 0.1063641111933708
-0.067841790919397155 0.1557688256283031 -0.46768429799234357
-0.15014156047118044 0.68103296706501082 0.065842675920522259
-0.61420686646719325 -0.22077262307934459 0.028462667402702507
-0.28053298737052373 0.44208219535635879 -0.07803458057260855
0.42611377696577529 0.35286253613765584 -0.036151142076072465
-0.550054850972164 -0.46586441137248169 -0.069982607028959434
0.20205207241655426 0.3611088953898044 -0.078124142749648809
0.34024533103597282 -0.4510673833191956 0.42595612826581913
0.29052531989015468 -0.52062597627742824 0.39287287713963454
0.63622251056284052 -0.14239570919095676 -0.25899071265376217
-0.42964268191563337 0.10646730469580543 -0.19519882474094541
0.059809206507435708 0.7065693361419868 0.06618698800169695
0.28955472542000776 0.16828500635015109 -0.31310254124319381
-0.14250251804149033 -0.15141681539164356 -0.40684589021696926
-0.35251494018555918 0.59066735449451346 -0.24419397699723838
0.33566381478027352 -0.24930497922083675 0.47033419576375896
-0.43787550835582523 -0.27157387427915647 -0.21917847113186817
-0.1179237280342857 0.67411843662375315 0.023261509401499257
-0.57496923169274816 -0.12668045398923641 -0.29825891716438196
-0.1808541839939326 0.27674876668270154 -0.10556838892326965
0.38873224652571986 -0.010596195846388171 0.37088865869636367
-0.25830324552401968 0.17807637567861229 -0.29804261398188359
0.6510799790673294 -0.13673623936839191 -0.24410429843440412
-0.24248617450628457 -0.44781799425115348 -0.2026747183404477
0.59215869217176764 -0.17100104538653715 0.39258209504503849
-0.21780683089613356 0.021612744017995171 0.27113056036143696
0.77823650335011885 -0.48339365116755306 0.18724420979068368
-0.52919690028889821 -0.26072809690731258 -0.11750137371973456
0.90031742700016004 -0.18694984092434072 0.10071646753749666
-0.16098469911643615 -0.17028479830950596 -0.52890972099514288
0.44960594411066435 -0.6078385549082026 0.13055681234249039
0.31211805185801267 -0.11459206404634251 -0.48557046647437008
-0.63519929889911086 -0.44474387445477614 -0.2274121140388487
0.36554463719146113 0.40515637464698767 0.05810393297330696
0.56165446700859178 -0.27304383784059205 0.39346351507872301
0.31057491186173336 0.31047904334897192 0.23326664354818949
-0.27491555810062657 -0.21359689836811688 -0.5710358385349501
0.17311097836817896 -0.35667404212703746 0.42489808877766383
0.18628707878448697 -0.17518342644610529 -0.53598002022416269
-0.068244029476208556 0.70724274233268469 0.010151369348725597
0.17857544892531291 0.0077488194387070955 -0.48452144935119978
-0.070807504580164299 -0.64285280581659698 0.25264873181469744
0.33853135956138153 -0.66023192493501426 0.27819034708169194
0.059523158846556443 0.29134634495885225 0.052313006652657902
-0.029121325789583291 -0.64330374239475474 0.25141245637284165
0.63799617765322358 -0.4484869283715151 -0.1924089307410608
-0.067876321210651444 0.54653388547165016 0.1409798077705337
-0.32054607764156662 -0.1182520193364093 -0.40826822098123566
0.10572862561449166 -0.43450130213142846 -0.14347433699695167
-0.45859366282523145 0.38334309337491818 0.19341543853778168
-0.28522395170420062 0.10340509613506008 -0.37718506059410106
0.21470937806814955 0.099016193434058458 0.32254046668851077
-0.11109390901062022 0.30198544736749916 -0.054306004586699333
0.29779544728852569 -0.28132027127205977 0.47824729589634452
0.45145662878696619 -0.32104286859023773 0.43208226536658884
-0.14628899119783012 0.072468954193541268 -0.43862817659067777
0.13593503651190497 -0.085566291893515056 -0.54262279956672355
-0.4931521599355419 -0.18857433962735931 0.24790796978960872
0.27554101724228608 0.11402019722854834 0.33510089058521031
-0.26813116794105607 -0.44291291892116141 0.1728135896982729
0.72535699578109691 -0.51444262240600958 -0.048506100043587089
0.16548408922151336 -0.25830314586450664 0.45910431082771869
0.49585517415276431 0.31016471685172148 0.23906020434067748
-0.237341108780738 -0.47046664263758903 0.17736385836830154
0.49462428508191553 -0.28961588788214065 0.42416058591614836
0.54411975894631581 0.33418503656872994 0.085237241311525963
-0.33480315381135151 0.5845777781503726 -0.21654695136941349
0.67724712230290529 0.20371090566650074 0.19104346214688017
-0.14782005154309907 -0.29258475123079747 -0.45920953317415614
-0.055809733279706161 0.29422939326916264 -0.080709395252713298
-0.071192710197576142 0.28868257737246938 -0.10344767342246673
-0.51985600591275727 0.14830306291725567 0.24220203659401879
-0.16141640446359301 0.49538802492536083 0.0396636815153001
0.43065181179805223 -0.26594107747835166 0.4511493703495022
0.39187814985785857 -0.16191915258148157 -0.46078611082522125
0.033946634794009348 -0.15399316998290721 0.34993625568704995
-0.21466621804815722 0.49337479151062358 0.14850919032799886
-0.181029483064094 -0.5953177425454993 0.28257716560460588
0.40544949197624752 -0.086149484079433986 -0.42512081428410664
0.19999015533814352 -0.25871810103327042 0.47039759952215165
-0.38930284797534082 0.77306300351793444 -0.35016260685671752
-0.35221148168653854 0.39688561195879785 -0.013618750822197392
0.41166454636219413 -0.56508516798262609 0.023210673108495242
0.87126719367824745 -0.24294251589178315 0.154739164965051
-0.44929312030175267 -0.27578521582943083 -0.23474502455430474
-0.0890488275560926 0.27238477899369717 0.14510721653725075
0.12721410237459524 0.21799774287225271 -0.32297370748650517
0.085924013049619261 -0.56133339025333417 0.16311884821416422
0.25649046930739366 0.2027592821341101 -0.27222221495051185
-0.29349246910926896 -0.33511998735930126 -0.49654810639098867
-0.36685767883731402 -0.54936260821286642 0.21804438166030249
-0.56594812059539934 -0.58979039321109394 0.130448683100856
0.35645505931574795 -0.2875601939690125 -0.47110745337287774
0.17990349016303475 -0.47415759052122175 -0.061969526292162888
-0.20664126328357618 0.45404682407135732 0.24964328063483199
-0.052925938197414847 -0.24948697977025297 0.24237489182868321
-0.16212959423233436 0.4356101645618064 0.27196130030317883
0.48557281131282476 0.026676642777749636 0.38262992605136908
0.2403834489667569 -0.5083360444378866 -0.0026861435235391307
0.70770262750677004 -0.23651524170638438 -0.18948548212293004
0.35377677708567223 -0.55821169306502139 0.11056334647452781
-0.49606208462474505 0.084291387823263814 -0.057753228726884279
0.29762930544748661 -0.55980750017922265 0.15062931696073797
-0.58612279602838713 -0.032371207477267447 -0.22116802932529939
-0.53379411979891089 -0.083907740139657253 0.1531181346405342
-0.40956750072740344 -0.15118066697544028 0.29202241893609115
-0.31897243582470514 -0.43624216690637485 0.15141997671450522
-0.11534782098386467 0.47319670412610715 0.038377126077760469
-0.39602481381097399 0.048773706569993365 -0.40202929260000514
-0.43641577027466683 0.37650070783970502 0.28528218902790603
-0.50515508763474004 -0.44388590062313404 -0.24213497682885837
-0.14119418237487147 0.10315577740316514 -0.43594203939096821
0.42615031683321908 -0.27613403722775914 -0.45181537334070077
-0.42055122366900105 -0.58002599860895876 0.10826939291662435
-0.44487169282341771 -0.2672180897510168 -0.44334898935053324
-0.27004071670172269 -0.36246481017850951 0.18351174821015542
-0.37904937881109058 0.36442629561152617 0.36874024537737909
-0.20987728376331838 0.40288692751747257 0.3605430676827503
-0.12325457940171239 0.271308628684784 -0.15680674874793921
-0.49922166434535187 0.17168176263834475 0.02468850287361344
0.40165637038401575 0.3961372001142322 0.085656602929050321
-0.22118734596603462 -0.31730180033842637 -0.40890608092917941
-0.47799218065087545 -0.061019288034039561 0.35443578764862693
0.1302542754867716 -0.059905267654573317 -0.53298372407085581
-0.13716993434998537 -0.64924300124168677 0.31851526983882428
0.26985998623073687 -0.65392171798127308 0.2518153166859427
-0.37572774159046096 0.10357137862999147 -0.33637302653321965
-0.49008797078438132 0.33887370698036379 0.27588660294031037
-0.12655247608715015 0.12850287620752482 -0.36791580937649843
-0.18359998619614087 -0.29568545375853683 -0.45846379149674898
0.078364291409009162 -0.32735136767428119 0.40305111575938607
-0.51780753761029119 0.010602439549551264 0.054075646376387891
-0.4684037276745398 -0.25945641347410858 -0.39532729908777547
-0.16666749955539512 -0.14550731177370785 -0.37822736554164282
-0.40039157937526404 0.020982793818536412 0.51267191181441296
0.73300380591423064 -0.32725597399389927 0.22256900695275883
0.18398167611289701 -0.3959655663073503 -0.22583293667286591
-0.43873076772991382 -0.14440441523402506 0.27820736185322165
-0.07586198817103515 0.57098721421107801 0.026041169592567838
-0.34207240087647772 0.44013692611445721 -0.077828055266729021
0.55804480764234343 0.14171193349935546 -0.17902599954168558
-0.39944276699213954 0.010425474300171302 -0.42438765982805471
-0.38444103341867802 0.66229708917233399 -0.32355764044231411
0.34261162552837826 -0.45805807973635182 -0.16458060104940014
-0.068041226850903053 -0.20988346538212649 0.26281991770924507
-0.32357451713004504 0.4860806166086914 -0.14682165546118475
-0.43983415059959863 -0.23338958191363521 -0.22070071057544266
0.0037156455193968624 -0.30490575328848007 -0.42395283843336762
-0.28819596521136337 -0.092063774219596911 -0.40638555420355021
-0.21088007840332673 -0.57081697509038754 0.087734942138918498
-0.5113854603659983 0.27180331550174702 0.28634558229066676
-0.38794019866963064 -0.30076310042148913 0.17151199658880811
0.96230697684805522 -0.33065986283199594 0.10799430956235027
0.045519458032059146 0.087481093531689619 0.25883979682281238
0.060082942487798122 0.69305088068994669 0.046004457285954398
0.77415996036077805 -0.50995086287722402 -0.0035237493507532802
-0.073441734667452324 0.86142706916059841 0.090169553554166684
-0.46385327327586717 -0.2068485405075178 0.26186251292985191
0.57310887953660794 -0.21520826053083131 0.40520155383334971
-0.052865621333493373 0.87182811886116585 0.11069574679380381
0.11291946744656083 0.25451465614766222 0.15328371115459044
0.22969178591470002 -0.43126770990020413 -0.18710237569143301
0.73048675051688161 0.033876880059027552 -0.072135256816129464
-0.64932462087298026 -0.3515639863009386 -0.39438354410403781
0.17984047571626621 -0.51629734390993542 0.039441758767280281
-0.48490244277667399 -0.22322804943697638 0.2406547210368748
0.2646289494332511 0.042482298979856926 -0.43304268035769167
0.45854498389286263 -0.29498903509884578 0.44078892198258041
0.39692582119798347 -0.51673033711511129 0.37337969872495269
0.19644108891288992 0.35441726966733483 -0.092600572031762154
0.96920972548941131 -0.32849469043471102 0.015617825985278125
-0.35424404878692095 -0.30067482432605014 0.17644748122672735
0.38915488928598319 -0.32556774722783099 0.45540115640338574
0.30941138465272944 0.0072347657415049588 -0.42292801826579784
-0.29791003336998506 -0.0023906336429012007 0.40162577111382114
-0.27187160853856629 -0.25146993863553579 -0.65090628064211797
-0.42094830862800547 -0.1241483896631192 0.27949056053925103
-0.15001736406387278 0.54922725327670374 0.034115614363893133
-0.55425732285342844 -0.34824250133062767 -0.49662487207557604
-0.51711190337628787 -0.096173569640339712 -0.35594205489510194
-0.37082905193459748 0.017398941224908544 -0.42530675253426464
0.93908165954605827 -0.31378892004170739 0.15033104400122227
-0.55676969617177718 -0.15377264674401456 0.16517523948213819
-0.37421022668087289 0.55467942052076225 -0.22879967823164876
0.057086968659758389 0.67680108706417108 0.070232076195416271
0.30931184444943233 -0.38978180054818101 -0.27878971851324141
0.069398007162109254 0.30900683496301984 0.030796729334498049
-0.33790157573612434 0.72852542782434315 -0.13602724180006315
0.63039882560945348 0.14876048517276988 0.29772264499938283
-0.24538317513253738 -0.37375194148631025 0.19764402715740953
0.25642498555005544 0.066822436122696061 -0.4228243109792913
-0.487739055897286 -0.47471135096986677 0.14347247805964325
0.14545245377542587 0.22535181886115541 -0.24210006239539328
-0.012859152448213165 -0.22251326940805499 -0.5968625773478029
0.042091103020504103 0.15677210343823283 0.21236402731680232
0.83958566628639486 -0.15120603900969776 0.030564083877822529
-0.11575702508591408 0.61333009356527457 0.16100820350006578
-0.47200112956386014 -0.050220936010070584 0.27690079659524469
-0.39609386207264341 -0.34478232345859416 -0.13483785433956119
0.14457786383747462 0.34927061684471916 0.045755809560148859
0.78837354002565796 -0.067004420101356349 0.11616340011781789
-0.55311426347355841 -0.17575872927539399 0.1804025624167272
0.93620126732484288 -0.23181451794041338 -0.072625087052523865
0.19251497150600572 0.21936198269385687 0.24956257299741941
0.52812083975518453 0.15616614066250303 -0.18538113800306077
-0.047018318763003587 -0.49898274853282037 0.28155361278690366
0.52174466823222276 -0.59874505931009847 0.14249949580829138
-0.50662139888365487 0.24105358567086443 0.28220741001898053
0.10736284793189045 -0.40474821823414064 -0.20631612048910397
-0.64656445367488802 -0.36916586309585503 -0.27303465062939886
-0.15267326988442492 0.22689141382511224 -0.24183983654748947
0.34263747828416535 -0.34886673313713401 -0.46840758943425909
-0.47382774340105366 0.34396990924041232 0.14898712944715622
-0.53818427512806521 -0.4120487678765597 -0.1523999088294587
-0.17379876131953048 -0.10272758775177135 0.31479933781036495
0.65167873618525474 -0.25381380101202022 -0.2318064331616988
0.70356993483782404 0.16563659720142196 0.18861182599961118
0.53203021111713367 -0.40438859888349982 -0.25185980020899634
0.5819556273187011 0.29961270537971463 0.17805504424051094
0.057837297837362217 0.84206599671795124 -0.019303944880521187
0.79995350413909438 -0.14915133011173429 0.069803995996155097
-0.073166455665305913 0.22402606666510855 0.15019166986332416
0.29850085487797295 -0.64022646683819051 0.21757017767975667
0.2221223444232252 -0.38120903355985125 -0.25642574049840045
-0.31083365733364532 0.10046635062080089 -0.38541144264641691
0.32830284407546989 -0.40709320644119218 -0.28218826906745831
-0.16785545639331817 0.33008579573311569 -0.022907345459667786
0.45180739400986913 -0.039744429445222232 0.40361917234777245
-0.15378166320079117 -0.35670358313136413 0.21626729563330815
0.20094831180539241 -0.47192752543796973 -0.077930246603489808
0.68985581439904664 -0.36490458474217025 0.268059809893609
-0.075481309334065133 -0.63084741352983631 0.22467629593093214
0.37999154039433142 -0.16958172788637091 0.47162537772874624
-0.56572832100204362 0.068623009892217979 0.17223291343965066
-0.15000397946889754 0.079146539928763415 -0.40062545852825282
0.28297844403471323 -0.55182505519468661 0.34775082651850625
0.3332792330534069 0.38607345976222912 -0.02364541357334228
-0.43218895144575825 -0.26504752711547558 0.23041490114986396
-0.5660555464968422 -0.46936430789227562 0.027177131130773073
-0.50172676429030827 -0.23574764000200646 -0.19098386616751317
0.090231285570035458 0.29323936705928938 -0.18747636786352095
-0.51655732817631106 -0.43529494370406846 -0.081664415716514935
-0.38966453754435026 0.030751438611609151 -0.41795135400019023
-0.44592466875551201 -0.4064813005050808 -0.038089621190804598
0.37607546106908996 -0.41303839275008702 0.4372880044760698
-0.10891588204984921 -0.43421919416187271 -0.14787177440921834
0.51494890093302537 0.19153148354398489 -0.15666936366646289
-0.32021686609292055 -0.096106969114600455 0.30570706647729695
-0.33950095498497884 0.17103490922909578 -0.18522294590190452
-0.10651039583025473 0.12485138331089798 -0.48455901575125004
0.62822183594850312 -0.51251212360654574 -0.1144972997151865
-0.26037116107145886 0.42068165108207189 0.32372122878975745
0.47226406900729889 -0.056970228480136338 -0.3724592355698893
-0.390497933732604 0.83780387882711693 -0.34416183760967078
-0.48622351134100028 -0.38685607719072185 -0.14798405392552039
0.67850723835038573 0.21065242810104412 0.099811922978629411
0.09368853858029999 -0.4680859336652477 -0.072739652619872738
0.5442532128247991 -0.58430184910389693 0.13054852509749659
0.83753872195532442 -0.20643425224663248 0.11912726685047978
-0.56341125827924576 -0.46584075885805432 -0.051390187906618631
-0.55531087353865427 0.023422750925727702 0.18166915519795673
0.66588984938575257 -0.52337309627692796 -0.079775243808730426
-0.40819009605154993 0.84593601567441878 -0.21954177645546158
-0.17328533291239695 0.074322547506091768 0.29588073401462373
-0.23314519174740955 -0.14259689291896763 -0.39398086179508773
-0.59972225995058315 -0.20201214718797519 -0.17862312254067098
-0.26094677036360547 -0.14257280796121594 0.31587079213198144
0.16645614476469023 -0.30899875067347715 -0.53401304192353627
-0.33968438054672595 0.10578123129290037 -0.35253356468752767
0.68364432581059731 -0.091266511385679344 0.34267980382963564
0.56128792950549067 0.23927045689257709 0.2841026502167408
0.37179717761376607 0.40274000232585661 0.043423177231252108
-0.57138937416713742 -0.26014005052283057 0.0093377153903935056
-0.10183545524822946 0.76389871244963325 0.028812528588343995
-0.28841647887665789 0.20481819384802319 -0.18151670990373048
0.50986199726194426 0.31175271624536866 0.22926405020373047
-0.41055403124817036 0.72613004700438322 -0.28585844518800307
0.19010377575359844 -0.52819500486127413 0.067867577950784977
0.79022826794375878 -0.084375544558336818 0.082159573825188986
-0.31043890892007492 -0.53949628646091674 -0.00018642809927953141
-0.37998794323889856 0.61877696032159257 -0.29304903840324065
0.41409951749431112 -0.1499947016770887 0.46137455329201665
0.18490776610306414 -0.55641831640236838 0.14388531707355184
0.56491872451720304 0.28508021932365202 -0.02541712945515659
-0.014493948725618863 -0.58134301978747693 0.35765782271932284
0.26746461473172317 -0.046287839102349633 0.39615460994327101
-0.014823575314524561 -0.032625862036147417 0.297709194649039
-0.56652608453284936 0.056544553790537834 0.15316219849651488
0.17331822940720787 0.25359161223383236 -0.20345420632179972
-0.38181569225746487 -0.30680236652168047 0.030734128071542369
-0.48846468791581249 0.091093266849282845 0.50728810580029871
0.020593964323198322 -0.2961730950026627 -0.47378790486591049
-0.56070311529451367 -0.0094919382854414258 0.42320525646786833
-0.00050823792820510125 0.68919012233414223 0.020614566213395497
0.7037166782695905 -0.49365794750604114 -0.1113316838774545
-0.25700839840006412 0.038320112135485328 0.36879000065949741
-0.38346256093436337 0.092576094060053765 -0.35012779000991945
0.92764213841733856 -0.35276666507704435 0.15357646854951912
0.68447953536109052 -0.096776045620446921 -0.20084233834405957
-0.0086244031123110087 0.8010365300424801 -0.0016045528710647156
0.76400735701921485 0.055007501276068342 0.10659876467691193
0.61599725764996893 0.029520189125347478 -0.21334558024887712
-0.27498281524856755 -0.041618692620915949 -0.40616247150012985
0.62047510109556148 0.13825912529348036 0.30774451469957886
0.011808962563451979 0.98376962911815202 0.022686564190928432
-0.2726007421769977 0.1865916119488216 0.43126289644861426
0.93589226942823844 -0.36955782530294329 0.13305413934272087
-0.33623274687348481 -0.61148591015694431 0.20333073891091469
-0.041408760643293401 -0.29105485763425126 0.22440483069780293
0.30710924521977007 -0.27733656749064817 -0.48665274296937622
-0.46906457019930076 -0.40033203462023753 -0.34904463927413154
-0.60348027862129461 -0.10231345063540104 0.064182718800467442
-0.16884277160442768 -0.18304228044356663 -0.4609979145328934
0.77574563839174193 0.0071299054385617969 0.15286719013865741
-0.4916415679240545 -0.35932883919495873 -0.46448360280035084
-0.46834802060861858 0.1668223961004415 -0.078103409642197127
-0.55797755817019634 -0.080291565729329883 -0.35491344882753484
-0.25685125588486157 -0.0098948872785095052 0.27840443827110628
0.26163868288178482 -0.52198796471533782 0.046909669164504626
-0.16509262567271377 0.60952899412212391 0.059617642298089052
0.39933140326161332 -0.42931729103855271 0.41482506999030894
0.8099935015360149 -0.14366994709136596 -0.023013526900175399
-0.45708415837588606 -0.045646207086338438 0.21698830803988994
-0.41552282413096508 0.89668554112404752 -0.27195448605192424
-0.64015835129133658 -0.43364233254257134 -0.22147702042819023
0.5928144931506002 -0.54479151582852803 0.18573960484238367
-0.34361252583203694 -0.24182661572765812 0.27508287819968041
-0.45786204366789846 0.086817582349565603 -0.16928533948108904
0.37314759439812367 -0.57461023868604089 0.054086330160397912
-0.62855477245933677 -0.41129141695750537 -0.22314007120097334
-0.50414980556043421 -0.034208486987885957 0.43997583153734815
-0.014130412088992551 0.90778048047392734 0.092475223277086668
0.0083221152913569366 0.93807180803596657 0.032639100648542745
-0.47880860535295633 -0.052005102937105405 -0.40364296320774362
-0.12753750477443504 0.46032815628941215 0.16995974089680027
-0.11850152975942461 -0.49923483897351728 -0.0020893083532424334
-0.16213268530739217 -0.21350074243939138 -0.64589665296941645
-0.10474707253336653 0.42472165447350047 0.10849048348665827
-0.45117841167043532 -0.24632167104177771 -0.37595817885167454
-0.022924154979091539 0.63938623154154872 0.10141483402079891
0.55951931362067486 -0.57854982658595178 0.20798098743318885
0.097868652974311784 0.20936644067616489 0.18714838882773871
0.11038134391011799 -0.50970915798452532 0.34322628121465426
-0.18306651632150972 -0.62985387480063104 0.27760319644019682
-0.1646510761360202 0.63927460791644009 0.12134643934039527
0.54938042096201289 0.32111348045721394 0.031573711274873392
-0.39877411561415521 0.67088220886280081 -0.25081540200268054
-0.12613652151467641 0.047494152183357875 -0.48586518023624414
0.4781860013173837 0.22310188851843465 0.30655812755565742
-0.18803660980032194 -0.33500960267570612 -0.36383509615900111
-0.50438701654827944 -0.037432767477651833 0.14203708959952308
0.87736037560662183 -0.2095132864583302 -0.11920718411104962
-0.60266136637075463 -0.33808487102952905 -0.4670851381453206
-0.49245842496338327 0.24219269773438762 0.1716343668596898
0.23513247065439141 0.39432674279963187 0.037935439748206588
0.75987491429415643 -0.23202584317453395 0.20132673863843625
0.64776341730174425 -0.3631239537517636 0.29452555275126224
0.73127070208135569 0.00032777866627764496 0.26458846271370828
-0.19733480611436133 0.23648212746958486 -0.2090839255739273
-0.41087475803155582 0.85694276063643415 -0.39094995429179319
0.17713699115644099 0.28160448989800396 -0.17581530010827001
0.63831545711158988 -0.1765165344181569 0.35156016082591052
0.69116134448827027 -0.19298161783592482 -0.2021142452419542
-0.14734549330870184 0.30848985461286266 0.28978299628622312
-0.55725437479855067 -0.031971559585958834 0.40838758586878271
-0.54432750315764378 -0.55570348431039707 0.17473461695130282
-0.14373650275238548 0.67793250504413005 0.051534396614742718
0.26294797345962984 -0.0087837512031843645 0.34221687648560856
0.67161052633175888 0.16343228929189721 -0.046917506411538287
-0.14835781603776182 -0.074384269796175295 -0.40303242533468808
-0.031994725255959228 -0.67153164789006015 0.32590515409019305
-0.11926268216841068 0.36960573336064062 0.12388037574009043
0.20214790828939844 -0.58839300593072263 0.31220933086661973
-0.43520898671236585 0.094265244039580226 -0.25674886630052346
0.76234862653775193 -0.10795049861508418 0.22418800796591581
0.29905332855720035 0.055415887273168311 -0.40021196006317961
0.31255527351892348 0.32322876813873719 0.21960559841083988
0.0069764208249964155 0.2978473922913708 -0.026849275776457376
-0.25625548256475855 -0.26866176930065716 0.25392427930139094
-0.11209050798730251 0.59488805073681472 0.16189470287196236
-0.24662876686670165 0.21282945039729539 -0.24247737710174377
0.044708205265714229 -0.57165210201525585 0.19600789030147858
0.47387834167770615 -0.39226282368670728 0.39234310512854725
-0.37502999288746602 0.57476190224370005 -0.13692267277685971
-0.31366079526556778 0.023094396953309913 -0.41084204976936861
-0.53329108335877384 0.011288960369957905 -0.064351453574760145
0.37612320937564175 -0.44340860511114033 0.41707338951138367
0.38286503854090326 -0.047752733494892424 -0.42333932257929763
-0.6018696789845519 -0.15049966663154707 0.10406064494306208
0.24648931828455117 0.13274619875130206 0.32198965756660186
0.67504021211436083 0.2142455897147984 0.083642315465870976
-0.52996243197692083 0.14333958811217026 0.096954239267009509
-0.11100831162979394 -0.089116731657471276 0.2986980313146797
-0.57512323530200316 -0.2495963469414674 0.10534086494690879
-0.14857592681631288 0.70322463198333374 0.10122867350875414
-0.23613349691267199 -0.57161059735702413 0.084285873403366893
0.75293645543121235 -0.20914127878163488 0.22143698218512858
-0.48676811984141577 -0.020471854939534427 0.18351078571010065
-0.58694980850897072 -0.23362541356517422 0.11043440810593606
-0.50910788527120787 0.14675519109714122 0.3115567710240349
-0.57859308066106563 -0.20282243605774106 -0.21647497283971756
-0.54371493314296915 -0.056569085320993265 -0.36509290020507279
0.16639310290650677 0.22039396202304246 -0.28063732888687537
0.15136837241817097 -0.55392437663593819 0.13865664553486748
-0.53394894086891254 0.01938428064244798 -0.22529434863061037
0.75560633325809057 0.073215013635239717 0.1410641284311297
0.65151424959195237 0.23538478744726282 0.19466445958332151
-0.13303881718787339 0.66133596240817327 0.034302881314421399
-0.58177953095969348 -0.036065236148506624 -0.054132551095937523
0.84871722749134471 -0.31644989896356862 -0.17179680204053388
-0.40710686904925464 0.13218786473394942 -0.1371674549490588
0.40954470856363889 0.29379831528991335 -0.10929988358698738
0.63409654731598086 0.015397731629808377 -0.20007141962039782
0.76932889152356765 -0.31440235355365881 0.17286280456457975
0.41706187715138937 -0.013013499767861467 -0.38912213927447237
0.42433549977477825 -0.47056352460880868 -0.18964894316665287
0.44358972584867851 -0.0020096967406971269 0.39119219106488462
0.37715718475877152 -0.64649570366662612 0.22371638114474368
-0.34712859764657544 0.40404435538005368 -0.026476100041887274
-0.37762329660179295 -0.61154363180140081 0.18685695339245378
-0.21103592511432984 0.25041136342649234 -0.176647026752977
-0.34391128597189075 -0.19817715284783993 -0.41156213373749406
0.026366531357534216 -0.27315897875522632 0.37814564517499749
-0.63150246292393841 -0.15311204972344505 0.035082541413358925
-0.59451436594135099 -0.17015365757524778 -0.24348124313268465
-0.33598759999879879 0.44702188770758355 0.18604553449281513
-0.25941583436358145 0.26282540629097062 0.42754263155672517
-0.12988028400398238 0.58112944530805088 0.025605734364505923
0.65352177243195442 -0.33117106282615971 0.29826656707304738
0.22609282275923037 -0.35112199355478252 -0.31880382369861388
0.097202085212002465 0.30270944497173558 -0.17340615112118957
0.78626630658627927 -0.20693180460549868 0.14221553911814522
0.34295010912393586 -0.39470404968254574 0.44519478278340385
-0.43969969014645716 0.33042493108949772 0.36516859941010116
-0.50205011017251522 -0.046986731040636824 0.42154460056503856
-0.089410317323565996 0.3046548357107553 -0.057195184545126107
-0.12644801993466143 0.29485715899039661 -0.1141511355712093
-0.16048338864107969 0.22335565412582697 0.31255878297233719
0.81528951496967883 -0.25137952861017521 -0.18339000206741385
-0.23042658763095175 -0.58916676674093493 0.12492393616920242
0.96933634994655971 -0.29185476052913661 0.089425487306847115
-0.12805914275047597 -0.084528971686303495 -0.44228706732577727
-0.098886751737372908 0.28537809210950327 0.024201658529612043
-0.61153973677097673 -0.42689897268126936 -0.29557149009428241
0.37470268696431436 0.11453423237819343 -0.31179462450493339
0.098537052248966361 0.064855822523240209 -0.48809685828569038
-0.34465165396850123 0.45268469738403816 0.14546529398300487
-0.39244443369643733 0.42792226595855293 0.11403843189654586
-0.18675845020580467 0.32015055920500612 0.35691682356207655
0.010696713453425738 0.277856561836205 0.045791077245841132
-0.46047231487697426 0.059415410279408797 -0.33638463119462503
-0.58088750363149666 -0.021888808534226263 0.34460281308496449
0.41983300029671583 0.23521573065875406 0.30652095239099669
-0.49626074359039318 0.21981505056291162 0.26963599889145051
-0.17398271245389835 0.11229722085490812 0.33674524352456819
0.15056305523542179 0.31283757524241074 -0.15233370302569293
-0.28021053812712776 0.56981777792494037 -0.024451495385502731
-0.49369712758897644 -0.54860712128409972 0.20822795141227529
-0.4443288086333127 0.92281884304607209 -0.36338876705107753
0.74487907125626507 -0.14665000739355125 0.25289359329091532
-0.088011451327912965 -0.026732253689697186 0.29723426478901277
0.52589315422934657 0.29625587297965778 -0.049197901170120087
0.01962011813404714 0.18677486330606316 0.19011373782283525
0.5645551238669213 -0.1670048578257069 -0.33400629467442911
0.14797009676048506 0.033248682444160217 0.32319764038359072
-0.060166643110656434 0.89726886256693683 0.053532214238891776
0.61911277720539504 -0.10148897088936672 -0.26880545081371715
-0.15594420046086038 -0.61263866590913851 0.17691576924680621
0.60582126230598676 -0.27492526166140324 0.3381776928573984
-0.25689319326530946 -0.51020532277971653 -0.032215072346054613
-0.38801380226753546 0.37223689514517988 0.025867771093833536
-0.10932547095164419 -0.56607847643858544 0.31650604674674671
0.32764294331016275 -0.36137717467468305 0.4427194056994222
-0.3786124557610287 0.048914393080631786 -0.40851338789506214
-0.38965384124084101 -0.41822064381384338 -0.23730707264811129
-0.50439680181510194 -0.41507739185449877 -0.31553524630155716
0.15903386501487643 -0.25124246433940151 -0.5317912075478648
0.69892865611365984 0.032954473437319699 0.28998000721193229
0.0086329312374399114 0.62571855307561153 0.11286708808086403
0.4291966196099487 0.080020902649231979 -0.30708659629941371
-0.15608946989182731 0.30867784950503008 0.31210168034810032
0.097139310340449536 0.17267152258781007 -0.40215005568499412
0.2337327079226918 -0.64925219877569296 0.24359343557285668
0.71832072700109062 0.10684872636370871 -0.026132295526693411
0.17335157730621781 0.34024296662278791 0.093764675933832614
0.77953425965873435 -0.24354188995983234 0.15694421893227029
-0.027147183443995332 0.19963352004680135 -0.30396423370685965
0.53504772125286126 -0.38841377336906069 0.3585902486721565
-0.22016133891669326 0.23259533775973884 -0.21385047768295656
0.87805993833108509 -0.15827334149408687 0.052063333975007314
0.81008156960707633 -0.50400546672289759 0.038622157119572245
-0.53210379808945685 0.021833700179551489 -0.18363289903883079
-0.35955347902283641 0.077055877306016096 0.51510287044625647
-0.31926774087510368 0.0055667175847564573 -0.41191403952962946
-0.5114994119510351 -0.028379508149628366 0.11374195512299921
-0.46304341273970262 0.08020932902739078 -0.2055067632686608
-0.42516975978700655 -0.56260169794378612 0.065830890168690981
0.46322034195869505 -0.37087046577050375 0.41386790255153461
0.27457596364501641 0.39143858078977101 -0.029012860716489453
-0.037432558630180822 0.29123485794420612 -0.12764055550840575
-0.4349586497697005 -0.40029155658465043 -0.069465493870620079
0.45884841280930261 -0.21007966459322022 -0.42143226226325592
