# XYZ point cloud file
0.088881668563197569 1.1297873325031302 0.0829306709000113
1.0056820103506314 0.13532128456072468 0.30731297009211
-0.60792515592520491 0.25160312525021905 -0.17355832962637116
0.57640958938278375 -0.38730250534277405 0.60101095191462073
-0.13784079272048397 0.48331729659096301 0.22423476454796021
0.33603978710498461 -0.43252812888571451 0.63252390933528657
0.83632360955670793 -0.6822686007366987 0.22093601620972714
0.10470083238738001 1.21389511927761 0.051111042529763076
-0.40802944746975395 0.26561837223716056 -0.49946310197688804
0.042345358340830787 1.4799541691387794 0.066022047706355599
0.28266045909398246 -0.87228573192216186 0.38656925896884398
-0.59141604031452955 -0.045235346709325455 0.37396013931777661
-0.5738490535612486 0.4969109883493566 0.013374499569634296
-0.024021307410069994 1.3690879556204048 0.067240851745499819
-0.37116613404680937 -0.27106003645499854 -0.95514995951736481
-0.02742336117070664 0.981950025486797 0.046724310940300162
-0.89645186812346811 -0.0015494234330662663 -0.16555378397317447
0.26364033830275524 -0.033338512998161325 -0.72461054720778928
-0.30130496568868109 0.38793789313841259 0.49978120123684255
-0.58281230745959312 -0.26221091309632794 0.37612615403631866
1.2648297784873743 -0.50602613192642443 0.15802854200583583
-0.63769228115050214 0.46577065343103241 0.171306504215952
1.0668020779045684 0.017451174583545302 0.23323056979896617
-0.53217587013175827 1.2081817751658643 -0.18578459607489464
0.88048946203226397 0.17183178185660675 0.42092897341352808
-0.23137008825820826 0.10696032285624089 -0.59522742289102404
-0.69794961004901868 -0.28504562250160154 0.27623876465763531
-0.31058906889088111 0.10706704181633579 -0.53881999981773954
-0.61446159295566849 0.55053187700192474 0.17610158613683721
1.2747774495047377 -0.52948329970389929 0.12773651916472401
0.075678823957566282 1.1872297748740488 0.069387735569549303
-0.18830436719878968 0.72067673460147497 0.066935743495001115
-0.78779245221853589 -0.58001245238143428 0.1465878516010517
-0.015218403596540406 -0.53546460161379228 0.37288387846977666
-0.63366185875840542 0.099277296512368177 0.6908721617800615
0.7392302739318255 0.50763263383374624 0.029314305324051299
0.025892314160672482 0.34049130701482355 0.25119889522617034
-0.71183998893183098 -0.65701707652671359 0.27603965587098733
-0.20235829599878391 0.92108585164466117 0.088572692417091869
-0.50290430122419416 -0.0061183365227474489 -0.54521355179583786
0.50557345125882347 -0.1182501467365342 -0.66465529262918943
-0.39608781479528615 0.63709113317674815 0.49965246169600008
-0.74059338808736475 0.035723845891885556 0.6220775915628175
0.35269055302416169 -0.35728682328723621 0.64161379057466217
-0.55232545058498062 1.0765827279843112 -0.30699445208297427
0.82175663487675954 -0.41971316813253795 -0.37214432264642983
-0.50056032289284713 0.98570458169769015 -0.36099609935591592
0.3105399245840923 -0.56015314552084061 0.56993333824714987
0.63382239988616584 0.27272259416740408 0.43760631066192213
-0.23782192655042145 0.57312433851104028 0.015898274091216122
0.2893974090096838 0.322006603865855 -0.47870687025532666
-0.083691979064898933 0.41763052997452021 -0.34003624647852637
0.27283131416614692 -0.68866390438270331 0.076058597672956405
0.98062447677241893 0.21779021537071799 -0.047716523078650736
-0.088807020941966713 0.82698570333752941 0.2148450185287451
0.29285036946919435 0.57551296216614045 -0.087458018100381535
-0.46664070100346611 0.88710700493880967 -0.27781906700569003
0.38581519811955295 0.39697658848201883 0.36713622083799891
0.07453345985643442 -0.61165638904002539 0.45617504895302741
0.064172464229018455 0.38804067208475385 -0.4003942830065651
-0.54149302849457059 -0.32912602393065482 -0.77115799651607164
0.048883655445403178 0.45857331470497403 0.070427771041311454
-0.39911866075647001 -0.39870042034330555 0.25358290013868079
1.0979366501812431 -0.64531144350519454 0.19565957739406054
0.70545024995739958 0.49769158760438797 -0.040364290248661616
0.1203915255162909 -0.14280168299857962 0.54839990577660092
-0.23620810121469665 0.41263739781692504 -0.30746045029863522
-0.30310197954750567 -0.31320996039825261 -0.71514050074019841
-0.74464784429132269 0.15290162969444321 -0.28546071625694291
-0.064023680253134901 1.003410117381885 0.037599575869307247
-0.38878606896902884 0.13382535735638793 0.62685258242322428
1.1722340541002245 -0.42890237385826785 -0.26358662416095369
0.24076493547357208 0.51643083404661316 -0.20759774662729111
0.86373676597189031 -0.12364232951833394 0.48986755899407763
-0.046057376811828532 -0.59271649540596705 -0.096997109548595001
-0.9983024890897555 -0.42451603223303586 -0.45507510189001099
-0.46689691121246724 1.1401001595939757 -0.26500571928082639
-0.24571139023925775 0.44514493839400754 -0.24652256023688959
0.17655768688351242 0.49387186266668387 -0.23376675128016103
-0.39108294288419398 0.41932814397828017 -0.16651656039503762
0.99493310421072068 -0.64590419346861705 0.21717842156789319
1.2522834801674523 -0.37277050955820556 -0.19251593717925944
1.1878157610587805 -0.35423315004234379 -0.2603784349573014
-0.23819234171365647 0.078168856778968801 0.38829380001868863
1.0527246276555111 -0.59503941150979889 -0.22201450320092489
-0.12609440067907954 0.46624442749427469 0.17558535911688389
-0.4694504241220232 0.93781454994497071 -0.29782625133285856
1.3066377138815346 -0.45644590478376074 -0.069061979462510775
-0.50520050093120095 -0.65772637196474082 -0.040706283125472087
0.20787578615812091 0.30808887100008792 -0.52714203501551404
-0.485108188825424 -0.50257715759501176 -0.36342129031074244
-0.42959646098167814 -0.46930999720223754 -0.46088197097054362
-0.68275932013398455 0.44089990595870127 0.50224997171585839
0.45078986868253695 0.56203608417970441 0.21846385971653695
0.82403064050488584 0.46125272593133937 0.12955550333175206
0.37594956480432407 0.54202777111637979 0.2104170423391574
1.1736046312571535 -0.53731817764757195 -0.19908989276088682
0.65570584910728258 -0.46849666442189913 -0.48158640413192433
-0.98098528451437383 -0.41687800198045166 -0.55930601936496893
0.056318246388878009 0.97032959493675242 0.15681113485187634
0.81781748743137506 0.015795492778906205 -0.35665884527253244
-0.59487458568577112 1.354092261459733 -0.45168025327461003
0.55390251266870405 0.17762610406377627 -0.45464733051276263
0.82073282201963493 -0.65605153246527215 -0.23663468506694094
0.64126844881187217 -0.58419324455145694 -0.36280646956024543
-0.37969207317108927 0.17060109427251788 0.62526013879053688
0.012858254994636359 -0.66270135897820337 0.05107538196391611
-0.33257297130408103 -0.59135779190099691 -0.19603420859123613
-0.54770320462449751 0.63324796255350624 0.10292119202649105
-0.69449839392979995 0.018304992390898573 -0.55002304816603009
-0.71561020309617496 0.30405713444476146 0.034119999820285365
-0.65513762584420798 0.37860789012205098 -0.024577718953607913
0.41214525706058414 -0.68595755231812361 -0.1126385354666874
-0.75080202459790291 -0.53593493183958951 -0.29806095006911604
-0.88579513414285127 -0.21462729631953159 -0.078732088478686346
-0.010093558649200106 -0.26900578155390376 0.47025141381774183
0.93863190043471345 -0.56040524712944007 0.2405385852236529
-0.10056899728307028 0.30261564093506066 -0.65960888760404002
-0.6566046246445647 1.2618155214467031 -0.30637119124354861
-0.13744253253733626 0.34546167425987634 -0.56985253009783055
-0.38882675731250749 -0.17111580724773523 -0.7285953314576632
0.070253635702092587 -0.36760674684342121 -0.68655329120495379
-0.23919893435640005 0.13370081182860924 -0.57821912883823756
0.21821706989458756 0.42556652652632276 0.24729632737406962
0.46669099081955595 0.15878022046998111 0.47677426281334334
-0.52927310869329169 0.20747561518453991 0.749515095185741
0.085472503944612116 0.51896318959461307 -0.12368022272777465
-0.59971682783545543 -0.43099894118006843 -0.096075150719726887
-0.43502828694116763 0.41884133142313701 0.68301590856306482
0.017607451851087273 -0.020797172292485427 -0.80076899814862634
-0.66791115127295464 -0.61462260064682772 -0.13103458869550474
-0.76739124143222648 -0.32464628885304586 -0.36991177899635141
-0.24084696353644516 -0.32795152697135699 -0.80375555901761175
-0.67813381876012757 -0.32720417950106218 0.15318857700584682
0.05594334375920932 0.3830036832651324 0.20168324722535341
-0.73596929109482379 0.060625710955819895 0.32466087828561896
-0.70831768807050766 0.25380976801481753 0.63965588397985329
0.76290133543765548 0.45735988885171358 0.31009550533278996
-0.11873678170510532 0.98234069697470361 0.040021781972548715
-0.090027642403659514 -0.63268051622633548 -0.0050123106914685966
-0.043777165793200498 0.86159415218691549 0.20046412296125643
-0.16895367264267147 -0.025029737021599587 -0.71517602740578323
-0.32467978583179141 0.3641962258471112 -0.37654815338672487
-0.54631072100376521 -0.059110466672810127 0.40081817812635478
0.53011543562050134 0.47392092619324244 0.3435267294940218
0.10624816778536153 -0.37537314157733348 -0.67441898936575229
1.2173966143094059 -0.52290809180829356 0.20293126905092568
-0.56327264037592839 0.44521881783448169 -0.077368868519044759
-0.90724470215593411 -0.015625680423003663 -0.17722517357633424
0.96248083412563934 -0.055341181236841466 0.42912314953988073
-0.37421630058076694 -0.14933578635598299 0.43553114407453031
-0.17355618045813528 0.61640967784230372 0.11634138561421629
0.59245834468987468 0.007302376332376178 0.52831603172048125
-0.148171817354324 -0.1203427143223371 0.40593159440854365
0.82958068065067336 0.42057502243160028 0.29679822105974746
-0.07699996213116149 -0.053913965449192858 0.42273706734813798
0.059571072635158907 -0.62713309310130816 -0.035665694787195584
0.060938021835217578 0.46559216484073512 -0.2536985647796155
-0.71833417530385812 0.24810336012784662 0.61939512493046867
1.0354173571697807 -0.3388368624006321 0.2319344477935493
-0.34423650898656455 0.13811501639895765 0.51066039314296852
-0.18315785605846788 0.25585501225443413 0.40099507723571814
-0.087742083409672711 0.22394928924355842 0.31929336642796113
0.49019488099720726 -0.46484006850574811 -0.60176046168596942
0.10814636788526813 1.0232165853569282 0.10457570489192007
0.87219965956927459 0.38473514500809863 -0.00092655981947560584
-0.23884904469325768 0.62788981708119107 0.046932711727067242
0.48989754962419801 0.56710339819118549 0.22384949190584125
-0.13166400679403328 -0.76519981041508678 0.46080304704018871
1.1060820962165441 -0.19291237246000073 0.049074124984713322
-0.012524594901900062 1.2430971197824818 0.024004000675238585
-0.18718906886663289 0.78897579603441437 0.26195285350200681
1.033286999731424 -0.55049585005669632 -0.26924286823954979
0.64755231263784141 0.54121475154122101 -0.017218266203979982
-0.77867768013209282 -0.024891236913915885 -0.48384616119976742
0.68393551720644019 -0.61557571099683883 -0.3081808139772424
0.91230307533161381 -0.358841473643148 -0.34693095304636623
-0.67213144103143041 -0.30382473321204195 0.26307345811973487
-0.50471974531628649 0.024768437213395302 0.63561028079774151
0.99321370136644382 -0.70950124509035339 0.1389657685260503
0.63175631487191297 0.37563526290012711 0.41309870099299206
-0.13135121334440211 0.76300968741913278 0.23470548578593783
-0.27364428034008531 -0.61473681096476729 -0.14171679568236836
-0.42802777294851113 0.90187022393511007 0.042579389410993013
1.018987463420405 0.19314033656371898 0.19140594464576061
1.0012777197507448 0.024906565208604434 0.35848755568034107
0.50071745387952837 0.061264776885999905 -0.58168687234290184
0.68373236588531849 0.55052969356218384 0.1571579604464802
-0.65974292992585359 0.042142532246372891 -0.57272874347682323
-0.61512661283091608 0.57984169114416062 0.4545463696935409
-0.17323512513151243 -0.81917144844691514 0.46690381178789631
-0.504971121793519 1.1490585746575339 -0.38457962001589741
-0.033781049185574688 -0.48521509550353514 0.34156080683003498
-0.69106706190032685 0.3052924549241669 -0.046004790591029576
0.73760890655161071 -0.23176355161537221 -0.54884593505330037
1.275110462215973 -0.22559822826358367 -0.072735374199952213
-0.18214808761788795 0.15992371258554039 0.34689958901033091
1.0360498465958614 0.14986678401894754 0.014051737177164111
0.46960810075145704 -0.72154047957570577 0.4722880504813467
0.70985298272311714 -0.0096289400349434933 -0.47368943266862718
-0.18938080406690286 0.66021493618371119 0.35669841328332674
-0.19110113723260924 0.97404660255559594 0.21251234434059879
-0.6112496077923627 -0.061990802139804721 -0.50406751473537137
0.30373973060682108 0.41936472225202986 0.31196180199466783
-0.70145725568385775 0.48888739265760256 0.34071181970695097
-0.37450323406557412 0.16550645681919421 -0.54064244316709387
-0.87591458355353891 -0.19415752206114634 0.1543683233247467
-0.034795825408350758 1.1056861569026661 0.14228002173896859
-0.24537982496568417 0.88629720523363831 0.14906169215793591
-0.50057907490448295 -0.43070160787595413 0.15305036697351088
-0.86598388709437735 -0.030000292546424234 0.056637554352903179
0.1255938773041731 0.53587534564891304 -0.10093237976327982
-0.23659704152930236 0.48624132117730262 -0.068024962805847439
-0.49981642447708846 -0.21325357139808973 0.42019854252404321
-0.5671933554207933 0.24102374416494121 0.76088717229002623
-0.060613279808339623 -0.62537994150326981 -0.025470370229828482
-0.78902627529782787 -0.21032668531917006 0.273049837491394
-0.28534312670159889 0.79135773501500062 0.16375656433760435
-0.073963695766128573 0.81974456978769239 0.078463052005527487
0.70045250601666842 -0.72118123140918255 -0.066780717267906853
0.31805982303834451 0.22478816758937248 -0.55677785997234019
-0.45474877824461757 0.98358189624951664 -0.27940198069534161
-0.60074534121766021 1.3465604759941274 -0.29998502304162233
0.47461339361602878 0.38109641137950734 0.39776136966792386
-0.6564818547073098 0.03530047993279381 0.62195371083696072
-0.15142826981340235 1.0989222707354402 0.094102746917167426
0.25419017733374649 -0.55071570139561421 0.57450345204668074
0.55404491935917377 0.59893930292573028 0.037443526650598885
-0.61852225478877521 1.2149303381789733 -0.22792745739284495
-0.62517466854117376 0.25700614913976255 -0.15082179060590586
-0.37277998019913139 0.26723243740042224 -0.48723027478170911
0.2095035912215108 -0.69937011767898649 0.45050512674555498
-0.7803625977427332 0.22302419109107804 0.14996002641687756
-0.92712246409984134 -0.099555856152266975 -0.18398763055482345
0.4504565239508333 0.60524957199363305 -0.01722425408712755
0.24292590484528737 0.59047668973154821 -0.052436280723605594
0.0048280863775368998 0.43108154309587204 0.13728697358182243
0.039107078489690479 0.055327868912857223 0.41347259566471084
0.44136768900965451 -0.12759398996913238 -0.69532249835016546
-0.88433551407202327 -0.32173089761044399 -0.60193549168896132
-0.091799573079066721 -0.4920067577354118 0.26871875365328357
0.83667339135934271 -0.089306719930673351 0.5130912013154576
-0.21681094387471317 0.49530058302927243 -0.036873252224207037
0.99797421777824813 -0.68421153867639051 0.19046685246366402
0.8738393471341116 -0.25588719265397802 -0.38048462070335998
1.0929093749570098 -0.53101524514362841 -0.25781761021313965
-0.37556626917522012 -0.16703584034425761 -0.579881691248465
1.0240586410184938 -0.46875613876800787 -0.32379284629306149
-0.70802446859381363 0.16030729379628567 0.68869954297952696
-0.57358739698515104 -0.3427502324561062 0.20574317505381601
0.14300059459387013 -0.38309076532159725 0.58199358111746369
0.64359937629576969 0.57224039243710501 0.086832002517243378
0.65428696078313398 -0.77766098194849709 0.35550903928972061
-0.3058623328753946 0.35323138186038699 -0.40287949533319589
-0.55373178348756591 1.3309080900036137 -0.31959051190253784
-0.50423833107803562 -0.074242309568761669 -0.56677490230490901
0.06789417516325974 -0.31579678934565092 0.58309460798252577
0.042922681584598478 0.12254061751522849 -0.75242612957861921
-0.43923703191203156 0.92732191715868062 0.032072969422274805
0.53159435454798187 -0.12974212794240234 0.61644922546703307
0.46937254333056916 0.58610481613035692 -0.055068195460656583
-0.66750714231904751 0.039719830706101647 0.30609774216642105
0.28088904417328375 0.5970148081528257 -0.029918937781739763
-0.034781412429558102 1.0143171254174628 0.040337829212430718
-0.0062612803356746696 0.37525455269359181 -0.41436775704400008
-0.039432968809876137 0.20359365049310338 0.33474790572058227
0.49485298765813429 0.46305777610023385 0.34603432858419397
0.10347389656834341 -0.34970267310044256 0.58149972019127716
-0.19845938559378354 0.53824077342794507 0.43295622466617789
-0.50921411487777013 0.59258279676860226 -0.0040865915258578023
0.43107117545300377 0.19074832777035436 0.46886087554014
-0.059803337690580077 0.97126752933342919 0.041328749941237725
1.2915474890080041 -0.40996273909792469 -0.12961336545533444
-0.018150118463506906 0.41911604832271904 -0.32886311704910776
-0.022727023027837759 0.27831025449746 -0.66920419269385678
-0.63658532617863295 0.12751393701446817 0.7299984378754929
-0.074739155947316449 0.46001145086199835 0.078460377713193197
-0.36179071820646774 0.66711078423695347 0.45353505149676798
-0.15527309967336012 -0.23821891525889521 -0.88956722997798987
0.75122476778387548 -0.32489384881531685 0.54368262656270572
-0.70353797122988826 0.32078443954078972 0.36473852134166362
-0.47830651305317035 0.11111402184839644 0.7167186708333213
0.63272794909808627 0.065118748707531732 0.51113707428252364
0.09171216347371805 0.38550325034909871 0.20052742079178854
-0.41058720546256838 0.33838632197328372 -0.38116540498859597
0.7066209720397405 0.2587429372600879 -0.29913460806534797
-0.43280825068607337 -0.50168177968212135 0.22272254842145264
1.0182247379639695 -0.23287554229759763 0.31527468834352435
-0.31675456477185082 0.70022919332134959 0.37392145238044572
0.089096189667382863 0.52573086238234545 -0.045411882207831544
-0.11722298846519585 0.97875477471560213 0.24258990688710713
-0.1479377787452075 -0.39404499203621535 -0.49563591776926252
-0.63546174624130103 -0.21354736861816606 0.38668419912372431
0.41153178170584609 0.47801237734652585 -0.20533847179421558
0.99249999128809996 -0.68428082426081716 -0.097506045530202173
-0.41800340447954232 -0.18431575705350234 -0.74687527464836567
-0.37212764312149693 0.28784374776322813 0.59560942992507671
-0.73098270469474502 -0.3003131192195484 0.21841232020550183
-0.72662899198237785 0.1639421673029767 0.65725820899882925
-0.74539813045715442 0.27962070634125874 0.092009920861945982
-0.70031208272767376 -0.49850624086771728 -0.3901030710274237
0.092322228083886099 -0.78260314763764804 0.44171683304491671
-0.72906379753656936 0.15702460776068203 -0.16772573996543585
0.84883822850816493 0.17583979761917506 0.43437565105113218
1.1879142876463493 -0.23694935976148757 0.10383130681984676
0.42543002766896326 -0.23453021364003432 -0.6873294909529083
1.124187855227418 -0.4697979929725794 -0.28015033572926185
-0.7799329213592372 -0.64849236043875469 0.23084663911911396
-0.69086276723506757 0.4078002536646928 0.49728650904903138
0.029112350986248738 0.29292122683446897 0.28976969818025533
0.50976409998858141 0.36244560511635582 0.41092857170639496
-0.7651066279687172 0.071933283593951389 0.3346477936849564
-0.46226199886200725 -0.34807552771574846 -0.75034884779258182
0.1349703292368726 0.37623678738708027 0.23122807694141256
-0.1838054297649632 0.28328214529278922 -0.4917109115503262
-0.63400439677436637 0.13668255212229805 -0.56971649286110171
0.53162837303937482 -0.57535333495425423 -0.37258299416754503
1.0951340781061609 -0.57234399430041838 -0.22109550000035952
0.36825006801681398 0.063424131528871774 0.47083908877488068
-0.78004257423533119 0.11371920895388851 0.31785519863902301
-0.89710217739511922 -0.20690348742086789 -0.066869228428228539
0.89129005596104949 0.3020275035269232 -0.099698878426532939
0.13264415301324201 -0.4154800420558164 0.56587315135422445
-0.46910355536491849 -0.0037112786217638836 -0.55944023627323403
0.17961179934104163 0.33426926856228545 0.30388807737061352
1.0413224422669973 -0.69485060235421203 -0.0029646993261276677
-0.4430235858479461 -0.36260742914821947 0.2287930071856614
-0.19200646775239161 0.59068778878527928 0.41067653059567788
-0.0033486615893549912 1.307203370583933 0.18199045045869822
0.25804089877290043 -0.49234081917269457 0.57509708564150275
0.34464665876506168 -0.39586060397662937 -0.71359243891812785
-0.48450182824260513 -0.19986005876701746 -0.60071286971654525
0.68957779398262409 -0.64357172796591755 0.43184107191728771
-0.051820005663665375 -0.42660082767307661 -0.43454584718005917
-0.67492263582251077 1.3486193858733087 -0.35868340508660557
-0.0092173499528765412 1.4103939443553564 0.061199960340294457
-0.064108494049391188 -0.18254121388409203 -0.82851581067975355
0.73045273928937438 -0.0033418246470529678 0.52903103510971106
-0.11531366257078124 -0.17566699128465096 -0.84224839439718702
-0.02900137913267584 0.48579245616766631 -0.18135507536479836
1.0414759129877509 -0.63853356763776836 0.226740693893829
1.1345307752083127 -0.52348293195228268 -0.2417440296514384
-0.1445893235166516 -0.32831786044111322 -0.63102932983089988
-0.90636088870337617 -0.46936997443488776 -0.45825495928228999
-0.2979106460789987 0.36809160024704229 -0.38165759809955624
0.32463450755756207 0.58301029271286908 -0.082787395358280974
-0.53577262901174472 -0.49597769320001484 0.14489239713714996
-0.27308804507148787 0.43412395262150755 -0.25424272201558429
-0.19771212468850255 0.46133580612258707 -0.21627525475624318
0.0031527560518196107 -0.37128585063443881 0.43731543282695784
0.15073801262540085 0.49522509398203812 -0.23737622599794136
-0.39047851800576144 0.4740161816811137 -0.1319708613520118
0.40046881633471804 -0.78426198542307091 0.37878690396400738
-0.34131838392270719 0.68021764571736465 -0.0086459957737490545
1.0294619532484963 0.17135142413207263 0.17817673737983153
-0.54659424898686748 -0.34945948531844018 0.17273895771350442
-0.79384791183824355 0.02445449438470414 0.47811918343794391
-0.20818333015489288 -0.15225846554380668 0.39031437489160514
-0.64913318593091485 0.024197407901140087 0.33178175595741421
-0.49513352958198514 0.022377943032589904 0.59719473362604802
0.74088127322958164 0.24901125648790834 -0.28695768335015837
1.0361634274888256 0.16359592301152134 0.057553237302246173
1.3257412746371502 -0.43298188358514311 0.070695944056831744
-0.50951712994937071 1.0607495944739735 -0.0575179988504399
-0.7607591421949379 -0.75073600601003077 0.28276786297094109
-0.85853681640623358 -0.24989910348731129 0.042237248983123046
0.66770941513729221 0.20464540647009355 -0.36284066453740238
-0.3769372186950416 0.85603546794941021 0.01728004712394117
-0.79444334269716421 -0.046393229480075737 -0.45586350680300092
-0.20012731727482463 0.43699621103069936 -0.26456619534016756
-0.12553742145198665 0.86209455576168059 0.050473364014941027
-0.74078238275647157 0.11980356428385269 -0.018563213505218057
1.2889551724346398 -0.28284565529941563 -0.11380786505116799
0.40293777850358253 0.012428330530996637 0.48577908017951965
0.094306524531630909 1.074250169754035 0.050727260960800574
0.91422282823905965 -0.11274532248028005 0.46469761889672567
1.0819395881033098 -0.05668986871358242 0.20472483919743845
-0.40480865319436071 0.97631953672444793 -0.15893129291400956
0.88551897785354239 -0.1170616809207921 0.47283076291220116
-0.49111886661177151 1.1308847200798555 -0.34883332584701543
0.2159958070289531 0.49989368817885599 0.15692826664810039
0.62010303650828291 0.16193135006978365 -0.43019786239560409
-0.17262914090201004 0.31328657368129431 -0.59840521066739849
-0.55144911625657655 -0.19972669479396266 -0.58735202736003866
-0.66417375766864772 1.4680960775961793 -0.40393082602873609
-0.088119450983760478 0.37874658254934018 0.20079455045830624
-0.081503171153897908 -0.47296890934700569 -0.33976370172996817
-0.64068488218467023 0.081008321909951622 -0.58904352663808013
-0.45598367623511099 0.15854566488787272 -0.56985939579793898
-0.78263869546386622 -0.27664730779059654 0.20537530348771468
-0.56443425526682789 1.3996041766865204 -0.50643932631740263
-0.38023676008805812 0.9219611837707109 -0.087260696143147909
0.41487523441880714 0.54964733599025561 -0.13747730469463701
-0.44906439146025895 0.352792908237477 -0.2685891640366741
1.0238568752748018 0.19131153564983519 0.14390366741716482
0.6361345638427518 -0.8106515837289856 0.14421845426664753
-0.62290793575229664 0.28063772397018533 -0.14813042325152923
-0.92188238319295412 -0.093591444660414636 -0.24373038316337828
1.0930353829856581 -0.11388020803821006 0.12326379321620093
0.12567895950326316 -0.72918118502250784 0.20126494108451459
-0.84364268205014226 -0.24042872643900529 0.13628020268022209
0.54878281023255115 -0.70543519545221467 0.42789451979645488
-0.62533561464243903 -0.53967613267716363 0.16667195319419859
0.23093561090758902 0.52370087054715697 0.13201566706268844
0.66648835734137746 -0.16434517907936086 0.58888673593644991
-0.79578504095969971 0.13671234573011409 0.44051419338774556
-0.16689188393028084 0.48845696455618609 -0.028661333762174723
-0.9131821874355559 -0.063120836456169713 -0.090836569740859546
-0.93643428957564556 -0.11073594142212072 -0.12779402286203997
-0.22331632431936085 -0.10019799518022854 0.41963085376313203
-0.51019463901852902 1.1881945344029157 -0.17593297416574114
0.19657413926739642 -0.38595577271347425 0.60036620066366519
-0.50463135371693846 0.13291434235181146 -0.58269887267902853
0.9616480091076608 -0.21882668265847355 -0.27556349819029069
0.45258728376831747 -0.0014442236627256987 0.52029580345864002
0.55047856317790278 0.26607613641245192 -0.37433019911465903
0.90518086037010481 0.28656752483982162 0.35474264851997706
-0.58652010347447781 -0.24056863303560663 -0.61428099381445167
-0.76150714145957477 0.12959554886766511 -0.18055964430918456
-0.57730286151752352 1.1533073288618492 -0.29996010221367464
0.028144948553325784 0.2518820003618566 0.31748094383792658
0.20964404784781665 0.37541112858283432 -0.42944451088687818
-0.5551034850171277 1.0811623759176885 -0.45717848699154695
-0.91481508143380874 -0.13810664795548899 -0.15021554348660085
-0.67400404301061168 -0.32337324990177613 -0.69591649642644837
-0.7266868690173528 -0.071293865014848606 0.2880434093906834
-0.6431363861845566 0.5968643034947394 0.38150421025506542
0.15577016205304586 -0.54457627079305915 -0.21787848333146539
-0.19567235035320635 0.082464654473739338 -0.69292442259816267
-0.42541238082256588 0.97025415445897778 -0.014898797061883406
-0.032948418887822344 -0.21122145840367454 0.41290352824256915
-0.38239937573901323 0.7975005980866201 -0.11781494498112655
-0.69048454240592216 0.14370295625390644 -0.53146147656462916
-0.71601540695326427 0.0048769324625218685 0.56960616005680265
0.27403203599166226 -0.39935465942007431 -0.51785205294379189
0.78128562181558581 0.49489171538952165 0.13731121783360559
-0.33567128384395628 -0.73980748887060799 0.31628515345828734
0.38832808762756515 0.2343259910639218 0.44973259420604017
1.0905765237147735 -0.68456429555886888 0.056584444728941523
0.88107782115938593 -0.18710561001915338 -0.3820731648544704
-0.25365578389414273 0.18364044398024187 -0.53302413324568521
-0.78783660770123931 0.15783257527845992 0.49438373871525543
-0.78534905628427409 0.14926641511920732 0.39241024891590914
-0.87842772563720628 -0.68269794227004854 0.068947321398868028
-0.23858789457887677 -0.43197382232759041 -0.40702551554188693
-0.60191047917582263 0.25041129920055827 -0.31992731998051815
-0.031255068127072162 0.32990678633081066 -0.61877074019929912
-0.68388111828673848 -0.32366533124126107 0.0786079283778085
-0.28886522329603093 -0.71047460237830806 0.34165304351847492
0.26052319515906569 0.22536445952865286 0.41250376640895359
-0.082300901639627791 -0.34643099094391455 -0.77633677969739334
-0.055916505729720303 0.3742824935346068 -0.47232026175211383
-0.51222964225542833 -0.34209960238922077 -0.7650078806435382
0.38695468377774461 -0.40894390364595234 -0.69690975532541211
-0.56460145816481022 0.25081293428249041 -0.41264222631778869
-0.27626637276103427 -0.2810991350964967 -0.94252795367928821
0.3691641513440187 0.42296229336485147 -0.25461319123002479
-0.35224013390552017 0.78578561545411862 -0.004986092960111016
-0.033795396118440797 0.35467233276996979 -0.57771865423252877
0.59516072533929165 0.15040274196660269 0.45230875297689022
-0.89116585993149799 -0.42662118661937065 -0.5681664725870661
-0.10155256621726408 -0.45369357442563307 0.25333652085975567
-0.44254040075217688 1.0822769971972541 -0.13261902464046357
-0.92098931695578468 -0.05684331359894769 -0.21320313832094837
0.43833101394929719 -0.87414415554812386 0.31144761579224545
-0.11325031123620183 -0.12413591662409182 0.42047580958064434
0.029454804254670709 1.1556550321219423 0.093586498022151021
0.43998211884805316 0.33203342315526996 -0.34481809629255833
0.64198312698543214 0.57207452948905468 0.12288452383181224
-0.39834416886444979 0.16509897405743465 0.65210270579872809
-0.21963869728565674 0.11407539103425715 -0.62892309892277332
0.56671486935577065 -0.68153257470769657 0.45100099439355756
-0.33532956160778649 0.72445914513362542 0.28314897065437072
-0.52757563858114032 0.57917019726676866 0.0050412085377925242
-0.49074779526242357 0.23040892810021504 -0.5296539697374788
1.0468099678188454 0.095499050499502261 0.24504979087370721
-0.40958722639764555 0.047824417341856523 0.39732109194654053
1.1133328670054872 -0.58176369788278182 -0.19756675803220944
0.9798137020890002 -0.21378850943394176 -0.25159061788314308
0.46965297558089708 0.47197334403825897 -0.18835267030852801
-0.057624033599051397 -0.298561100887341 0.35784147982007819
-0.74242057313739351 0.016562722877116756 -0.52828051538610843
0.80887318178230938 -0.33861245572706383 -0.41767993715577656
1.0793675196479704 -0.21829592924511995 0.17763249936585085
-0.067585138656943849 1.1567641538224551 0.038611303474593503
0.2566022669850952 -0.062697791522489096 -0.73402087740073274
-0.20725471232261955 -0.64615129653357295 0.33434721671465939
-0.24262839110668574 -0.84266863630020072 0.36233524226832592
-0.70854435368796176 -0.47153647727209214 -0.17281629418814567
-0.2302414341664604 0.6093271969210986 0.50741340204605456
0.01598664118318309 -0.19650658476257318 0.47966162504167797
1.2820888239091182 -0.37333833940042921 0.16402833448117055
-0.23146862667540255 0.31524692133334997 -0.44691936700277812
-0.66653365790404662 0.43587830231024682 0.55541802186678535
0.75030112012930139 -0.71800047037651271 0.30135520477197786
-0.17669906192057538 0.6931164488524395 0.2709621887996459
1.2016369500779551 -0.38979126784537571 0.20625534788097716
-0.47629869029020383 0.61674377529774604 0.50513153723293835
-0.74160355496410024 -0.035536503312635415 0.2493403832609343
-0.037778030850915974 -0.86830358545917774 0.38385316599124863
-0.082578891074974556 0.84742990230865456 0.062895597050079272
0.63551479425576274 0.5594531458125378 0.016332064088826911
0.36538762631356714 0.0097052709311776404 0.48428420935858396
-0.71337177296902965 -0.76438934269667624 0.30406043221048107
0.043388926501270193 1.2204072297685908 0.078795808426089853
-0.82076347773277258 0.087290102255927357 0.50771880286541782
0.96890522476811747 -0.70275257248719325 -0.062391592659482575
-0.70199140188066511 0.42438769453121583 0.31286863855656177
-0.44576506877413807 1.0075328493214062 -0.030393765721736604
-0.43380017771777601 -0.27533834128989698 -0.93011248733104501
-0.88195124143919423 -0.00094141256987823746 -0.10340802976275326
-0.88608345447514247 -0.0016883383393456169 -0.2952072663509735
-0.49846215291457252 0.028201265399237219 0.40769090138627162
-0.2797583514356915 -0.48243832106981671 0.25047587400926663
-0.68455200140928796 0.098105823423999899 0.67244465405402354
1.3042912091378054 -0.49159510003527257 -0.037589562683912364
-0.46431015787926433 -0.24505706219442575 -0.84838609980035151
-0.54780376200037684 1.1326123686283875 -0.47346790476986411
-0.68912587145963689 0.47036771135093997 0.26719121022775649
-0.88415502120403477 -0.014888298976186869 -0.30757600682719932
-0.51646415774191035 0.36116833734040177 0.72160053467829444
-0.015384780312842263 0.9131439063972826 0.19207687448948688
-0.5063564849439316 -0.26290595954494156 -0.73967296674359029
0.64309854884524509 -0.51887719144380784 -0.44739506348290026
0.059886613995296718 1.288047549867521 0.062589667126011023
-0.37065265400793673 0.76309075464347853 0.11141570321941406
-0.74120408761256062 0.063408762400490745 0.64390483258182851
0.39330317333165149 0.31910870453181428 0.41785840624687631
0.51460445468425309 0.24802819848836438 -0.41588984421509512
0.41174013623876032 0.59225316730135902 -0.060351022478731448
-0.040194237115042587 0.82669570052784491 0.16448903013057109
-0.11536397630687095 0.30791729525868905 -0.65166697197896717
-0.18740301218722025 1.0265529486878198 0.11619149180663622
-0.88427171958260187 -0.20911334160195419 0.045500445567801723
-0.38638916333022966 0.70452973425300658 -0.089702209688909129
0.59828773691211712 0.5420517433811417 -0.056153119361654902
-0.81021402236636453 -0.55138000656480202 -0.10306984220823129
0.28418095780410246 0.56662036802211735 -0.10765142942269482
0.45005531037001006 -0.59481299515370123 0.56368997299621393
0.37594202027166451 -0.68828090390861774 0.5164251878765177
0.85975886437131288 -0.15279367818386272 -0.39229691054827198
-0.6157857610295967 0.24731906395679254 -0.26116154134467684
0.10750158274791491 1.0514952621050413 0.11112347042250109
0.38958016099480741 0.30134031718492732 -0.44601873492681599
-0.23393442352891464 -0.1200140081637472 -0.57541327009878318
-0.48421454456815427 0.92216605528164797 -0.31450301709210482
0.45544623964360947 -0.31415286994504371 0.63322505210547209
-0.64765680810791759 -0.27990430631859359 -0.30816551984044205
-0.14396897987201221 1.0168288680717761 0.055387174682516679
-0.83414992273111177 -0.067352821046182176 -0.40929172820238813
-0.25641838726368554 0.46930323308354854 -0.13728828906845711
0.53912676437411533 0.020589624898800271 0.50115175751220875
-0.37551774806166077 0.34251128517659585 -0.40769933115678625
0.88126671864354378 -0.14619839432752377 -0.37172775750811382
-0.38312591721131689 -0.53693137559135418 -0.29750304978082032
0.81587209910277347 -0.21489796397384742 0.5194000004499385
-0.31024324085982569 0.10040041373900822 0.38149502174303829
1.0537638659996789 -0.65350223768115179 0.215112727715153
-0.77178636843658244 -0.26386841009683765 -0.16273608197815062
1.2373244252973812 -0.24205589042893261 0.10107404707743342
-0.26435761050542117 -0.14088256896796331 -0.74626233573752065
0.58611027382856629 -0.80854690095487147 0.14144390798474449
0.4013388386214205 -0.088857052557788654 -0.6982150076660093
-0.93281282776602636 -0.51160539504695002 -0.31987878519006763
0.51909379407192102 0.61473976855001267 0.079450209839442287
0.76794043874315698 -0.356036038355937 0.51787129228240969
0.44247485783273222 0.47863424301185747 0.32271620573832688
-0.42715696463253477 -0.19402998498484372 -0.8032426785404152
0.2212328738545154 -0.4542459613428359 0.57079048377092789
0.22075745325810342 -0.16524376746788694 -0.76704154335188823
-0.073168197950097963 1.061087328786021 0.036719056136597386
0.22100156202313226 0.08898524756622736 -0.68818941962579205
-0.13978600292358548 -0.83542644739679195 0.32700008103025446
0.4324281850807547 -0.88163347533024583 0.34946882093669251
0.085107356511523874 0.47150307203731373 0.07666037557656305
-0.081557546949789478 -0.83814458273824277 0.32396864140501958
0.84829025583916706 -0.58332231494007236 -0.31032776879878088
-0.077150617846092728 0.83148797922752993 0.21387045916666714
-0.48120450504261569 -0.064478894175545726 -0.57070741235420885
0.10620880641805025 -0.53835220188195676 -0.22495551164629632
-0.63041445513059813 0.62136984758465541 0.29334477864288361
-0.41937549951165204 0.2424506640497488 -0.5202773594230008
0.30006904303256893 0.18455561238682294 0.44287071877185424
-0.15605148017240508 0.49909872215019563 -0.066822112597815092
0.40106524059292303 -0.35727108121262013 0.64429981028396266
0.6124981484507005 -0.41894695748259658 0.57354615618625082
-0.22852751261422768 0.19438436438630316 -0.61162790255493893
0.1548147427962073 -0.037123598847839605 -0.77152817575903776
-0.70686039712859883 -0.17850002433612899 0.34987977910086376
0.38627818456389224 0.2019491149355121 0.45910736363070404
-0.40765726682238823 -0.54280279085675676 0.2286734241801959
0.9712585370153225 -0.68538882348530383 -0.11413418265093681
0.21669086853183822 -0.31760181810760968 0.62244036257793622
0.70170038274381552 0.4684936458589537 0.32509324730434569
-0.3659027746345655 -0.58307211618309196 0.2330885150808843
0.67425812501218552 -0.37692221687916322 0.56227458866941415
0.76589993761261344 0.50535839454322329 0.10931894663159208
-0.45895008626822664 0.91171161357363573 -0.27659953761859402
0.94838468020774636 0.31217018527161616 0.24847288306114923
-0.25025235660685635 -0.31515129098335393 -0.65361407180895159
-0.079931277680659163 0.48641234475028378 -0.10574010248328472
-0.10239960716746142 0.48029509689694222 -0.13727161008009517
-0.72685532722825164 0.2940705760142085 0.35494567074127753
-0.2135908442535932 0.768557842014848 0.073185949411463461
0.58683416430548752 -0.34155687270894941 0.60285698407388877
0.5111351972210264 -0.16003509122706877 -0.66772585089690906
0.03496997943849995 -0.16094953177535062 0.47758573941408622
-0.28494331504444759 0.76439852646498319 0.22700113311519021
-0.29055201318826723 -0.76444437123620668 0.37398662358855383
0.53510206212775313 -0.056129555179559421 -0.61550906525235982
0.26525095435261525 -0.32037066182802881 0.6371572078249903
-0.5292968112265114 1.1830205078719711 -0.45497190706738788
-0.48706480515153755 0.64260040853165667 0.00096935903627411169
0.53211527335381303 -0.74281654390250096 -0.0059829432251636699
1.1953867212655835 -0.32087276227940609 0.1755017660474146
-0.66429960444230973 -0.28462560460006703 -0.32973956787760916
-0.12088519629592795 0.44912799010618387 0.21034947020001957
0.1648780581017979 0.37952332907540554 -0.45301448315063142
0.080964035472657014 -0.72612863328248212 0.19989506018831937
0.34634512896042802 0.34970277165898173 -0.38656735120843155
-0.45725328491565559 -0.36576676018671012 -0.70289062993588092
-0.54990314871452262 -0.68826839876020507 0.29112209240929132
-0.8329690633226271 -0.73132351898166192 0.17327350297941657
0.4547685734060774 -0.33349527271342227 -0.68562872955590215
0.21026682648176181 -0.60064089624328365 -0.11467903874100441
-0.27278455800068591 0.70522099726963272 0.36678609005624885
-0.094636856920261608 -0.28599055242108701 0.3263510300054453
-0.21084573926676678 0.67633143078323932 0.39596104363208007
0.67681942879871304 0.067304655433500421 0.51593988542239944
0.29480524020822285 -0.65373895144416094 -0.034863191038793095
0.95686383192621915 -0.29064106254103506 -0.30069765243032975
0.45410591126365213 -0.73351012512823011 0.11823503580415663
-0.70575762008902521 0.21457478686780124 -0.067667855857248133
0.37669531422699759 -0.73436538143946739 0.17595061768240763
-0.84256974201535673 0.062189494631563494 -0.29769629065011216
-0.76104272237289128 -0.026539767490088986 0.22234558935373483
-0.58674212759017874 -0.13214813432986686 0.41036258538856052
-0.47903093236605548 -0.53007376612873947 0.20055979785603564
-0.15036626732001804 0.7352218948670235 0.069160173568236005
-0.57787711580215417 0.17267117539677743 -0.55359223613636155
-0.5970506552122713 0.60723267880464049 0.42090935403394725
-0.75136601080990117 -0.51651222013541609 -0.34445236053217598
-0.21972917088564833 0.23692653479441142 -0.60691443262166944
0.55338391466496706 -0.32180944770770792 -0.66037953040752106
-0.62981198836591579 -0.72428528259155267 0.13811997367220102
-0.66382310656129084 -0.26507310493185782 -0.62134610794741207
-0.40582980988821543 -0.43063014870480887 0.24661515817185059
-0.51500392041987531 0.58429374458382599 0.53543715124723901
-0.27669874743945921 0.62971242334006816 0.52014868673729742
-0.17767252725938024 0.46066496880006558 -0.21093113232697211
-0.70320161660018621 0.33383447323561433 0.050914349017979116
0.5699311902044385 0.59925107598704697 0.1165478452073332
-0.35264090925599678 -0.34783385628593561 -0.58188676279277707
-0.67589060768857689 -0.0049243847613860622 0.50304420472355837
0.14848973586812589 -0.0013164433216163018 -0.7569393803302995
-0.23096826704563805 -0.84342671729906904 0.42094487108345791
0.33595766358288454 -0.86830952146647056 0.31492443644759582
-0.5447117557238258 0.24578979126685402 -0.4603945373380347
-0.67433172122197471 0.5577249877130106 0.40805777493098228
-0.19593260318281772 0.26907100224714803 -0.51129592703918969
-0.30042140888488317 -0.31768271855036989 -0.65157981010885169
0.089631948415613866 -0.4075826848279786 0.54421894520270553
-0.73669667781357973 0.10848096605079553 0.086747787981479835
-0.69490762103465942 -0.25481270701668135 -0.55316914309733178
-0.26657239882728317 -0.11158513029324049 -0.53442381072065193
-0.55845554407408982 0.099833339184450268 0.72495578588968745
0.99967490986668295 -0.43421081674611195 0.27158319748170834
0.21520207797950369 -0.48540099762568506 -0.34116868581610071
-0.62757523265664061 -0.12066471663850373 0.3921844705033023
-0.090434750649678958 0.87038342206744956 0.054235718893630991
-0.4725326457677812 0.70495251437113571 -0.087585661446282936
0.76757280485912671 0.24543036306843874 -0.26772768286786952
-0.58530912521428524 0.12006738140974102 -0.58615159131977312
-0.52747229899782466 1.0269142288481565 -0.42192768945792536
0.43558721461562389 -0.58262378057101294 -0.26263918787283902
-0.11311040739861761 -0.23061147414921129 0.356851360378583
-0.44631377400362487 0.77081987749779779 -0.18299277584258619
-0.64845540691602099 -0.22636143635298184 -0.30884883017723797
-0.037966067698611057 -0.34145293202962018 -0.6094207654017717
-0.43455355673761598 -0.02959136075462513 -0.56812173079125161
-0.33676280786627771 -0.72137521673845417 0.10326436645967829
-0.70728948021689253 0.46465256990594839 0.42091044863921301
-0.56783091741584113 -0.33788061891190729 0.23570625723523747
1.3167461991222931 -0.44642311057952311 0.10412728426825688
0.061018574506619398 0.17947132513219088 0.3585708905247823
0.10658645812038911 1.0333357770462841 0.082394575360641722
1.0410579610055979 -0.6832892746285788 -0.052558343938402752
-0.070061251123347865 1.2739269908567474 0.15439778637523954
-0.66643126148409537 -0.20607095008446941 0.36783162296922134
0.78730942667418269 -0.27620109527142467 0.53603484005983137
-0.040144421193349378 1.2866478595828466 0.18285112274684998
0.16083226939764519 0.41349916003384413 0.21490784081588832
0.27842385524875357 -0.53854541688378044 -0.28968590238750236
1.0062386340880913 0.081840912961578305 -0.1274480607478006
-0.95264342750718267 -0.37436281194102405 -0.54961039012539503
0.21097845847844537 -0.66334594359652876 0.025641099647492879
-0.69734043522844147 -0.22710063216318771 0.33822258260789095
0.34465079352386674 0.13121612576522398 -0.61757858150235867
0.62402068346309147 -0.38320939336976412 0.58645112166917812
0.52434589675335042 -0.68755203892872352 0.48601875731099031
0.27556057928184235 0.55809336243226892 -0.12796979308616238
1.3237866879435412 -0.4402947530896888 -0.025217006043097845
-0.52056462459041686 -0.33966667217361246 0.24157348164984066
0.52583615583865995 -0.42295604522120922 0.60792062240339828
0.40573446553834752 0.079265683038767187 -0.60609116995201262
-0.41964863562314392 0.066061546218305026 0.56562276777793175
-0.42722469666006513 -0.24414943709655915 -0.91642808667259545
-0.60161979378207286 -0.09330291915790305 0.39416576917459301
-0.19501675178452721 0.84345474287743283 0.067027575268816753
-0.8225562553839243 -0.37076202868906194 -0.6954305376460127
-0.75336504930706216 -0.025505524777520348 -0.49065273652442798
-0.54496413975715363 0.12838666406801666 -0.58806675473497139
1.2863964630715359 -0.42323009700537606 0.16467357975472477
-0.79644503931702648 -0.12349307652475404 0.23738397854134555
-0.51596719442128292 0.87238600054357074 -0.29360708951965109
0.1022669635045742 1.0098641787936149 0.11578532442257793
0.3892068499761655 -0.48119067142099098 -0.41888260950644984
0.099198629828209428 0.49649344925325184 0.046901064852815602
-0.4534251433159634 1.1101131004997289 -0.1586554900919617
0.88316743960246513 0.23375240169685979 0.39713972387989471
-0.37152204760283691 -0.44820146873314015 0.26521229324202777
0.33474609494634283 0.16528404021722282 -0.60214960510089766
-0.71724565282239894 -0.57492140158481775 0.19325337202098647
0.19314717031076842 0.38584708517531274 -0.34018969032137703
-0.061957568441613903 -0.21894482033415963 -0.84777432478297332
0.058456430088161628 0.27826102190376212 0.29618365715510464
1.152194800751946 -0.18634995949431057 0.0061199460526549093
-0.14003761073227425 0.92657815881602756 0.24578538302296651
-0.66923848584635037 0.012765719276018196 0.39480055083604015
-0.59055368349902448 -0.38755031568156495 -0.19414071277007097
0.20685423752586596 0.54837860880025879 0.06696672379362309
1.0874879218077946 -0.069206769783482197 0.13048530261214297
-0.79202769394009165 -0.15498851767328267 0.25777242122220601
1.2800559075400668 -0.30013595701537649 -0.14411905122823496
0.27313955002671925 0.35667701432428345 0.34584545221546131
0.72629514597748712 0.26740833922253054 -0.27516932069440136
-0.098191062447941208 -0.63657959629392047 0.37191662917109991
0.6878042537277631 -0.79997262121090396 0.15625326237256312
-0.70234858908314002 0.42157207612494108 0.41385957988523758
0.10818754051767096 -0.49448782798458341 -0.31182516391002923
-0.94612074065630236 -0.40365142920916058 -0.38059963706232103
-0.22362408253062427 0.40325089263409342 -0.3305737969919027
0.43234054829423979 -0.41860194615016294 -0.68365056881373154
-0.65507261661519556 0.56876326993371074 0.2302427865720591
-0.79324849847218559 -0.47366556805073012 -0.2167630623487132
-0.25388435597744158 -0.077326358313130755 0.43670688814102387
0.87638035710188633 -0.31037576138600698 -0.35879285016812879
0.98313998954693294 0.25768174687546314 0.24287823043940165
0.70066106031003905 -0.51402053708044204 -0.38861488268522715
0.81974426489219698 0.45161473169840505 0.236724647799885
0.10926714704385765 1.2442319431072071 -0.0034782356857261942
1.0980424056412355 -0.18291593324091374 0.062303114541560081
-0.10104139588684213 0.38051423564294823 0.21521670002056675
0.37570734670974698 -0.8493475817691345 0.26663812677901466
0.26839787279102906 -0.46557815263405933 -0.38460088318972485
-0.45558001521583702 0.2399605837482898 -0.53110052919218764
0.41476117383772709 -0.50623890126547999 -0.42485019698900117
-0.23303255580678078 0.5401173957186608 -0.020133338640402676
0.62677245941803572 -0.024615509933018753 0.54392972669998085
-0.24200339743045501 -0.42975157845052903 0.28905427556060975
0.23933836638219053 -0.59800343436821346 -0.13757204333161568
0.93872681774514799 -0.48634001930642773 0.33517754178203735
-0.14652196420706054 -0.81735631267324371 0.28845391703132184
0.52161062080246989 -0.20500874689782272 0.63655640384908396
-0.79720234351479569 0.18763423906174559 0.25560150882526655
-0.2322543207825398 0.20248933233735181 -0.55811540862965925
0.36243708306026495 -0.72982678119328215 0.45241230541930266
0.47057559607312133 0.59276864627899983 -0.034592342120695924
-0.62610887975805518 -0.28788414956635716 0.32075643319815988
-0.82990419703352403 -0.55908760427036897 0.033197146496011951
-0.73424403288583029 -0.22760128465183704 -0.2654593420604785
0.12107311660327777 0.48154508396980161 -0.25961919734313355
-0.76213091520879361 -0.50991853073974058 -0.11933364931414631
-0.57039013829441665 0.14774398747411818 -0.5767130399784276
-0.66058492349416387 -0.47487923701107732 -0.059517472736743682
0.50246641535495606 -0.54390235703661516 0.57981484851156961
-0.19403624118715929 -0.5268057075071797 -0.22447514474830846
0.71056236069282697 0.31645337700628434 -0.23331974877640918
-0.45853970177460834 -0.060234886393990064 0.42874590273767632
-0.48609300426893487 0.33260399738000285 -0.24764572237806684
