# XYZ point cloud file
-0.19209321939832069 0.58476023243212116 0.086789879147338989
0.52038158430159431 -0.7136664512359342 0.44242713974832293
-0.005470363436987577 -0.49796539823588554 0.38054588394171074
1.0091104797622525 0.22196078509770298 0.22984528423694373
0.61768736353946174 -0.40448468648877078 -0.60705966247371201
0.0060936021062452939 -0.34292799027634685 0.46072737449958034
0.64595391111032818 -0.40694065543949942 0.56686399715398339
0.54767300335458491 0.087572350246405445 -0.54030822467136241
-0.61503018207024795 0.060986618248553781 0.68566693781391619
0.1638828696815719 0.13923492929018613 0.42294357247664272
-0.6817022137504849 -0.7228931820613016 0.12808062309536225
0.62942490626690772 0.13943021326444127 0.46404464108946297
0.34232212363064196 0.36401406283190885 0.38417360419783941
-0.7774883604166013 0.19641250982462249 0.042434907218166298
0.84287679630654644 0.40722471143674749 -0.028455839580289549
0.74171029923769749 0.52526143196315311 0.076991801828438872
0.22040783299877525 -0.6752040251198731 0.48127590920591234
0.96854258480736277 -0.099362987911483458 -0.26731714311215715
-0.09920382906454403 -0.52560017522022251 0.2644872624079983
1.0793642988723469 -0.047383053611753358 0.0043189922391516505
-0.60083877825417953 1.3198784198129729 -0.45722522323027681
0.9947621493675618 -0.71072121589290405 0.080486129289685446
0.29016279966918179 0.44388301540754538 0.29301727409912498
1.1638824569037238 -0.45384128824275566 -0.26052441709402974
-0.18698990127839354 0.65773372971772304 0.095190230654394678
1.2103954345478658 -0.37951181860041394 -0.24395683439166252
-0.28483540178986705 0.65363826249245216 0.48710168556072286
-0.56940305700718519 -0.19415899970168071 0.42506289337583603
0.38233237489811656 0.61659809313605396 0.096440127336411857
-0.27081013388026787 -0.1443980507843573 -0.54226583356528701
-0.33474279951091679 -0.13428928840354892 0.42645164817876935
0.1267862820703855 -0.86222552728326041 0.34733371170219962
0.99073327046279491 0.27015367782210564 0.12300109824694448
0.647116896614778 -0.74628249027621807 -3.8898021515618164e-05
-0.40867739196254566 0.96496179473585053 -0.056209711428265002
-0.071499132376634661 -0.22971192744453844 0.3633506340669358
-0.66102955801153185 -0.25574567259798214 0.34961166223370854
-0.56688279885828075 0.2835267762416977 -0.26694849573857893
-0.55182915588676273 1.2439094504154833 -0.4845922320873759
0.20684372902327908 0.14256983595397851 0.43430410629356075
1.2528295080144904 -0.57320752580541434 -0.008468181114476378
-0.013648164601349481 0.92295063469213012 0.075606035868572313
-0.4170494151781925 0.016573537286123961 -0.57204882676665869
0.86312106738613315 -0.32211523269826098 0.4439600960933604
0.97937836578081372 0.034590923736986155 -0.18848317008623008
-0.37058751045443139 -0.53838490724836285 -0.24999601491997073
-0.34598764318535019 -0.38897084445297181 0.29287960874275315
-0.74755778958957009 -0.23824070611383474 0.29679849573237849
-0.35362775809954061 0.75061171590898901 0.061206099835681135
-0.54234460196275325 0.4345809151022999 -0.12300574777805384
0.7854240906553398 0.11627173167171603 -0.35666932585651301
-0.7909373427527836 -0.76270629962823011 0.25104586773565218
-0.25145681418465377 0.12391633479937514 -0.55814103348295574
1.3291546792540496 -0.33488992172069043 0.092346542956441319
-0.43383440142052182 0.71848013094082919 0.26690297967301291
-0.21545976185680343 -0.75106858603095028 0.42019139773846148
-0.54943075479413328 1.2335693676404949 -0.21606451174692889
-0.16353028239937339 0.63881006780127381 0.19559253946480498
-0.0065047625063903089 -0.61218616111494439 0.37253995602737755
-0.44709797008660646 0.69930701136486562 -0.11139542188376567
-0.47026611875390872 -0.28044149008430397 0.38309444613563526
-0.36279652302920479 -0.77153738589424825 0.20931459907808747
-0.56846329863385869 1.0992378399304079 -0.34284393446486872
0.39833961611543706 -0.59421505478348058 0.56163809406733911
-0.6240477040494371 1.3724301687430203 -0.31772834535329297
-0.38378715488959292 0.022577285070923731 0.40837107922579663
0.38531241821672696 -0.41644462715515529 -0.50874229139939209
0.37173404886590461 -0.16124850692692994 -0.72264637748371718
0.057617995500339969 1.4390662157468794 -0.014473869466575306
-0.096938045453798971 0.75892684604090355 0.17761803100742757
0.35468992877954564 0.2613802728193233 -0.50125080808532863
0.011895958729701062 -0.40921633252569983 -0.46865732012959493
-0.5184234548582819 0.70310968634541016 0.085789845322807451
-0.73607425480147926 -0.2062544751449015 -0.30930886585312556
-0.75103009748766347 -0.30673712989780466 0.16141320461006514
0.18717525965038262 0.071182476517355806 -0.72620691962310946
1.0417286293075891 -0.080076722266501338 -0.13319045557679621
1.2957945560532995 -0.51865112289806115 0.098013955280574716
0.86646759960911712 -0.47291134178342709 0.38625628468171891
0.042906167387371519 -0.33738413763536279 -0.80558663070969438
0.085410973325453679 -0.86212379781367421 0.4304585429834209
0.29922353762755999 0.32666535859217399 0.38917538393165518
-0.23943930349344694 -0.47518422321782267 0.23877606646411348
-0.046767959225871167 0.4913659305767018 -0.073984610439246423
-0.0057614753073297331 1.3291672930444691 0.16952013566545815
-0.54984014218091948 0.66716811997551861 0.12216505642045028
0.093796472882478152 -0.26119362366967763 -0.7914574520452089
0.54755138557474914 0.54307264150089551 0.28581699530913873
0.063326858203180555 -0.43657411525677953 0.51222783813279649
-0.47223608520308841 1.1071822936545275 -0.12680328452791811
0.82018687273950075 -0.16624225922531236 0.52562236635322968
-0.27354984756600625 -0.15658978999205556 -0.8740385788078292
-0.87949661632010023 0.019611252049117914 -0.33847362754859578
-0.0022650517609412377 0.37710620837286579 -0.53480822332031308
0.073407156202882545 0.37984627904667884 -0.50243268585421308
-0.16754543617637468 0.91280963543678129 0.052764212308551293
-0.1493089730295801 0.83111052819933273 0.054609044137251865
-0.74123501523991131 -0.0012872671135666664 -0.52603731403761156
0.048544874502323476 0.49618992437998283 0.0069749920126023074
0.16012823328129605 0.49892323777454034 0.12164937981967761
0.84279546380461345 -0.19913078619711497 0.5072039283321319
1.0411250255690716 0.061252868744166411 0.28655960698486604
0.76954934428180033 -0.60262308919817642 0.37258815258712696
-0.27686593767978807 0.66781228509168089 0.058031296964633626
-0.052722382631019298 -0.33027599393938489 0.34656153377332405
0.98948457922657229 0.2716133427450424 0.080945543175925061
-0.62167131900116535 0.49760534843938659 0.095543319943129312
0.14573317713679906 -0.55516155307710857 0.52455079578258634
0.22188015084446205 -0.50315126116210607 -0.30089304754930346
-0.39144454428091013 0.60640198744049278 -0.050126764451782768
1.0986228285547568 -0.67102716630919002 0.11040034262356513
-0.32696892874188355 0.37175996540693396 0.52481381649400638
0.30013983116300796 -0.87461169487601731 0.37278173065725917
0.53176959038727745 -0.014921816008239736 0.54740312180442885
-0.10500687412301019 -0.51180690696363984 -0.25652727727846225
0.83740295885759675 -0.032775545269818455 0.5100546014213424
-0.34758751275573224 -0.079414975616062547 -0.54681216936671251
-0.26895636144928209 -0.27021047955218519 0.36185429661617075
0.7904372890280591 -0.70492636173896051 -0.12407970019046735
0.90570850063882624 0.18017120040927395 -0.21633197231923948
0.025441368803549511 -0.83631585457094904 0.30731919265130869
-0.58858094845490949 0.57354337593458371 0.12744239998728502
0.28167367808177879 -0.45305313123114022 0.59678775456377864
0.46436799469876405 0.23801923908537514 -0.46546580704876206
0.22857362230036238 -0.70019601094047013 0.12027734236207384
0.61911150566752382 -0.18921475076542166 -0.62709557190669662
0.18481325471765314 0.42647145994161045 -0.30046399251967115
0.28775372744192323 0.10876337641046288 0.46432989006428049
-0.07022063764773348 0.30901085011809276 -0.65551318254423996
0.038996114729044337 0.42988570271377335 -0.31987427122432222
-0.17534878440393609 0.79606414999588881 0.060842000215708278
0.54357854639496239 -0.46384593590950207 -0.59824828467861424
-0.82895584747918927 -0.073219984149633044 0.18297876373386684
-0.55528943458840674 -0.28308844260143856 0.35353576342811788
-0.21756667847959665 0.136669478404088 -0.65640446505011552
0.0056640437735334809 -0.26959141617928861 0.50547108818693609
-0.40909557405802616 0.72023342813806901 -0.10995478639765535
-0.74086792110170763 0.09458044530220569 0.19095551786210063
-0.6860714237260358 0.49448794808015334 0.47678349379824003
-0.2972966644119136 0.45328636177414589 -0.13950597741032719
0.62839605922572894 0.53476251900973115 -0.059948879972682473
-0.38108475830292399 -0.4816509563492139 0.25301602794056377
0.13946897478190107 0.18242721223880012 0.38707892845808589
-0.48157150903200091 -0.097531402031303879 0.42503779377461737
-0.72203685030447695 0.076661982086813227 0.24184270196699803
-0.55895484126560113 0.49210983055715712 0.62621009724910393
0.7812914409623517 -0.70426061248827487 0.28440352303060157
-0.84174171148910359 -0.56851230139865472 -0.20108028671240322
-0.025125880757388343 -0.44895970380855899 0.35080080861811747
0.0080322007428590275 1.4715554052610538 0.095796819222406918
0.67115433008990977 -0.25506069834866751 -0.58632842012878927
0.35521155201343835 -0.11110505337771974 -0.71436126953611867
-0.41646222701531693 1.0050112089727574 -0.11340167984202751
-0.18652478292328734 0.13814550867948669 0.36175629581621338
0.03719811240586815 -0.86502346026355625 0.44289795926621689
-0.12621529660030636 0.24598329416935497 -0.71656259220516227
-0.46489527724479751 0.67890451503912963 -0.088168479555407964
0.33821644055561917 0.31919110786624738 -0.45836710436832573
-0.1996363976739976 0.73691208979249745 0.27031997375183003
0.34662888298532218 0.18432047200916632 0.46197257409337378
0.7165094569983198 0.20420663175293643 0.44964806821560432
0.094243898905787507 -0.81950026818176036 0.4395951081738142
-0.81194413863167725 -0.27216245788135984 -0.10245629009088025
-0.51897162975235367 -0.46294028332859227 0.14211654125156534
-0.89933343109299424 -0.20099328278886203 -0.12760725195107703
1.0516046392571501 -0.68962271485140769 0.044731908930487438
-0.38743755609713509 0.84154418781446294 -0.10703617894057593
0.42869012039831789 0.27936557732552203 0.44880899435944666
0.0030459963855126448 1.1092272596004467 0.10882281182152206
0.85032391209350244 -0.71800656215058445 -0.071198836589939779
0.15326214615924671 0.40229626097222804 -0.32438326794536587
-0.85301559048653786 0.0077938597949995603 -0.43746816066586514
0.34182538218373387 0.39778448494759577 0.35805086303567107
-0.13464517225967063 0.45085690652196947 0.25152813439596122
-0.41373917489181145 0.47331088256903114 -0.13610316391444055
1.2016782807439825 -0.60813425070069471 0.11397227710291016
-0.10761899883974994 0.43404303839597563 0.15057181333430375
-0.70296007683474748 0.49626889882402542 0.3057928554283304
-0.36352174590347575 -0.27937373069262267 0.37451486260231126
0.47475235970142265 -0.45383300919325881 0.59486432444705506
-0.16856741162127636 1.0579378200843028 0.077555993030283904
-0.91232836609553702 -0.041749562227324698 -0.19887717011779463
1.1565687498776707 -0.4800034702609125 -0.25205410967116071
-0.67756986015538057 -0.31693807549705949 0.0072695197086342644
1.1055828590869925 -0.65644861537998844 0.14922549005434349
-0.40269468181350854 0.33352802009940014 -0.41106525615623335
-0.49701322690565042 1.1552039541005887 -0.15836227293975083
0.879629930850509 0.4119902091996191 0.22172278883528024
-0.043878514224106532 0.4802845827599036 -0.20384638918809553
0.72395765773655985 -0.078535607622464781 -0.49868444401151779
0.8213166349468779 -0.59417735102991265 0.33854645438252651
0.71137937178296495 0.29943676462044622 -0.25649607142379183
0.41488891747071238 -0.74102252910462507 0.43215184419304031
-0.63729053334459063 -0.41856986533229384 -0.58833620899968309
-0.5029754675433552 0.70250516077067804 -0.0034203691483238041
0.58545026518746912 -0.7459274614209408 0.0066509366941693016
0.49417968977638932 -0.73096602458726079 -0.0074017589154141555
-0.75816527017944801 -0.16955696176996105 0.30657840803640063
-0.033862237167119356 0.8483845010477401 0.15339124911323868
-0.14285173263337309 -0.50527661489740627 0.21680988630102105
0.81518807158371975 0.47219009662893568 0.059713112080794994
-0.083542311374326023 0.36564073164629007 -0.45726627097511963
-0.31191106305873917 0.7046747383815779 0.075660519573436641
-0.42686957782934293 0.31984054235910031 -0.41160731127491013
-0.47687933218188905 -0.71401079885288987 0.09483681198178881
1.1816767531175119 -0.55530220305340816 -0.15715244940807124
0.86958844502912158 -0.66531857686338824 -0.19982908511397804
0.13505296769388397 -0.5863240789487022 0.49014665505337907
0.051798000180701159 1.4002650245157151 -0.036789933747664982
-0.1178790444703377 0.39886825648445801 0.26217238055955416
0.80757412208239643 0.23294954876174812 -0.26006662733284835
0.10567791142060311 -0.27230370559237932 0.61124202260020044
0.35618144782614353 0.37318774316469733 -0.31880884892956984
0.27090519097855797 -0.15406144626394294 0.6332509316219006
-0.19548914302742293 0.54609600027432759 0.04858449839902329
1.0136797609615802 -0.28054140343440165 -0.29361571716174617
1.0604965529719972 0.069551444540916774 0.24235301094688524
-0.57885043037807216 1.4393634093686822 -0.41280250423292486
-0.64803542556115623 -0.22819075221646715 -0.54519697782097765
-0.55273428149477744 0.0037861400359504816 0.39107229763643103
0.18491320472061928 0.56098431748986699 0.035192930704086828
0.71848050569661959 0.36116042219916666 -0.20480743516013325
0.59038973530117778 0.18956063670956699 0.45778298826229558
0.27263266714926565 0.42710920918724082 -0.27936665900211144
-0.51563763376262295 0.41730591196165001 -0.15250935263670454
1.0068746164638851 -0.14560746216995879 -0.20169865664922007
-0.75939445345742207 -0.29002625406111743 -0.46376752237129404
-0.072301558646567718 -0.31755081298931559 0.31959181176398477
1.0899943167039052 -0.59061533674966893 0.23729804621832981
-0.23441350416775159 -0.30135002677503253 -0.6908253379501772
-0.6184296464747302 -0.33363742665678409 0.051980041820770713
0.33124514503203922 0.43300427081309478 0.32607532591429367
0.64472328312986105 0.57542448623330433 0.050899629137865235
-0.83397099394848317 0.062016140791440758 -0.23891484499827917
-0.70881975537636865 0.41413757136835849 0.45227607153417904
-0.71822912725368959 -0.24402289087433413 -0.2471772809703274
0.7395231127892129 -0.22105785999031557 0.55678581643099589
-0.010531875058855333 1.4034726736308385 0.022959978433967188
-0.17218599520361827 0.24284824821695869 -0.69687955319961503
1.0416993689655363 -0.041434161387971888 0.30469330171444625
0.43720815086506515 0.61403460667272469 0.13070021171504295
0.024255487063917197 0.22258536830575723 -0.70039312294282086
-0.36103805980676223 0.53205245636253817 0.61062660478035857
0.31531161734847268 0.36968003632516033 -0.36702922731520138
-0.61808864179807876 0.23951201562861074 -0.36639127753663614
1.2525519945501662 -0.42115473261385461 0.20115246477545368
-0.64962500336186835 -0.30006971823696066 -0.12026548193716016
0.82356497591908617 0.098626025023541411 0.47400937965880596
-0.94091928186547291 -0.13456178437633823 -0.079532944293883107
0.099040890050018801 -0.48349876618775495 0.51795501208855044
0.14877405854365555 0.047931547005730914 0.45040915479297738
0.92037223172278859 -0.29760375549854085 0.41586371024878166
-0.71868361388570079 -0.24786602695685861 0.31360202773081458
-0.60856747689998514 1.2165262587418411 -0.32716124466780772
0.78972879905426219 -0.4396192716505718 0.43516163778572192
0.83700624789789746 -0.48104343929247007 0.40950761347592446
-0.30418491572840761 -0.69446999322770842 0.070595721037269396
0.99842317636854139 -0.031656346252273752 0.3882803129521557
-0.68516708128717985 0.016521810402027465 0.60157629540241253
-0.8027608397008239 -0.63820496363260515 0.19240460346492372
-0.80502020842848654 -0.28535795449746298 0.13275636289960799
0.73343569652445717 -0.56851491835337864 -0.33566881356529987
-0.45969256962845556 -0.21933387784236438 -0.72114795818347588
0.48769339527401806 -0.5612344186339564 -0.37920342136565555
0.88791467776663768 -0.10103029660619681 -0.36552029069618086
-0.38994517030061182 -0.35222966543402767 -0.62552356060870451
-0.84844318382332495 -0.73058359031078224 0.19813765837581193
0.86316917986082942 0.43304240295128971 0.11776270688817636
-0.2149186470199369 0.90855482050099645 0.23047414478033204
0.61490872399761765 0.56400685578644205 -0.014612575027404984
0.13690746540754922 0.46911542204206486 0.14627212705271214
-0.3418192651733532 -0.78337493043101525 0.31118758534541091
0.037337594435709553 -0.30136509532843453 0.55946374206654426
0.80504404367578786 0.30103808385134412 -0.19429385410608233
-0.66817048318949768 -0.12609777591582072 0.368504575348375
-0.48348653908313788 0.67175698701384012 -0.043601986717131891
0.81117973224262208 -0.30269779457545831 0.51268899480940588
0.34480442945341022 0.28141483890590829 0.42855240407799033
-0.55847349552592696 -0.045914321056214104 -0.52678671732731153
-0.59217132460199773 -0.44774867011649727 0.014721136097224474
-0.76478797962825851 -0.44588557511995108 -0.23185467125359413
0.95898788710191862 -0.32198800337205125 0.36929564038590001
0.088646166096518528 0.48721164886391971 -0.24439607725813403
-0.20868988501577224 0.29036102992302487 0.44054320235145861
0.41922229651923748 -0.1742961041911322 -0.70129974767269698
-0.048212065177980934 0.17478390414799161 -0.75772449102983885
0.14202556557498158 0.51162147093695676 -0.19724493355014058
-0.64254836754883626 0.16012002797481523 -0.54744919599767827
-0.12195034181268459 0.41087926166043592 -0.35365291327189941
-0.38420884831000002 -0.00027310978024592397 -0.56512578893420007
0.75936926006246697 0.51106785080237682 0.060554113589601687
0.62271457813454445 0.55248164417680334 -0.03420374780472632
0.11748152385241549 0.14413791547694962 -0.70537503041910676
-0.90080071204263623 -0.14498260883267389 0.047265312574484145
0.7633053087072238 0.34623606469257312 -0.19113127479586142
-0.30592369132856012 0.72899697640492822 0.30545116972232816
-0.051829468797902879 -0.63853094334602112 0.37734224101918823
0.73652140268433663 0.13038279258606039 -0.37471294404485644
-0.01292824437097518 0.2429969721590054 0.32516115581410077
-0.6325858831651332 0.024259642494667041 0.63615365016885139
0.59410004587693765 -0.28458843828833635 0.60453851597849961
-0.89409902725511536 -0.53661900508761806 -0.26581692422191749
-0.5911245843703743 1.4366578233626917 -0.4993044401270148
-0.74819802413765291 0.25523993355966035 0.38993759304046838
-0.48273830756838049 0.6407286208902091 0.4653769741853353
-0.62949875185891602 -0.62964244965371619 0.26857321524662503
-0.50549613721179265 -0.77038913791933372 0.28782630762521366
0.33245853343624016 -0.39140766339211208 -0.54852414966140195
0.029851429058475515 1.2145686457813021 0.009923996460906942
0.50566680988188384 0.39766048468679249 0.39935997022604652
-0.40717420563352219 0.81595008255023704 -0.1538089783891253
-0.47919084214807373 -0.44838480769250244 -0.51026104228781632
0.16497366173432898 0.28891320449873131 -0.58858051501763342
0.063678939488354014 -0.20712902930764585 -0.78142905224979975
-0.28928107024711158 0.46216968478262821 -0.11544846575861542
1.0087192957158921 0.17761588128850123 -0.048397845254290112
-0.41547836182487885 0.36810157071963967 -0.32153909262972413
-0.19499246734358694 0.52952767003474543 0.030588263430374157
-0.46345146612301141 0.1484180986698862 0.71251928333682546
0.47005680522851151 0.25112126429289128 0.4647907536065321
-0.68540176427610822 0.18434215267947143 -0.44723066860534089
-0.55865818148639557 1.2626204726890982 -0.2459531468183945
-0.045644518933649972 0.82001293776689332 0.12936965948715923
0.48527287147384274 -0.28589175649478243 -0.68012523317730822
-0.95420578494517716 -0.38285927419842503 -0.46118607319397131
0.52380199627751645 -0.453728526623493 0.59445056255374962
0.93525649894223861 0.066057141218508225 0.41801948650619558
-0.21397351747999538 0.74087121145784263 0.067698836429980952
-0.58532604790834541 -0.18928207721815024 0.4172554721359355
0.59329466323937996 -0.76167421311239913 0.045314353374243777
-0.48321380344391324 -0.47086410130569673 -0.46340111265348871
-0.73104167502946338 0.28522211332847058 0.38526656258410485
0.20381077724142749 -0.20076938456727883 0.62804004128758451
0.18745356834098958 0.036839713178845095 -0.74254424264913521
0.63214419134812883 -0.23741295096542014 0.59609127826791253
-0.42049009440740764 0.85286649374785395 0.068461125361934716
-0.16348860940951804 -0.50887239163024922 -0.26142868066818703
0.46999592196568235 0.59102010952507134 0.19351908153613445
-0.50395933755982947 1.1802134861337095 -0.18946616470181085
-0.63186356803734489 0.0070152460690335273 0.38327047201952358
-0.22557258110044909 0.56698559797347359 0.024202300560514714
-0.84562374866858614 -0.59830053515994297 0.087353414090500847
0.8269120142605354 0.30394964153521742 -0.17585971097478761
0.16962477281476573 -0.31458274612200543 0.62428547639395326
-0.1462451240047152 0.50293644995354592 0.18853123328070132
0.74785524926258573 0.52625261903661757 0.1384667790151215
0.24945488596151472 0.34241738700461477 0.34869116394903177
0.95908914172543502 0.31514287800169971 0.20826070055206994
0.62469442283319521 0.49340853428556036 -0.11309147133841138
-0.79073220834666491 0.10801744170268884 -0.20069257901549334
0.32357878189967543 0.20259714403462839 -0.58274958402980714
1.0134104982405914 -0.30790532573968854 0.29829325092805697
-0.26894472569002992 0.25285807906974933 0.50224992512715472
0.47414988425064192 -0.19173510828886561 0.638504252446222
0.67506065164343676 -0.70338713185741142 -0.054423272877210743
0.85616479363363995 -0.2112528849819835 -0.40988458673913764
-0.0067080477289198706 -0.55044368830180801 -0.18560450068413151
0.63969867947099857 0.10237873635982643 -0.47024359549698758
0.75497394092484482 0.20371768261968121 0.44523711048072134
-0.45614836462320624 0.31241457799927796 -0.41185839707777927
-0.69434926389691587 0.51201030424258376 0.44708854839537837
-0.0020917573345986401 0.15709518218759855 -0.75758719124078711
-0.82515091288566844 0.083653976318051951 -0.34798874977823391
0.025618485795089685 1.319901444222888 -0.015327593773746456
0.077169004496566995 0.43243349933460073 -0.31577320376630502
0.93889986486160693 -0.28992221587415901 -0.31116412772190361
0.067270049816815211 0.38807169080293985 -0.36902439819022814
-0.26242367405361178 -0.35913504364365473 -0.56035458493746937
0.099932266501735548 -0.17585768423220077 0.56474141468955652
0.6961755145025319 -0.65841059655543144 -0.16795840940941917
0.41848745558526196 -0.72184899385528101 0.4750564669971562
0.22380495148067986 -0.18912150042301185 -0.75915566703675441
-0.84138719095616965 -0.023877945534367718 0.11138222369417063
-0.40856316558473688 0.12872950688537513 0.65215669011834976
-0.54801258423131516 -0.32436393424871951 0.28976867109950954
-0.52685227793655243 -0.37161989015239916 0.098369786096051057
0.64374208895253049 0.51562256803072981 -0.071815604016005979
-0.18740911182311826 0.13208299777642665 -0.70620325511589355
-0.75079102126989183 -0.45489575934742804 -0.50247411546426979
1.1952629504135417 -0.57447271256554888 -0.11219787631654035
-0.12216804040555261 1.1894591832258634 0.07995079228687417
-0.74571862738527139 -0.71444103890251665 0.284966137012309
-0.51116743812401544 0.33651783015564113 -0.20434851019877762
0.84710629672699922 0.44670731160688609 0.085546976610518383
0.22903340777953102 -0.37053231941100939 -0.56840522250681302
0.77306495177835677 0.43316787736633078 0.34478508566589788
0.042566164870265266 0.93944386661991219 0.14229368269831949
0.77002818960973463 0.31316314863499395 0.4157275276126231
-0.2340855231389391 0.81344862845887489 0.25115409717302611
-0.79794818066423567 0.16229437259728188 0.13227289052513444
-0.66683544417449858 -0.5399351994689372 -0.30336947377461265
-0.045528702989778742 -0.22997426371814003 0.4000176369536188
-0.89809937302626763 -0.42850290726483498 -0.32994847439646358
-0.46143604290872714 0.4261560605452071 -0.16197862457502263
0.79852914227500604 0.22277561994604017 0.43223094654443295
0.47022978436321178 0.30760263680820299 0.44444151597817116
1.1896527911076213 -0.63007989685104659 0.06981378084598866
0.17886763569227027 -0.37338485124952719 -0.63575924551989316
-0.1653987961923965 -0.093589001934465163 -0.74504376393013638
0.79524241456853817 -0.73767366782246602 0.16325846806413757
-0.25971443829359286 0.63050367334515844 0.51926424659053161
0.90355831677700926 -0.27625922412033366 0.44252513486563472
-0.057212287866071243 0.2279736376333375 -0.72553779531651885
-0.3192173875146388 0.59211954217980511 0.57182869428100824
-0.74585903267842313 0.13082461358984304 -0.46992911239924884
0.34018671945846796 0.5676104342797772 -0.13735987503771438
-0.68144326974383918 0.28989665451049951 0.67723287309381808
-0.092866170860691197 0.74785596465534188 0.14727327953314653
0.027666443915164304 -0.049235962920223232 -0.80438961533094899
-0.76417582891309255 0.24951144932444783 0.075528970818136254
-0.76978408851147517 -0.086326526741336035 0.26063997024793639
-0.53279804539915332 1.2864487868526699 -0.39013489984921434
0.72462949866771442 0.52899889080026796 0.046803923786910215
-0.86403073977740763 -0.51513842774896723 -0.35408790450320538
-0.30188091213994805 0.28094934243779135 0.51893556042177791
-0.39703270866618601 0.85650616876793861 -0.1342900780252532
0.24066732991372897 0.35321015928038546 -0.46780550268120924
-0.90425209634136761 -0.17277859405584936 0.070405795356436707
-0.26143328703072194 0.23568778961702344 -0.50686972099905614
0.16547231608193919 -0.0066081806524405677 0.46113045839640876
0.43999042902472218 -0.52669994351000393 -0.42074209303854315
-0.86428109530779007 -0.31914537909003565 -0.47424146102622911
1.0716947443241367 -0.14173639059630377 -0.10659515463917527
-0.84873506085269823 -0.47013900011108961 -0.46971792740654295
-0.69820069370857862 -0.31658494590785569 0.20678721705059261
-0.93419387334193582 -0.078404193516613235 -0.21775949835372696
-0.15530451568360826 0.67687110934636474 0.21781745135587405
-0.20583708173206405 0.56123873327612805 0.046170109694582878
-0.39229629037882413 -0.17840275829512506 0.43091815837396952
-0.42847887225858217 0.64334293151888577 -0.060928428647669869
0.8132773081849245 0.12058310358023933 0.4627084920805562
1.1230010552988716 -0.16642121090736212 -0.023657441412498065
-0.75233200020424418 0.14250002921001451 -0.19390669018906284
-0.15506730399698865 0.34677929606869684 -0.4163191733194912
-0.90445057823358554 -0.09186243481967403 0.068157224015572518
0.11078140695384968 0.50540221772396943 -0.20076729294596393
-0.3290443836478455 -0.3037516750366307 -0.88062268164691992
-0.60919454200451406 1.2789147735575708 -0.39013934943766582
-0.15407632851158687 0.0125167766163603 0.42367319626014666
0.32390887103043869 0.58755406909951768 0.11586884029903974
0.38311820270400732 0.29176052043752321 0.43338362562529431
0.56717152642687552 -0.53183789214096688 0.54416939631656847
-0.12913292226578021 0.464985186335448 -0.22451212306865456
-0.79721801309477769 -0.43482960518759289 -0.55599303521437549
-0.69451046418429419 -0.41639351019284843 -0.23140302207816335
-0.10142103394284378 0.36888915609396311 -0.39848558882911833
-0.54671604019763009 1.3368377421235085 -0.37792387616901835
-0.26764549349764588 0.38606966846107366 -0.3618940025184979
0.86462590514882431 -0.1525649436651379 0.49020640980400043
-0.26752079320142819 -0.67500016390068274 0.33041122602443379
-0.52521128602773759 0.83898187204400598 -0.1477236306485393
-0.31272873121941858 -0.26269639521994248 -0.96058734888830177
0.96511084441698691 0.29719904463291436 0.24586235534754808
-0.51106300766301027 1.2236185608713113 -0.2855708135604007
0.64160777257725665 -0.55543188882234262 -0.40222303920569813
0.61199548427119077 0.48346308246321362 0.35201033988437413
0.55360230482163741 -0.12086899864888172 -0.65252353272595687
0.17528474743032985 0.48701812305766901 0.15520233349268747
-0.10012677627307225 -0.19899963690956463 0.37092546463009501
1.1342484664036516 -0.58480043789246505 -0.1670014250449042
-0.11292825871497308 0.060334015380709663 -0.77060468125764248
0.46000365134344529 0.12378581141730499 0.48122621720561021
1.2226839013829096 -0.254210084564161 -0.18671572766132435
0.48225313073910131 -0.41748892671884696 0.60760690285948682
-0.39584604690898456 0.44074522285392631 -0.15632416899239762
0.10000695390621413 -0.65739022526319568 0.43302387212537685
0.72902173268501524 0.45151447807917849 0.34110672703146994
0.26193233874891841 -0.10766348053943367 0.59716732308336673
-0.074079438590837071 1.2219173208109066 0.20125344407858131
-0.54046560020676637 0.97785134651706329 -0.22255329825079503
-0.56981059121690558 -0.72469768354920405 0.12786435859102363
-0.13718150682180869 0.18891839767581464 0.3337779287257136
-0.27681220339543194 -0.19346123959119857 0.41212246614324222
-0.23688690106105181 0.17327248572340112 0.39017064760033282
-0.86597181125803402 0.041258601325123101 -0.33318167835780343
1.3223588588405446 -0.41026616329073101 -0.067735163468092552
-0.1372726017545276 0.33020135076403151 0.32896589063111115
-0.046252845217027251 0.46715132799603071 0.073946509884525946
1.040214503078202 -0.036761013360919227 -0.12281407761898494
0.37406073836062464 -0.19712460001345752 -0.71783432504267797
1.0654497915227303 -0.56537922996536683 0.23945313735624912
-0.73543650998431043 -0.0026837215797746615 0.23246924870544722
1.0142337631613898 -0.39797305226637208 -0.34290762910377726
-0.44265806570669691 -0.71499312796689263 0.27319703119331845
1.0238237849152441 0.18407125560680429 0.22508137679948714
0.020148928005775224 0.43426593366612298 0.13782781066184333
0.74644845749201072 0.52307319532029428 0.17951302242708361
1.2916696846794369 -0.44759525028064323 0.15338925474942208
0.45346933437471276 0.078943940102223178 -0.60038601078504861
-0.60166212785733209 1.1583349889994368 -0.28706566501285824
-0.28502536965768954 0.042878479886685222 -0.54405759960132927
-0.088803540343642615 0.48138633151026405 -0.17758039247116211
-0.12947820179870922 -0.29283691678753104 0.32655924449829937
0.32967227999501014 -0.68497642721081031 0.52967960959053639
-0.18860641480825474 -0.30251058551022603 -0.68599293069763634
0.47968988027411524 -0.48939674702558694 0.59052711943117009
0.18514692594142562 0.0088152257844589486 0.45419197747037976
-0.27932751689096719 0.35942799629479788 -0.39506695969705496
-0.44310469400087082 0.30179003709854879 -0.43998237639284921
-0.19559867316092827 -0.02501949742868052 0.42367793761384609
-0.90597001644849584 -0.40936943341946186 -0.62324215719244136
0.8871458521898069 -0.063918566980710093 -0.35165743105552871
0.80739008671694035 0.43654269098673659 0.31346784768178898
0.51143621647077941 0.25737299765151134 0.46380133551832181
-0.20795823674661951 0.069495765704945159 -0.6682241470030349
0.014960865582854026 1.0512230314688618 0.12354592037997443
-0.38154235086365862 -0.37449050823384095 0.27398506691973823
-0.62127887967859408 1.4004150892715128 -0.45263377099730495
-0.61649231389497372 0.036105352322999038 0.66462616775131611
-0.39783540080235602 0.95354328884239747 -0.091489986903327158
0.7740417716070892 0.434137039928709 -0.087209996098322973
-0.21114248240735434 -0.054800041508901484 -0.64102524115750581
-0.66366709048371419 -0.31650764905342288 -0.014950877977621513
-0.76600292838327577 0.26126347425219132 0.13578328642766005
-0.28044094469897252 0.42734992880373918 0.49147167696562122
-0.51874916694727791 1.233178671931789 -0.36276862930373921
-0.80408380197817575 0.033779228560802343 0.54776409504274293
-0.32605338546534629 0.60807484780292687 0.55773319273842059
-0.1976075859858179 -0.34333820809062904 -0.59801480687268116
-0.482526964874886 0.26252494383986263 -0.4866963359855917
0.26824928293444039 -0.68625608814728489 0.49308786843880392
1.1068324759496828 -0.43105042294515511 -0.30639526354500279
-0.778571354783405 0.23226162749524473 0.12000399995949561
-0.020855852518205382 0.19350339671649086 0.33811046500538938
-0.62789584511966534 1.161008418426533 -0.21015938200297704
0.14106795762334962 -0.0046163574369087286 0.46026400810133261
-0.63489512888724287 -0.16877792513642215 -0.44751371341056034
-0.8444987092134193 -0.26495780031760691 0.084449240685632254
-0.85489125256433163 -0.12953135412062122 0.16878671545274548
-0.23177845243739226 0.57226253822575501 0.48797285258944445
-0.40760974650219794 -0.18506776969965208 -0.69527356884359737
0.026575530081649076 0.19243359931872731 -0.72436894417662345
-0.48275102691103233 0.78131277542271382 0.11266859894308431
0.83171501573012829 -0.044084811346697166 -0.39294749448579069
0.020745596558388049 0.9481133156795144 0.085418978135384765
1.3034228939031842 -0.45493402211145956 -0.082979484043617407
0.33847525039724263 -0.1997010806177886 0.64493865326460131
0.67618549527537908 0.50032805360569121 0.31534289304742491
0.4281613841959328 0.09249598667358308 0.48461557724140525
-0.83404498810597771 -0.1371278168682967 0.19952372162927773
-0.68800253555804858 0.5558243425030156 0.27061357956087079
1.0083565609978107 0.055573207529078558 -0.12977722836355715
-0.51608487401882364 1.198525732155141 -0.37212235279595796
-0.71085291004317464 -0.31936841054371939 0.17156633645035996
0.95141853385755615 0.048541474157801787 -0.21981830208368527
0.070959053551693949 0.51620811285575108 -0.013772093643042466
-0.58878722337286926 0.25357847764988928 -0.37463782912615595
-0.40799756198170312 0.76339134074617154 0.15044483869007047
0.62118042904067983 0.57900387218690408 0.027063659391908468
-0.47047538776200859 -0.73940007717015332 0.14934130637614773
-0.2460092680247955 0.67278276643106316 0.44122409318941924
-0.22935506852621063 -0.31357500955355838 -0.85546360296852952
-0.21831232348942536 0.66570901454510401 0.42834528399493332
1.0271389458674385 0.053285721624964817 0.31876851912920168
-0.73069328421216351 -0.20234587782020039 0.33178402849818034
0.21432414447833836 0.1826536555654 0.4222906792286909
-0.20352006724864674 -0.56974634977513228 -0.16207170535848012
-0.48425239890333932 0.81147024310327487 -0.22240192449107141
0.94788600172445547 0.15008930597699388 0.37650302975525052
-0.46800111608216061 -0.49937134143460205 -0.33098029302191145
0.90290193426360865 0.24227353389310596 0.38388587385324346
-0.80027609815944389 0.088052620435576129 -0.40865485931169465
-0.63090291246385444 -0.57380163904511161 0.20969938921911963
0.51146716318656416 -0.26782227078780874 0.64156714693826555
-0.39876775426743388 -0.33258918942689569 -0.79542854235310234
0.65575037373144929 -0.11656793167090654 -0.59549828963519558
0.56949251130958656 0.53349565509128527 -0.1010961098832229
-0.037822852606622825 1.1461870389023332 0.030690428239887713
-0.067866522783730177 0.14231579654649174 0.36563482500913858
-0.42387121007672635 0.37642111575581433 -0.23227045245361314
-0.4057860442848481 0.3633808361890648 -0.34874918286332679
0.69817305990294676 -0.72576474437677563 0.34003174987159274
-0.14697462773516057 -0.58054380897710112 -0.11478923704340138
-0.22946120055408437 0.93735797142449984 0.19959642076116557
0.68533766253278294 0.055513972060410817 -0.47048040957614146
-0.80087400977728251 0.14261518731669037 0.17259896949240475
0.27443363403079457 0.58381421549943213 0.083421068232470724
1.3379240009741058 -0.40320318424215978 0.028883688867072072
-0.4504519720921446 0.33036956103711906 0.70343830191163492
-0.59222087529516276 1.2547005638498125 -0.44631079148682085
0.30573833697585445 -0.73515821498475387 0.3951738345422845
0.00773737038443819 1.0807050878310946 0.11530777302996509
-0.69529361306907655 -0.20829560580066031 -0.31730109641909743
0.4225401796911652 0.43921547628555657 0.36029662743680441
0.36371710379098976 -0.69862286853235922 -0.003997896026683781
0.37525343875844214 -0.67853527542371583 -0.11302706378867861
0.0031729529819428393 0.37856258656066311 -0.38200398626178311
-0.073927115359465709 0.35772027737551049 -0.4184224742513043
0.49688638582616224 0.62531649142988688 0.095864375038434507
-0.85052568048639066 -0.15148058039452453 -0.33036268399229107
-0.84867775469606987 -0.67096076463493715 0.017976045030154972
0.76791293819470352 -0.22722934875180811 0.55164236622218943
0.74249007338868855 -0.58624127007900473 -0.32222143437079809
-0.84925196056793906 0.042658259511786471 -0.15055233887050704
-0.79800359635742046 0.1862922878091014 0.14319653109904965
0.93234328711188985 -0.45067104135645203 -0.35106892661290323
-0.80290351202720767 -0.26866364532775683 -0.12956151217539047
-0.70716019470370095 0.026312951141577261 0.23752252129324156
0.23211467160156418 -0.2760832679887899 -0.75207090559032153
0.29689580402580662 0.30237067492530784 -0.49853107899793581
0.060618949691820731 0.96325957403735185 0.11540474698189941
-0.60657701833166133 1.3928608323278144 -0.34201588735159327
0.22163414286045457 0.21992623937648242 -0.6122321615281896
0.32974052122741071 0.59926576543657184 -0.06634504292709098
0.4231472736347765 0.62909726372791119 0.029194426565875259
-0.66513576270364749 -0.0605258602464573 0.33675521690206428
0.79543685543150566 0.30953236622535635 0.40615636834830882
0.69770781788891023 -0.43122406109249634 0.52443800356119419
0.73576023919021138 -0.78175273908928311 0.27958254954846284
0.058312122315789819 -0.43769955172255198 -0.4162636815843237
0.31085850924556702 0.60391259091544558 -0.040502164424723236
0.024013625862864471 -0.10570336469608918 -0.80123619883362673
0.31968520966027519 -0.62234149393698113 -0.2111106925648509
-0.4585003120142821 -0.41075591340383183 0.1970878262883628
-0.15271951273986528 -0.62687936918552267 -0.010561364467423145
-0.16385113341682983 0.50671856950598293 0.28199840614089811
-0.37198583763253434 0.80221621496439077 0.03688512110331521
0.66850986924483502 0.47557578437578268 -0.11037734804151886
0.79271350368983173 -0.54386437550147049 0.41221274316002243
0.6541227559497329 0.31142113238360986 -0.28714280169401585
-0.0518589494311796 -0.47260015956431156 -0.33765774533648862
0.26281782096693607 0.31720180575998524 0.37562739637001707
-0.30497433874372099 0.0040191556650432886 0.41953182633472819
0.80599911827602977 0.478037624569983 0.20448381920642034
-0.15268473536040431 0.50512640777929929 -0.075681563762019621
-0.081243013499380984 -0.07359625371987194 -0.78625324484701775
-0.21412233618767884 -0.45827995976826597 -0.35871470086027157
0.9696855857603921 0.30468700636988977 0.12748008395884786
0.12370991492746351 -0.21947998789735315 -0.76133389811723196
-0.57121498762771183 -0.41759468559473412 0.023482031718358262
0.23921109327460022 0.59409230980637451 0.019368284410467868
0.12637398556286566 -0.36151356736788542 -0.65045892384473569
0.44243238462217938 -0.45232927137994516 -0.60350361885175485
1.1651728780648825 -0.64088283805167079 0.010380970082578753
0.96483373197189359 -0.12640682313647592 0.42574815841619484
-0.34616309902078024 0.51341595004198848 0.60664669498855717
-0.58794726706529732 0.61140822684052853 0.14369148281289498
1.0267559760411227 -0.3696405761770214 0.24136024568080119
-0.44357006046487696 0.72925873765853122 0.21992806891387273
0.9162975835694952 -0.50821493521802152 0.34459315151999814
-0.72813581282330675 0.15046183100246149 -0.45057834921271456
0.083134802599250698 -0.26908603539507908 0.59803918939656187
-0.56992256834696675 1.0872406187636248 -0.39611638731117105
-0.60299187136376708 0.48797129035965831 0.032573520642506168
-0.85818498522449693 -0.092389642830298463 -0.37337932303454902
0.093790300438474986 0.45061666276248036 0.13372309901243121
-0.63620625652963125 -0.091030136662384256 0.37372377839123072
-0.15471238814006066 0.71734981482485827 0.2369715421151789
-0.78236856657675402 0.23978486194933249 0.19550089822778832
-0.89982509176976289 -0.18159162367287451 -0.18227280555670408
-0.14671784100395596 -0.66657206771359112 0.082535612394469993
-0.33467112179416758 0.13814152983704461 0.48285816060860753
0.43177344615738794 -0.68625180538237418 0.52146541638829358
-0.44235952021943986 0.8814854570215197 -0.23039804318981558
0.83454256221314271 0.27652294974155617 0.40352174510031258
-0.52452851455319538 0.38614721682136877 -0.16888626161647516
-0.84360260333237802 -0.387369163655709 -0.66430510291710854
0.17704354279817286 0.1929801534862684 0.4034487238923895
-0.069799465479184822 1.0736544302694695 0.21154961818311868
1.1075996699773383 -0.46694870631019669 0.23574304546873992
0.24033417719665406 0.54719761052977156 -0.17059057946951703
-0.2301906356348552 -0.041322813154637768 -0.58627862841480882
-0.61014572670992628 -0.24342907742302325 -0.60404484187130281
0.90818911626209575 0.077041796823234698 0.43900742293009576
-0.67883212623388767 0.00020189256079497075 0.45059863335037342
-0.64556145846996749 0.54119672137067287 0.19740416650043507
-0.55115576993945681 0.94030019721721791 -0.31738980407016137
-0.58258938698490126 0.1924565312251213 0.76568516148037513
1.1838327805093314 -0.47712010828051715 -0.23375802295471568
-0.48728528952822781 0.85104361251040894 -0.26232533851798168
-0.11785073088348388 1.0972630062024888 0.044024810860747943
0.33173912683198964 0.50382258205488473 0.25681118599239022
0.96165923646157925 0.26969024639736883 0.30300157820802343
-0.3561275600622999 -0.59988555123721987 -0.14776839128564076
-0.084952748017699725 0.49788164643892635 -0.020596384231587994
1.0870625963873604 -0.12760563836236463 -0.016718805083280025
-0.3680904301307355 0.78049751167749704 0.059084571263644817
0.55048917930113761 -0.25954214747392929 0.63254482398013523
-0.21000941674481355 -0.65842975544721138 0.064540787890416576
-0.43193093674827671 -0.49873475231799819 -0.4032981921442188
-0.56697240479525268 1.080803524060324 -0.10121553103925762
0.01083910812163013 -0.61684139975712182 -0.046865729095278835
-0.050959498495800837 1.3568695076034476 0.10070036998538016
0.25149991396652077 0.15219826205315917 -0.64581434974533747
0.92024706689703573 0.047731167401168527 0.44022433591851651
0.074214619511820831 0.32825809180517995 -0.57942160647778107
-0.47743595427694013 -0.30364567122644881 0.33826014610349264
-0.25824202199157176 0.33319167066253547 0.4864960951120777
0.028259747956692782 1.3892030854684485 -0.02619203226701905
0.5263564742476502 -0.1642905192546838 0.62805666093221313
-0.25793569085777557 0.2994539916522127 0.49008067829969215
-0.73021196015722967 0.31148297437139139 0.31307288559506047
-0.22525386253102536 0.036802835408801401 -0.60308637268479237
-0.095125939916048452 -0.33251476259964025 -0.62332399023610607
-0.50672757434863169 0.7533748421511991 -0.097434207200001954
0.55368957017130427 0.31394750374521513 0.43791287610246676
-0.0020357914017353762 1.0431989305465597 0.12956234924741414
-0.82003843775750351 -0.73120175452931035 0.22916868374853339
0.43462362557888151 -0.023867073824413072 -0.64867264693050575
-0.19938268777953744 0.41262476467698278 -0.3260162455817982
-0.41199408557619605 0.081354163125450407 0.5851480110196976
-0.31773001502255921 -0.67931503662116355 0.0054015035799726691
-0.62989878940819011 0.41886716434063331 -0.025007614468513073
0.12813560356179438 0.54342022872841877 -0.01059292067502797
-0.16295445094102395 0.8026493016811409 0.25263285992114243
0.97934474084608625 -0.051940988004784069 0.41698442923778201
0.053593492063388259 1.0744281525849226 0.10715259179756539
-0.40892572205210459 0.55575128876020774 0.60530460339295533
-0.72442502038470635 0.12652904839751911 0.6711275225636103
-0.15980799173777813 0.19135885521360921 -0.73211779815238143
-0.64436661405482243 0.3909088635989561 -0.054695847320248986
0.35824569182684318 0.50144247488674243 0.27545555214555673
0.63012555582316021 0.19637060241852 0.44623962183369081
-0.37883514993132145 0.36848615743878504 -0.35542722617192157
-0.16172621517758989 0.46149028214282889 -0.2283282839779279
-0.25429539608717122 -0.18809345409400371 0.40048277565115098
0.58178237471800298 0.1043615725118706 0.47145403882800618
-0.27489675616652143 0.28043862557736965 0.50376849416346048
0.71041026704967791 -0.04566569336838721 0.53811270255185306
-0.55003141812927325 1.3010277214936379 -0.30967531926787728
-0.15211983258094591 -0.486629014128244 -0.30410887988657764
-0.052522630939444447 0.04418612599166926 0.39360387250378182
-0.075344198321302833 1.0272048392817887 0.18442273959766325
-0.033656617016006918 1.2150552017921032 0.18865622617988162
0.49591760773891241 0.36517064453399806 -0.30880791490020565
-0.3943815808116361 -0.75955316868409972 0.26466171086923324
0.39319846874425746 -0.046763221265396317 -0.68273880677484877
-0.75553889898541937 0.083742029535270879 0.29776177170805113
1.1322970021399108 -0.27791599305234355 0.14550191832382176
-0.77957737882858669 -0.16311970609992282 -0.36367088693695004
0.98239515355540008 -0.64115234883688443 -0.18619465465980764
-0.60697377579207978 1.3172236324308588 -0.27575373833998795
-0.027637751273217315 0.021496460199874112 -0.79802628608644999
0.34177399000573327 0.61982575234325488 0.024199435527977528
1.0941815763631209 -0.12180484917014171 0.073938993091439892
1.1966793647575975 -0.50905941191336523 0.21785442593169552
0.59092673601292056 -0.35773778139613988 -0.64170976676851932
0.86039754505337152 -0.645993059736646 0.23748841599438147
-0.10464839569788062 0.15383227785600645 0.35986393176567633
0.16370356499521849 -0.21293282190081855 0.61872687489763312
-0.002945274025848342 0.35913416445613155 -0.56972254540213396
-0.48668091461573809 -0.020724790728611355 0.40869070276434505
0.99430555355008043 0.12846415880938838 0.33288535706459388
-0.092922280375639002 1.1096030563085078 0.038411671933522351
-0.77945369648324203 0.081158580050750037 0.014632565621768817
-0.91944776856609456 -0.12231732195612166 -0.20027151550755004
0.25601438728764131 0.1776097936013479 -0.63092960677612719
-0.61821218131418088 -0.3523549299753671 -0.72708369748151769
-0.41009895797235812 0.19759529640741885 0.65935833155313639
0.98446193947222649 -0.079740412684563916 0.40967202163815752
-0.58665650964265292 1.4757229762903088 -0.47563183628603589
-0.73018579243312476 0.14189757533869499 -0.0025119151082187846
-0.61816244847005053 0.16433430661162074 -0.55582300391425254
-0.75752732113468313 -0.28111909554512526 0.24083707312096458
0.72751261103584819 -0.5524034778130209 0.46550491685731377
-0.74311458078595072 -0.3093664936776705 0.061045184568382746
-0.46578301169235797 0.41172287299886057 -0.17215287050465031
0.26326240799214778 -0.60496215750389226 -0.1622346877213334
0.53999795675436313 -0.071116041912952829 0.59631719504563407
1.0227425648980628 -0.012453194665598214 0.34563645285375744
-0.082328226516876463 -0.35409880059438209 -0.57838822934645229
0.071785566721549454 1.3177237142622928 0.036876970723027314
-0.75763765305179498 -0.15691817475068953 -0.38189535208399084
-0.45944123604831039 -0.50059125821290007 0.20636639164302822
-0.17945764379233037 0.30067219318738125 -0.51358199918568859
-0.69522793774678981 0.39546678189956569 0.54538766779122294
0.34492165230190941 0.31546360574778781 0.41377256648388294
-0.36306129306843693 0.7028864115086082 -0.042827846469183944
0.19198708487972566 0.19519442474502618 -0.64364232033354429
1.3086957083601658 -0.39197959398813065 -0.107955266775555
-0.25991035572259197 0.42343744186945931 -0.27662498430748927
0.80759822766222233 0.3645798167561411 -0.14167016694572446
-0.45512880803527922 0.042057212925915285 0.40395877107819389
0.37686068933765549 -0.69469112272613176 0.50418564308477654
0.96509591647282877 0.30509284396954583 0.05035233535616572
0.36924185024242784 -0.51125762441458311 -0.3810625632552459
1.3133734630568503 -0.40086243331274968 0.13463771287999143
1.0662581104741957 0.093746813561943115 0.15617901660408989
-0.65381534101469707 0.47043125910924577 0.55931539139491349
0.15204318124337141 0.53721222116122569 -0.15801215620421685
-0.70244298683620365 0.057151162794135749 0.65326640252742574
