# XYZ point cloud file
61.777866363525391 -108.48674774169922 -167.1436767578125
60.298896789550781 -108.30441284179688 -167.14366149902344
59.802532196044922 -108.24362945556641 -167.14366149902344
59.640449523925781 -108.30441284179688 -167.14366149902344
57.827201843261719 -108.85143280029297 -167.14366149902344
55.912647247314453 -110.28987121582031 -167.14366149902344
55.912647247314453 -112.26521301269531 -167.14366149902344
56.783817291259766 -114.24056243896484 -167.14366149902344
57.827201843261719 -115.68913269042969 -167.14366149902344
58.283050537109375 -116.22602081298828 -167.14366149902344
59.802536010742188 -117.56317138671875 -167.14366149902344
60.795272827148438 -118.20135498046875 -167.14366149902344
61.777816772460938 -118.75850677490234 -164.61116027832031
63.763290405273438 -119.75123596191406 -164.61117553710938
65.738624572753906 -119.77149200439453 -164.61117553710938
67.521492004394531 -118.20135498046875 -164.61116027832031
67.713966369628906 -118.01901245117188 -164.61116027832031
69.699440002441406 -116.40836334228516 -164.61116027832031
69.88177490234375 -116.22602081298828 -164.61116027832031
70.793472290039062 -114.24054718017578 -164.61117553710938
69.699424743652344 -112.35637664794922 -164.61117553710938
69.638641357421875 -112.26520538330078 -164.61117553710938
67.713951110839844 -110.35065460205078 -164.61117553710938
67.653175354003906 -110.28987121582031 -164.61117553710938
65.738616943359375 -108.36518859863281 -164.61117553710938
63.763271331787109 -108.36518859863281 -164.61117553710938
61.777805328369141 -108.99324798583984 -164.61117553710938
59.802467346191406 -110.22910308837891 -164.61117553710938
59.741687774658203 -110.28987884521484 -164.61117553710938
58.262722015380859 -112.26522064208984 -164.61116027832031
58.759086608886719 -114.24056243896484 -164.61116027832031
59.802471160888672 -115.9525146484375 -164.61116027832031
59.974681854248047 -116.22602081298828 -164.61116027832031
61.190277099609375 -118.20135498046875 -164.61116027832031
63.763271331787109 -124.4312744140625 -162.07867431640625
65.738609313964844 -124.31984710693359 -162.07867431640625
65.971588134765625 -124.13750457763672 -162.07868957519531
67.713943481445312 -122.94216156005859 -162.07868957519531
68.959922790527344 -122.16215515136719 -162.07868957519531
69.69940185546875 -121.35176849365234 -162.07868957519531
70.408493041992188 -120.17669677734375 -162.07868957519531
71.117576599121094 -118.20135498046875 -162.07867431640625
71.26953125 -116.22602081298828 -162.07868957519531
71.269523620605469 -114.24055480957031 -162.07868957519531
70.996009826660156 -112.26521301269531 -162.07868957519531
70.752891540527344 -110.28987884521484 -162.07868957519531
69.983016967773438 -108.30442047119141 -162.07868957519531
69.699378967285156 -107.85869598388672 -162.07868957519531
68.858589172363281 -106.32908630371094 -162.07868957519531
67.713912963867188 -104.70828247070312 -162.07868957519531
67.410018920898438 -104.35373687744141 -162.07868957519531
66.032356262207031 -102.36827087402344 -162.07868957519531
65.73858642578125 -102.06436920166016 -162.07868957519531
63.763263702392578 -100.45371246337891 -162.07868957519531
61.777797698974609 -100.46384429931641 -162.07868957519531
60.187381744384766 -102.3682861328125 -162.07868957519531
59.802444458007812 -102.90515899658203 -162.07868957519531
58.759052276611328 -104.35374450683594 -162.07868957519531
58.262676239013672 -106.32908630371094 -162.07868957519531
58.262668609619141 -108.30442047119141 -162.07867431640625
58.586822509765625 -110.28987884521484 -162.07867431640625
59.164222717285156 -112.26522827148438 -162.07867431640625
59.802410125732422 -113.10600280761719 -162.07867431640625
60.673580169677734 -114.24057006835938 -162.07867431640625
61.494110107421875 -116.22602844238281 -162.07867431640625
61.777751922607422 -117.20862579345703 -162.07868957519531
62.071525573730469 -118.20136260986328 -162.07867431640625
61.848674774169922 -120.17670440673828 -162.07867431640625
61.848690032958984 -122.16217041015625 -162.07867431640625
63.347942352294922 -124.13750457763672 -162.07867431640625
63.763221740722656 -124.54270935058594 -159.54620361328125
65.738555908203125 -124.85672760009766 -159.54620361328125
67.713897705078125 -124.54270172119141 -159.54620361328125
68.291305541992188 -124.13750457763672 -159.54620361328125
69.699363708496094 -123.20554351806641 -159.54620361328125
70.945343017578125 -122.16216278076172 -159.54620361328125
71.674705505371094 -121.43281555175781 -159.54618835449219
72.718086242675781 -120.17670440673828 -159.54618835449219
73.650039672851562 -118.77876281738281 -159.54618835449219
74.06536865234375 -118.20135498046875 -159.54618835449219
74.956794738769531 -116.22602081298828 -159.54620361328125
75.34173583984375 -114.24055480957031 -159.54620361328125
75.34173583984375 -112.26521301269531 -159.54620361328125
75.321479797363281 -110.28987884521484 -159.54620361328125
74.531341552734375 -108.30442047119141 -159.54620361328125
73.650032043457031 -107.25089263916016 -159.54620361328125
72.940940856933594 -106.32908630371094 -159.54620361328125
71.674690246582031 -104.70829010009766 -159.54621887207031
71.38092041015625 -104.35373687744141 -159.54621887207031
69.881698608398438 -102.36827850341797 -159.54621887207031
69.699363708496094 -102.18593597412109 -159.54621887207031
67.713890075683594 -101.44645690917969 -159.54621887207031
65.738555908203125 -100.82852935791016 -159.54620361328125
63.763214111328125 -100.57528686523438 -159.54620361328125
61.777740478515625 -101.11217498779297 -159.54620361328125
60.268375396728516 -102.3682861328125 -159.54618835449219
59.802394866943359 -103.06724548339844 -159.54618835449219
59.093292236328125 -104.35374450683594 -159.54618835449219
58.536136627197266 -106.32909393310547 -159.54618835449219
59.8023681640625 -108.22338104248047 -159.54618835449219
59.863143920898438 -108.30442810058594 -159.54618835449219
59.984699249267578 -110.28988647460938 -159.54618835449219
59.863140106201172 -112.26522827148438 -159.54618835449219
59.802360534667969 -112.42730712890625 -159.54618835449219
59.235084533691406 -114.24057006835938 -159.54618835449219
59.164180755615234 -116.22602844238281 -159.54618835449219
59.123668670654297 -118.20137023925781 -159.54617309570312
59.123680114746094 -120.17671203613281 -159.54618835449219
59.620059967041016 -122.16217803955078 -159.54618835449219
59.802398681640625 -122.34450531005859 -159.54618835449219
61.777744293212891 -123.64114379882812 -159.54618835449219
62.892040252685547 -124.13750457763672 -159.54618835449219
57.827079772949219 -128.28065490722656 -157.01371765136719
59.802425384521484 -129.39494323730469 -157.01370239257812
61.777767181396484 -129.77989196777344 -157.01370239257812
63.763229370117188 -129.39494323730469 -157.01371765136719
65.738563537597656 -128.84793090820312 -157.01371765136719
66.812324523925781 -128.08818054199219 -157.01371765136719
67.713890075683594 -127.44999694824219 -157.01370239257812
69.699348449707031 -126.29518127441406 -157.01370239257812
69.881683349609375 -126.11284637451172 -157.01370239257812
71.6746826171875 -124.43126678466797 -157.01371765136719
71.98870849609375 -124.13749694824219 -157.01371765136719
73.366371154785156 -122.16216278076172 -157.01371765136719
73.650009155273438 -121.70632171630859 -157.01371765136719
74.490791320800781 -120.17670440673828 -157.01370239257812
75.635475158691406 -118.42422485351562 -157.01371765136719
75.81781005859375 -118.20136260986328 -157.01371765136719
76.557304382324219 -116.22602844238281 -157.01371765136719
77.296783447265625 -114.24055480957031 -157.01371765136719
77.428482055664062 -112.26521301269531 -157.01371765136719
77.428482055664062 -110.28987884521484 -157.01371765136719
77.428489685058594 -108.30442047119141 -157.01371765136719
77.428497314453125 -106.32908630371094 -157.01373291015625
77.29681396484375 -104.35373687744141 -157.01373291015625
76.567451477050781 -102.36827087402344 -157.01373291015625
75.635513305664062 -100.84878540039062 -157.01373291015625
75.301216125488281 -100.39293670654297 -157.01373291015625
73.650039672851562 -99.015266418457031 -157.01373291015625
71.674697875976562 -98.478378295898438 -157.01373291015625
71.532882690429688 -98.417594909667969 -157.01373291015625
69.699356079101562 -97.738899230957031 -157.01373291015625
67.713874816894531 -97.607208251953125 -157.01371765136719
65.738533020019531 -97.657852172851562 -157.01371765136719
63.763195037841797 -98.012405395507812 -157.01371765136719
62.770450592041016 -98.4176025390625 -157.01371765136719
61.777717590332031 -98.80255126953125 -157.01371765136719
59.802383422851562 -98.599945068359375 -157.01371765136719
57.827053070068359 -98.721504211425781 -157.01371765136719
55.851718902587891 -99.521774291992188 -157.01371765136719
54.70703125 -100.39295196533203 -157.01371765136719
53.866249084472656 -101.0311279296875 -157.01371765136719
51.890918731689453 -102.18595123291016 -157.01371765136719
51.708576202392578 -102.36829376220703 -157.01371765136719
50.553764343261719 -104.35375213623047 -157.01371765136719
49.915580749511719 -105.25532531738281 -157.01371765136719
49.155834197998047 -106.32909393310547 -157.01371765136719
49.500236511230469 -108.30442810058594 -157.01370239257812
49.915561676025391 -109.29717254638672 -157.01370239257812
50.300495147705078 -110.28990173339844 -157.01370239257812
50.199192047119141 -112.26523590087891 -157.01370239257812
50.199192047119141 -114.24057769775391 -157.01370239257812
50.594264984130859 -116.22603607177734 -157.01370239257812
51.485694885253906 -118.20137023925781 -157.01370239257812
51.890895843505859 -119.06242370605469 -157.01370239257812
52.417655944824219 -120.17671966552734 -157.01368713378906
52.934288024902344 -122.16217803955078 -157.01370239257812
53.866249084472656 -123.68166351318359 -157.01370239257812
54.160015106201172 -124.13751220703125 -157.01370239257812
55.557960510253906 -126.11285400390625 -157.01370239257812
55.851734161376953 -126.40662384033203 -157.01370239257812
57.644741058349609 -128.08819580078125 -157.01371765136719
59.802406311035156 -130.71185302734375 -154.48123168945312
61.777736663818359 -130.71185302734375 -154.48123168945312
63.763206481933594 -130.75236511230469 -154.48123168945312
65.738540649414062 -130.60041809082031 -154.48124694824219
66.427375793457031 -130.07365417480469 -154.48124694824219
67.7138671875 -129.14169311523438 -154.48124694824219
69.699333190917969 -128.27052307128906 -154.48124694824219
69.881660461425781 -128.08818054199219 -154.48124694824219
71.492317199707031 -126.11285400390625 -154.48124694824219
71.674652099609375 -125.93051147460938 -154.48124694824219
73.366348266601562 -124.13750457763672 -154.48124694824219
73.649978637695312 -123.68166351318359 -154.48124694824219
74.592071533203125 -122.16216278076172 -154.48124694824219
75.3416748046875 -120.17670440673828 -154.48123168945312
75.63543701171875 -119.73098754882812 -154.48123168945312
76.567390441894531 -118.20136260986328 -154.48124694824219
77.296745300292969 -116.22602844238281 -154.48124694824219
77.225837707519531 -114.24056243896484 -154.48124694824219
77.61077880859375 -113.25795745849609 -154.48124694824219
78.015975952148438 -112.26522064208984 -154.48124694824219
78.411048889160156 -110.28987884521484 -154.48124694824219
78.411048889160156 -108.30442047119141 -154.48124694824219
78.370552062988281 -106.32908630371094 -154.48126220703125
78.015998840332031 -104.35373687744141 -154.48126220703125
77.610809326171875 -103.48256683349609 -154.48126220703125
77.11444091796875 -102.36827850341797 -154.48126220703125
75.81781005859375 -100.3929443359375 -154.48126220703125
75.635475158691406 -100.21060180664062 -154.48126220703125
73.650001525878906 -99.055793762207031 -154.48126220703125
72.748443603515625 -98.4176025390625 -154.48126220703125
71.674667358398438 -97.657852172851562 -154.48126220703125
69.699325561523438 -97.1209716796875 -154.48126220703125
67.713851928710938 -96.746170043945312 -154.48124694824219
65.738502502441406 -96.624610900878906 -154.48124694824219
63.763168334960938 -96.624610900878906 -154.48124694824219
61.777694702148438 -97.120979309082031 -154.48124694824219
59.802356719970703 -97.607223510742188 -154.48124694824219
57.8270263671875 -97.637611389160156 -154.48124694824219
56.337921142578125 -98.417610168457031 -154.48124694824219
55.8516845703125 -98.711380004882812 -154.48124694824219
53.866214752197266 -100.08905792236328 -154.48124694824219
53.56231689453125 -100.39295959472656 -154.48124694824219
51.890876770019531 -102.06438446044922 -154.48124694824219
51.597110748291016 -102.36829376220703 -154.48124694824219
49.915546417236328 -104.16127777099609 -154.48124694824219
49.723075866699219 -104.35375213623047 -154.48124694824219
48.983589172363281 -106.3291015625 -154.48124694824219
48.345401763916016 -108.30443572998047 -154.48124694824219
48.223838806152344 -110.28990173339844 -154.48124694824219
47.990848541259766 -112.26523590087891 -154.48124694824219
47.930068969726562 -112.38679504394531 -154.48124694824219
47.150077819824219 -114.24057769775391 -154.48123168945312
47.524887084960938 -116.22603607177734 -154.48123168945312
47.930080413818359 -117.08708953857422 -154.48123168945312
48.426445007324219 -118.20137786865234 -154.48123168945312
48.983596801757812 -120.17671966552734 -154.48123168945312
49.723087310791016 -122.16218566894531 -154.48123168945312
49.915557861328125 -122.34452056884766 -154.48123168945312
51.708553314208984 -124.13751983642578 -154.48123168945312
51.890895843505859 -124.31986236572266 -154.48123168945312
53.683895111083984 -126.11286163330078 -154.48124694824219
53.866233825683594 -126.29519653320312 -154.48124694824219
55.851711273193359 -128.03755187988281 -154.48124694824219
55.922618865966797 -128.08819580078125 -154.48123168945312
57.827056884765625 -129.49624633789062 -154.48123168945312
58.819793701171875 -130.07365417480469 -154.48123168945312
57.827045440673828 -131.22846984863281 -151.94876098632812
59.802383422851562 -131.86665344238281 -151.94876098632812
61.777717590332031 -131.74510192871094 -151.94876098632812
63.763179779052734 -131.37028503417969 -151.94874572753906
65.738510131835938 -131.00559997558594 -151.94874572753906
67.612548828125 -130.07365417480469 -151.94876098632812
67.713844299316406 -130.01287841796875 -151.94876098632812
69.699295043945312 -128.28067016601562 -151.94876098632812
69.891761779785156 -128.08819580078125 -151.94876098632812
71.674629211425781 -126.51805114746094 -151.94874572753906
72.140602111816406 -126.11285400390625 -151.94876098632812
73.649955749511719 -124.59336090087891 -151.94876098632812
74.085548400878906 -124.13750457763672 -151.94876098632812
75.341644287109375 -122.16217041015625 -151.94876098632812
75.635414123535156 -121.70632934570312 -151.94876098632812
76.567367553710938 -120.17671203613281 -151.94876098632812
77.1143798828125 -118.20137023925781 -151.94876098632812
77.610755920410156 -117.08707427978516 -151.94876098632812
78.015945434570312 -116.22602844238281 -151.94876098632812
78.370498657226562 -114.24056243896484 -151.94876098632812
78.542709350585938 -112.26522064208984 -151.94876098632812
79.282196044921875 -110.28988647460938 -151.94877624511719
79.302467346191406 -108.30442810058594 -151.94877624511719
79.302474975585938 -106.32908630371094 -151.94877624511719
79.302482604980469 -104.35373687744141 -151.94877624511719
78.907424926757812 -102.36827850341797 -151.94877624511719
78.370552062988281 -100.3929443359375 -151.94879150390625
77.610809326171875 -99.400199890136719 -151.94879150390625
76.851058959960938 -98.4176025390625 -151.94879150390625
75.635475158691406 -97.191871643066406 -151.94879150390625
73.649986267089844 -96.81707763671875 -151.94877624511719
72.667381286621094 -96.432136535644531 -151.94877624511719
71.674644470214844 -96.057327270507812 -151.94877624511719
69.699302673339844 -95.793952941894531 -151.94877624511719
67.713821411132812 -96.026947021484375 -151.94877624511719
66.731208801269531 -96.432136535644531 -151.94876098632812
65.738471984863281 -96.81707763671875 -151.94877624511719
63.763126373291016 -97.120979309082031 -151.94876098632812
61.777652740478516 -97.607215881347656 -151.94876098632812
59.802318572998047 -97.637611389160156 -151.94876098632812
57.948535919189453 -98.417610168457031 -151.94876098632812
57.826980590820312 -98.4783935546875 -151.94876098632812
55.851642608642578 -99.217880249023438 -151.94876098632812
54.676563262939453 -100.39295959472656 -151.94876098632812
53.866168975830078 -101.31477355957031 -151.94876098632812
52.9949951171875 -102.36830139160156 -151.94876098632812
52.184589385986328 -104.353759765625 -151.94876098632812
51.890823364257812 -104.85012817382812 -151.94876098632812
51.110816955566406 -106.3291015625 -151.94876098632812
50.958858489990234 -108.30443572998047 -151.94874572753906
50.3206787109375 -110.28990936279297 -151.94874572753906
50.300418853759766 -112.26524353027344 -151.94874572753906
49.915481567382812 -113.25797271728516 -151.94874572753906
49.500156402587891 -114.24058532714844 -151.94874572753906
49.500164031982422 -116.22604370117188 -151.94874572753906
49.915489196777344 -117.20864868164062 -151.94874572753906
50.300430297851562 -118.20137786865234 -151.94874572753906
50.199138641357422 -120.17672729492188 -151.94874572753906
50.320716857910156 -122.16218566894531 -151.94874572753906
51.597091674804688 -124.13751983642578 -151.94874572753906
51.890861511230469 -124.49208068847656 -151.94874572753906
53.086196899414062 -126.11286163330078 -151.94876098632812
53.866207122802734 -127.17650604248047 -151.94874572753906
54.625957489013672 -128.08819580078125 -151.94874572753906
55.851692199707031 -129.47599792480469 -151.94874572753906
56.439228057861328 -130.07365417480469 -151.94874572753906
57.826976776123047 -128.50352478027344 -149.41627502441406
59.802310943603516 -128.81755065917969 -149.41627502441406
61.77764892578125 -129.02015686035156 -149.41627502441406
63.763126373291016 -129.66847229003906 -149.41627502441406
65.73846435546875 -129.7799072265625 -149.41627502441406
67.71380615234375 -129.66847229003906 -149.41627502441406
69.699272155761719 -129.02015686035156 -149.41627502441406
71.674613952636719 -128.28067016601562 -149.41627502441406
71.856956481933594 -128.08819580078125 -149.41627502441406
73.649948120117188 -126.40662384033203 -149.41627502441406
73.943710327148438 -126.11285400390625 -149.41627502441406
75.635406494140625 -124.31984710693359 -149.41627502441406
75.817741394042969 -124.13750457763672 -149.41627502441406
76.557228088378906 -122.16217041015625 -149.41627502441406
77.316963195800781 -120.17671203613281 -149.41627502441406
77.610733032226562 -119.73098754882812 -149.41627502441406
78.542686462402344 -118.20137023925781 -149.41627502441406
79.302436828613281 -116.22603607177734 -149.41627502441406
79.586074829101562 -115.72966766357422 -149.41627502441406
80.3660888671875 -114.24056243896484 -149.41629028320312
80.396484375 -112.26522064208984 -149.41629028320312
80.518043518066406 -110.28988647460938 -149.41629028320312
81.257545471191406 -108.30442810058594 -149.41629028320312
81.379104614257812 -106.32908630371094 -149.41630554199219
80.882743835449219 -104.35373687744141 -149.41630554199219
80.396514892578125 -102.36827850341797 -149.41630554199219
80.001457214355469 -100.3929443359375 -149.41630554199219
79.586135864257812 -99.531890869140625 -149.41630554199219
79.089775085449219 -98.4176025390625 -149.41630554199219
77.924842834472656 -96.432136535644531 -149.41632080078125
77.610809326171875 -96.128242492675781 -149.41632080078125
75.635467529296875 -94.750572204589844 -149.41630554199219
75.078323364257812 -94.456809997558594 -149.41630554199219
73.650001525878906 -93.747703552246094 -149.41630554199219
71.674644470214844 -93.656539916992188 -149.41630554199219
69.699295043945312 -94.051605224609375 -149.41630554199219
69.07122802734375 -94.456809997558594 -149.41629028320312
67.713798522949219 -95.287460327148438 -149.41629028320312
65.738449096679688 -96.249809265136719 -149.41627502441406
65.556114196777344 -96.432144165039062 -149.41627502441406
63.763084411621094 -98.123847961425781 -149.41629028320312
63.469314575195312 -98.417610168457031 -149.41629028320312
61.777595520019531 -100.21061706542969 -149.41627502441406
61.595252990722656 -100.39295959472656 -149.41627502441406
60.632896423339844 -102.36830139160156 -149.41627502441406
59.802234649658203 -103.72571563720703 -149.41627502441406
59.397029876708984 -104.353759765625 -149.41627502441406
58.505588531494141 -106.32910919189453 -149.41624450683594
57.887657165527344 -108.304443359375 -149.41624450683594
57.826877593994141 -108.39560699462891 -149.41624450683594
56.692325592041016 -110.28990173339844 -149.41624450683594
55.851547241210938 -111.68783569335938 -149.416259765625
55.415962219238281 -112.26524353027344 -149.416259765625
54.159854888916016 -114.24058532714844 -149.416259765625
53.866092681884766 -114.59513092041016 -149.416259765625
52.599864959716797 -116.22604370117188 -149.416259765625
51.890777587890625 -117.02632141113281 -149.416259765625
50.715724945068359 -118.20137786865234 -149.416259765625
49.976253509521484 -120.17672729492188 -149.416259765625
49.915473937988281 -120.28815460205078 -149.416259765625
49.074710845947266 -122.16218566894531 -149.41627502441406
49.915500640869141 -123.68167877197266 -149.41627502441406
50.239658355712891 -124.13751983642578 -149.41627502441406
51.890834808349609 -125.37338256835938 -149.41627502441406
53.238109588623047 -126.11286163330078 -149.41627502441406
53.866172790527344 -126.51805877685547 -149.41627502441406
55.851634979248047 -127.26767730712891 -149.416259765625
57.198917388916016 -128.08819580078125 -149.41627502441406
67.713768005371094 -128.87832641601562 -146.8837890625
69.699241638183594 -128.50352478027344 -146.8837890625
70.327293395996094 -128.08819580078125 -146.8837890625
71.674575805664062 -127.26766204833984 -146.8837890625
73.649917602539062 -126.29519653320312 -146.8837890625
73.842391967773438 -126.11286163330078 -146.8837890625
75.635383605957031 -124.4312744140625 -146.8837890625
75.939277648925781 -124.13751220703125 -146.88380432128906
77.316947937011719 -122.16217041015625 -146.88380432128906
77.6107177734375 -121.80762481689453 -146.88380432128906
78.745277404785156 -120.17671203613281 -146.88380432128906
79.5860595703125 -118.77877807617188 -146.88380432128906
80.001388549804688 -118.20137023925781 -146.88380432128906
80.518020629882812 -116.22603607177734 -146.88380432128906
81.257514953613281 -114.24057006835938 -146.88380432128906
81.510765075683594 -112.26522064208984 -146.88380432128906
81.571540832519531 -112.14366149902344 -146.88380432128906
82.392074584960938 -110.28988647460938 -146.88380432128906
82.321174621582031 -108.30442810058594 -146.88381958007812
82.321182250976562 -106.32909393310547 -146.88381958007812
82.321189880371094 -104.35373687744141 -146.88383483886719
81.976783752441406 -102.36827850341797 -146.88383483886719
81.571586608886719 -101.50724029541016 -146.88383483886719
81.075225830078125 -100.3929443359375 -146.88383483886719
80.518089294433594 -98.4176025390625 -146.88383483886719
79.778617858886719 -96.432136535644531 -146.88381958007812
79.586143493652344 -96.209281921386719 -146.88381958007812
78.330039978027344 -94.456802368164062 -146.88383483886719
77.610816955566406 -93.707183837890625 -146.88383483886719
75.635475158691406 -92.775230407714844 -146.88383483886719
75.017539978027344 -92.481460571289062 -146.88383483886719
73.650009155273438 -91.843284606933594 -146.88383483886719
71.674644470214844 -92.076278686523438 -146.88383483886719
70.813583374023438 -92.481460571289062 -146.88383483886719
69.699287414550781 -92.977836608886719 -146.88381958007812
67.713798522949219 -93.58563232421875 -146.88381958007812
66.579231262207031 -94.456817626953125 -146.88380432128906
65.738433837890625 -95.094993591308594 -146.88380432128906
63.763080596923828 -96.24981689453125 -146.88380432128906
63.580741882324219 -96.432144165039062 -146.8837890625
61.777587890625 -98.225151062011719 -146.8837890625
61.595245361328125 -98.417617797851562 -146.8837890625
60.632888793945312 -100.39295959472656 -146.88377380371094
59.802223205566406 -101.74024200439453 -146.88377380371094
59.397018432617188 -102.36830902099609 -146.88377380371094
58.505573272705078 -104.35376739501953 -146.88377380371094
57.887638092041016 -106.32910919189453 -146.88377380371094
57.826858520507812 -106.44052886962891 -146.88377380371094
56.894901275634766 -108.304443359375 -146.88377380371094
56.135154724121094 -110.28990173339844 -146.88377380371094
55.851520538330078 -110.64445495605469 -146.88377380371094
54.706844329833984 -112.26525115966797 -146.88377380371094
53.866065979003906 -113.66317749023438 -146.88375854492188
53.460868835449219 -114.24059295654297 -146.88375854492188
52.5289306640625 -116.22605133056641 -146.88377380371094
51.890750885009766 -117.12761688232422 -146.88377380371094
51.131019592285156 -118.20138549804688 -146.88377380371094
50.594150543212891 -120.17673492431641 -146.88377380371094
50.8271484375 -122.16219329833984 -146.88377380371094
51.890785217285156 -123.03336334228516 -146.88377380371094
53.866115570068359 -123.84375762939453 -146.88377380371094
54.362480163574219 -124.13752746582031 -146.88377380371094
55.851581573486328 -124.95805358886719 -146.88377380371094
57.826915740966797 -125.43415069580078 -146.88377380371094
59.802253723144531 -126.05208587646484 -146.88377380371094
59.913681030273438 -126.11286926269531 -146.88377380371094
61.777599334716797 -127.04481506347656 -146.88377380371094
63.763072967529297 -127.68299865722656 -146.88377380371094
65.738410949707031 -128.02742004394531 -146.88377380371094
65.859970092773438 -128.08819580078125 -146.88377380371094
67.7137451171875 -128.50352478027344 -144.35130310058594
69.69921875 -128.50352478027344 -144.35130310058594
70.560264587402344 -128.08819580078125 -144.35130310058594
71.674560546875 -127.60196685791016 -144.35130310058594
73.649894714355469 -126.40663146972656 -144.35130310058594
74.004440307617188 -126.11286163330078 -144.35130310058594
75.635368347167969 -124.77571105957031 -144.35130310058594
76.273544311523438 -124.13751220703125 -144.35130310058594
77.610702514648438 -122.38504028320312 -144.351318359375
77.793037414550781 -122.16217803955078 -144.351318359375
78.947860717773438 -120.17671203613281 -144.351318359375
79.586036682128906 -119.275146484375 -144.351318359375
80.345794677734375 -118.20137023925781 -144.351318359375
80.882682800292969 -116.22603607177734 -144.351318359375
81.510749816894531 -114.24057006835938 -144.351318359375
81.571525573730469 -114.11900329589844 -144.351318359375
82.351531982421875 -112.26522827148438 -144.351318359375
82.371795654296875 -110.28988647460938 -144.351318359375
82.371803283691406 -108.30442810058594 -144.351318359375
82.371810913085938 -106.32909393310547 -144.35133361816406
82.371818542480469 -104.35374450683594 -144.35133361816406
82.371833801269531 -102.3682861328125 -144.35133361816406
82.351585388183594 -100.3929443359375 -144.35134887695312
81.57159423828125 -98.539169311523438 -144.35134887695312
81.510818481445312 -98.4176025390625 -144.35134887695312
80.882766723632812 -96.432136535644531 -144.35134887695312
80.001480102539062 -94.456802368164062 -144.35134887695312
79.586151123046875 -93.87939453125 -144.35136413574219
78.704856872558594 -92.481460571289062 -144.35136413574219
77.610832214355469 -91.184829711914062 -144.35136413574219
76.770050048828125 -90.506118774414062 -144.35136413574219
75.635505676269531 -89.624824523925781 -144.35136413574219
73.650032043457031 -88.986640930175781 -144.35136413574219
71.674674987792969 -89.199363708496094 -144.35134887695312
69.699310302734375 -90.090797424316406 -144.35134887695312
69.071243286132812 -90.506126403808594 -144.35133361816406
67.713813781738281 -91.32666015625 -144.35134887695312
65.738456726074219 -92.29913330078125 -144.35133361816406
65.556114196777344 -92.481475830078125 -144.35133361816406
63.763084411621094 -94.163055419921875 -144.35133361816406
63.469314575195312 -94.456817626953125 -144.351318359375
61.777591705322266 -96.148513793945312 -144.351318359375
61.493946075439453 -96.432151794433594 -144.351318359375
60.095996856689453 -98.417617797851562 -144.35130310058594
59.802227020263672 -98.86334228515625 -144.35130310058594
58.870262145996094 -100.39296722412109 -144.35130310058594
58.120628356933594 -102.36830902099609 -144.35130310058594
57.826862335205078 -102.82414245605469 -144.35130310058594
56.8948974609375 -104.35376739501953 -144.35128784179688
56.135147094726562 -106.32910919189453 -144.35128784179688
55.851512908935547 -106.77482604980469 -144.35128784179688
54.909423828125 -108.30445098876953 -144.35128784179688
54.159805297851562 -110.2899169921875 -144.35128784179688
53.866046905517578 -110.73563385009766 -144.35128784179688
52.934097290039062 -112.26525115966797 -144.35128784179688
52.295917510986328 -114.24059295654297 -144.35128784179688
51.951507568359375 -116.22605133056641 -144.35128784179688
51.890727996826172 -116.41852569580078 -144.35128784179688
51.394371032714844 -118.20138549804688 -144.35128784179688
51.890739440917969 -119.09283447265625 -144.35128784179688
52.5289306640625 -120.17673492431641 -144.35128784179688
53.866077423095703 -121.37206268310547 -144.35128784179688
55.213356018066406 -122.16219329833984 -144.35128784179688
55.851539611816406 -122.56739807128906 -144.35128784179688
57.826873779296875 -123.45882415771484 -144.35128784179688
59.802211761474609 -124.07675170898438 -144.35127258300781
59.883251190185547 -124.13752746582031 -144.35127258300781
61.777557373046875 -125.27207183837891 -144.35128784179688
63.185623168945312 -126.11286926269531 -144.35128784179688
63.763038635253906 -126.51806640625 -144.35128784179688
65.738388061523438 -127.26766967773438 -144.35128784179688
67.085685729980469 -128.08819580078125 -144.35130310058594
67.713729858398438 -128.84794616699219 -141.81881713867188
69.699211120605469 -128.77703857421875 -141.81881713867188
71.674552917480469 -128.77703857421875 -141.81881713867188
73.64990234375 -128.28067016601562 -141.81881713867188
73.882896423339844 -128.08819580078125 -141.81881713867188
75.6353759765625 -126.83208465576172 -141.81883239746094
76.344467163085938 -126.11286163330078 -141.81883239746094
77.610702514648438 -124.36037445068359 -141.81883239746094
77.793037414550781 -124.13751220703125 -141.81883239746094
78.947860717773438 -122.16217803955078 -141.81883239746094
79.586044311523438 -121.32139587402344 -141.81883239746094
80.45721435546875 -120.17671203613281 -141.81883239746094
81.075149536132812 -118.20137023925781 -141.81883239746094
81.571510314941406 -117.08708190917969 -141.81884765625
81.976707458496094 -116.22603607177734 -141.81884765625
82.371780395507812 -114.24057006835938 -141.81884765625
82.868148803710938 -112.26522827148438 -141.81884765625
83.344268798828125 -110.28988647460938 -141.81884765625
83.253105163574219 -108.30442810058594 -141.81884765625
83.25311279296875 -106.32909393310547 -141.81884765625
83.253120422363281 -104.35374450683594 -141.81886291503906
83.253135681152344 -102.3682861328125 -141.81886291503906
82.868209838867188 -100.3929443359375 -141.81886291503906
82.371856689453125 -98.4176025390625 -141.81887817382812
81.976799011230469 -96.432136535644531 -141.81887817382812
81.571609497070312 -95.8040771484375 -141.81887817382812
80.740959167480469 -94.456809997558594 -141.81887817382812
79.778640747070312 -92.481460571289062 -141.81889343261719
79.586166381835938 -92.24847412109375 -141.81889343261719
78.390846252441406 -90.506118774414062 -141.81889343261719
77.610847473144531 -89.574180603027344 -141.81887817382812
76.081230163574219 -88.520660400390625 -141.81887817382812
75.635513305664062 -88.237022399902344 -141.81887817382812
73.650032043457031 -87.841957092285156 -141.81887817382812
71.816497802734375 -88.520668029785156 -141.81887817382812
71.674674987792969 -88.581443786621094 -141.81887817382812
69.699310302734375 -89.331062316894531 -141.81887817382812
68.443168640136719 -90.506134033203125 -141.81886291503906
67.713798522949219 -91.144325256347656 -141.81886291503906
65.738433837890625 -92.29913330078125 -141.81884765625
65.54595947265625 -92.481475830078125 -141.81884765625
63.763072967529297 -94.051620483398438 -141.81884765625
63.185657501220703 -94.456825256347656 -141.81884765625
61.777584075927734 -95.348251342773438 -141.81884765625
60.399898529052734 -96.432151794433594 -141.81883239746094
59.802230834960938 -96.958915710449219 -141.81883239746094
58.262470245361328 -98.417625427246094 -141.81883239746094
57.826881408691406 -98.944381713867188 -141.81883239746094
56.834136962890625 -100.39297485351562 -141.81883239746094
55.851524353027344 -101.84154510498047 -141.81883239746094
55.415931701660156 -102.36830902099609 -141.81881713867188
54.392807006835938 -104.35376739501953 -141.81881713867188
53.866046905517578 -105.03247833251953 -141.81880187988281
52.934093475341797 -106.32911682128906 -141.81880187988281
51.890716552734375 -107.58522796630859 -141.81881713867188
51.212009429931641 -108.30445098876953 -141.81881713867188
49.915390014648438 -109.79354858398438 -141.81881713867188
49.500064849853516 -110.2899169921875 -141.81881713867188
48.122409820556641 -112.26525115966797 -141.81881713867188
47.929939270019531 -112.49824523925781 -141.81881713867188
46.592807769775391 -114.24059295654297 -141.81881713867188
46.015415191650391 -116.22605133056641 -141.81881713867188
46.015422821044922 -118.20139312744141 -141.81881713867188
46.734645843505859 -120.17673492431641 -141.81881713867188
47.929973602294922 -121.10868072509766 -141.81881713867188
49.915416717529297 -121.04790496826172 -141.81881713867188
51.890735626220703 -121.04790496826172 -141.81881713867188
53.866058349609375 -120.81491088867188 -141.81880187988281
55.851516723632812 -121.47336578369141 -141.81880187988281
57.826847076416016 -122.09129333496094 -141.81880187988281
57.938278198242188 -122.16219329833984 -141.81880187988281
59.80218505859375 -123.00298309326172 -141.81880187988281
61.554672241210938 -124.13752746582031 -141.81880187988281
61.777530670166016 -124.31986999511719 -141.81880187988281
63.763011932373047 -125.47467803955078 -141.81880187988281
64.441726684570312 -126.11286926269531 -141.81880187988281
65.738372802734375 -127.33858489990234 -141.81881713867188
66.731109619140625 -128.08819580078125 -141.81881713867188
67.713714599609375 -128.28068542480469 -139.28633117675781
69.699203491210938 -129.39495849609375 -139.28634643554688
71.674560546875 -129.7596435546875 -139.28634643554688
73.64990234375 -129.39495849609375 -139.28634643554688
75.6353759765625 -128.28067016601562 -139.28634643554688
75.817710876464844 -128.08819580078125 -139.28634643554688
77.610710144042969 -126.29519653320312 -139.28634643554688
77.793045043945312 -126.11286163330078 -139.28634643554688
78.947868347167969 -124.13751220703125 -139.28634643554688
79.586044311523438 -123.29673767089844 -139.28636169433594
80.457221984863281 -122.16217803955078 -139.28636169433594
81.277740478515625 -120.17671966552734 -139.28636169433594
81.571510314941406 -119.68035125732422 -139.28636169433594
82.392044067382812 -118.20137023925781 -139.28636169433594
82.868141174316406 -116.22603607177734 -139.28636169433594
83.253089904785156 -114.24057006835938 -139.28636169433594
83.486076354980469 -112.26522827148438 -139.28636169433594
83.546852111816406 -112.14366912841797 -139.28636169433594
84.326881408691406 -110.28989410400391 -139.28636169433594
84.306617736816406 -108.30442810058594 -139.28636169433594
84.347152709960938 -106.32909393310547 -139.286376953125
84.306632995605469 -104.35374450683594 -139.286376953125
84.326911926269531 -102.3682861328125 -139.286376953125
83.546905517578125 -100.51450347900391 -139.28639221191406
83.486129760742188 -100.39295196533203 -139.28639221191406
83.141738891601562 -98.4176025390625 -139.28639221191406
82.503555297851562 -96.432136535644531 -139.28639221191406
81.571609497070312 -94.912651062011719 -139.28639221191406
81.277847290039062 -94.456809997558594 -139.28639221191406
80.45733642578125 -92.481460571289062 -139.28640747070312
79.586166381835938 -91.417823791503906 -139.28640747070312
78.785903930664062 -90.506126403808594 -139.28640747070312
77.61083984375 -89.391838073730469 -139.28640747070312
75.635490417480469 -88.834693908691406 -139.28640747070312
73.650009155273438 -88.925865173339844 -139.28639221191406
71.674636840820312 -89.624832153320312 -139.28639221191406
70.529930114746094 -90.506134033203125 -139.28639221191406
69.699264526367188 -91.144325256347656 -139.286376953125
67.713768005371094 -92.29913330078125 -139.286376953125
67.521293640136719 -92.481475830078125 -139.286376953125
65.7384033203125 -94.051620483398438 -139.28636169433594
65.160987854003906 -94.456825256347656 -139.28636169433594
63.763042449951172 -95.297599792480469 -139.28634643554688
62.132106781005859 -96.432151794433594 -139.28636169433594
61.777557373046875 -96.725929260253906 -139.28636169433594
59.802207946777344 -98.123855590820312 -139.28636169433594
59.498306274414062 -98.417625427246094 -139.28634643554688
57.826858520507812 -99.987770080566406 -139.28633117675781
57.138019561767578 -100.39297485351562 -139.28633117675781
55.851520538330078 -101.07167816162109 -139.28633117675781
53.866054534912109 -102.06440734863281 -139.28633117675781
53.541904449462891 -102.36830902099609 -139.28633117675781
51.890724182128906 -103.67507171630859 -139.28634643554688
51.029678344726562 -104.35377502441406 -139.28634643554688
49.915393829345703 -105.46807098388672 -139.28634643554688
49.236690521240234 -106.32911682128906 -139.28633117675781
47.929939270019531 -107.98029327392578 -139.28633117675781
47.626045227050781 -108.30445861816406 -139.28633117675781
46.481372833251953 -110.2899169921875 -139.28634643554688
45.954620361328125 -110.9686279296875 -139.28634643554688
44.961898803710938 -112.26525115966797 -139.28633117675781
44.384502410888672 -114.24059295654297 -139.28634643554688
44.303462982177734 -116.22605895996094 -139.28634643554688
45.022693634033203 -118.20139312744141 -139.28634643554688
45.954635620117188 -119.02191925048828 -139.28634643554688
47.555152893066406 -120.17674255371094 -139.28633117675781
47.929954528808594 -120.49076080322266 -139.28633117675781
49.9154052734375 -120.73387908935547 -139.28633117675781
51.890720367431641 -120.73387145996094 -139.28633117675781
53.866043090820312 -120.47050476074219 -139.28633117675781
55.101882934570312 -120.17674255371094 -139.28631591796875
55.851493835449219 -120.00453186035156 -139.28631591796875
57.826820373535156 -119.24478149414062 -139.28633117675781
59.508388519287109 -120.17673492431641 -139.28633117675781
59.802154541015625 -120.36919403076172 -139.28633117675781
61.777496337890625 -121.60504913330078 -139.28633117675781
62.334651947021484 -122.16220092773438 -139.28631591796875
63.580646514892578 -124.13753509521484 -139.28631591796875
63.762985229492188 -124.31986999511719 -139.28631591796875
65.444580078125 -126.11286926269531 -139.28633117675781
65.738349914550781 -126.40663909912109 -139.28633117675781
67.531364440917969 -128.08821105957031 -139.28633117675781
69.699188232421875 -128.28068542480469 -136.75386047363281
71.674537658691406 -128.81755065917969 -136.75387573242188
73.649894714355469 -128.91885375976562 -136.75387573242188
75.138999938964844 -128.08819580078125 -136.75387573242188
75.635368347167969 -127.80455780029297 -136.75387573242188
77.610710144042969 -126.40663146972656 -136.75387573242188
77.92474365234375 -126.11286163330078 -136.75387573242188
79.302406311035156 -124.13751983642578 -136.75387573242188
79.586036682128906 -123.78297424316406 -136.75387573242188
80.730728149414062 -122.16217803955078 -136.75387573242188
81.571510314941406 -120.75411987304688 -136.75387573242188
81.976707458496094 -120.17671966552734 -136.75387573242188
82.493339538574219 -118.20137786865234 -136.75389099121094
83.141654968261719 -116.22603607177734 -136.75389099121094
83.486068725585938 -114.24057006835938 -136.75389099121094
83.546844482421875 -114.11900329589844 -136.75389099121094
84.326866149902344 -112.26522827148438 -136.75389099121094
84.306602478027344 -110.28989410400391 -136.75389099121094
84.539604187011719 -108.30443572998047 -136.75389099121094
85.218330383300781 -106.32909393310547 -136.75390625
84.468719482421875 -104.35374450683594 -136.75390625
84.34716796875 -102.3682861328125 -136.75390625
84.326927185058594 -100.39295196533203 -136.75390625
83.546920776367188 -98.539169311523438 -136.75390625
83.48614501953125 -98.417610168457031 -136.75390625
82.868232727050781 -96.432136535644531 -136.75392150878906
81.976806640625 -94.456809997558594 -136.75392150878906
81.571624755859375 -93.87939453125 -136.75392150878906
80.680191040039062 -92.481460571289062 -136.75392150878906
79.586158752441406 -91.326652526855469 -136.75392150878906
78.451606750488281 -90.506126403808594 -136.75392150878906
77.610824584960938 -89.857818603515625 -136.75392150878906
75.635475158691406 -89.69573974609375 -136.75392150878906
73.649986267089844 -89.74639892578125 -136.75390625
71.67462158203125 -90.090812683105469 -136.75390625
71.046562194824219 -90.506134033203125 -136.75390625
69.699249267578125 -91.326667785644531 -136.75390625
67.713760375976562 -92.299140930175781 -136.75389099121094
67.490898132324219 -92.481483459472656 -136.75389099121094
65.738395690917969 -93.61602783203125 -136.75389099121094
64.056816101074219 -94.456825256347656 -136.75387573242188
63.763046264648438 -94.63916015625 -136.75387573242188
61.777565002441406 -95.560981750488281 -136.75387573242188
60.724048614501953 -96.432159423828125 -136.75387573242188
59.802211761474609 -97.191902160644531 -136.75387573242188
58.505565643310547 -98.417625427246094 -136.75386047363281
57.826862335205078 -99.055824279785156 -136.75386047363281
55.851524353027344 -100.21063232421875 -136.75386047363281
55.659053802490234 -100.39297485351562 -136.75386047363281
54.544746398925781 -102.36831665039062 -136.75386047363281
53.866043090820312 -103.05714416503906 -136.75386047363281
52.711231231689453 -104.35377502441406 -136.75386047363281
51.890708923339844 -105.27560424804688 -136.75384521484375
50.594081878662109 -106.32911682128906 -136.75384521484375
49.915382385253906 -106.85587310791016 -136.75386047363281
48.456680297851562 -108.30445861816406 -136.75386047363281
47.929927825927734 -108.9932861328125 -136.75386047363281
46.947330474853516 -110.2899169921875 -136.75384521484375
46.359806060791016 -112.26525115966797 -136.75386047363281
46.633308410644531 -114.24059295654297 -136.75386047363281
46.633316040039062 -116.22606658935547 -136.75386047363281
47.575389862060547 -118.20140075683594 -136.75386047363281
47.929939270019531 -118.49517059326172 -136.75386047363281
49.915390014648438 -119.06243896484375 -136.75384521484375
51.890701293945312 -118.49516296386719 -136.75384521484375
52.883430480957031 -118.20139312744141 -136.75384521484375
53.866020202636719 -117.92789459228516 -136.75384521484375
55.851478576660156 -118.02918243408203 -136.75384521484375
57.826805114746094 -117.76580047607422 -136.75382995605469
59.802135467529297 -117.38087463378906 -136.75384521484375
61.1494140625 -118.20139312744141 -136.75384521484375
61.777473449707031 -118.69776916503906 -136.75384521484375
62.932292938232422 -120.17673492431641 -136.75382995605469
63.762958526611328 -121.24037170410156 -136.75382995605469
64.472053527832031 -122.16220092773438 -136.75384521484375
65.738319396972656 -123.78298950195312 -136.75384521484375
66.032089233398438 -124.13753509521484 -136.75384521484375
67.531341552734375 -126.11286926269531 -136.75384521484375
67.71368408203125 -126.29520416259766 -136.75384521484375
69.5067138671875 -128.08821105957031 -136.75386047363281
71.674560546875 -130.25601196289062 -134.22138977050781
73.649917602539062 -130.82330322265625 -134.22140502929688
74.723686218261719 -130.07366943359375 -134.22140502929688
75.635391235351562 -129.46586608886719 -134.22140502929688
77.276435852050781 -128.08819580078125 -134.22140502929688
77.6107177734375 -127.74378204345703 -134.22140502929688
78.876960754394531 -126.11286163330078 -134.22138977050781
79.5860595703125 -125.19103240966797 -134.22138977050781
80.457221984863281 -124.13751983642578 -134.22138977050781
81.277748107910156 -122.16217803955078 -134.22140502929688
81.571517944335938 -121.70634460449219 -134.22140502929688
82.503471374511719 -120.17671966552734 -134.22140502929688
83.14166259765625 -118.20137786865234 -134.22140502929688
83.486076354980469 -116.22603607177734 -134.22140502929688
83.546852111816406 -116.09435272216797 -134.22140502929688
84.326866149902344 -114.24057006835938 -134.22140502929688
84.347129821777344 -112.26522827148438 -134.22140502929688
84.539604187011719 -110.28989410400391 -134.22142028808594
85.21832275390625 -108.30443572998047 -134.22142028808594
85.329757690429688 -106.32909393310547 -134.22142028808594
84.843521118164062 -104.35374450683594 -134.221435546875
84.34716796875 -102.3682861328125 -134.221435546875
84.347183227539062 -100.39295196533203 -134.221435546875
83.952125549316406 -98.417610168457031 -134.221435546875
83.546928405761719 -97.546432495117188 -134.221435546875
83.050575256347656 -96.432136535644531 -134.221435546875
82.503570556640625 -94.456809997558594 -134.221435546875
81.571632385253906 -92.92718505859375 -134.221435546875
81.277862548828125 -92.481460571289062 -134.22145080566406
80.112937927246094 -90.506126403808594 -134.22145080566406
79.586181640625 -89.979362487792969 -134.22145080566406
77.945144653320312 -88.520668029785156 -134.22145080566406
77.610855102539062 -88.237030029296875 -134.22145080566406
75.635498046875 -87.841957092285156 -134.22145080566406
73.650016784667969 -87.720413208007812 -134.221435546875
71.674659729003906 -88.115470886230469 -134.22145080566406
71.046592712402344 -88.520675659179688 -134.221435546875
69.699287414550781 -89.351325988769531 -134.221435546875
67.713798522949219 -90.090812683105469 -134.22142028808594
67.085731506347656 -90.506134033203125 -134.22142028808594
65.738433837890625 -91.326667785644531 -134.22142028808594
63.763080596923828 -92.299140930175781 -134.22140502929688
63.560478210449219 -92.481483459472656 -134.22140502929688
61.777584075927734 -93.960456848144531 -134.22138977050781
61.149524688720703 -94.456825256347656 -134.22138977050781
59.802230834960938 -95.500213623046875 -134.22138977050781
58.748706817626953 -96.432159423828125 -134.22138977050781
57.826873779296875 -97.576850891113281 -134.22138977050781
57.188682556152344 -98.417625427246094 -134.22137451171875
55.912296295166016 -100.39298248291016 -134.22137451171875
55.851516723632812 -100.47401428222656 -134.22137451171875
54.473838806152344 -102.36831665039062 -134.22137451171875
53.866039276123047 -103.14832305908203 -134.22137451171875
52.883438110351562 -104.35377502441406 -134.22137451171875
51.951480865478516 -106.32911682128906 -134.22137451171875
51.890701293945312 -106.41014862060547 -134.22137451171875
50.583942413330078 -108.30445861816406 -134.22137451171875
49.915370941162109 -109.29719543457031 -134.22137451171875
49.155632019042969 -110.2899169921875 -134.22137451171875
48.112262725830078 -112.2652587890625 -134.22137451171875
47.929924011230469 -112.86292266845703 -134.22137451171875
47.544990539550781 -114.2406005859375 -134.22137451171875
47.544994354248047 -116.22606658935547 -134.22137451171875
47.929931640625 -117.20866394042969 -134.22137451171875
49.084735870361328 -118.20140075683594 -134.22137451171875
49.915386199951172 -118.49517059326172 -134.22137451171875
51.890705108642578 -118.49516296386719 -134.22135925292969
