# XYZ point cloud file
-0.4171142578125 0.042724609375 0.76627349853515625
-0.25970458984375 0.5498046875 0.64130401611328125
-0.253662109375 0.529541015625 0.66128921508789062
-0.2294921875 0.51025390625 0.70977401733398438
-0.15386962890625 0.625 0.66481399536132812
-0.169921875 0.651611328125 0.63886642456054688
-0.1851806640625 0.64208984375 0.63263702392578125
-0.21734619140625 0.6318359375 0.60021209716796875
-0.24432373046875 0.60546875 0.62915802001953125
-0.25592041015625 0.577392578125 0.6343536376953125
-0.284912109375 0.5546875 0.64526748657226562
-0.29052734375 0.542236328125 0.61784744262695312
-0.30633544921875 0.545166015625 0.61453628540039062
-0.28997802734375 0.56201171875 0.65084075927734375
-0.25653076171875 0.57275390625 0.66225051879882812
-0.22821044921875 0.568603515625 0.68149185180664062
0.0386962890625 0.8115234375 0.59452056884765625
0.01263427734375 0.806396484375 0.57764053344726562
-0.00628662109375 0.815185546875 0.55716705322265625
-0.058837890625 0.786865234375 0.55124282836914062
-0.0938720703125 0.77587890625 0.56589126586914062
-0.13287353515625 0.727783203125 0.57476806640625
-0.311767578125 0.592041015625 0.5947418212890625
-0.2896728515625 0.6318359375 0.60015106201171875
-0.27764892578125 0.68212890625 0.5884857177734375
-0.225341796875 0.727783203125 0.59447860717773438
-0.18182373046875 0.73779296875 0.60731887817382812
-0.14422607421875 0.74755859375 0.63180160522460938
0.12908935546875 0.823486328125 0.5637969970703125
0.1004638671875 0.845703125 0.52878570556640625
0.0726318359375 0.838623046875 0.52391815185546875
0.02813720703125 0.82373046875 0.51470184326171875
0.00506591796875 0.828369140625 0.51250839233398438
-0.0084228515625 0.820556640625 0.52748489379882812
-0.27099609375 0.70849609375 0.558807373046875
-0.298583984375 0.728759765625 0.5581512451171875
-0.31304931640625 0.729736328125 0.558685302734375
-0.31256103515625 0.72265625 0.58092498779296875
-0.2772216796875 0.74609375 0.5962677001953125
-0.240478515625 0.7607421875 0.6236572265625
0.093994140625 0.7705078125 0.561981201171875
0.072265625 0.775634765625 0.5542449951171875
0.0528564453125 0.7939453125 0.50914764404296875
0.00848388671875 0.794677734375 0.48363494873046875
0.03302001953125 0.827392578125 0.5049896240234375
0.0316162109375 0.83056640625 0.51155853271484375
-0.3646240234375 0.671630859375 0.56182861328125
-0.4049072265625 0.596923828125 0.57635498046875
-0.45684814453125 0.539794921875 0.5917205810546875
-0.5123291015625 0.49462890625 0.602386474609375
-0.49127197265625 0.50146484375 0.657318115234375
-0.45880126953125 0.50146484375 0.68310546875
0.1697998046875 0.695556640625 0.5421905517578125
0.1566162109375 0.7080078125 0.504302978515625
0.14666748046875 0.7216796875 0.45794677734375
0.10552978515625 0.732421875 0.4344329833984375
0.0794677734375 0.757080078125 0.438751220703125
0.04656982421875 0.77392578125 0.474273681640625
-0.5836181640625 0.39794921875 0.571380615234375
-0.63623046875 0.3154296875 0.5514068603515625
-0.68402099609375 0.239501953125 0.5692596435546875
-0.698486328125 0.1787109375 0.616973876953125
-0.680908203125 0.202880859375 0.6520843505859375
-0.6563720703125 0.1982421875 0.69586181640625
0.25238037109375 0.5595703125 0.4818115234375
0.24273681640625 0.56787109375 0.45159912109375
0.24090576171875 0.584228515625 0.4051055908203125
0.21038818359375 0.639404296875 0.3778533935546875
0.18536376953125 0.674560546875 0.408111572265625
0.16204833984375 0.6865234375 0.4130706787109375
-0.748046875 0.12060546875 0.555267333984375
-0.77008056640625 0.068359375 0.5601959228515625
-0.78436279296875 -0.000244140625 0.5545654296875
-0.7794189453125 -0.058349609375 0.5909423828125
-0.76788330078125 -0.071044921875 0.628570556640625
-0.7532958984375 -0.069580078125 0.66546630859375
0.34881591796875 0.29931640625 0.4178314208984375
0.34814453125 0.302734375 0.39385986328125
0.34124755859375 0.33056640625 0.367156982421875
0.30950927734375 0.439453125 0.30145263671875
0.2833251953125 0.5048828125 0.33551025390625
0.25164794921875 0.55615234375 0.3497467041015625
-0.77972412109375 -0.141845703125 0.52325439453125
-0.76947021484375 -0.2392578125 0.4925079345703125
-0.74932861328125 -0.3310546875 0.475250244140625
-0.71429443359375 -0.41552734375 0.4700927734375
-0.70489501953125 -0.416015625 0.5096435546875
-0.70428466796875 -0.433349609375 0.530792236328125
0.38128662109375 0.0927734375 0.5392913818359375
0.377685546875 0.09716796875 0.5329132080078125
0.3714599609375 0.1181640625 0.5124664306640625
0.3741455078125 0.1591796875 0.429473876953125
0.36700439453125 0.2080078125 0.39862060546875
0.360107421875 0.2685546875 0.34588623046875
-0.6953125 -0.449951171875 0.427093505859375
-0.6602783203125 -0.489501953125 0.453369140625
-0.6448974609375 -0.501708984375 0.4535675048828125
-0.63531494140625 -0.527099609375 0.4977264404296875
-0.6295166015625 -0.53515625 0.5057525634765625
-0.635498046875 -0.541748046875 0.51568603515625
0.2967529296875 0.028564453125 0.68133544921875
0.293701171875 0.032470703125 0.6670074462890625
0.2857666015625 0.04150390625 0.6537933349609375
0.30963134765625 0.04736328125 0.615692138671875
0.33453369140625 0.058837890625 0.5614166259765625
0.35430908203125 0.084716796875 0.516754150390625
-0.60552978515625 -0.50146484375 0.5083770751953125
-0.587158203125 -0.468505859375 0.52680206298828125
-0.5516357421875 -0.4375 0.55886459350585938
-0.5281982421875 -0.41845703125 0.60083770751953125
-0.53607177734375 -0.43896484375 0.60835647583007812
-0.5333251953125 -0.43798828125 0.61133575439453125
0.17425537109375 -0.277099609375 0.8131561279296875
0.14208984375 -0.257568359375 0.80948638916015625
0.1082763671875 -0.254638671875 0.8100128173828125
0.049072265625 -0.257568359375 0.794891357421875
0.0328369140625 -0.244873046875 0.7941741943359375
0 -0.25634765625 0.78678512573242188
0.0306396484375 -0.249267578125 0.807403564453125
0.061279296875 -0.26513671875 0.805145263671875
0.09423828125 -0.251953125 0.79477691650390625
0.14556884765625 -0.2666015625 0.80750274658203125
0.160888671875 -0.27587890625 0.8082275390625
0.180908203125 -0.283203125 0.827880859375
-0.08343505859375 -0.270263671875 0.72288131713867188
-0.11810302734375 -0.2568359375 0.72872161865234375
-0.15216064453125 -0.27978515625 0.73173904418945312
-0.13677978515625 -0.269775390625 0.74141693115234375
-0.0960693359375 -0.260498046875 0.75800323486328125
-0.05322265625 -0.245849609375 0.76153564453125
0.0491943359375 -0.228271484375 0.77999496459960938
0.01812744140625 -0.2431640625 0.77423095703125
-0.0107421875 -0.248046875 0.76447296142578125
0.28515625 -0.232666015625 0.7280731201171875
0.26104736328125 -0.191162109375 0.728973388671875
0.24462890625 -0.1689453125 0.7274322509765625
0.18133544921875 -0.177978515625 0.73932647705078125
0.14337158203125 -0.21484375 0.7775726318359375
0.1162109375 -0.232666015625 0.792633056640625
0.229736328125 -0.27783203125 0.8058624267578125
0.2545166015625 -0.30078125 0.8108367919921875
0.27593994140625 -0.284912109375 0.7739410400390625
0.08013916015625 -0.1904296875 0.68278121948242188
0.0345458984375 -0.21630859375 0.70340728759765625
-0.00360107421875 -0.232177734375 0.74270248413085938
0.1983642578125 -0.139892578125 0.7193145751953125
0.1807861328125 -0.13818359375 0.677703857421875
0.1566162109375 -0.1220703125 0.67773818969726562
0.465087890625 -0.188232421875 0.592742919921875
0.476806640625 -0.13134765625 0.594482421875
0.48333740234375 -0.07861328125 0.59181976318359375
0.40478515625 -0.0498046875 0.618316650390625
0.3421630859375 -0.085693359375 0.6446380615234375
0.28033447265625 -0.1083984375 0.686431884765625
0.3359375 -0.271240234375 0.71600341796875
0.366455078125 -0.2734375 0.64599609375
0.40118408203125 -0.268798828125 0.61109161376953125
0.3104248046875 -0.024658203125 0.58731842041015625
0.24639892578125 -0.053955078125 0.59580230712890625
0.18023681640625 -0.09814453125 0.62675857543945312
0.4700927734375 -0.021240234375 0.5955352783203125
0.454345703125 -0.011474609375 0.57898712158203125
0.41015625 0.010009765625 0.56678009033203125
0.5029296875 -0.251708984375 0.5446624755859375
0.55389404296875 -0.28271484375 0.5095977783203125
0.6163330078125 -0.2998046875 0.498199462890625
0.6810302734375 -0.07421875 0.543853759765625
0.62615966796875 -0.062744140625 0.55152130126953125
0.5460205078125 -0.04833984375 0.5650634765625
0.57586669921875 -0.003662109375 0.517669677734375
0.5118408203125 -0.004150390625 0.526153564453125
0.453369140625 0.02685546875 0.544219970703125
0.42633056640625 -0.50634765625 0.5160369873046875
0.458984375 -0.54736328125 0.483795166015625
0.51776123046875 -0.564453125 0.4356536865234375
0.42926025390625 -0.324951171875 0.5699920654296875
0.41290283203125 -0.380126953125 0.54144287109375
0.404296875 -0.43896484375 0.5379791259765625
0.26934814453125 -0.05419921875 0.46759033203125
0.30279541015625 -0.042724609375 0.4938201904296875
0.33953857421875 -0.012939453125 0.51169204711914062
0.3848876953125 -0.075439453125 0.42528533935546875
0.32989501953125 -0.0625 0.42950820922851562
0.28057861328125 -0.075927734375 0.43900299072265625
0.43634033203125 -0.534423828125 0.64141845703125
0.48382568359375 -0.584228515625 0.61566162109375
0.53900146484375 -0.6298828125 0.57305908203125
0.39849853515625 -0.50390625 0.54974365234375
0.3944091796875 -0.492919921875 0.59747314453125
0.39337158203125 -0.498291015625 0.6472015380859375
0.09033203125 -0.180908203125 0.52132797241210938
0.14886474609375 -0.1416015625 0.48613739013671875
0.20281982421875 -0.104736328125 0.48131179809570312
0.18804931640625 -0.266845703125 0.46703338623046875
0.11871337890625 -0.2392578125 0.46500015258789062
0.06787109375 -0.230712890625 0.51692962646484375
0.41571044921875 -0.42822265625 0.7784881591796875
0.48193359375 -0.46484375 0.7488250732421875
0.5478515625 -0.533203125 0.694305419921875
0.395263671875 -0.455322265625 0.7286834716796875
0.392578125 -0.435302734375 0.762451171875
0.3721923828125 -0.4013671875 0.77759552001953125
-0.09686279296875 -0.3173828125 0.63519287109375
-0.0445556640625 -0.295654296875 0.61164474487304688
-0.00787353515625 -0.2587890625 0.5992279052734375
-0.03619384765625 -0.397216796875 0.564910888671875
-0.0849609375 -0.368896484375 0.59560012817382812
-0.1097412109375 -0.353271484375 0.63566207885742188
0.3653564453125 -0.428466796875 0.73003387451171875
0.34033203125 -0.3798828125 0.7426910400390625
0.31707763671875 -0.341796875 0.7211761474609375
0.24420166015625 -0.31005859375 0.8074798583984375
0.27093505859375 -0.3291015625 0.8193511962890625
0.3079833984375 -0.337158203125 0.80905914306640625
-0.1207275390625 -0.310546875 0.68051910400390625
-0.09759521484375 -0.291259765625 0.71468353271484375
-0.07501220703125 -0.269775390625 0.72420883178710938
0.09356689453125 -0.169921875 0.65921401977539062
0.0615234375 -0.201171875 0.62204742431640625
0.0430908203125 -0.214111328125 0.6095733642578125
0.164794921875 -0.257568359375 0.801422119140625
0.194091796875 -0.2431640625 0.8042449951171875
0.22998046875 -0.24462890625 0.815185546875
0.29156494140625 -0.273193359375 0.79863739013671875
0.314697265625 -0.302001953125 0.8128662109375
0.3353271484375 -0.347412109375 0.79213714599609375
-0.16015625 -0.350341796875 0.66018295288085938
-0.19488525390625 -0.34375 0.66700363159179688
-0.21820068359375 -0.338623046875 0.68834304809570312
-0.22705078125 -0.331787109375 0.71268081665039062
-0.212646484375 -0.308837890625 0.70000839233398438
-0.20001220703125 -0.295654296875 0.70374298095703125
0.31353759765625 -0.267822265625 0.78679656982421875
0.36981201171875 -0.27587890625 0.7972259521484375
0.41693115234375 -0.317626953125 0.7898101806640625
-0.22442626953125 -0.40625 0.6643524169921875
-0.2401123046875 -0.375 0.67748260498046875
-0.239990234375 -0.35400390625 0.68973541259765625
0.27996826171875 -0.155517578125 0.79974365234375
0.25262451171875 -0.157470703125 0.7942962646484375
0.22760009765625 -0.13818359375 0.7951507568359375
0.2001953125 -0.1201171875 0.77805328369140625
0.19384765625 -0.093017578125 0.7698516845703125
0.18658447265625 -0.077392578125 0.7568817138671875
0.1788330078125 -0.06005859375 0.78359222412109375
0.1873779296875 -0.070556640625 0.76673126220703125
0.18792724609375 -0.084716796875 0.785369873046875
-0.31060791015625 -0.277587890625 0.71053314208984375
-0.3179931640625 -0.285888671875 0.73857498168945312
-0.33001708984375 -0.2783203125 0.70500946044921875
-0.3560791015625 -0.29296875 0.69207000732421875
-0.34375 -0.299560546875 0.69147491455078125
-0.330078125 -0.293701171875 0.70125579833984375
-0.30255126953125 -0.30517578125 0.70945358276367188
-0.29315185546875 -0.324462890625 0.69884109497070312
-0.2843017578125 -0.33642578125 0.7030029296875
0.2454833984375 -0.2275390625 0.79437255859375
0.23028564453125 -0.192626953125 0.7946319580078125
0.20916748046875 -0.167724609375 0.769134521484375
-0.28521728515625 -0.30126953125 0.6980133056640625
-0.2640380859375 -0.31689453125 0.68492507934570312
-0.24945068359375 -0.32373046875 0.69993209838867188
0.1611328125 -0.000244140625 0.76053619384765625
0.1549072265625 -0.008056640625 0.774688720703125
0.157470703125 0.007568359375 0.78739166259765625
0.1634521484375 -0.03076171875 0.7518463134765625
0.15826416015625 -0.020263671875 0.77150726318359375
0.15960693359375 -0.00390625 0.782073974609375
-0.37286376953125 -0.259033203125 0.71638870239257812
-0.3607177734375 -0.261474609375 0.70310592651367188
-0.3504638671875 -0.2841796875 0.71193313598632812
-0.3641357421875 -0.270751953125 0.71205520629882812
-0.37445068359375 -0.26513671875 0.71193313598632812
-0.383544921875 -0.263916015625 0.69957351684570312
0.177734375 0.002685546875 0.731781005859375
0.20440673828125 0.03076171875 0.73468017578125
0.230224609375 0.025390625 0.710205078125
-0.4796142578125 -0.345947265625 0.6438446044921875
-0.4481201171875 -0.307373046875 0.68636703491210938
-0.41424560546875 -0.29345703125 0.69594192504882812
-0.20452880859375 -0.611328125 0.058612823486328125
-0.1434326171875 -0.563232421875 -0.0292816162109375
-0.05096435546875 -0.509033203125 -0.10120773315429688
0.08209228515625 -0.34326171875 -0.13408660888671875
0.12103271484375 -0.286376953125 -0.100799560546875
0.1605224609375 -0.222412109375 -0.039459228515625
0.10272216796875 -0.320068359375 0.0480804443359375
0.03912353515625 -0.421142578125 0.1231689453125
-0.00738525390625 -0.490966796875 0.1812591552734375
-0.11572265625 -0.579345703125 0.24205780029296875
-0.17138671875 -0.59765625 0.20359039306640625
-0.2257080078125 -0.61376953125 0.17798614501953125
-0.2794189453125 -0.614013671875 0.0659942626953125
-0.28765869140625 -0.603759765625 0.0302734375
-0.29547119140625 -0.60302734375 -0.0247039794921875
-0.2742919921875 -0.615234375 -0.12225341796875
-0.2406005859375 -0.610595703125 -0.16918182373046875
-0.2017822265625 -0.598388671875 -0.2345733642578125
-0.1240234375 -0.5390625 -0.27394866943359375
-0.0645751953125 -0.5068359375 -0.264129638671875
-0.0167236328125 -0.45849609375 -0.2218017578125
-0.311767578125 -0.55078125 0.3639984130859375
-0.31109619140625 -0.580078125 0.27278900146484375
-0.29156494140625 -0.615478515625 0.19732666015625
-0.07769775390625 -0.536376953125 0.31815338134765625
-0.09765625 -0.554443359375 0.41033172607421875
-0.0987548828125 -0.571533203125 0.45847320556640625
-0.14190673828125 -0.54296875 0.52422714233398438
-0.20843505859375 -0.525390625 0.514617919921875
-0.25775146484375 -0.50537109375 0.47742843627929688
-0.31768798828125 -0.5009765625 0.39577484130859375
-0.32489013671875 -0.482177734375 0.34235763549804688
-0.3310546875 -0.473876953125 0.28776931762695312
-0.34002685546875 -0.531494140625 0.17010498046875
-0.329345703125 -0.5537109375 0.0882568359375
-0.31658935546875 -0.594970703125 0.008544921875
-0.154296875 -0.325439453125 0.6812744140625
-0.2076416015625 -0.392333984375 0.61214828491210938
-0.2568359375 -0.443603515625 0.52886581420898438
-0.0509033203125 -0.47021484375 0.603240966796875
-0.00634765625 -0.413330078125 0.65581512451171875
0.03363037109375 -0.35498046875 0.6954498291015625
0.0291748046875 -0.30908203125 0.7598876953125
-0.01800537109375 -0.314208984375 0.75977325439453125
-0.06256103515625 -0.3017578125 0.75342178344726562
-0.154052734375 -0.286376953125 0.71714019775390625
-0.18975830078125 -0.305908203125 0.67650604248046875
-0.232666015625 -0.3193359375 0.65471649169921875
-0.30059814453125 -0.378173828125 0.53821945190429688
-0.32037353515625 -0.397705078125 0.43555068969726562
-0.33740234375 -0.45166015625 0.35931015014648438
-0.02850341796875 -0.257080078125 0.77257537841796875
-0.046630859375 -0.2705078125 0.79020309448242188
-0.07525634765625 -0.2783203125 0.7641754150390625
0.09503173828125 -0.276611328125 0.7764739990234375
0.10406494140625 -0.27685546875 0.79779052734375
0.118408203125 -0.26220703125 0.80512237548828125
-0.18743896484375 -0.28173828125 0.71157455444335938
-0.2108154296875 -0.291015625 0.69146347045898438
-0.23199462890625 -0.30126953125 0.66173171997070312
0.12884521484375 -0.249267578125 0.77635955810546875
0.16119384765625 -0.224365234375 0.75449371337890625
0.18853759765625 -0.18359375 0.77117919921875
-0.2979736328125 -0.30224609375 0.64857101440429688
-0.2882080078125 -0.3271484375 0.65349578857421875
-0.28436279296875 -0.33544921875 0.64664077758789062
0.33624267578125 0.41357421875 0.1483612060546875
0.33734130859375 0.394287109375 0.2101287841796875
0.331298828125 0.370361328125 0.275970458984375
0.36944580078125 0.105712890625 0.4255218505859375
0.38446044921875 0.072265625 0.404083251953125
0.3885498046875 0.0185546875 0.330902099609375
0.3997802734375 0.09521484375 0.231689453125
0.3919677734375 0.234375 0.175811767578125
0.36895751953125 0.32861328125 0.12152099609375
-0.7169189453125 -0.490966796875 0.16888427734375
-0.6680908203125 -0.515869140625 0.15625
-0.61724853515625 -0.56689453125 0.1663970947265625
-0.5953369140625 -0.550048828125 0.27056884765625
-0.60809326171875 -0.533203125 0.3445281982421875
-0.617919921875 -0.52001953125 0.40372467041015625
-0.73052978515625 -0.40869140625 0.38385009765625
-0.7401123046875 -0.389404296875 0.3292236328125
-0.7530517578125 -0.400390625 0.2479095458984375
0.15020751953125 -0.24560546875 -0.27825164794921875
0.26776123046875 -0.038330078125 -0.35306930541992188
0.36529541015625 0.189453125 -0.42303466796875
0.47674560546875 0.538818359375 -0.4326019287109375
0.48974609375 0.63134765625 -0.4117889404296875
0.47906494140625 0.7021484375 -0.3901214599609375
0.4290771484375 0.50927734375 -0.2929229736328125
0.3704833984375 0.24365234375 -0.19207763671875
0.28021240234375 0.026123046875 -0.11054229736328125
-0.114501953125 -0.51806640625 -0.37545013427734375
-0.0703125 -0.423828125 -0.44952392578125
-0.0179443359375 -0.312255859375 -0.52704620361328125
0.129150390625 -0.0400390625 -0.5814666748046875
0.2506103515625 0.108642578125 -0.564453125
0.3624267578125 0.257080078125 -0.51632308959960938
-0.05743408203125 0.945556640625 -0.31584548950195312
-0.09429931640625 0.960205078125 -0.22857284545898438
-0.13262939453125 0.958984375 -0.12978744506835938
-0.08660888671875 0.95751953125 -0.027576446533203125
-0.02532958984375 0.92578125 -0.01235198974609375
0.01800537109375 0.953125 -0.0227508544921875
0.07623291015625 0.947509765625 -0.121429443359375
0.107666015625 0.965087890625 -0.19329071044921875
0.12994384765625 0.97314453125 -0.2589874267578125
0.15179443359375 0.98974609375 -0.3033599853515625
0.1143798828125 0.953369140625 -0.3055572509765625
0.07269287109375 0.964599609375 -0.33528900146484375
-0.0784912109375 0.904541015625 -0.399017333984375
-0.1807861328125 0.859130859375 -0.42024993896484375
-0.2913818359375 0.795654296875 -0.46752166748046875
-0.4671630859375 0.74169921875 -0.41490936279296875
-0.52978515625 0.766357421875 -0.3310699462890625
-0.5682373046875 0.763916015625 -0.207733154296875
-0.4862060546875 0.835693359375 -0.09244537353515625
-0.37469482421875 0.8896484375 -0.06233978271484375
-0.2633056640625 0.92919921875 -0.0433197021484375
0.255126953125 0.909912109375 -0.44641494750976562
0.16058349609375 0.92578125 -0.43174362182617188
0.071533203125 0.92333984375 -0.39757156372070312
0.20068359375 1.017578125 -0.3690185546875
0.2479248046875 1.0615234375 -0.4033203125
0.28668212890625 1.1103515625 -0.425323486328125
0.34637451171875 1.095458984375 -0.439727783203125
0.35650634765625 1.040771484375 -0.44205474853515625
0.36376953125 0.984375 -0.45081710815429688
0.27362060546875 0.79736328125 -0.50653457641601562
0.1744384765625 0.673828125 -0.58380889892578125
0.0540771484375 0.55810546875 -0.60747528076171875
-0.1363525390625 0.531005859375 -0.6176910400390625
-0.2208251953125 0.606201171875 -0.5870513916015625
-0.30517578125 0.660888671875 -0.542999267578125
0.4710693359375 0.607177734375 -0.49197006225585938
0.45166015625 0.74951171875 -0.4914093017578125
0.40863037109375 0.847900390625 -0.49053955078125
0.38348388671875 1.128662109375 -0.4559783935546875
0.43878173828125 1.069580078125 -0.4456329345703125
0.471923828125 0.949951171875 -0.407562255859375
0.0244140625 -0.010986328125 -0.635528564453125
0.0146484375 0.15625 -0.6431121826171875
-0.0164794921875 0.309326171875 -0.6551055908203125
0.10626220703125 0.769287109375 0.2575531005859375
0.11822509765625 0.743408203125 0.3122711181640625
0.12176513671875 0.734619140625 0.3724212646484375
0.23193359375 0.627685546875 0.336669921875
0.21319580078125 0.65234375 0.27679443359375
0.20391845703125 0.660400390625 0.2321624755859375
0.16717529296875 0.739990234375 0.1949462890625
0.153564453125 0.760009765625 0.182342529296875
0.124755859375 0.77294921875 0.199981689453125
-0.8038330078125 0.14208984375 0.309234619140625
-0.823486328125 0.09814453125 0.30816650390625
-0.8311767578125 0.04296875 0.3272705078125
-0.825927734375 -0.04443359375 0.405853271484375
-0.80877685546875 -0.058349609375 0.445220947265625
-0.7965087890625 -0.06005859375 0.505859375
-0.73797607421875 0.16650390625 0.521331787109375
-0.74560546875 0.155029296875 0.44451904296875
-0.7650146484375 0.16796875 0.3827972412109375
0.1064453125 0.91552734375 -0.040863037109375
0.09375 0.87744140625 0.0386199951171875
0.094482421875 0.83544921875 0.1132354736328125
0.18780517578125 0.735595703125 0.094329833984375
0.1922607421875 0.780029296875 0.05780029296875
0.187744140625 0.81591796875 -0.0286102294921875
0.17376708984375 0.887451171875 -0.096038818359375
0.14886474609375 0.91064453125 -0.1059722900390625
0.13909912109375 0.922119140625 -0.117950439453125
-0.8948974609375 0.27734375 -0.14825439453125
-0.92626953125 0.182373046875 -0.1245574951171875
-0.9473876953125 0.106201171875 -0.07586669921875
-0.9371337890625 0.018798828125 0.0635986328125
-0.90185546875 0.00830078125 0.153106689453125
-0.8770751953125 -0.015380859375 0.238250732421875
-0.80615234375 0.247314453125 0.18695068359375
-0.829833984375 0.293701171875 0.078582763671875
-0.85302734375 0.325439453125 -0.059722900390625
0.17864990234375 1.0283203125 -0.31085205078125
0.15093994140625 0.9921875 -0.2528076171875
0.12799072265625 0.966796875 -0.1907958984375
0.20208740234375 0.91015625 -0.1599884033203125
0.20953369140625 0.9296875 -0.221527099609375
0.22052001953125 0.958740234375 -0.2668304443359375
0.2301025390625 1.034912109375 -0.3415374755859375
0.213134765625 1.044921875 -0.3438720703125
0.20867919921875 1.06787109375 -0.3567047119140625
-0.7349853515625 0.17431640625 -0.5137481689453125
-0.794189453125 0.085205078125 -0.4776611328125
-0.83837890625 0.0009765625 -0.438262939453125
-0.91259765625 -0.0400390625 -0.3125457763671875
-0.9442138671875 -0.00390625 -0.2327880859375
-0.9588623046875 0.0146484375 -0.151580810546875
-0.8270263671875 0.35107421875 -0.29632568359375
-0.7860107421875 0.34130859375 -0.38543701171875
-0.7327880859375 0.308837890625 -0.4717254638671875
0.3048095703125 1.167724609375 -0.45672607421875
0.26513671875 1.142822265625 -0.4313812255859375
0.23138427734375 1.09619140625 -0.388031005859375
0.26953125 1.031494140625 -0.356414794921875
0.29351806640625 1.064453125 -0.38818359375
0.32513427734375 1.07373046875 -0.4044342041015625
0.34503173828125 1.115234375 -0.4276580810546875
0.3577880859375 1.14697265625 -0.4263916015625
0.3511962890625 1.169189453125 -0.4454193115234375
-0.4708251953125 -0.10107421875 -0.64697265625
-0.544677734375 -0.182861328125 -0.609771728515625
-0.60302734375 -0.234619140625 -0.581756591796875
-0.6785888671875 -0.24609375 -0.52459716796875
-0.75048828125 -0.190185546875 -0.5052337646484375
-0.80859375 -0.128173828125 -0.4423675537109375
-0.5980224609375 0.211669921875 -0.591033935546875
-0.512939453125 0.16650390625 -0.63360595703125
-0.450439453125 0.085693359375 -0.65960693359375
0.36187744140625 1.048828125 -0.385101318359375
0.40142822265625 0.961669921875 -0.34881591796875
0.417724609375 0.85400390625 -0.2990875244140625
0.43603515625 0.693603515625 -0.2370147705078125
0.44024658203125 0.695556640625 -0.22607421875
0.44110107421875 0.703125 -0.258819580078125
0.44384765625 0.924560546875 -0.356353759765625
0.4288330078125 1.060302734375 -0.394866943359375
0.39056396484375 1.148681640625 -0.4326171875
-0.3585205078125 -0.123291015625 -0.66522216796875
-0.3277587890625 -0.247314453125 -0.617462158203125
-0.31005859375 -0.36865234375 -0.59326171875
-0.3612060546875 -0.502197265625 -0.5181732177734375
-0.414306640625 -0.53955078125 -0.490447998046875
-0.4658203125 -0.5517578125 -0.4654388427734375
-0.5692138671875 -0.494140625 -0.4730072021484375
-0.5994873046875 -0.4208984375 -0.500640869140625
-0.6239013671875 -0.338134765625 -0.533935546875
0.45025634765625 0.74658203125 -0.282257080078125
0.45477294921875 0.761474609375 -0.3192291259765625
0.4652099609375 0.7529296875 -0.332427978515625
0.330322265625 1.16064453125 -0.4388427734375
0.3377685546875 1.18310546875 -0.447509765625
0.3355712890625 1.181884765625 -0.45196533203125
-0.321044921875 0.0888671875 -0.6826629638671875
-0.25439453125 0.212646484375 -0.668853759765625
-0.1654052734375 0.331298828125 -0.667022705078125
-0.0853271484375 -0.26123046875 -0.592437744140625
-0.1646728515625 -0.34814453125 -0.58123779296875
-0.23779296875 -0.41162109375 -0.55535888671875
0.17767333984375 1.01416015625 -0.3219146728515625
0.182373046875 1.037841796875 -0.3381195068359375
0.19287109375 1.052001953125 -0.3461456298828125
-0.6180419921875 0.385009765625 -0.5399169921875
-0.5555419921875 0.4873046875 -0.52691650390625
-0.4837646484375 0.60400390625 -0.5190887451171875
0.07342529296875 0.930908203125 -0.05462646484375
0.08172607421875 0.948974609375 -0.089752197265625
0.0955810546875 0.950439453125 -0.1109466552734375
-0.8062744140625 0.45556640625 -0.17559814453125
-0.7535400390625 0.554931640625 -0.1656951904296875
-0.6868896484375 0.646728515625 -0.1383056640625
0.02032470703125 0.9326171875 0.05621337890625
-0.005615234375 0.900390625 0.1435394287109375
-0.02490234375 0.86865234375 0.24072265625
0.01312255859375 0.8408203125 0.2633819580078125
0.0418701171875 0.839111328125 0.2435760498046875
0.07421875 0.8076171875 0.1966094970703125
-0.75732421875 0.269287109375 0.2982177734375
-0.7137451171875 0.336669921875 0.321136474609375
-0.65301513671875 0.4033203125 0.345733642578125
-0.59619140625 0.554443359375 0.28485107421875
-0.605224609375 0.630126953125 0.1556549072265625
-0.6031494140625 0.709716796875 0.0243377685546875
-0.02313232421875 0.807861328125 0.371490478515625
-0.01226806640625 0.7998046875 0.4063262939453125
0.00018310546875 0.787353515625 0.455047607421875
-0.54583740234375 0.423828125 0.54869842529296875
-0.55792236328125 0.421142578125 0.5000152587890625
-0.57476806640625 0.452880859375 0.430633544921875
-0.19775390625 0.916748046875 0.092529296875
-0.2159423828125 0.87353515625 0.23469924926757812
-0.23675537109375 0.796875 0.3632965087890625
-0.1806640625 0.764892578125 0.42348861694335938
-0.1229248046875 0.818603515625 0.37377548217773438
-0.07220458984375 0.833251953125 0.34356689453125
-0.4991455078125 0.5556640625 0.4037933349609375
-0.40899658203125 0.62890625 0.412628173828125
-0.33538818359375 0.688720703125 0.4555816650390625
-0.0382080078125 0.796630859375 0.5039215087890625
-0.08770751953125 0.773681640625 0.5213775634765625
-0.1287841796875 0.739013671875 0.54428863525390625
-0.3594970703125 0.558349609375 0.566070556640625
-0.4039306640625 0.53076171875 0.555816650390625
-0.45953369140625 0.495361328125 0.554840087890625
-0.21246337890625 0.716064453125 0.52197647094726562
-0.1968994140625 0.6875 0.55379867553710938
-0.18255615234375 0.685546875 0.5449371337890625
-0.3291015625 0.57763671875 0.5911102294921875
-0.3214111328125 0.599365234375 0.57442855834960938
-0.29827880859375 0.6376953125 0.53180694580078125
-0.26318359375 0.662109375 0.56015777587890625
-0.263671875 0.629150390625 0.58206939697265625
-0.26934814453125 0.580078125 0.62110519409179688
0.296875 0.531494140625 0.078765869140625
0.2645263671875 0.605712890625 0.1080780029296875
0.22808837890625 0.674072265625 0.1525115966796875
-0.847900390625 -0.13427734375 0.3008880615234375
-0.838623046875 -0.227294921875 0.2535552978515625
-0.8092041015625 -0.3173828125 0.23065185546875
0.3402099609375 0.48095703125 0.0269012451171875
0.3377685546875 0.527099609375 -0.00164794921875
0.3314208984375 0.56884765625 -0.0465850830078125
0.2962646484375 0.70654296875 -0.109832763671875
0.25396728515625 0.783203125 -0.11480712890625
0.21832275390625 0.820068359375 -0.1036376953125
-0.943115234375 -0.1005859375 -0.02972412109375
-0.9185791015625 -0.207763671875 -0.0428619384765625
-0.8709716796875 -0.317138671875 -0.042022705078125
-0.7965087890625 -0.416015625 0.000335693359375
-0.7960205078125 -0.418212890625 0.063140869140625
-0.7818603515625 -0.408203125 0.136016845703125
0.3299560546875 0.6904296875 -0.14013671875
0.3338623046875 0.7275390625 -0.19342041015625
0.34429931640625 0.7607421875 -0.2259521484375
0.3231201171875 0.8466796875 -0.2596282958984375
0.29473876953125 0.9130859375 -0.2887115478515625
0.26544189453125 0.956298828125 -0.2972412109375
-0.858154296875 -0.19189453125 -0.33544921875
-0.835205078125 -0.289306640625 -0.313934326171875
-0.806396484375 -0.37451171875 -0.297271728515625
-0.7972412109375 -0.4130859375 -0.209716796875
-0.814208984375 -0.39990234375 -0.18560791015625
-0.8172607421875 -0.39990234375 -0.1237945556640625
0.37274169921875 0.803466796875 -0.2738189697265625
0.38958740234375 0.812255859375 -0.2673187255859375
0.41607666015625 0.78857421875 -0.263153076171875
-0.6182861328125 -0.530517578125 -0.399505615234375
-0.68115234375 -0.480712890625 -0.381591796875
-0.732666015625 -0.46826171875 -0.327606201171875
0.18865966796875 -0.2265625 0.645599365234375
0.1429443359375 -0.282958984375 0.68453216552734375
0.1170654296875 -0.2841796875 0.72138214111328125
-0.019775390625 -0.50048828125 0.5113372802734375
0.03375244140625 -0.454345703125 0.48272705078125
0.08880615234375 -0.435302734375 0.46488189697265625
0.1561279296875 -0.3466796875 0.489990234375
0.1800537109375 -0.310791015625 0.5287017822265625
0.2083740234375 -0.24560546875 0.577789306640625
-0.43359375 -0.47314453125 0.3671112060546875
-0.4200439453125 -0.498779296875 0.286468505859375
-0.4034423828125 -0.52001953125 0.209625244140625
-0.37310791015625 -0.506591796875 0.15735626220703125
-0.3590087890625 -0.50830078125 0.192718505859375
-0.34783935546875 -0.498046875 0.23319244384765625
-0.32574462890625 -0.3583984375 0.57043075561523438
-0.36480712890625 -0.39208984375 0.52393341064453125
-0.40191650390625 -0.39990234375 0.48595046997070312
0.3109130859375 -0.248046875 0.3491363525390625
0.33740234375 -0.187744140625 0.3281402587890625
0.36639404296875 -0.132568359375 0.3210601806640625
0.35845947265625 -0.0986328125 0.38153076171875
0.3280029296875 -0.1298828125 0.468719482421875
0.2833251953125 -0.141357421875 0.529266357421875
0.18304443359375 -0.347900390625 0.4161529541015625
0.2218017578125 -0.31201171875 0.3768310546875
0.26025390625 -0.29931640625 0.35614013671875
-0.430419921875 -0.609619140625 0.0210418701171875
-0.4189453125 -0.57421875 0.0655670166015625
-0.40008544921875 -0.56005859375 0.080108642578125
-0.49658203125 -0.47802734375 0.37561798095703125
-0.51629638671875 -0.53173828125 0.3223114013671875
-0.549560546875 -0.571533203125 0.238616943359375
-0.5267333984375 -0.59765625 0.1355133056640625
-0.4959716796875 -0.606201171875 0.087738037109375
-0.46478271484375 -0.6015625 0.0474853515625
0.2728271484375 0.00927734375 0.63372802734375
0.27386474609375 -0.04296875 0.625701904296875
0.2625732421875 -0.090576171875 0.623138427734375
-0.47601318359375 -0.427490234375 0.5021820068359375
-0.49652099609375 -0.421630859375 0.5370941162109375
-0.51422119140625 -0.38525390625 0.56162261962890625
0.233154296875 0.014892578125 0.70513916015625
0.2117919921875 -0.017333984375 0.726043701171875
0.192626953125 -0.02880859375 0.75251007080078125
0.20196533203125 -0.134765625 0.7621612548828125
0.20550537109375 -0.152587890625 0.71807861328125
0.22125244140625 -0.151611328125 0.6667022705078125
-0.4178466796875 -0.390625 0.542724609375
-0.383056640625 -0.359130859375 0.59865188598632812
-0.3468017578125 -0.325927734375 0.66136550903320312
-0.3851318359375 -0.2998046875 0.68057632446289062
-0.43389892578125 -0.317138671875 0.64800262451171875
-0.47442626953125 -0.37158203125 0.63013076782226562
0.4288330078125 0.484130859375 -0.137359619140625
0.403564453125 0.28857421875 -0.04534912109375
0.36663818359375 0.082275390625 0.041534423828125
0.3045654296875 -0.073486328125 0.128326416015625
0.28143310546875 -0.08837890625 0.1074066162109375
0.2603759765625 -0.12255859375 0.105194091796875
0.30572509765625 0.031982421875 -0.00567626953125
0.375 0.27734375 -0.089385986328125
0.42401123046875 0.5107421875 -0.1914215087890625
-0.2877197265625 -0.5361328125 -0.485198974609375
-0.2913818359375 -0.5751953125 -0.398712158203125
-0.29638671875 -0.617431640625 -0.330657958984375
-0.3291015625 -0.626220703125 -0.258453369140625
-0.3580322265625 -0.638427734375 -0.2384033203125
-0.384521484375 -0.6416015625 -0.2383880615234375
-0.40576171875 -0.646728515625 -0.2849578857421875
-0.429931640625 -0.657958984375 -0.34222412109375
-0.46923828125 -0.605712890625 -0.388214111328125
0.225830078125 -0.146240234375 0.0572509765625
0.22491455078125 -0.11083984375 0.0266265869140625
0.2132568359375 -0.13134765625 0.0062713623046875
-0.2027587890625 -0.583251953125 -0.2914276123046875
-0.2354736328125 -0.599365234375 -0.2961883544921875
-0.2769775390625 -0.609375 -0.278656005859375
0.29241943359375 -0.194580078125 0.2036285400390625
0.27703857421875 -0.250732421875 0.25860595703125
0.2806396484375 -0.2978515625 0.2919921875
0.13275146484375 -0.384765625 0.3642578125
0.1383056640625 -0.35888671875 0.2989654541015625
0.166748046875 -0.2958984375 0.21123504638671875
-0.3372802734375 -0.600341796875 -0.1462554931640625
-0.3563232421875 -0.59326171875 -0.0621490478515625
-0.37158203125 -0.56005859375 0.04242706298828125
-0.4178466796875 -0.639404296875 -0.03143310546875
-0.401611328125 -0.631591796875 -0.10430908203125
-0.398193359375 -0.648681640625 -0.1804351806640625
0.0120849609375 -0.471923828125 0.2576141357421875
0.07537841796875 -0.405517578125 0.2306671142578125
0.14215087890625 -0.330810546875 0.19219207763671875
-0.3021240234375 -0.6171875 -0.168365478515625
-0.30322265625 -0.61669921875 -0.134307861328125
-0.3062744140625 -0.60400390625 -0.1090545654296875
0.3780517578125 1.034423828125 -0.408294677734375
0.37359619140625 1.070556640625 -0.408203125
0.369384765625 1.091064453125 -0.431365966796875
0.38055419921875 1.07666015625 -0.4002685546875
0.3826904296875 1.019287109375 -0.378936767578125
0.3759765625 0.95654296875 -0.352294921875
0.37286376953125 0.903076171875 -0.3309173583984375
0.374267578125 0.86962890625 -0.294677734375
0.3765869140625 0.85595703125 -0.304443359375
0.38397216796875 0.873779296875 -0.303680419921875
0.3807373046875 0.926513671875 -0.343505859375
0.383544921875 0.97998046875 -0.3641357421875
-0.8863525390625 -0.596923828125 -0.399261474609375
-0.8660888671875 -0.567626953125 -0.36370849609375
-0.846435546875 -0.54541015625 -0.35296630859375
-0.8311767578125 -0.516845703125 -0.333251953125
-0.828857421875 -0.508056640625 -0.333709716796875
-0.8328857421875 -0.512451171875 -0.34600830078125
-0.828857421875 -0.515380859375 -0.387054443359375
-0.850830078125 -0.54931640625 -0.4244384765625
-0.880126953125 -0.5615234375 -0.447052001953125
-0.9205322265625 -0.590576171875 -0.43951416015625
-0.9263916015625 -0.5869140625 -0.432281494140625
-0.91455078125 -0.606689453125 -0.4290771484375
0.34002685546875 1.27099609375 -0.497955322265625
0.3511962890625 1.247314453125 -0.4814453125
0.3692626953125 1.177490234375 -0.46484375
0.37957763671875 1.0791015625 -0.41192626953125
0.36944580078125 1.108154296875 -0.43157958984375
0.3631591796875 1.16259765625 -0.44793701171875
0.34149169921875 1.201416015625 -0.463104248046875
0.329345703125 1.233642578125 -0.47100830078125
0.3240966796875 1.274658203125 -0.493316650390625
-1.0252685546875 -0.830322265625 -0.44873046875
-1.019287109375 -0.80517578125 -0.451019287109375
-0.9976806640625 -0.809814453125 -0.437255859375
-0.9686279296875 -0.76416015625 -0.44744873046875
-0.948974609375 -0.712646484375 -0.441314697265625
-0.923583984375 -0.66015625 -0.42425537109375
-0.928955078125 -0.658935546875 -0.485076904296875
-0.9569091796875 -0.707763671875 -0.491607666015625
-0.9942626953125 -0.775146484375 -0.481353759765625
0.277587890625 1.1854248046875 -0.44879150390625
0.28851318359375 1.2672119140625 -0.48394775390625
0.299560546875 1.2919921875 -0.495269775390625
0.34295654296875 1.16455078125 -0.450347900390625
0.3333740234375 1.121826171875 -0.441741943359375
0.33251953125 1.0771484375 -0.413238525390625
0.3170166015625 1.006591796875 -0.40447998046875
0.3013916015625 1.01611328125 -0.397491455078125
0.28887939453125 1.0450439453125 -0.40313720703125
-0.972900390625 -0.978759765625 -0.376708984375
-0.95458984375 -0.96240234375 -0.37689208984375
-0.9334716796875 -0.943115234375 -0.38079833984375
-0.951416015625 -0.920166015625 -0.3780517578125
-0.974853515625 -0.88525390625 -0.39794921875
-0.9898681640625 -0.86181640625 -0.410125732421875
-1.0384521484375 -0.890869140625 -0.4375
-1.0457763671875 -0.94970703125 -0.403717041015625
-1.0311279296875 -0.965576171875 -0.390899658203125
0.2869873046875 0.582763671875 -0.2652587890625
0.28643798828125 0.77490234375 -0.321319580078125
0.27880859375 0.9366455078125 -0.37847900390625
0.33453369140625 0.859130859375 -0.354827880859375
0.33795166015625 0.71484375 -0.3077392578125
0.34136962890625 0.547119140625 -0.258544921875
0.340576171875 0.371826171875 -0.193450927734375
0.32513427734375 0.373779296875 -0.195098876953125
0.31304931640625 0.36865234375 -0.1982421875
-0.60888671875 -0.93994140625 -0.43963623046875
-0.6202392578125 -0.91455078125 -0.42694091796875
-0.6171875 -0.91845703125 -0.419403076171875
-0.6920166015625 -0.922607421875 -0.41558837890625
-0.7672119140625 -0.93701171875 -0.383636474609375
-0.84326171875 -0.940185546875 -0.37640380859375
-0.90234375 -0.9951171875 -0.37109375
-0.8040771484375 -0.987060546875 -0.39324951171875
-0.700927734375 -0.964599609375 -0.4205322265625
0.3292236328125 -0.15185546875 -0.012115478515625
0.32489013671875 0.013916015625 -0.067596435546875
0.310546875 0.18359375 -0.159942626953125
0.35784912109375 0.23095703125 -0.1405029296875
0.36187744140625 0.0830078125 -0.096466064453125
0.37066650390625 -0.023681640625 -0.03228759765625
0.37225341796875 -0.158447265625 0.01580810546875
0.366943359375 -0.201171875 0.03778076171875
0.35418701171875 -0.216552734375 0.05657958984375
-0.4278564453125 -0.84326171875 -0.411041259765625
-0.439453125 -0.823974609375 -0.387908935546875
-0.4541015625 -0.830078125 -0.368896484375
-0.483154296875 -0.852294921875 -0.411102294921875
-0.51025390625 -0.86962890625 -0.422119140625
-0.5548095703125 -0.897216796875 -0.411834716796875
-0.5225830078125 -0.9140625 -0.466827392578125
-0.4561767578125 -0.87255859375 -0.478729248046875
-0.420166015625 -0.85400390625 -0.456695556640625
0.35089111328125 -0.36962890625 0.2033233642578125
0.35516357421875 -0.35400390625 0.1613922119140625
0.34619140625 -0.315673828125 0.1147613525390625
0.38763427734375 -0.174560546875 0.049896240234375
0.39947509765625 -0.20849609375 0.09405517578125
0.4029541015625 -0.22265625 0.1468048095703125
0.38958740234375 -0.26416015625 0.194580078125
0.38568115234375 -0.2880859375 0.2240753173828125
0.371337890625 -0.332763671875 0.239990234375
-0.4443359375 -0.725830078125 -0.143035888671875
-0.4669189453125 -0.731201171875 -0.14794921875
-0.4659423828125 -0.732666015625 -0.144989013671875
-0.4764404296875 -0.775146484375 -0.2108306884765625
-0.46728515625 -0.7783203125 -0.260833740234375
-0.4561767578125 -0.8046875 -0.3215789794921875
-0.4061279296875 -0.8076171875 -0.377777099609375
-0.41650390625 -0.790771484375 -0.293701171875
-0.4290771484375 -0.758544921875 -0.237884521484375
0.3831787109375 -0.078369140625 -0.00726318359375
0.39495849609375 -0.040283203125 -0.015167236328125
0.389892578125 -0.00732421875 -0.03173828125
0.40216064453125 -0.046142578125 0.005218505859375
0.40118408203125 -0.078369140625 0.0485076904296875
0.40423583984375 -0.107666015625 0.069488525390625
0.4112548828125 -0.126953125 0.0978240966796875
0.4051513671875 -0.15185546875 0.1182403564453125
0.40289306640625 -0.18017578125 0.1512298583984375
-0.484130859375 -0.731201171875 -0.17620849609375
-0.4874267578125 -0.7509765625 -0.193756103515625
-0.4871826171875 -0.740478515625 -0.2082672119140625
-0.4881591796875 -0.7626953125 -0.27740478515625
-0.4776611328125 -0.787353515625 -0.3161468505859375
-0.469482421875 -0.8115234375 -0.35284423828125
-0.4757080078125 -0.8447265625 -0.3839111328125
-0.4725341796875 -0.830078125 -0.3697509765625
-0.4708251953125 -0.8291015625 -0.378997802734375
0.3612060546875 0.406982421875 -0.191131591796875
0.3587646484375 0.41455078125 -0.189178466796875
0.366943359375 0.41943359375 -0.197998046875
0.37274169921875 0.326416015625 -0.163909912109375
0.375732421875 0.1953125 -0.11669921875
0.3885498046875 0.10205078125 -0.068328857421875
-0.4903564453125 -0.852783203125 -0.416290283203125
-0.5135498046875 -0.870361328125 -0.43084716796875
-0.550537109375 -0.892822265625 -0.438812255859375
-0.6007080078125 -0.916748046875 -0.424346923828125
-0.607421875 -0.912109375 -0.421051025390625
-0.6170654296875 -0.90673828125 -0.421295166015625
0.34637451171875 0.949951171875 -0.382781982421875
0.34991455078125 0.93310546875 -0.375244140625
0.35528564453125 0.931884765625 -0.364776611328125
0.36126708984375 0.837646484375 -0.3250732421875
0.36065673828125 0.713623046875 -0.2889404296875
0.36260986328125 0.58251953125 -0.23681640625
-0.6485595703125 -0.92724609375 -0.425201416015625
-0.7047119140625 -0.933349609375 -0.410614013671875
-0.763427734375 -0.93212890625 -0.41436767578125
-0.825439453125 -0.9306640625 -0.406494140625
-0.857421875 -0.933837890625 -0.393218994140625
-0.8824462890625 -0.93505859375 -0.379425048828125
0.3636474609375 1.15478515625 -0.4554443359375
0.3740234375 1.1240234375 -0.441741943359375
0.37445068359375 1.135498046875 -0.426849365234375
0.3712158203125 1.109130859375 -0.4189453125
0.367431640625 1.078369140625 -0.406097412109375
0.35809326171875 1.012451171875 -0.4007568359375
-0.8436279296875 -0.9267578125 -0.40887451171875
-0.8646240234375 -0.91064453125 -0.41375732421875
-0.871826171875 -0.883056640625 -0.42974853515625
-0.9012451171875 -0.8427734375 -0.42901611328125
-0.9232177734375 -0.823486328125 -0.42706298828125
-0.9521484375 -0.813232421875 -0.43621826171875
0.38580322265625 0.998779296875 -0.388153076171875
0.40045166015625 0.989990234375 -0.373199462890625
0.4111328125 0.964599609375 -0.366943359375
0.409912109375 1.021484375 -0.39520263671875
0.40557861328125 1.061279296875 -0.404541015625
0.39764404296875 1.0986328125 -0.431884765625
-0.8590087890625 -0.8232421875 -0.444183349609375
-0.84814453125 -0.775146484375 -0.440582275390625
-0.825927734375 -0.743896484375 -0.424072265625
-0.8365478515625 -0.685302734375 -0.41802978515625
-0.856689453125 -0.664306640625 -0.40936279296875
-0.8797607421875 -0.646240234375 -0.40338134765625
0.3992919921875 0.8125 -0.29443359375
0.40155029296875 0.801025390625 -0.28521728515625
0.406494140625 0.8056640625 -0.281402587890625
0.419677734375 0.83154296875 -0.3011474609375
0.42803955078125 0.877197265625 -0.3236083984375
0.416748046875 0.9267578125 -0.348876953125
-0.8038330078125 -0.6806640625 -0.397796630859375
-0.7940673828125 -0.652587890625 -0.382568359375
-0.7818603515625 -0.638916015625 -0.36773681640625
-0.77880859375 -0.609130859375 -0.331268310546875
-0.7965087890625 -0.595458984375 -0.3212890625
-0.8182373046875 -0.56396484375 -0.32647705078125
0.39599609375 0.04638671875 0.185333251953125
0.4017333984375 0.018798828125 0.2014923095703125
0.39984130859375 -0.00830078125 0.2492218017578125
0.3265380859375 -0.241943359375 0.2891998291015625
0.35040283203125 -0.201416015625 0.2574462890625
0.3629150390625 -0.15380859375 0.2374114990234375
0.37408447265625 -0.07763671875 0.218017578125
0.37713623046875 -0.0634765625 0.187286376953125
0.3890380859375 -0.005126953125 0.1768646240234375
-0.5411376953125 -0.616455078125 0.011962890625
-0.5169677734375 -0.622314453125 -0.0314788818359375
-0.5059814453125 -0.63525390625 -0.031463623046875
-0.489990234375 -0.651611328125 -0.0436553955078125
-0.477294921875 -0.623779296875 -0.02392578125
-0.46136474609375 -0.628662109375 0.00189208984375
-0.56634521484375 -0.61572265625 0.10638427734375
-0.5723876953125 -0.60302734375 0.06878662109375
-0.566650390625 -0.601806640625 0.029388427734375
0.31427001953125 -0.291259765625 0.323638916015625
0.32708740234375 -0.3037109375 0.290252685546875
0.35040283203125 -0.3349609375 0.26800537109375
0.39935302734375 -0.204833984375 0.190673828125
0.38720703125 -0.192626953125 0.2012939453125
0.3798828125 -0.150146484375 0.2043609619140625
-0.4864501953125 -0.65771484375 -0.07916259765625
-0.4874267578125 -0.703125 -0.108612060546875
-0.4820556640625 -0.70654296875 -0.12579345703125
-0.4422607421875 -0.68408203125 -0.111602783203125
-0.4398193359375 -0.674560546875 -0.0745086669921875
-0.435302734375 -0.637939453125 -0.0308837890625
0.39483642578125 0.177490234375 0.08807373046875
0.3836669921875 0.315673828125 0.03521728515625
0.37103271484375 0.45703125 -0.031005859375
-0.725341796875 -0.4970703125 -0.01788330078125
-0.6612548828125 -0.548583984375 -0.012847900390625
-0.609130859375 -0.58154296875 -0.006011962890625
0.378173828125 0.8662109375 -0.295440673828125
0.3768310546875 0.810791015625 -0.2752685546875
0.37408447265625 0.784912109375 -0.259063720703125
0.3681640625 0.741943359375 -0.2133026123046875
0.3734130859375 0.701416015625 -0.20782470703125
0.38525390625 0.67919921875 -0.2064971923828125
0.3934326171875 0.704833984375 -0.2237091064453125
0.384765625 0.74951171875 -0.2529449462890625
0.38677978515625 0.778076171875 -0.2682037353515625
-0.804443359375 -0.541015625 -0.300323486328125
-0.781494140625 -0.5478515625 -0.297088623046875
-0.7635498046875 -0.529541015625 -0.2614593505859375
-0.7513427734375 -0.516357421875 -0.2485198974609375
-0.7601318359375 -0.48828125 -0.2572784423828125
-0.7635498046875 -0.4658203125 -0.2617950439453125
-0.75634765625 -0.47607421875 -0.3115234375
-0.76708984375 -0.490478515625 -0.34295654296875
-0.7860107421875 -0.489013671875 -0.3555145263671875
0.40716552734375 -0.10400390625 0.104034423828125
0.39581298828125 -0.1171875 0.12640380859375
0.39935302734375 -0.089111328125 0.11669921875
0.3907470703125 -0.088134765625 0.11968994140625
0.3912353515625 -0.08154296875 0.1496124267578125
0.3861083984375 -0.08837890625 0.16217041015625
-0.491455078125 -0.67236328125 -0.1241455078125
-0.48681640625 -0.697021484375 -0.14788818359375
-0.4791259765625 -0.718505859375 -0.166717529296875
-0.4774169921875 -0.723388671875 -0.2080078125
-0.485107421875 -0.729248046875 -0.219818115234375
-0.485107421875 -0.743408203125 -0.2117462158203125
