# XYZ point cloud file
0.398590087890625 0.89385986328125 -0.33233642578125
0.4008636474609375 0.8336181640625 -0.312774658203125
0.3810882568359375 0.9312744140625 -0.346893310546875
-0.76263427734375 -0.86846923828125 -0.419921875
-0.7451171875 -0.8504638671875 -0.41552734375
-0.76385498046875 -0.85821533203125 -0.42718505859375
-0.776458740234375 -0.8858642578125 -0.4229736328125
-0.75152587890625 -0.883056640625 -0.41314697265625
-0.73980712890625 -0.8621826171875 -0.41510009765625
-0.750823974609375 -0.8385009765625 -0.41754150390625
-0.775054931640625 -0.871826171875 -0.4315185546875
-0.765472412109375 -0.90521240234375 -0.419921875
0.4010009765625 0.98565673828125 -0.3636474609375
0.4028167724609375 0.95220947265625 -0.36016845703125
0.3992767333984375 0.9849853515625 -0.371673583984375
0.3954925537109375 1.00958251953125 -0.37152099609375
0.404937744140625 0.97119140625 -0.3702392578125
0.4043121337890625 0.93707275390625 -0.353729248046875
0.3911590576171875 1.02691650390625 -0.379913330078125
-0.752532958984375 -0.80352783203125 -0.4276123046875
-0.758026123046875 -0.81915283203125 -0.4285888671875
-0.743499755859375 -0.79388427734375 -0.42828369140625
-0.75390625 -0.807861328125 -0.43597412109375
-0.763519287109375 -0.83087158203125 -0.43743896484375
-0.748748779296875 -0.8048095703125 -0.428955078125
-0.74237060546875 -0.7822265625 -0.43585205078125
0.34761810302734375 -0.30010986328125 0.187286376953125
0.3636322021484375 -0.32220458984375 0.18804931640625
0.34783172607421875 -0.322509765625 0.2146759033203125
0.3473358154296875 -0.22222900390625 0.156646728515625
0.34737396240234375 -0.25164794921875 0.149688720703125
0.35907745361328125 -0.28094482421875 0.15692138671875
0.36261749267578125 -0.34259033203125 0.223968505859375
0.3474578857421875 -0.25592041015625 0.183349609375
0.3522491455078125 -0.16741943359375 0.12579345703125
-0.489044189453125 -0.7744140625 -0.34130859375
-0.49700927734375 -0.743896484375 -0.2769775390625
-0.50018310546875 -0.77642822265625 -0.3134765625
-0.47857666015625 -0.81182861328125 -0.3990478515625
-0.476226806640625 -0.78173828125 -0.35260009765625
-0.48626708984375 -0.7493896484375 -0.3079833984375
-0.513092041015625 -0.738525390625 -0.24932861328125
-0.490814208984375 -0.805908203125 -0.3765869140625
-0.468902587890625 -0.81439208984375 -0.4124755859375
0.3485107421875 0.11724853515625 -0.013397216796875
0.3498382568359375 0.07666015625 -0.014678955078125
0.345001220703125 -0.03826904296875 0.05487060546875
0.346466064453125 0.21630859375 -0.036773681640625
0.34130859375 0.298583984375 -0.09161376953125
0.3502655029296875 0.25274658203125 -0.0877685546875
0.3543853759765625 -0.0675048828125 0.051055908203125
0.3492584228515625 0.053955078125 0.029510498046875
0.34454345703125 0.381103515625 -0.10968017578125
-0.5267333984375 -0.896728515625 -0.4857177734375
-0.487060546875 -0.864990234375 -0.4722900390625
-0.5360107421875 -0.89404296875 -0.477783203125
-0.578338623046875 -0.928131103515625 -0.4805908203125
-0.52685546875 -0.9119873046875 -0.48162841796875
-0.49139404296875 -0.8741455078125 -0.4749755859375
-0.502044677734375 -0.86126708984375 -0.45697021484375
-0.58868408203125 -0.916748046875 -0.47003173828125
-0.581512451171875 -0.93475341796875 -0.4737548828125
0.320770263671875 0.850830078125 -0.31512451171875
0.3201446533203125 0.8193359375 -0.313262939453125
0.32769775390625 0.67266845703125 -0.25128173828125
0.316314697265625 0.89263916015625 -0.321502685546875
0.3059234619140625 0.9981689453125 -0.381561279296875
0.3073883056640625 0.96697998046875 -0.3780517578125
0.3353424072265625 0.635009765625 -0.2423095703125
0.3288421630859375 0.73931884765625 -0.259246826171875
0.3037261962890625 1.02520751953125 -0.376251220703125
-0.828338623046875 -0.982147216796875 -0.40386962890625
-0.742767333984375 -0.973480224609375 -0.43450927734375
-0.8336181640625 -0.9725341796875 -0.39910888671875
-0.90301513671875 -0.982666015625 -0.3883056640625
-0.819183349609375 -0.991180419921875 -0.40625
-0.7362060546875 -0.9796142578125 -0.43011474609375
-0.74713134765625 -0.961517333984375 -0.43017578125
-0.918304443359375 -0.96856689453125 -0.38201904296875
-0.887237548828125 -0.992431640625 -0.3892822265625
0.2808074951171875 1.28912353515625 -0.482391357421875
0.28173828125 1.2645263671875 -0.478790283203125
0.2834930419921875 1.2257080078125 -0.462493896484375
0.2928466796875 1.29998779296875 -0.474853515625
0.2889251708984375 1.33172607421875 -0.498992919921875
0.284149169921875 1.3023681640625 -0.50067138671875
0.285552978515625 1.1976318359375 -0.4625244140625
0.2900848388671875 1.234130859375 -0.456787109375
0.2992706298828125 1.3358154296875 -0.49359130859375
-0.988067626953125 -0.9176025390625 -0.41455078125
-0.9891357421875 -0.944366455078125 -0.3909912109375
-1.013275146484375 -0.8975830078125 -0.4139404296875
-0.96539306640625 -0.87939453125 -0.44818115234375
-0.954986572265625 -0.9422607421875 -0.4178466796875
-0.9552001953125 -0.963958740234375 -0.39727783203125
-1.01348876953125 -0.933502197265625 -0.3912353515625
-0.99627685546875 -0.8560791015625 -0.4383544921875
-0.925811767578125 -0.907684326171875 -0.4403076171875
0.3391265869140625 1.26837158203125 -0.480072021484375
0.322479248046875 1.2470703125 -0.48040771484375
0.32073974609375 1.31353759765625 -0.48931884765625
0.35693359375 1.2689208984375 -0.47265625
0.35272216796875 1.214111328125 -0.459991455078125
0.3371734619140625 1.19580078125 -0.460296630859375
0.3127899169921875 1.2899169921875 -0.487060546875
0.3387451171875 1.30889892578125 -0.48883056640625
0.372772216796875 1.2076416015625 -0.451385498046875
-0.8462371826171875 -0.72454833984375 -0.494140625
-0.88568115234375 -0.775390625 -0.48736572265625
-0.8888092041015625 -0.6888427734375 -0.4835205078125
-0.8112030029296875 -0.6768798828125 -0.4976806640625
-0.793792724609375 -0.77227783203125 -0.49212646484375
-0.83819580078125 -0.814208984375 -0.482421875
-0.92657470703125 -0.7435302734375 -0.48309326171875
-0.8544769287109375 -0.63909912109375 -0.485595703125
-0.755218505859375 -0.72747802734375 -0.498291015625
0.3737030029296875 1.03509521484375 -0.385009765625
0.3634033203125 1.02392578125 -0.3819580078125
0.370361328125 1.0948486328125 -0.4111328125
0.3925628662109375 1.0068359375 -0.372894287109375
0.37908935546875 0.970947265625 -0.355865478515625
0.364471435546875 0.97320556640625 -0.355804443359375
0.3543243408203125 1.08062744140625 -0.412689208984375
0.3861846923828125 1.06707763671875 -0.399932861328125
0.39423370361328125 0.940673828125 -0.34228515625
-0.7359771728515625 -0.56463623046875 -0.46319580078125
-0.7565155029296875 -0.59326171875 -0.47784423828125
-0.7870941162109375 -0.53143310546875 -0.4373779296875
-0.71441650390625 -0.54083251953125 -0.4361572265625
-0.6864471435546875 -0.60626220703125 -0.47027587890625
-0.70684814453125 -0.642578125 -0.48565673828125
-0.80072021484375 -0.5650634765625 -0.4620361328125
-0.7587127685546875 -0.51043701171875 -0.41876220703125
-0.6685333251953125 -0.58050537109375 -0.4500732421875
0.42433929443359375 0.45611572265625 -0.1396484375
0.4281768798828125 0.53759765625 -0.17169189453125
0.40155792236328125 0.17254638671875 -0.017303466796875
0.41803741455078125 0.3985595703125 -0.10504150390625
0.42916107177734375 0.72552490234375 -0.25433349609375
0.42596435546875 0.80120849609375 -0.279571533203125
0.4068145751953125 0.25445556640625 -0.04486083984375
0.39608001708984375 0.1214599609375 0.00836181640625
0.4232940673828125 0.6490478515625 -0.213531494140625
-0.536224365234375 -0.7769775390625 -0.39849853515625
-0.501617431640625 -0.7950439453125 -0.36700439453125
-0.547943115234375 -0.8055419921875 -0.42022705078125
-0.583099365234375 -0.7294921875 -0.42584228515625
-0.526519775390625 -0.744873046875 -0.37353515625
-0.5001220703125 -0.766357421875 -0.34356689453125
-0.5040283203125 -0.82354736328125 -0.40240478515625
-0.59930419921875 -0.7666015625 -0.4437255859375
-0.567718505859375 -0.6956787109375 -0.4061279296875
0.40521240234375 0.85845947265625 -0.290374755859375
0.398468017578125 1.07537841796875 -0.379638671875
0.3800506591796875 0.96685791015625 -0.32745361328125
0.391357421875 0.61090087890625 -0.18743896484375
0.4214019775390625 0.75299072265625 -0.247039794921875
0.41455078125 0.988037109375 -0.345245361328125
0.3748626708984375 1.1502685546875 -0.40631103515625
0.3768463134765625 0.73724365234375 -0.23797607421875
0.4007720947265625 0.478759765625 -0.13720703125
-0.64202880859375 -0.91485595703125 -0.4461669921875
-0.69482421875 -0.940093994140625 -0.43414306640625
-0.696075439453125 -0.879638671875 -0.45343017578125
-0.59710693359375 -0.88287353515625 -0.4423828125
-0.589599609375 -0.9300537109375 -0.444580078125
-0.64361572265625 -0.9503173828125 -0.44256591796875
-0.743865966796875 -0.9117431640625 -0.44952392578125
-0.652313232421875 -0.84222412109375 -0.45916748046875
-0.548370361328125 -0.89337158203125 -0.44122314453125
0.3208770751953125 1.12908935546875 -0.394195556640625
0.313385009765625 1.209716796875 -0.429962158203125
0.3187103271484375 1.06024169921875 -0.3743896484375
0.336700439453125 1.10498046875 -0.38714599609375
0.3310394287109375 1.22796630859375 -0.435028076171875
0.3109130859375 1.15399169921875 -0.41204833984375
0.3325958251953125 0.9664306640625 -0.33404541015625
-0.832733154296875 -0.994140625 -0.40704345703125
-0.823760986328125 -0.997344970703125 -0.4049072265625
-0.866912841796875 -0.977294921875 -0.4052734375
-0.799285888671875 -0.986114501953125 -0.41448974609375
-0.768463134765625 -0.988189697265625 -0.41888427734375
-0.87554931640625 -0.995697021484375 -0.401123046875
-0.838531494140625 -0.96661376953125 -0.4180908203125
0.38169097900390625 0.8232421875 -0.278228759765625
0.37607574462890625 0.7958984375 -0.2724609375
0.36827850341796875 0.828369140625 -0.288787841796875
0.377716064453125 0.8638916015625 -0.30157470703125
0.3936920166015625 0.7633056640625 -0.2683258056640625
0.38770294189453125 0.7569580078125 -0.258392333984375
0.36454010009765625 0.804931640625 -0.269500732421875
0.3631439208984375 0.8714599609375 -0.305328369140625
0.390594482421875 0.8206787109375 -0.286590576171875
-0.65081787109375 -0.52099609375 -0.39501953125
-0.7011871337890625 -0.49066162109375 -0.3660888671875
-0.64080810546875 -0.5177001953125 -0.3851318359375
-0.60064697265625 -0.5574951171875 -0.404296875
-0.67327880859375 -0.5252685546875 -0.4093017578125
-0.718353271484375 -0.494140625 -0.38446044921875
-0.694488525390625 -0.4847412109375 -0.34893798828125
-0.57757568359375 -0.55126953125 -0.4141845703125
-0.62530517578125 -0.557373046875 -0.41644287109375
0.38191986083984375 0.29266357421875 -0.0643157958984375
0.39942169189453125 0.5042724609375 -0.1587982177734375
0.39774322509765625 0.3094482421875 -0.0620269775390625
0.35498809814453125 0.07843017578125 0.0431671142578125
0.3629302978515625 0.270751953125 -0.0585174560546875
0.39190673828125 0.48480224609375 -0.14862060546875
0.4080657958984375 0.535400390625 -0.1660308837890625
0.370880126953125 0.0775146484375 0.04119873046875
0.33257293701171875 0.073974609375 0.0409088134765625
-0.476776123046875 -0.68353271484375 -0.341552734375
-0.500762939453125 -0.694091796875 -0.3470458984375
-0.5063018798828125 -0.651123046875 -0.37774658203125
-0.454559326171875 -0.67633056640625 -0.34307861328125
-0.465057373046875 -0.7027587890625 -0.3001708984375
-0.486785888671875 -0.712890625 -0.30816650390625
-0.532379150390625 -0.661865234375 -0.382568359375
-0.4774627685546875 -0.645263671875 -0.38427734375
-0.443817138671875 -0.6949462890625 -0.303466796875
0.30687713623046875 -0.29205322265625 0.241424560546875
0.28393173217773438 -0.265869140625 0.2428131103515625
0.30587387084960938 -0.2298583984375 0.20953369140625
0.32513427734375 -0.30572509765625 0.2367706298828125
0.31916427612304688 -0.3033447265625 0.2638092041015625
0.29792022705078125 -0.291015625 0.26763916015625
0.2833251953125 -0.2042236328125 0.19305419921875
0.325531005859375 -0.24615478515625 0.2005462646484375
0.33726119995117188 -0.33056640625 0.2587890625
-0.4967041015625 -0.66259765625 -0.15576171875
-0.47979736328125 -0.67938232421875 -0.21002197265625
-0.487396240234375 -0.647705078125 -0.1478271484375
-0.51788330078125 -0.652099609375 -0.11663818359375
-0.5064697265625 -0.68988037109375 -0.185791015625
-0.489013671875 -0.70404052734375 -0.22747802734375
-0.46392822265625 -0.66778564453125 -0.19921875
-0.512603759765625 -0.63079833984375 -0.097900390625
-0.52490234375 -0.6815185546875 -0.14215087890625
0.10045623779296875 0.4490966796875 0.69612884521484375
0.08954620361328125 0.4429931640625 0.7149505615234375
0.075849533081054688 0.43914794921875 0.73065948486328125
0.0794525146484375 0.41119384765625 0.74509429931640625
0.08597564697265625 0.3724365234375 0.740478515625
0.09149169921875 0.3665771484375 0.750579833984375
0.10299301147460938 0.33258056640625 0.747650146484375
0.11931610107421875 0.32208251953125 0.73561859130859375
0.14687728881835938 0.31903076171875 0.72725677490234375
0.159942626953125 0.34271240234375 0.70416259765625
0.15019702911376953 0.3843994140625 0.69022369384765625
0.13793849945068359 0.41986083984375 0.68695068359375
-0.556793212890625 -0.19891357421875 0.715362548828125
-0.559051513671875 -0.24273681640625 0.7008056640625
-0.56634521484375 -0.2783203125 0.697052001953125
-0.5487060546875 -0.27142333984375 0.697479248046875
-0.53302001953125 -0.24725341796875 0.714019775390625
-0.522064208984375 -0.23553466796875 0.718536376953125
-0.507415771484375 -0.20465087890625 0.729583740234375
-0.501373291015625 -0.19647216796875 0.728271484375
-0.493408203125 -0.15399169921875 0.7435302734375
-0.49151611328125 -0.13262939453125 0.7379150390625
-0.510711669921875 -0.1416015625 0.736572265625
-0.5228729248046875 -0.14019775390625 0.731536865234375
0.14662361145019531 0.47698974609375 0.61786651611328125
0.13738536834716797 0.47650146484375 0.64166259765625
0.12515830993652344 0.46142578125 0.6646575927734375
0.18629074096679688 0.3026123046875 0.697662353515625
0.20699596405029297 0.2998046875 0.67501068115234375
0.22561740875244141 0.28179931640625 0.66094970703125
0.23627471923828125 0.31219482421875 0.62056732177734375
0.21851730346679688 0.366455078125 0.6039886474609375
0.19313907623291016 0.41473388671875 0.5914459228515625
-0.621246337890625 -0.23187255859375 0.6485595703125
-0.6205902099609375 -0.28533935546875 0.642669677734375
-0.62188720703125 -0.3173828125 0.640869140625
-0.604400634765625 -0.31854248046875 0.659820556640625
-0.592010498046875 -0.312744140625 0.67254638671875
-0.58392333984375 -0.30078125 0.6798095703125
-0.563018798828125 -0.14691162109375 0.706787109375
-0.58056640625 -0.15325927734375 0.69671630859375
-0.6023406982421875 -0.16192626953125 0.67901611328125
0.15615463256835938 0.27825927734375 0.7261810302734375
0.14331817626953125 0.2640380859375 0.736053466796875
0.11753463745117188 0.25579833984375 0.7448883056640625
0.10247039794921875 0.23016357421875 0.74889373779296875
0.10796356201171875 0.2252197265625 0.7400360107421875
0.1197967529296875 0.22247314453125 0.73053741455078125
0.18065643310546875 0.21063232421875 0.7017364501953125
0.21044921875 0.22216796875 0.68422698974609375
0.23224639892578125 0.2418212890625 0.66339111328125
-0.6085662841796875 -0.3302001953125 0.65484619140625
-0.5804595947265625 -0.30609130859375 0.6688232421875
-0.56243896484375 -0.27655029296875 0.683563232421875
-0.5352935791015625 -0.2198486328125 0.701507568359375
-0.5274505615234375 -0.2191162109375 0.710723876953125
-0.5188446044921875 -0.218017578125 0.7220458984375
-0.5388336181640625 -0.2552490234375 0.71368408203125
-0.549102783203125 -0.27435302734375 0.70819091796875
-0.5622100830078125 -0.2828369140625 0.694976806640625
0.088191986083984375 0.3309326171875 0.75785446166992188
0.071880340576171875 0.3076171875 0.76738739013671875
0.05426788330078125 0.30780029296875 0.76555633544921875
0.0464630126953125 0.29541015625 0.77088165283203125
0.06075286865234375 0.27630615234375 0.76025390625
0.07407379150390625 0.2642822265625 0.76013565063476562
-0.5104217529296875 -0.209228515625 0.729400634765625
-0.50384521484375 -0.197021484375 0.7244873046875
-0.49658203125 -0.18035888671875 0.7261962890625
-0.4971466064453125 -0.1942138671875 0.72607421875
-0.5042266845703125 -0.20928955078125 0.725067138671875
-0.507843017578125 -0.22064208984375 0.71673583984375
0.014644622802734375 0.3035888671875 0.77837944030761719
-0.01012420654296875 0.305419921875 0.77544593811035156
-0.0323944091796875 0.31207275390625 0.78403091430664062
-0.06337738037109375 0.31256103515625 0.7775115966796875
-0.073028564453125 0.31170654296875 0.78000450134277344
-0.07622528076171875 0.29205322265625 0.77581024169921875
-0.04212188720703125 0.27667236328125 0.77493476867675781
0.00189971923828125 0.26300048828125 0.77658653259277344
0.04360198974609375 0.251220703125 0.75948333740234375
-0.4954681396484375 -0.17462158203125 0.72698974609375
-0.4765625 -0.1207275390625 0.74188232421875
-0.45904541015625 -0.074462890625 0.749267578125
-0.4437713623046875 -0.0333251953125 0.7625579833984375
-0.4407196044921875 -0.034912109375 0.7558441162109375
-0.4388885498046875 -0.04962158203125 0.762603759765625
-0.4488677978515625 -0.08172607421875 0.74481201171875
-0.4625396728515625 -0.11376953125 0.749053955078125
-0.4747314453125 -0.1517333984375 0.732940673828125
-0.09320831298828125 0.27996826171875 0.77903366088867188
-0.09820556640625 0.27032470703125 0.77018356323242188
-0.10750579833984375 0.27105712890625 0.76389312744140625
-0.04833984375 0.24041748046875 0.75535011291503906
0.011138916015625 0.22186279296875 0.74479484558105469
0.0748748779296875 0.21417236328125 0.74267196655273438
-0.504425048828125 -0.15673828125 0.7225341796875
-0.4733428955078125 -0.10260009765625 0.73724365234375
-0.4481353759765625 -0.04034423828125 0.7567291259765625
-0.4269256591796875 0.01177978515625 0.760894775390625
-0.4326171875 0.00762939453125 0.759796142578125
-0.43829345703125 -0.0048828125 0.7625274658203125
-0.121551513671875 0.30908203125 0.7737884521484375
-0.1511077880859375 0.3450927734375 0.77614212036132812
-0.16571044921875 0.36517333984375 0.766204833984375
-0.19256591796875 0.4049072265625 0.7577667236328125
-0.20598602294921875 0.40802001953125 0.7474517822265625
-0.22064971923828125 0.4122314453125 0.739715576171875
-0.224700927734375 0.36553955078125 0.7429351806640625
-0.19643402099609375 0.32891845703125 0.7532196044921875
-0.16275787353515625 0.28216552734375 0.7604827880859375
-0.4031219482421875 0.10333251953125 0.75872802734375
-0.39111328125 0.16094970703125 0.7598724365234375
-0.383880615234375 0.22760009765625 0.7448577880859375
-0.3802032470703125 0.2706298828125 0.7494049072265625
-0.379302978515625 0.23980712890625 0.75885009765625
-0.384002685546875 0.21563720703125 0.765899658203125
-0.39617919921875 0.1435546875 0.7728729248046875
-0.4114990234375 0.09375 0.7699127197265625
-0.425811767578125 0.0404052734375 0.76519775390625
-0.0773773193359375 0.33612060546875 0.78022003173828125
-0.0949554443359375 0.35382080078125 0.76925277709960938
-0.107025146484375 0.36993408203125 0.7786407470703125
-0.12378692626953125 0.40771484375 0.771453857421875
-0.14313507080078125 0.40374755859375 0.76753997802734375
-0.16046142578125 0.40313720703125 0.759735107421875
-0.385528564453125 0.15765380859375 0.7633056640625
-0.3944091796875 0.13482666015625 0.7676544189453125
-0.3927154541015625 0.1087646484375 0.76727294921875
-0.405731201171875 0.05841064453125 0.77069091796875
-0.414306640625 0.01776123046875 0.762115478515625
-0.424591064453125 -0.01812744140625 0.759735107421875
-0.114166259765625 0.41668701171875 0.77031707763671875
-0.11126708984375 0.44537353515625 0.76435089111328125
-0.10367584228515625 0.460205078125 0.77210235595703125
-0.10334014892578125 0.49176025390625 0.75215911865234375
-0.11215972900390625 0.520263671875 0.74971771240234375
-0.124053955078125 0.5362548828125 0.7329864501953125
-0.15009307861328125 0.52276611328125 0.7280120849609375
-0.1675872802734375 0.47418212890625 0.746307373046875
-0.17580413818359375 0.43878173828125 0.74875640869140625
-0.3770599365234375 0.22802734375 0.7608489990234375
-0.3672027587890625 0.27496337890625 0.758056640625
-0.358245849609375 0.29437255859375 0.758148193359375
-0.3513336181640625 0.2757568359375 0.7557373046875
-0.3532867431640625 0.22686767578125 0.761688232421875
-0.355377197265625 0.20294189453125 0.7772216796875
-0.3638458251953125 0.16094970703125 0.77099609375
-0.3752593994140625 0.1387939453125 0.764862060546875
-0.380462646484375 0.12066650390625 0.770111083984375
-0.1407928466796875 0.5694580078125 0.707855224609375
-0.1516876220703125 0.579833984375 0.68875885009765625
-0.16204071044921875 0.60845947265625 0.6680450439453125
-0.1955108642578125 0.5682373046875 0.6661224365234375
-0.22278594970703125 0.52581787109375 0.6845245361328125
-0.23598480224609375 0.4664306640625 0.7093353271484375
-0.3697509765625 0.33843994140625 0.72998046875
-0.362945556640625 0.37451171875 0.7038421630859375
-0.358184814453125 0.40948486328125 0.6936798095703125
-0.35552978515625 0.41925048828125 0.693267822265625
-0.3539276123046875 0.38623046875 0.7149658203125
-0.35028076171875 0.3521728515625 0.73248291015625
-0.111053466796875 0.5887451171875 0.7052154541015625
-0.0885467529296875 0.60150146484375 0.70067977905273438
-0.06806182861328125 0.615234375 0.68626022338867188
-0.0451202392578125 0.64910888671875 0.66030502319335938
-0.0478057861328125 0.67822265625 0.63499069213867188
-0.04903411865234375 0.70013427734375 0.61020851135253906
-0.08156585693359375 0.7091064453125 0.59612274169921875
-0.1107330322265625 0.69158935546875 0.6083984375
-0.13903045654296875 0.6553955078125 0.63128662109375
-0.36822509765625 0.45513916015625 0.670928955078125
-0.374267578125 0.46600341796875 0.658355712890625
-0.3927001953125 0.44683837890625 0.660552978515625
-0.4113922119140625 0.40069580078125 0.683990478515625
-0.4014129638671875 0.36669921875 0.71246337890625
-0.3857421875 0.33648681640625 0.72589111328125
-0.3659515380859375 0.31390380859375 0.742950439453125
-0.3546142578125 0.32940673828125 0.74249267578125
-0.3489990234375 0.31744384765625 0.746246337890625
-0.08339691162109375 0.5076904296875 0.7545013427734375
-0.06938934326171875 0.521728515625 0.74605178833007812
-0.0577545166015625 0.52764892578125 0.74322128295898438
-0.04134368896484375 0.550048828125 0.73880195617675781
-0.04578399658203125 0.580810546875 0.7134246826171875
-0.045574188232421875 0.5986328125 0.70989227294921875
-0.3762664794921875 0.259765625 0.755035400390625
-0.371917724609375 0.21820068359375 0.76470947265625
-0.366851806640625 0.1856689453125 0.771820068359375
-0.361236572265625 0.18084716796875 0.768524169921875
-0.354949951171875 0.18115234375 0.7708740234375
-0.3542022705078125 0.1768798828125 0.76934814453125
-0.02825164794921875 0.5362548828125 0.73981666564941406
-0.01389312744140625 0.5294189453125 0.73753929138183594
-0.005584716796875 0.52325439453125 0.73920059204101562
0.014923095703125 0.53131103515625 0.7174224853515625
0.016605377197265625 0.54815673828125 0.71176910400390625
0.02024078369140625 0.56781005859375 0.68968963623046875
0.00325775146484375 0.61224365234375 0.672882080078125
-0.0094757080078125 0.6220703125 0.67149925231933594
-0.0317840576171875 0.62451171875 0.6798553466796875
-0.3979949951171875 0.26751708984375 0.746795654296875
-0.4214630126953125 0.2291259765625 0.7484130859375
-0.4477386474609375 0.16900634765625 0.7470703125
-0.456085205078125 0.0948486328125 0.752685546875
-0.4407501220703125 0.0718994140625 0.765838623046875
-0.433807373046875 0.05169677734375 0.77325439453125
-0.41009521484375 0.07879638671875 0.771331787109375
-0.390472412109375 0.107421875 0.775604248046875
-0.378936767578125 0.13720703125 0.77349853515625
0.02472686767578125 0.61614990234375 0.65203857421875
0.02850341796875 0.62939453125 0.6224212646484375
0.030233383178710938 0.6417236328125 0.5876922607421875
0.013439178466796875 0.69146728515625 0.56341552734375
-0.009296417236328125 0.70550537109375 0.56460952758789062
-0.0291900634765625 0.7193603515625 0.57250785827636719
-0.458404541015625 0.38604736328125 0.661956787109375
-0.491302490234375 0.33319091796875 0.653778076171875
-0.527191162109375 0.27001953125 0.6605224609375
-0.5367279052734375 0.17095947265625 0.69683837890625
-0.5118408203125 0.15081787109375 0.710113525390625
-0.4941253662109375 0.13177490234375 0.72894287109375
0.046693801879882812 0.560546875 0.6755218505859375
0.064393997192382812 0.5350341796875 0.67657470703125
0.090423583984375 0.4967041015625 0.67852783203125
0.12096691131591797 0.534912109375 0.580902099609375
0.089565277099609375 0.59136962890625 0.5748443603515625
0.059681892395019531 0.6328125 0.57683563232421875
-0.5801849365234375 0.09820556640625 0.668548583984375
-0.6039886474609375 0.01092529296875 0.67279052734375
-0.6120147705078125 -0.0860595703125 0.661346435546875
-0.5301971435546875 -0.08624267578125 0.73095703125
-0.5148468017578125 -0.01715087890625 0.73797607421875
-0.4940032958984375 0.049560546875 0.745391845703125
0.02437591552734375 0.50433349609375 0.732757568359375
0.037242889404296875 0.47808837890625 0.73984527587890625
0.05091094970703125 0.45709228515625 0.73223495483398438
-0.47064208984375 -0.08447265625 0.74688720703125
-0.4556121826171875 -0.04815673828125 0.755218505859375
-0.43804931640625 -0.0008544921875 0.76568603515625
0.055515289306640625 0.4124755859375 0.755615234375
0.05805206298828125 0.42242431640625 0.745849609375
0.059877395629882812 0.42730712890625 0.747406005859375
0.0046844482421875 0.50518798828125 0.74553298950195312
0.011627197265625 0.49896240234375 0.74677276611328125
0.0087738037109375 0.50250244140625 0.7546234130859375
0.0170135498046875 0.471435546875 0.75249481201171875
0.03289794921875 0.45281982421875 0.75214004516601562
0.0398101806640625 0.441650390625 0.75923919677734375
-0.446868896484375 -0.08734130859375 0.7542724609375
-0.4346771240234375 -0.063232421875 0.76519775390625
-0.4192352294921875 -0.02996826171875 0.763946533203125
-0.40545654296875 0.01409912109375 0.774078369140625
-0.4118194580078125 0.02203369140625 0.77203369140625
-0.4196624755859375 0.02508544921875 0.7801513671875
-0.4738922119140625 -0.13555908203125 0.74774169921875
-0.4674072265625 -0.12689208984375 0.74969482421875
-0.463409423828125 -0.1273193359375 0.75469970703125
-0.042179107666015625 0.52252197265625 0.74677276611328125
-0.040966033935546875 0.51458740234375 0.74587631225585938
-0.03630828857421875 0.513427734375 0.75466346740722656
-0.02478790283203125 0.5054931640625 0.75546646118164062
-0.017791748046875 0.5032958984375 0.75007247924804688
-0.0023345947265625 0.49310302734375 0.75257492065429688
-0.392425537109375 0.0338134765625 0.7783203125
-0.37628173828125 0.07122802734375 0.780517578125
-0.368316650390625 0.0924072265625 0.774810791015625
-0.358367919921875 0.1214599609375 0.778228759765625
-0.3608551025390625 0.13909912109375 0.774749755859375
-0.362396240234375 0.14141845703125 0.773773193359375
-0.0898895263671875 0.47906494140625 0.76456069946289062
-0.0839691162109375 0.46539306640625 0.75826263427734375
-0.08611297607421875 0.4644775390625 0.7632904052734375
-0.06475830078125 0.46868896484375 0.76966094970703125
-0.05872344970703125 0.48565673828125 0.76651382446289062
-0.04933929443359375 0.49371337890625 0.75522994995117188
-0.3518218994140625 0.12664794921875 0.782073974609375
-0.3497314453125 0.14044189453125 0.783172607421875
-0.3465423583984375 0.1270751953125 0.775482177734375
-0.3563690185546875 0.128173828125 0.77740478515625
-0.349517822265625 0.14788818359375 0.77276611328125
-0.3532867431640625 0.1536865234375 0.771881103515625
-0.10712432861328125 0.3936767578125 0.77228546142578125
-0.104400634765625 0.380615234375 0.7760467529296875
-0.101898193359375 0.37762451171875 0.78299331665039062
-0.09593963623046875 0.40399169921875 0.7779388427734375
-0.09616851806640625 0.420654296875 0.7706298828125
-0.09107208251953125 0.44061279296875 0.77486038208007812
-0.354583740234375 0.1116943359375 0.774139404296875
-0.3700408935546875 0.09326171875 0.767974853515625
-0.377044677734375 0.0716552734375 0.77374267578125
-0.38525390625 0.06182861328125 0.7691650390625
-0.38519287109375 0.06268310546875 0.765960693359375
-0.3900604248046875 0.07275390625 0.765411376953125
-0.0566558837890625 0.3238525390625 0.78472709655761719
-0.05127716064453125 0.3231201171875 0.78179931640625
-0.0535736083984375 0.31365966796875 0.78548431396484375
-0.06906890869140625 0.3389892578125 0.78821945190429688
-0.08184814453125 0.3544921875 0.77919578552246094
-0.0870361328125 0.36187744140625 0.77759361267089844
-0.39453125 0.01678466796875 0.7623291015625
-0.4028167724609375 -0.00604248046875 0.76123046875
-0.41583251953125 -0.042724609375 0.7528076171875
-0.4255523681640625 -0.06390380859375 0.747100830078125
-0.43267822265625 -0.060546875 0.74444580078125
-0.4356842041015625 -0.06036376953125 0.757476806640625
0.0387115478515625 0.30487060546875 0.77061080932617188
0.032680511474609375 0.29852294921875 0.77328300476074219
0.02874755859375 0.29864501953125 0.7716522216796875
0.00475311279296875 0.30560302734375 0.7823333740234375
-0.01268768310546875 0.31182861328125 0.7832183837890625
-0.03296661376953125 0.30535888671875 0.78508758544921875
-0.4405364990234375 -0.09906005859375 0.746185302734375
-0.44580078125 -0.12908935546875 0.738128662109375
-0.4576263427734375 -0.15020751953125 0.73773193359375
-0.4736480712890625 -0.1788330078125 0.72894287109375
-0.4767303466796875 -0.17620849609375 0.737060546875
-0.4828338623046875 -0.17498779296875 0.739013671875
0.08737945556640625 0.34429931640625 0.76268768310546875
0.077480316162109375 0.34130859375 0.76007843017578125
0.075653076171875 0.3433837890625 0.760955810546875
0.063488006591796875 0.33099365234375 0.7666473388671875
0.0555572509765625 0.3165283203125 0.769500732421875
0.04157257080078125 0.30340576171875 0.76926422119140625
-0.47662353515625 -0.19561767578125 0.721435546875
-0.480377197265625 -0.20599365234375 0.7294921875
-0.48345947265625 -0.2078857421875 0.725860595703125
-0.49176025390625 -0.21368408203125 0.732391357421875
-0.4925384521484375 -0.2127685546875 0.72064208984375
-0.499725341796875 -0.21368408203125 0.72430419921875
0.058124542236328125 0.40155029296875 0.76172637939453125
0.066738128662109375 0.37799072265625 0.75570297241210938
0.06790924072265625 0.35662841796875 0.7610015869140625
-0.4816436767578125 -0.198974609375 0.7275390625
-0.4770965576171875 -0.1778564453125 0.73870849609375
-0.47039794921875 -0.1546630859375 0.746337890625
0.04232025146484375 0.41632080078125 0.76284027099609375
0.030307769775390625 0.4107666015625 0.76708984375
0.00942230224609375 0.40789794921875 0.77582359313964844
0.012828826904296875 0.37408447265625 0.77472114562988281
0.03556060791015625 0.373779296875 0.77533721923828125
0.0572052001953125 0.35174560546875 0.76430511474609375
-0.4235382080078125 -0.08056640625 0.758880615234375
-0.4380340576171875 -0.1090087890625 0.75799560546875
-0.4503326416015625 -0.12158203125 0.75604248046875
-0.474578857421875 -0.1866455078125 0.73455810546875
-0.4611053466796875 -0.162109375 0.743927001953125
-0.441650390625 -0.1231689453125 0.7513427734375
-0.00592803955078125 0.35302734375 0.77443885803222656
0.006938934326171875 0.33428955078125 0.77855873107910156
0.0167236328125 0.31573486328125 0.77935218811035156
-0.4624176025390625 -0.167236328125 0.73211669921875
-0.4496612548828125 -0.1370849609375 0.737548828125
-0.436309814453125 -0.11279296875 0.744293212890625
-0.031078338623046875 0.364501953125 0.78121757507324219
-0.03987884521484375 0.34515380859375 0.77739143371582031
-0.04476165771484375 0.332763671875 0.77968788146972656
-0.4247589111328125 -0.07952880859375 0.74493408203125
-0.4221038818359375 -0.072265625 0.76043701171875
-0.4214019775390625 -0.06597900390625 0.759490966796875
-0.048370361328125 0.3897705078125 0.78058815002441406
-0.0671234130859375 0.38616943359375 0.78204727172851562
-0.08176422119140625 0.38140869140625 0.78067207336425781
-0.391510009765625 0.02398681640625 0.768218994140625
-0.3922119140625 0.0101318359375 0.762451171875
-0.4028472900390625 -0.01666259765625 0.765167236328125
-0.04937744140625 0.41375732421875 0.77196884155273438
-0.064361572265625 0.433837890625 0.77312278747558594
-0.07308197021484375 0.44842529296875 0.76239013671875
-0.3601837158203125 0.08917236328125 0.773223876953125
-0.36859130859375 0.05462646484375 0.77313232421875
-0.38494873046875 0.01824951171875 0.769927978515625
-0.03203582763671875 0.44671630859375 0.77300834655761719
-0.039947509765625 0.46209716796875 0.76984596252441406
-0.039546966552734375 0.48284912109375 0.76124191284179688
-0.364837646484375 0.0916748046875 0.772552490234375
-0.3761749267578125 0.0562744140625 0.777099609375
-0.389312744140625 0.010498046875 0.7635498046875
-0.007659912109375 0.4324951171875 0.77196884155273438
-0.0011138916015625 0.46099853515625 0.7607879638671875
0.007442474365234375 0.46722412109375 0.75915718078613281
-0.4065704345703125 -0.005126953125 0.76904296875
-0.404876708984375 -0.01361083984375 0.774078369140625
-0.4081878662109375 -0.0380859375 0.76690673828125
0.6963348388671875 -0.16876220703125 0.6373138427734375
0.70684051513671875 -0.21337890625 0.62028884887695312
0.7075653076171875 -0.26019287109375 0.61806488037109375
0.74826812744140625 -0.3321533203125 0.58890533447265625
0.78949737548828125 -0.35137939453125 0.5769195556640625
0.820526123046875 -0.3697509765625 0.5682830810546875
0.83834075927734375 -0.32745361328125 0.5710906982421875
0.824432373046875 -0.30059814453125 0.58074188232421875
0.8115997314453125 -0.2607421875 0.59381484985351562
0.77222442626953125 -0.2061767578125 0.60429191589355469
0.745697021484375 -0.1839599609375 0.61333847045898438
0.7154693603515625 -0.14581298828125 0.62260627746582031
0.7620086669921875 -0.21185302734375 0.59749603271484375
0.7211761474609375 -0.20452880859375 0.59017562866210938
0.6854095458984375 -0.1961669921875 0.59485816955566406
0.62347412109375 -0.166015625 0.6080780029296875
0.59033203125 -0.125732421875 0.6226654052734375
0.5567626953125 -0.09075927734375 0.62903594970703125
0.563201904296875 -0.05853271484375 0.6448974609375
0.608734130859375 -0.07757568359375 0.63722991943359375
0.6407470703125 -0.0966796875 0.63836288452148438
0.6974029541015625 -0.37359619140625 0.59137725830078125
0.69231414794921875 -0.42706298828125 0.58404541015625
0.680023193359375 -0.4818115234375 0.57464599609375
0.73491668701171875 -0.5303955078125 0.5506134033203125
0.77923583984375 -0.52490234375 0.5411376953125
0.82498931884765625 -0.51605224609375 0.53635406494140625
0.85289764404296875 -0.4703369140625 0.54518890380859375
0.8496856689453125 -0.44537353515625 0.55103302001953125
0.85193634033203125 -0.41204833984375 0.5577392578125
0.61541748046875 -0.1961669921875 0.58489990234375
0.580474853515625 -0.211181640625 0.5778961181640625
0.552734375 -0.2265625 0.58269500732421875
0.4693450927734375 -0.2135009765625 0.5716400146484375
0.4239654541015625 -0.1822509765625 0.57836151123046875
0.3683319091796875 -0.1610107421875 0.58202362060546875
0.3558197021484375 -0.1068115234375 0.6041412353515625
0.40380859375 -0.0858154296875 0.61651611328125
0.4581298828125 -0.0743408203125 0.6302337646484375
0.672332763671875 -0.5706787109375 0.5668182373046875
0.67737960815429688 -0.59429931640625 0.56537628173828125
0.680633544921875 -0.61407470703125 0.57320404052734375
0.7489013671875 -0.62493896484375 0.5655670166015625
0.79428482055664062 -0.6107177734375 0.54970550537109375
0.83623123168945312 -0.597412109375 0.5500335693359375
0.858612060546875 -0.5599365234375 0.54907989501953125
0.85836410522460938 -0.5467529296875 0.53881072998046875
0.8590240478515625 -0.5313720703125 0.544586181640625
0.484405517578125 -0.2696533203125 0.5650787353515625
0.448272705078125 -0.3033447265625 0.56021881103515625
0.4093780517578125 -0.33392333984375 0.55738067626953125
0.3226318359375 -0.34893798828125 0.554290771484375
0.26806640625 -0.316650390625 0.55045318603515625
0.20758056640625 -0.2943115234375 0.562164306640625
0.185302734375 -0.23529052734375 0.56756591796875
0.2219390869140625 -0.1951904296875 0.571746826171875
0.26641845703125 -0.1654052734375 0.580291748046875
0.69358444213867188 -0.61993408203125 0.6019744873046875
0.69220733642578125 -0.61212158203125 0.62274169921875
0.682281494140625 -0.5936279296875 0.6398162841796875
0.71541595458984375 -0.56494140625 0.63775634765625
0.74839401245117188 -0.5628662109375 0.62551116943359375
0.76860427856445312 -0.550537109375 0.62169647216796875
0.80519866943359375 -0.54644775390625 0.5941619873046875
0.8329010009765625 -0.5706787109375 0.5796966552734375
0.84766006469726562 -0.56298828125 0.56760406494140625
0.3298797607421875 -0.3958740234375 0.56204986572265625
0.2873382568359375 -0.4166259765625 0.56618499755859375
0.243194580078125 -0.4334716796875 0.56459808349609375
0.126983642578125 -0.44647216796875 0.5833892822265625
0.0635528564453125 -0.43743896484375 0.586029052734375
0.003692626953125 -0.430908203125 0.59002685546875
-0.003509521484375 -0.390625 0.581695556640625
0.0504913330078125 -0.35540771484375 0.5825958251953125
0.09722900390625 -0.322021484375 0.5703887939453125
0.630645751953125 -0.50830078125 0.6833648681640625
0.58009719848632812 -0.45416259765625 0.69580078125
0.53294754028320312 -0.400146484375 0.716064453125
0.50746917724609375 -0.34661865234375 0.72055435180664062
0.52030181884765625 -0.35601806640625 0.71744537353515625
0.51988983154296875 -0.34912109375 0.70924758911132812
0.5777740478515625 -0.40118408203125 0.68519210815429688
0.6491546630859375 -0.44830322265625 0.6626739501953125
0.7186737060546875 -0.49017333984375 0.641845703125
0.1226043701171875 -0.46649169921875 0.6043548583984375
0.055419921875 -0.46331787109375 0.6147918701171875
-0.008514404296875 -0.45361328125 0.63381195068359375
-0.11724853515625 -0.444091796875 0.656036376953125
-0.1638641357421875 -0.44287109375 0.65740966796875
-0.2092437744140625 -0.43035888671875 0.647796630859375
-0.206878662109375 -0.43035888671875 0.643157958984375
-0.164764404296875 -0.43280029296875 0.63482666015625
-0.112640380859375 -0.4322509765625 0.6198272705078125
0.0787506103515625 0.0030517578125 0.780059814453125
0.114776611328125 0.00469970703125 0.7755126953125
0.13956451416015625 -0.01483154296875 0.76434326171875
0.1840057373046875 -0.00115966796875 0.75609970092773438
0.22293853759765625 0.01873779296875 0.72950363159179688
0.26685333251953125 0.02130126953125 0.70943450927734375
0.29801177978515625 0.0548095703125 0.7034912109375
0.280242919921875 0.06805419921875 0.70894622802734375
0.25405120849609375 0.09808349609375 0.72919464111328125
0.17446517944335938 0.11102294921875 0.74530410766601562
0.1197662353515625 0.0948486328125 0.77595138549804688
0.06641387939453125 0.0595703125 0.77788162231445312
-0.401702880859375 -0.21923828125 0.7292327880859375
-0.457244873046875 -0.256591796875 0.71807861328125
-0.5073089599609375 -0.29962158203125 0.69696044921875
-0.5567474365234375 -0.357177734375 0.67254638671875
-0.56072998046875 -0.368408203125 0.662506103515625
-0.5657806396484375 -0.3876953125 0.6458740234375
-0.5274810791015625 -0.34283447265625 0.67584228515625
-0.4822235107421875 -0.30181884765625 0.697021484375
-0.43096923828125 -0.2618408203125 0.7139739990234375
-0.3831634521484375 -0.2430419921875 0.7322540283203125
-0.3668975830078125 -0.232177734375 0.7380218505859375
-0.3525390625 -0.2158203125 0.7386016845703125
0.34843635559082031 0.0496826171875 0.65779876708984375
0.37165927886962891 0.05792236328125 0.62982177734375
0.39093780517578125 0.082763671875 0.6008148193359375
0.38188266754150391 0.1224365234375 0.5800933837890625
0.36664199829101562 0.15185546875 0.6075592041015625
0.34362125396728516 0.17999267578125 0.622711181640625
0.30494880676269531 0.1746826171875 0.662078857421875
0.29252815246582031 0.1617431640625 0.689544677734375
0.2624969482421875 0.13214111328125 0.70996856689453125
-0.576812744140625 -0.385498046875 0.6597900390625
-0.5961761474609375 -0.41107177734375 0.642669677734375
-0.6180267333984375 -0.44024658203125 0.63037109375
-0.634918212890625 -0.47650146484375 0.609375
-0.64422607421875 -0.5018310546875 0.5897216796875
-0.649871826171875 -0.52044677734375 0.568939208984375
-0.642730712890625 -0.50115966796875 0.57373046875
-0.624481201171875 -0.468994140625 0.5916748046875
-0.599273681640625 -0.43975830078125 0.625335693359375
0.39821434020996094 0.1494140625 0.5388946533203125
0.38672637939453125 0.19775390625 0.496978759765625
0.3612213134765625 0.24969482421875 0.4736785888671875
0.32014846801757812 0.32159423828125 0.4961395263671875
0.3065338134765625 0.33233642578125 0.52972412109375
0.28282928466796875 0.348876953125 0.5672760009765625
0.29028701782226562 0.313720703125 0.5985260009765625
0.30280494689941406 0.2669677734375 0.603973388671875
0.31566143035888672 0.2305908203125 0.619964599609375
-0.6295166015625 -0.46478271484375 0.616943359375
-0.62921142578125 -0.44378662109375 0.623260498046875
-0.6279296875 -0.42010498046875 0.623443603515625
-0.64691162109375 -0.39447021484375 0.619781494140625
-0.665924072265625 -0.41473388671875 0.599273681640625
-0.679656982421875 -0.4329833984375 0.57135009765625
-0.68438720703125 -0.479736328125 0.5316162109375
-0.672088623046875 -0.5137939453125 0.536865234375
-0.667327880859375 -0.52398681640625 0.551055908203125
0.29289627075195312 0.3831787109375 0.4688873291015625
0.25189971923828125 0.43988037109375 0.49310302734375
0.21285629272460938 0.47998046875 0.5162811279296875
0.18484878540039062 0.50604248046875 0.579071044921875
0.18177032470703125 0.50225830078125 0.5931243896484375
0.173980712890625 0.49237060546875 0.6144866943359375
0.18883132934570312 0.46661376953125 0.60931396484375
0.21463394165039062 0.43426513671875 0.5997772216796875
0.24043655395507812 0.40118408203125 0.5918426513671875
-0.619659423828125 -0.3160400390625 0.660064697265625
-0.616546630859375 -0.25543212890625 0.67889404296875
-0.606536865234375 -0.1929931640625 0.70318603515625
-0.60986328125 -0.1195068359375 0.7220458984375
-0.638641357421875 -0.123046875 0.71234130859375
-0.6741943359375 -0.108642578125 0.69256591796875
-0.7117919921875 -0.19097900390625 0.65057373046875
-0.708526611328125 -0.2821044921875 0.60345458984375
-0.704437255859375 -0.3714599609375 0.5728759765625
0.16757965087890625 0.54193115234375 0.571685791015625
0.14995574951171875 0.5728759765625 0.5791015625
0.13045120239257812 0.5938720703125 0.5900421142578125
0.11430072784423828 0.595703125 0.631195068359375
0.1136016845703125 0.586669921875 0.6526947021484375
0.11288070678710938 0.55926513671875 0.6733856201171875
0.12543010711669922 0.5360107421875 0.6699981689453125
0.14243316650390625 0.52545166015625 0.661102294921875
0.15284156799316406 0.5078125 0.642303466796875
-0.575592041015625 -0.08184814453125 0.736358642578125
-0.552032470703125 -0.0328369140625 0.759796142578125
-0.522369384765625 0.01611328125 0.768310546875
-0.5073699951171875 0.08770751953125 0.7808837890625
-0.5316619873046875 0.11517333984375 0.76611328125
-0.5654754638671875 0.142578125 0.7493896484375
-0.630859375 0.1002197265625 0.7139892578125
-0.663787841796875 0.03521728515625 0.71014404296875
-0.685760498046875 -0.0281982421875 0.69580078125
0.091969490051269531 0.64697265625 0.594635009765625
0.083106040954589844 0.6739501953125 0.59455108642578125
0.075191497802734375 0.696044921875 0.6005706787109375
0.08393096923828125 0.689453125 0.6286468505859375
0.083560943603515625 0.66839599609375 0.65250396728515625
0.07514190673828125 0.6600341796875 0.66477203369140625
0.06463623046875 0.629150390625 0.6801605224609375
0.075939178466796875 0.60455322265625 0.68936920166015625
0.090401649475097656 0.583251953125 0.680572509765625
-0.454437255859375 0.132080078125 0.78192138671875
-0.4031982421875 0.20794677734375 0.78741455078125
-0.3481597900390625 0.29290771484375 0.791107177734375
-0.303009033203125 0.40411376953125 0.78436279296875
-0.3179779052734375 0.44378662109375 0.77032470703125
-0.35089111328125 0.4683837890625 0.74432373046875
-0.451568603515625 0.3975830078125 0.72479248046875
-0.5031585693359375 0.31756591796875 0.731048583984375
-0.5558624267578125 0.2379150390625 0.724334716796875
0.095722198486328125 0.7274169921875 0.58757209777832031
0.11423492431640625 0.73309326171875 0.566436767578125
0.13919830322265625 0.75323486328125 0.56974029541015625
0.17130279541015625 0.741455078125 0.597137451171875
0.16294097900390625 0.7147216796875 0.61774444580078125
0.1443939208984375 0.693359375 0.6461334228515625
0.0959930419921875 0.66253662109375 0.6600494384765625
0.08403778076171875 0.66119384765625 0.66779327392578125
0.074310302734375 0.6585693359375 0.67323875427246094
-0.246673583984375 0.42657470703125 0.7818603515625
-0.1988372802734375 0.49530029296875 0.77374267578125
-0.1522674560546875 0.52423095703125 0.76861572265625
-0.1002960205078125 0.61090087890625 0.74957275390625
-0.09613037109375 0.65863037109375 0.7296142578125
-0.1144256591796875 0.70233154296875 0.69891357421875
-0.1993865966796875 0.6864013671875 0.683807373046875
-0.26141357421875 0.6336669921875 0.69683837890625
-0.3253173828125 0.555419921875 0.71234130859375
0.1678009033203125 0.7762451171875 0.56056976318359375
0.1573486328125 0.7720947265625 0.5775909423828125
0.12779998779296875 0.76788330078125 0.5880889892578125
0.09519195556640625 0.7198486328125 0.6293792724609375
0.09506988525390625 0.698974609375 0.659454345703125
0.08142852783203125 0.6702880859375 0.6749420166015625
0.087371826171875 0.66357421875 0.677734375
0.10236358642578125 0.67584228515625 0.66310882568359375
0.11251068115234375 0.67230224609375 0.6629486083984375
-0.0925140380859375 0.56756591796875 0.75244140625
-0.0772705078125 0.574462890625 0.75
-0.0790252685546875 0.56829833984375 0.744598388671875
-0.058746337890625 0.593017578125 0.734619140625
-0.046112060546875 0.63671875 0.710723876953125
-0.0537109375 0.6719970703125 0.689056396484375
-0.0634765625 0.7337646484375 0.659515380859375
-0.0715789794921875 0.74481201171875 0.662689208984375
-0.1019134521484375 0.74700927734375 0.663421630859375
0.03011322021484375 0.7288818359375 0.62548828125
-0.03153228759765625 0.6920166015625 0.6493988037109375
-0.08541107177734375 0.65374755859375 0.6724395751953125
-0.1163330078125 0.58935546875 0.708770751953125
-0.1148681640625 0.5631103515625 0.723846435546875
-0.1106719970703125 0.541259765625 0.725799560546875
-0.07648468017578125 0.5589599609375 0.72576904296875
-0.0325775146484375 0.59832763671875 0.714599609375
0.0150299072265625 0.62957763671875 0.698974609375
-0.1045989990234375 0.51080322265625 0.748809814453125
-0.13726806640625 0.49151611328125 0.749603271484375
-0.1663665771484375 0.45819091796875 0.756988525390625
-0.185333251953125 0.4608154296875 0.760040283203125
-0.18060302734375 0.4847412109375 0.740753173828125
-0.18255615234375 0.51910400390625 0.722900390625
-0.1687774658203125 0.58636474609375 0.7000274658203125
-0.134368896484375 0.6236572265625 0.6881103515625
-0.099151611328125 0.671142578125 0.67864990234375
-0.164764404296875 0.5732421875 0.6938323974609375
-0.18560791015625 0.54925537109375 0.7123260498046875
-0.2075958251953125 0.5299072265625 0.721466064453125
-0.2103424072265625 0.4925537109375 0.7349090576171875
-0.2119903564453125 0.46209716796875 0.74359130859375
-0.2148895263671875 0.43365478515625 0.7610015869140625
-0.19775390625 0.4346923828125 0.7656707763671875
-0.1759185791015625 0.46832275390625 0.75616455078125
-0.1499786376953125 0.4945068359375 0.7467803955078125
-0.2154693603515625 0.4151611328125 0.755706787109375
-0.22528076171875 0.39630126953125 0.7635040283203125
-0.2357177734375 0.39813232421875 0.7621917724609375
-0.225555419921875 0.51263427734375 0.713714599609375
-0.2201995849609375 0.51617431640625 0.715423583984375
