# XYZ point cloud file
-0.1148529052734375 0.31365966796875 0.64044189453125
-0.123687744140625 0.2894744873046875 0.6573486328125
-0.12281036376953125 0.281341552734375 0.66229248046875
-0.11392974853515625 0.306365966796875 0.65702056884765625
-0.1054534912109375 0.33306884765625 0.6490325927734375
-0.1286468505859375 0.30609130859375 0.6626434326171875
-0.13321685791015625 0.2856597900390625 0.664825439453125
-0.13525390625 0.27008056640625 0.66887664794921875
-0.10150909423828125 0.3449859619140625 0.60107421875
-0.10015869140625 0.3534698486328125 0.60037994384765625
-0.095367431640625 0.37060546875 0.59651947021484375
-0.09743499755859375 0.354888916015625 0.64215087890625
-0.09613800048828125 0.3462371826171875 0.64058685302734375
-0.09441375732421875 0.33905029296875 0.63658905029296875
-0.08453369140625 0.356536865234375 0.6241302490234375
-0.07869720458984375 0.378753662109375 0.6128997802734375
-0.0727996826171875 0.3970947265625 0.605560302734375
-0.0654449462890625 0.4372406005859375 0.5954437255859375
-0.06137847900390625 0.4647216796875 0.592803955078125
-0.05438995361328125 0.4960174560546875 0.58895111083984375
-0.0864715576171875 0.4225921630859375 0.6425018310546875
-0.10376739501953125 0.3832855224609375 0.64797210693359375
-0.11981964111328125 0.3488006591796875 0.6498260498046875
-0.1350860595703125 0.311553955078125 0.6538238525390625
-0.13809967041015625 0.3021087646484375 0.6561431884765625
-0.1421051025390625 0.2872314453125 0.65959930419921875
-0.141204833984375 0.2837982177734375 0.66390228271484375
-0.13530731201171875 0.2996826171875 0.66375732421875
-0.12892913818359375 0.313995361328125 0.662750244140625
-0.06392669677734375 0.42437744140625 0.591644287109375
-0.06114959716796875 0.43115234375 0.585174560546875
-0.0594329833984375 0.4332275390625 0.5819091796875
-0.05680084228515625 0.459136962890625 0.576385498046875
-0.052886962890625 0.49249267578125 0.5733184814453125
-0.0458831787109375 0.528900146484375 0.565277099609375
-0.09329986572265625 0.4181671142578125 0.6552886962890625
-0.11299896240234375 0.3734130859375 0.6595611572265625
-0.1313934326171875 0.3336334228515625 0.661468505859375
-0.139923095703125 0.312255859375 0.6581878662109375
-0.135498046875 0.317718505859375 0.6550445556640625
-0.13343048095703125 0.320281982421875 0.65355682373046875
-0.05718994140625 0.427276611328125 0.5805206298828125
-0.056976318359375 0.417877197265625 0.5814208984375
-0.05516815185546875 0.405975341796875 0.5826568603515625
-0.05457305908203125 0.410888671875 0.5822601318359375
-0.058563232421875 0.431732177734375 0.5822296142578125
-0.06027984619140625 0.453277587890625 0.579071044921875
-0.162994384765625 0.2822265625 0.70140457153320312
-0.17427444458007812 0.2560577392578125 0.69787216186523438
-0.18478012084960938 0.232757568359375 0.69406890869140625
-0.17872238159179688 0.240478515625 0.683441162109375
-0.16516876220703125 0.2644805908203125 0.675445556640625
-0.1548614501953125 0.285064697265625 0.66782379150390625
-0.04650115966796875 0.378265380859375 0.582977294921875
-0.0380096435546875 0.363433837890625 0.5802154541015625
-0.0291290283203125 0.34600830078125 0.5769195556640625
-0.02392578125 0.337127685546875 0.5778045654296875
-0.031494140625 0.34381103515625 0.5836334228515625
-0.03841400146484375 0.353729248046875 0.5851593017578125
-0.2598114013671875 0.1002044677734375 0.75208663940429688
-0.26136016845703125 0.0935211181640625 0.74205398559570312
-0.26320648193359375 0.0866241455078125 0.73101043701171875
-0.24823379516601562 0.1142425537109375 0.71720504760742188
-0.22965240478515625 0.1471099853515625 0.7091217041015625
-0.21157455444335938 0.1811370849609375 0.70041275024414062
-0.0082550048828125 0.314605712890625 0.5746002197265625
0.00243377685546875 0.297393798828125 0.5740966796875
0.0140380859375 0.278564453125 0.5745391845703125
0.02362823486328125 0.267578125 0.5727996826171875
0.0202484130859375 0.277069091796875 0.56793212890625
0.0160369873046875 0.289154052734375 0.5637969970703125
-0.31473159790039062 -0.0054931640625 0.75092315673828125
-0.31336212158203125 -0.0041046142578125 0.742523193359375
-0.3121795654296875 -0.0033721923828125 0.7346954345703125
-0.30107879638671875 0.0150909423828125 0.7288970947265625
-0.29061508178710938 0.0354461669921875 0.72916412353515625
-0.27872085571289062 0.0576171875 0.72710037231445312
0.0410308837890625 0.235748291015625 0.5792999267578125
0.05644989013671875 0.20947265625 0.5836944580078125
0.07275390625 0.183258056640625 0.590362548828125
0.09503936767578125 0.158782958984375 0.590911865234375
0.1025390625 0.163543701171875 0.580108642578125
0.1121673583984375 0.1708984375 0.565704345703125
-0.36269378662109375 -0.086761474609375 0.72179031372070312
-0.3555755615234375 -0.07391357421875 0.72362518310546875
-0.34952926635742188 -0.065185546875 0.72358322143554688
-0.33795928955078125 -0.0467529296875 0.72589492797851562
-0.32963180541992188 -0.034271240234375 0.7288970947265625
-0.32048416137695312 -0.0200042724609375 0.72952651977539062
0.1006927490234375 0.125946044921875 0.6097412109375
0.1116485595703125 0.09808349609375 0.6200408935546875
0.1183624267578125 0.0731201171875 0.63067626953125
0.13532257080078125 0.048583984375 0.6354522705078125
0.15236663818359375 0.047027587890625 0.6286773681640625
0.1704864501953125 0.042205810546875 0.6186065673828125
-0.37083053588867188 -0.0913543701171875 0.70510101318359375
-0.36072158813476562 -0.0810089111328125 0.7096710205078125
-0.35132980346679688 -0.0713653564453125 0.71176910400390625
-0.3477935791015625 -0.064788818359375 0.71516036987304688
-0.34928131103515625 -0.0646820068359375 0.71722030639648438
-0.34832763671875 -0.0625457763671875 0.71900558471679688
0.1191253662109375 0.033905029296875 0.651397705078125
0.11225128173828125 0.0223388671875 0.6602783203125
0.098785400390625 0.0155029296875 0.6678924560546875
0.092864990234375 0.00189208984375 0.6743316650390625
0.10959625244140625 -0.01025390625 0.6710662841796875
0.1282501220703125 -0.02337646484375 0.669586181640625
-0.31279754638671875 -0.06195068359375 0.70610809326171875
-0.30755615234375 -0.055450439453125 0.7090606689453125
-0.3031158447265625 -0.0479278564453125 0.7100372314453125
-0.31468963623046875 -0.0484771728515625 0.711517333984375
-0.32706451416015625 -0.0542144775390625 0.71209716796875
-0.3365936279296875 -0.0597686767578125 0.71195602416992188
0.0539703369140625 0.016265869140625 0.6821441650390625
0.025543212890625 0.021820068359375 0.6886749267578125
-0.00249481201171875 0.02978515625 0.695068359375
-0.02306365966796875 0.01910400390625 0.7008514404296875
-0.01605987548828125 -0.006439208984375 0.70489501953125
-0.005615234375 -0.03826904296875 0.70928955078125
-0.20232391357421875 -0.038177490234375 0.71753692626953125
-0.21588897705078125 -0.0197601318359375 0.71722412109375
-0.22454071044921875 -0.004119873046875 0.71501922607421875
-0.2454376220703125 -0.0049896240234375 0.71425628662109375
-0.26399993896484375 -0.0182037353515625 0.7121124267578125
-0.28179168701171875 -0.0298919677734375 0.71343231201171875
-0.04645538330078125 0.051361083984375 0.6978912353515625
-0.06024169921875 0.06329345703125 0.69464111328125
-0.07135009765625 0.074615478515625 0.6937255859375
-0.08681488037109375 0.076171875 0.6935577392578125
-0.09557342529296875 0.060546875 0.694732666015625
-0.107635498046875 0.041900634765625 0.69991302490234375
-0.0926361083984375 -0.00238037109375 0.70680999755859375
-0.0644378662109375 -0.022216796875 0.711517333984375
-0.0322113037109375 -0.046356201171875 0.7126007080078125
-0.16668701171875 -0.0445709228515625 0.7176513671875
-0.1552734375 -0.02508544921875 0.71457672119140625
-0.1426849365234375 -0.006866455078125 0.71038055419921875
-0.15625762939453125 0.0340423583984375 0.70264434814453125
-0.175872802734375 0.0430755615234375 0.70323944091796875
-0.1901092529296875 0.0508270263671875 0.70276641845703125
-0.20565032958984375 0.043792724609375 0.7060546875
-0.2115478515625 0.032073974609375 0.70845794677734375
-0.21932220458984375 0.0193328857421875 0.71242523193359375
-0.106231689453125 0.259918212890625 0.6552886962890625
-0.1024627685546875 0.2848663330078125 0.6479949951171875
-0.09758758544921875 0.30902099609375 0.641571044921875
-0.1287689208984375 0.2456512451171875 0.67087554931640625
-0.12143707275390625 0.2415313720703125 0.66748046875
-0.11536407470703125 0.2378997802734375 0.6640167236328125
-0.16126251220703125 0.204498291015625 0.67889404296875
-0.1536712646484375 0.217559814453125 0.67847442626953125
-0.1457366943359375 0.23138427734375 0.676116943359375
-0.15242767333984375 0.2534332275390625 0.667205810546875
-0.15796661376953125 0.2357635498046875 0.66997528076171875
-0.1631622314453125 0.2147674560546875 0.67438507080078125
-0.1087188720703125 0.172149658203125 0.676422119140625
-0.1105499267578125 0.1923828125 0.6720733642578125
-0.11035919189453125 0.21270751953125 0.66692352294921875
-0.140716552734375 0.2154083251953125 0.6769256591796875
-0.1448822021484375 0.186737060546875 0.68151092529296875
-0.14551544189453125 0.15960693359375 0.684295654296875
-0.13433074951171875 0.1410064697265625 0.68459320068359375
-0.12323760986328125 0.14581298828125 0.68289947509765625
-0.11305999755859375 0.14947509765625 0.68056488037109375
-0.17676544189453125 0.1224517822265625 0.69268798828125
-0.16722869873046875 0.1259613037109375 0.68939971923828125
-0.1569366455078125 0.1302490234375 0.68865966796875
-0.1723175048828125 0.1759796142578125 0.6837158203125
-0.17647552490234375 0.154541015625 0.68621063232421875
-0.18141937255859375 0.1365814208984375 0.69146728515625
-0.14418792724609375 0.1106719970703125 0.68920135498046875
-0.14141082763671875 0.0856170654296875 0.69240570068359375
-0.13660430908203125 0.0570068359375 0.69678497314453125
-0.08847808837890625 0.103729248046875 0.6886444091796875
-0.0955657958984375 0.118621826171875 0.6876678466796875
-0.10128021240234375 0.135772705078125 0.684173583984375
-0.188385009765625 0.101776123046875 0.69571685791015625
-0.1921844482421875 0.085784912109375 0.6985626220703125
-0.19580841064453125 0.0711669921875 0.70101165771484375
0.64865875244140625 -0.361663818359375 0.5657958984375
0.62928009033203125 -0.3513336181640625 0.56317901611328125
0.606842041015625 -0.34197998046875 0.5624542236328125
0.565582275390625 -0.3223724365234375 0.56305694580078125
0.5426025390625 -0.3090057373046875 0.56403350830078125
0.51723480224609375 -0.2965087890625 0.56696319580078125
0.4913330078125 -0.2808990478515625 0.56916046142578125
0.490570068359375 -0.2781982421875 0.57000732421875
0.4881744384765625 -0.2734375 0.572601318359375
0.46335601806640625 -0.271148681640625 0.57110595703125
0.435791015625 -0.2593994140625 0.5749359130859375
0.4087066650390625 -0.247894287109375 0.577667236328125
0.3596343994140625 -0.22564697265625 0.58490753173828125
0.33298492431640625 -0.2086029052734375 0.58914947509765625
0.3029937744140625 -0.191009521484375 0.59520721435546875
0.7193603515625 -0.41217041015625 0.5713958740234375
0.68666839599609375 -0.3939666748046875 0.5678558349609375
0.653289794921875 -0.3766326904296875 0.565277099609375
0.62355804443359375 -0.359222412109375 0.5639801025390625
0.61641693115234375 -0.3529815673828125 0.5618743896484375
0.60355377197265625 -0.3441314697265625 0.5621185302734375
0.3543853759765625 -0.2297515869140625 0.58567047119140625
0.32932281494140625 -0.2216949462890625 0.5885772705078125
0.304412841796875 -0.2158050537109375 0.5928955078125
0.254608154296875 -0.19512939453125 0.6024627685546875
0.2193756103515625 -0.1742706298828125 0.60681915283203125
0.179046630859375 -0.1525115966796875 0.61370849609375
0.6884307861328125 -0.4080352783203125 0.586181640625
0.6407928466796875 -0.3856048583984375 0.5847320556640625
0.5903778076171875 -0.362548828125 0.584716796875
0.5722198486328125 -0.353179931640625 0.5816497802734375
0.59668731689453125 -0.3595428466796875 0.576324462890625
0.61409759521484375 -0.3641204833984375 0.56976318359375
0.2617034912109375 -0.208740234375 0.6011962890625
0.2446136474609375 -0.2089385986328125 0.6074371337890625
0.233978271484375 -0.209930419921875 0.611114501953125
0.18936920166015625 -0.194671630859375 0.61779022216796875
0.1465911865234375 -0.1722869873046875 0.62252044677734375
0.1015472412109375 -0.14923095703125 0.62981414794921875
0.33362579345703125 -0.261199951171875 0.663665771484375
0.30387115478515625 -0.2542724609375 0.6634063720703125
0.273773193359375 -0.245941162109375 0.6631622314453125
0.2968902587890625 -0.25927734375 0.65362548828125
0.353912353515625 -0.2785491943359375 0.6389617919921875
0.40918731689453125 -0.2992706298828125 0.626068115234375
0.49619293212890625 -0.3316650390625 0.61236572265625
0.5358123779296875 -0.3489227294921875 0.6118316650390625
0.57230377197265625 -0.363372802734375 0.6143798828125
0.040740966796875 -0.154937744140625 0.64801025390625
0.08504486083984375 -0.17242431640625 0.64138031005859375
0.12631988525390625 -0.189727783203125 0.63680267333984375
0.1396636962890625 -0.2011871337890625 0.644256591796875
0.10785675048828125 -0.1959381103515625 0.65444183349609375
0.07611846923828125 -0.1871490478515625 0.66364288330078125
0.01433563232421875 -0.169769287109375 0.67696380615234375
-0.0179595947265625 -0.1591339111328125 0.6796722412109375
-0.05164337158203125 -0.1474151611328125 0.6807403564453125
0.490875244140625 -0.3272552490234375 0.6031036376953125
0.513214111328125 -0.334503173828125 0.5968780517578125
0.527679443359375 -0.33782958984375 0.5922393798828125
0.218780517578125 -0.2136993408203125 0.617401123046875
0.20487213134765625 -0.211181640625 0.62188720703125
0.1880645751953125 -0.2084503173828125 0.62752532958984375
0.20116424560546875 -0.2188568115234375 0.6745452880859375
0.16585540771484375 -0.2015380859375 0.6835174560546875
0.13687896728515625 -0.1853485107421875 0.6897430419921875
0.0996246337890625 -0.1739959716796875 0.6939849853515625
0.08535003662109375 -0.17242431640625 0.6931915283203125
0.06928253173828125 -0.1712646484375 0.6923675537109375
0.06561279296875 -0.1725616455078125 0.6901092529296875
0.08654022216796875 -0.1828460693359375 0.68450927734375
0.11334228515625 -0.1953125 0.6779327392578125
0.1699066162109375 -0.2147979736328125 0.6686248779296875
0.1933746337890625 -0.222015380859375 0.6693572998046875
0.21808624267578125 -0.2293548583984375 0.6663818359375
0.07233428955078125 -0.186431884765625 0.67388916015625
0.09879302978515625 -0.19439697265625 0.671722412109375
0.12352752685546875 -0.2009124755859375 0.66998291015625
0.028778076171875 -0.159942626953125 0.694854736328125
0.004425048828125 -0.1535797119140625 0.69524383544921875
-0.02231597900390625 -0.145965576171875 0.69696807861328125
-0.03106689453125 -0.146514892578125 0.69461822509765625
-0.00797271728515625 -0.1572265625 0.689666748046875
0.01671600341796875 -0.16827392578125 0.682769775390625
0.34771728515625 -0.2711029052734375 0.620086669921875
0.3829498291015625 -0.286285400390625 0.6170196533203125
0.41904449462890625 -0.300262451171875 0.6146697998046875
0.18723297119140625 -0.2232818603515625 0.65845489501953125
0.2306365966796875 -0.23553466796875 0.6468048095703125
0.27426910400390625 -0.248565673828125 0.6344451904296875
0.20471954345703125 -0.21929931640625 0.63083648681640625
0.2418670654296875 -0.233795166015625 0.628265380859375
0.2781524658203125 -0.2460784912109375 0.62555694580078125
0.34334564208984375 -0.266845703125 0.61267852783203125
0.3653564453125 -0.2720489501953125 0.606170654296875
0.3814239501953125 -0.275970458984375 0.5992431640625
0.42547607421875 -0.292877197265625 0.59458160400390625
0.4593353271484375 -0.30731201171875 0.592376708984375
0.492645263671875 -0.3212127685546875 0.5915374755859375
0.2734832763671875 -0.23211669921875 0.61005401611328125
0.31269073486328125 -0.248687744140625 0.60478973388671875
0.3524017333984375 -0.2629547119140625 0.6016693115234375
0.10768890380859375 -0.163970947265625 0.697845458984375
0.10108184814453125 -0.15802001953125 0.6989593505859375
0.0935516357421875 -0.149932861328125 0.7002105712890625
0.07861328125 -0.143280029296875 0.704803466796875
0.07621002197265625 -0.144805908203125 0.705169677734375
0.0742645263671875 -0.14825439453125 0.706512451171875
0.0810546875 -0.158111572265625 0.7045440673828125
0.085418701171875 -0.1633453369140625 0.703826904296875
0.084869384765625 -0.166595458984375 0.701019287109375
0.084381103515625 -0.1676177978515625 0.6986236572265625
0.0883941650390625 -0.1652069091796875 0.6966705322265625
0.0956268310546875 -0.1659088134765625 0.69671630859375
-0.05474090576171875 -0.13568115234375 0.70107269287109375
-0.056884765625 -0.1349334716796875 0.70367431640625
-0.059417724609375 -0.13763427734375 0.7045135498046875
-0.07909393310546875 -0.132476806640625 0.70728302001953125
-0.09356689453125 -0.1271514892578125 0.70849609375
-0.106658935546875 -0.1227874755859375 0.71024322509765625
-0.11688232421875 -0.115234375 0.71237945556640625
-0.1168670654296875 -0.1124725341796875 0.71080780029296875
-0.11676025390625 -0.111053466796875 0.70902252197265625
-0.108642578125 -0.1144561767578125 0.70716094970703125
-0.09603118896484375 -0.1201171875 0.70501708984375
-0.0786590576171875 -0.1271514892578125 0.70243072509765625
0.0665740966796875 -0.13092041015625 0.703460693359375
0.048736572265625 -0.119842529296875 0.7064208984375
0.02930450439453125 -0.108062744140625 0.7071380615234375
0.01050567626953125 -0.100372314453125 0.7103271484375
0.0113372802734375 -0.103057861328125 0.71142578125
0.01132965087890625 -0.104888916015625 0.7117462158203125
0.0275726318359375 -0.11724853515625 0.7113494873046875
0.044464111328125 -0.12921142578125 0.71063232421875
0.06015777587890625 -0.14068603515625 0.7076873779296875
-0.1246490478515625 -0.110504150390625 0.7149810791015625
-0.12950897216796875 -0.1035614013671875 0.71595001220703125
-0.13134765625 -0.0969696044921875 0.716705322265625
-0.12987518310546875 -0.0885772705078125 0.71628570556640625
-0.12770843505859375 -0.087066650390625 0.7146759033203125
-0.126800537109375 -0.0853729248046875 0.71398162841796875
-0.13178253173828125 -0.0896148681640625 0.71221923828125
-0.13040924072265625 -0.0966339111328125 0.71189117431640625
-0.12647247314453125 -0.1026611328125 0.7104339599609375
-0.0115509033203125 -0.087493896484375 0.7102508544921875
-0.03127288818359375 -0.08050537109375 0.7105560302734375
-0.04950714111328125 -0.0772247314453125 0.7111663818359375
-0.0510711669921875 -0.08544921875 0.7121124267578125
-0.04346466064453125 -0.090057373046875 0.7132415771484375
-0.03925323486328125 -0.092315673828125 0.71421051025390625
-0.0289764404296875 -0.0928192138671875 0.7164154052734375
-0.01824951171875 -0.095245361328125 0.714630126953125
-0.004547119140625 -0.099151611328125 0.7150421142578125
-0.1241302490234375 -0.086761474609375 0.7184295654296875
-0.1157684326171875 -0.084014892578125 0.718719482421875
-0.10507965087890625 -0.08599853515625 0.7164764404296875
-0.08966827392578125 -0.08648681640625 0.714935302734375
-0.084320068359375 -0.0849151611328125 0.7137603759765625
-0.077789306640625 -0.082733154296875 0.71257781982421875
-0.09166717529296875 -0.07421875 0.7123260498046875
-0.10851287841796875 -0.074798583984375 0.71335601806640625
-0.12009429931640625 -0.0782623291015625 0.7143096923828125
-0.05963134765625 -0.0892791748046875 0.711761474609375
-0.05435943603515625 -0.095428466796875 0.71148681640625
-0.05265045166015625 -0.098785400390625 0.71178436279296875
-0.05098724365234375 -0.100860595703125 0.71256256103515625
-0.04923248291015625 -0.103240966796875 0.712677001953125
-0.04933929443359375 -0.10565185546875 0.7134552001953125
-0.046142578125 -0.107696533203125 0.71488189697265625
-0.04344940185546875 -0.1038818359375 0.71588134765625
-0.04119873046875 -0.098785400390625 0.71538543701171875
-0.08100128173828125 -0.0945281982421875 0.716400146484375
-0.069091796875 -0.1001129150390625 0.7158355712890625
-0.0579986572265625 -0.1050262451171875 0.71514129638671875
0.03266143798828125 -0.1610565185546875 0.6974029541015625
0.03643035888671875 -0.1613616943359375 0.69750213623046875
0.04144287109375 -0.1619415283203125 0.69464111328125
0.0746002197265625 -0.169342041015625 0.6992950439453125
0.06314849853515625 -0.1675872802734375 0.6978759765625
0.04865264892578125 -0.167266845703125 0.69770050048828125
0.00772857666015625 -0.156951904296875 0.69887542724609375
-0.0159454345703125 -0.1522216796875 0.7021026611328125
-0.03919219970703125 -0.144195556640625 0.70418548583984375
0.01616668701171875 -0.1607818603515625 0.7010955810546875
0.02178192138671875 -0.161834716796875 0.70107269287109375
0.02630615234375 -0.162567138671875 0.699066162109375
0.0763092041015625 -0.1675567626953125 0.7015380859375
0.070220947265625 -0.166748046875 0.703460693359375
0.0638580322265625 -0.1664581298828125 0.70343017578125
0.05078887939453125 -0.16552734375 0.7044219970703125
0.04021453857421875 -0.16412353515625 0.70343017578125
0.02548980712890625 -0.1615753173828125 0.7037200927734375
-0.0106964111328125 -0.153472900390625 0.70424652099609375
-0.0304718017578125 -0.1487579345703125 0.7060699462890625
-0.04781341552734375 -0.1445159912109375 0.70752716064453125
-0.06038665771484375 -0.1392974853515625 0.70745086669921875
-0.061553955078125 -0.1400909423828125 0.7061614990234375
-0.06183624267578125 -0.1390228271484375 0.70507049560546875
-0.0495452880859375 -0.1124725341796875 0.7163848876953125
-0.04801177978515625 -0.1168975830078125 0.717132568359375
-0.04439544677734375 -0.123931884765625 0.71753692626953125
-0.027984619140625 -0.1287841796875 0.71508026123046875
-0.0254974365234375 -0.123931884765625 0.71874237060546875
-0.0241851806640625 -0.1169281005859375 0.717498779296875
-0.02764129638671875 -0.109466552734375 0.7173614501953125
-0.030975341796875 -0.1030731201171875 0.7174072265625
-0.0340728759765625 -0.099365234375 0.717529296875
-0.0955963134765625 -0.0911102294921875 0.7191162109375
-0.09575653076171875 -0.0960235595703125 0.7182159423828125
-0.09455108642578125 -0.0998687744140625 0.71907806396484375
-0.08640289306640625 -0.1071624755859375 0.7193603515625
-0.074493408203125 -0.1151580810546875 0.7187347412109375
-0.05982208251953125 -0.1218109130859375 0.71726226806640625
-0.0177154541015625 -0.114837646484375 0.7181243896484375
-0.008758544921875 -0.1167144775390625 0.7174835205078125
0.001129150390625 -0.12078857421875 0.719024658203125
0.00994110107421875 -0.119537353515625 0.7161407470703125
0.010040283203125 -0.1156158447265625 0.7167816162109375
0.01055145263671875 -0.11090087890625 0.714263916015625
-0.1287078857421875 -0.093780517578125 0.71918487548828125
-0.1265716552734375 -0.0962371826171875 0.71993255615234375
-0.12229156494140625 -0.1005096435546875 0.72077178955078125
-0.11370086669921875 -0.1038055419921875 0.7193145751953125
-0.10750579833984375 -0.1025390625 0.71967315673828125
-0.1000823974609375 -0.1018218994140625 0.72051239013671875
0.01690673828125 -0.1293182373046875 0.715484619140625
0.02696990966796875 -0.1389923095703125 0.7142181396484375
0.03780364990234375 -0.1465606689453125 0.7128448486328125
0.057220458984375 -0.15618896484375 0.709259033203125
0.0653076171875 -0.1551055908203125 0.708740234375
0.07027435302734375 -0.154266357421875 0.7079925537109375
-0.1151580810546875 -0.1200714111328125 0.7134857177734375
-0.11133575439453125 -0.12310791015625 0.714111328125
-0.105499267578125 -0.124481201171875 0.71340179443359375
-0.10503387451171875 -0.1211395263671875 0.7160797119140625
-0.1115875244140625 -0.114837646484375 0.7169952392578125
-0.1164398193359375 -0.1075286865234375 0.72019195556640625
0.05254364013671875 -0.15936279296875 0.708953857421875
0.0560150146484375 -0.1633453369140625 0.70806884765625
0.05858612060546875 -0.16546630859375 0.7050933837890625
-0.06694793701171875 -0.1381072998046875 0.70929718017578125
-0.0777587890625 -0.1361236572265625 0.7109527587890625
-0.08759307861328125 -0.1318511962890625 0.71308135986328125
-0.009002685546875 -0.14056396484375 0.71440887451171875
0.01325225830078125 -0.1458587646484375 0.7126922607421875
0.03165435791015625 -0.1515045166015625 0.71148681640625
-0.0853424072265625 -0.1295928955078125 0.7149200439453125
-0.0706329345703125 -0.1309051513671875 0.71466827392578125
-0.05492401123046875 -0.1321258544921875 0.715606689453125
-0.02264404296875 -0.143157958984375 0.71215057373046875
-0.01088714599609375 -0.1497955322265625 0.70916748046875
-0.000152587890625 -0.1542816162109375 0.7064056396484375
-0.10930633544921875 -0.0193634033203125 0.709442138671875
-0.09442138671875 -0.0442047119140625 0.711395263671875
-0.08072662353515625 -0.062835693359375 0.71073150634765625
0.004913330078125 -0.092498779296875 0.709259033203125
0.0028076171875 -0.08843994140625 0.710968017578125
0.00354766845703125 -0.08294677734375 0.7116241455078125
-0.15575408935546875 -0.071197509765625 0.71730804443359375
-0.1423187255859375 -0.076416015625 0.71631622314453125
-0.13332366943359375 -0.0807037353515625 0.71440887451171875
0.088958740234375 -0.14117431640625 0.6997833251953125
0.0975189208984375 -0.14117431640625 0.6995391845703125
0.1090087890625 -0.141204833984375 0.69781494140625
0.09889984130859375 -0.12750244140625 0.696533203125
0.07283782958984375 -0.113861083984375 0.700714111328125
0.0461578369140625 -0.098602294921875 0.7049407958984375
-0.166473388671875 -0.079864501953125 0.71190643310546875
-0.15883636474609375 -0.0885009765625 0.70812225341796875
-0.1534271240234375 -0.095703125 0.70499420166015625
-0.1394500732421875 -0.1040802001953125 0.7053680419921875
-0.1303863525390625 -0.1062469482421875 0.70745849609375
-0.12299346923828125 -0.107940673828125 0.707611083984375
0.1372528076171875 -0.176422119140625 0.69183349609375
0.1609344482421875 -0.180572509765625 0.6893157958984375
0.1836395263671875 -0.1845703125 0.6875
0.18164825439453125 -0.174163818359375 0.687713623046875
0.1618194580078125 -0.161376953125 0.6898193359375
0.14304351806640625 -0.150421142578125 0.690460205078125
-0.146209716796875 -0.1052093505859375 0.70026397705078125
-0.1414642333984375 -0.110748291015625 0.69840240478515625
-0.1356964111328125 -0.11376953125 0.6982421875
-0.10933685302734375 -0.1247406005859375 0.69744110107421875
-0.09029388427734375 -0.1292724609375 0.69757080078125
-0.07181549072265625 -0.1330413818359375 0.69802093505859375
0.31027984619140625 -0.243316650390625 0.6721649169921875
0.267669677734375 -0.221588134765625 0.67718505859375
0.23284149169921875 -0.202972412109375 0.68280029296875
-0.12157440185546875 -0.12353515625 0.69370269775390625
-0.11225128173828125 -0.1289825439453125 0.69176483154296875
-0.100799560546875 -0.1333770751953125 0.68450927734375
0.3370513916015625 -0.23590087890625 0.6808013916015625
0.29900360107421875 -0.21221923828125 0.6800384521484375
0.2665252685546875 -0.19287109375 0.6788482666015625
0.2420501708984375 -0.1806640625 0.6808929443359375
0.235626220703125 -0.185211181640625 0.6808319091796875
0.22252655029296875 -0.1881103515625 0.6844940185546875
-0.15074920654296875 -0.1134796142578125 0.69155120849609375
-0.17198944091796875 -0.1083526611328125 0.68688201904296875
-0.19135284423828125 -0.10577392578125 0.68093109130859375
-0.20758819580078125 -0.1060791015625 0.6719970703125
-0.207244873046875 -0.1076812744140625 0.6723175048828125
-0.20563507080078125 -0.1076202392578125 0.6725921630859375
0.2165985107421875 -0.16217041015625 0.677154541015625
0.1988067626953125 -0.150054931640625 0.676422119140625
0.18128204345703125 -0.14013671875 0.6758575439453125
0.160980224609375 -0.132720947265625 0.6783905029296875
0.1510772705078125 -0.135223388671875 0.6853790283203125
0.137115478515625 -0.138702392578125 0.6896820068359375
-0.16302490234375 -0.0985260009765625 0.69828033447265625
-0.1777191162109375 -0.096405029296875 0.690399169921875
-0.1922454833984375 -0.09576416015625 0.68157958984375
-0.20538330078125 -0.0986328125 0.67136383056640625
-0.20630645751953125 -0.1008148193359375 0.6707916259765625
-0.20635986328125 -0.1031951904296875 0.6715240478515625
0.14890289306640625 -0.11810302734375 0.67327880859375
0.13510894775390625 -0.10784912109375 0.673309326171875
0.1293792724609375 -0.09991455078125 0.6716461181640625
-0.21166229248046875 -0.0851593017578125 0.672271728515625
-0.20465850830078125 -0.08892822265625 0.67327880859375
-0.20294189453125 -0.09246826171875 0.67282867431640625
0.50839996337890625 -0.32489013671875 0.5885467529296875
0.51483154296875 -0.3291778564453125 0.58770751953125
0.5222625732421875 -0.3330841064453125 0.586761474609375
0.397216796875 -0.2791595458984375 0.59549713134765625
0.401763916015625 -0.27911376953125 0.59445953369140625
0.40183258056640625 -0.2769775390625 0.59493255615234375
0.429840087890625 -0.287322998046875 0.59551239013671875
0.4576263427734375 -0.3005828857421875 0.5931549072265625
0.48242950439453125 -0.3116607666015625 0.59088134765625
0.30333709716796875 -0.2365570068359375 0.60784912109375
0.33111572265625 -0.247528076171875 0.60387420654296875
0.36443328857421875 -0.2598724365234375 0.59894561767578125
0.2617645263671875 -0.225860595703125 0.6106719970703125
0.27625274658203125 -0.2295379638671875 0.60773468017578125
0.28334808349609375 -0.232025146484375 0.60704803466796875
0.57196044921875 -0.341766357421875 0.572540283203125
0.584228515625 -0.3481597900390625 0.569091796875
0.60074615478515625 -0.354522705078125 0.567352294921875
0.52413177490234375 -0.3288726806640625 0.587249755859375
0.54010009765625 -0.33416748046875 0.5846099853515625
0.55267333984375 -0.336761474609375 0.5798797607421875
0.2953033447265625 -0.224334716796875 0.6022186279296875
0.28359222412109375 -0.2232818603515625 0.6052398681640625
0.27880859375 -0.2247467041015625 0.60748291015625
0.2999420166015625 -0.2212371826171875 0.59622955322265625
0.310699462890625 -0.226806640625 0.5946502685546875
0.31402587890625 -0.2282867431640625 0.59543609619140625
0.5446624755859375 -0.3167724609375 0.56842803955078125
0.55626678466796875 -0.3226318359375 0.5658416748046875
0.56946563720703125 -0.32757568359375 0.563323974609375
0.5600128173828125 -0.33203125 0.57415771484375
0.55489349365234375 -0.32672119140625 0.5727081298828125
0.5447845458984375 -0.32012939453125 0.57283782958984375
0.37326812744140625 -0.2411346435546875 0.58841705322265625
0.35247039794921875 -0.235107421875 0.5919036865234375
0.33136749267578125 -0.2301483154296875 0.59490966796875
0.3943328857421875 -0.246063232421875 0.58083343505859375
0.40003204345703125 -0.2489013671875 0.5789947509765625
0.4001617431640625 -0.2501678466796875 0.58266448974609375
0.47894287109375 -0.2813720703125 0.57292938232421875
0.4841766357421875 -0.2833099365234375 0.56917572021484375
0.48807525634765625 -0.2850494384765625 0.56980133056640625
0.51863861083984375 -0.3026580810546875 0.57329559326171875
0.50399017333984375 -0.2947845458984375 0.5743255615234375
0.4875030517578125 -0.2866363525390625 0.57524871826171875
0.4526824951171875 -0.270721435546875 0.5783233642578125
0.43430328369140625 -0.2626495361328125 0.5810546875
0.41500091552734375 -0.255096435546875 0.58260345458984375
0.43405914306640625 -0.262786865234375 0.593536376953125
0.44719696044921875 -0.26715087890625 0.58809661865234375
0.459686279296875 -0.272735595703125 0.58196258544921875
0.51947784423828125 -0.3052978515625 0.577606201171875
0.50548553466796875 -0.2985992431640625 0.5850830078125
0.4942169189453125 -0.2951507568359375 0.5910186767578125
0.47039794921875 -0.2840576171875 0.59738922119140625
0.4546356201171875 -0.275848388671875 0.597137451171875
0.43819427490234375 -0.2666168212890625 0.59851837158203125
0.4010467529296875 -0.24859619140625 0.6004791259765625
0.38115692138671875 -0.240509033203125 0.60260772705078125
0.36107635498046875 -0.2330474853515625 0.6036376953125
0.3588104248046875 -0.2303924560546875 0.60063934326171875
0.374237060546875 -0.2371978759765625 0.59447479248046875
0.3861083984375 -0.24322509765625 0.5892486572265625
0.54755401611328125 -0.3286895751953125 0.5821380615234375
0.53499603271484375 -0.3222198486328125 0.58734130859375
0.52294158935546875 -0.316986083984375 0.5925750732421875
0.511749267578125 -0.30780029296875 0.59662628173828125
0.504302978515625 -0.3031768798828125 0.5971221923828125
0.49542236328125 -0.2974090576171875 0.59879302978515625
0.32360076904296875 -0.2181854248046875 0.60825347900390625
0.30789947509765625 -0.2140655517578125 0.6099700927734375
0.295257568359375 -0.2108306884765625 0.611846923828125
0.29109954833984375 -0.21240234375 0.61020660400390625
0.29735565185546875 -0.2157135009765625 0.6060638427734375
0.3062896728515625 -0.221160888671875 0.6037139892578125
0.4973602294921875 -0.3157196044921875 0.59539794921875
0.48961639404296875 -0.3104400634765625 0.5984039306640625
0.48294830322265625 -0.304656982421875 0.6015777587890625
0.49114227294921875 -0.305755615234375 0.6044769287109375
0.50249481201171875 -0.30938720703125 0.6015472412109375
0.51006317138671875 -0.3117218017578125 0.5977630615234375
0.27635955810546875 -0.2075042724609375 0.61456298828125
0.26827239990234375 -0.20587158203125 0.61751556396484375
0.26850128173828125 -0.2081756591796875 0.61864471435546875
0.27521514892578125 -0.2156219482421875 0.61673736572265625
0.27773284912109375 -0.2208099365234375 0.614471435546875
0.28150177001953125 -0.2246246337890625 0.61211395263671875
0.394073486328125 -0.269073486328125 0.600830078125
0.38829803466796875 -0.263946533203125 0.604278564453125
0.3841705322265625 -0.2585601806640625 0.60698699951171875
0.41131591796875 -0.2693023681640625 0.60723876953125
0.43665313720703125 -0.2807159423828125 0.60527801513671875
0.458251953125 -0.2908935546875 0.605255126953125
0.296844482421875 -0.22119140625 0.61598968505859375
0.322967529296875 -0.2306671142578125 0.61467742919921875
0.3527374267578125 -0.2424163818359375 0.61113739013671875
0.38698577880859375 -0.2541046142578125 0.60919189453125
0.3959197998046875 -0.254150390625 0.606231689453125
0.40665435791015625 -0.2554779052734375 0.60271453857421875
0.47670745849609375 -0.29052734375 0.600433349609375
0.4736785888671875 -0.29150390625 0.603363037109375
0.4742431640625 -0.29571533203125 0.60471343994140625
0.28844451904296875 -0.212738037109375 0.6165924072265625
0.304931640625 -0.2167510986328125 0.61469268798828125
0.32293701171875 -0.2210693359375 0.6118621826171875
-0.093994140625 0.15765380859375 0.68292236328125
-0.096893310546875 0.156005859375 0.6813507080078125
-0.099884033203125 0.15460205078125 0.679656982421875
-0.077301025390625 0.096282958984375 0.690704345703125
-0.07572174072265625 0.10186767578125 0.691253662109375
-0.07440948486328125 0.105377197265625 0.6929473876953125
-0.07929229736328125 0.11968994140625 0.68927001953125
-0.08487701416015625 0.1318359375 0.6866912841796875
-0.08934783935546875 0.14495849609375 0.684478759765625
-0.204010009765625 0.098907470703125 0.70404052734375
-0.2080841064453125 0.08636474609375 0.7046966552734375
-0.21215057373046875 0.07501220703125 0.706939697265625
-0.21347808837890625 0.06378173828125 0.709381103515625
-0.21143341064453125 0.0619354248046875 0.70647430419921875
-0.2069091796875 0.0615081787109375 0.70562744140625
-0.19068145751953125 0.1159210205078125 0.69574737548828125
-0.195281982421875 0.112762451171875 0.69808197021484375
-0.19873046875 0.112518310546875 0.69991302490234375
-0.098907470703125 0.229888916015625 0.6625823974609375
-0.10174560546875 0.231536865234375 0.662109375
-0.1045989990234375 0.23345947265625 0.661956787109375
-0.09464263916015625 0.175689697265625 0.6774749755859375
-0.0963897705078125 0.19158935546875 0.6742095947265625
-0.09716796875 0.209381103515625 0.6696319580078125
-0.1893310546875 0.155670166015625 0.6922454833984375
-0.19335174560546875 0.1394195556640625 0.69524383544921875
-0.1974029541015625 0.124969482421875 0.69783782958984375
-0.173004150390625 0.1858673095703125 0.68154144287109375
-0.1783294677734375 0.1797637939453125 0.6841583251953125
-0.18218994140625 0.1729888916015625 0.686676025390625
-0.08844757080078125 0.31048583984375 0.637847900390625
-0.08905792236328125 0.31817626953125 0.633697509765625
-0.08939361572265625 0.326416015625 0.632110595703125
-0.095855712890625 0.24774169921875 0.6570587158203125
-0.09354400634765625 0.268035888671875 0.6512298583984375
-0.09078216552734375 0.28619384765625 0.6453704833984375
-0.1724090576171875 0.2154388427734375 0.678009033203125
-0.1769866943359375 0.2012481689453125 0.68209075927734375
-0.1806793212890625 0.18560791015625 0.6851348876953125
-0.152984619140625 0.25830078125 0.66481781005859375
-0.15894317626953125 0.247100830078125 0.66835784912109375
-0.16412353515625 0.23687744140625 0.672027587890625
-0.030609130859375 0.0531005859375 0.6951904296875
-0.033050537109375 0.060394287109375 0.6943206787109375
-0.035125732421875 0.065277099609375 0.696075439453125
-0.04959869384765625 0.075897216796875 0.6968841552734375
-0.05985260009765625 0.086639404296875 0.6943817138671875
-0.067626953125 0.097503662109375 0.6946258544921875
-0.2203216552734375 0.0544281005859375 0.71247100830078125
-0.22516632080078125 0.04425048828125 0.71340179443359375
-0.23154449462890625 0.0340576171875 0.71633148193359375
-0.23883056640625 0.0229949951171875 0.71712493896484375
-0.23736572265625 0.019500732421875 0.71529388427734375
-0.23492431640625 0.01531982421875 0.71240234375
0.0682830810546875 0.020904541015625 0.6776123046875
0.05899810791015625 0.0264892578125 0.679840087890625
0.05007171630859375 0.032989501953125 0.680816650390625
0.02530670166015625 0.042205810546875 0.6875
0.003387451171875 0.049072265625 0.6921539306640625
-0.01776123046875 0.057891845703125 0.69525146484375
-0.25157928466796875 0.0122833251953125 0.71923065185546875
-0.2651824951171875 -0.0008697509765625 0.72054290771484375
-0.27870941162109375 -0.0126800537109375 0.72051239013671875
-0.2935028076171875 -0.0251617431640625 0.72060394287109375
-0.294952392578125 -0.0300140380859375 0.7162322998046875
-0.29718780517578125 -0.03375244140625 0.71457672119140625
0.10736083984375 0.055908203125 0.6483001708984375
0.0956573486328125 0.058013916015625 0.6536712646484375
0.08563995361328125 0.063079833984375 0.6576995849609375
0.07513427734375 0.05322265625 0.6660003662109375
0.06905364990234375 0.04541015625 0.6728973388671875
0.05879974365234375 0.038818359375 0.6794891357421875
-0.30292510986328125 -0.0285186767578125 0.7220916748046875
-0.3120574951171875 -0.0325775146484375 0.7215576171875
-0.31896209716796875 -0.036956787109375 0.72223663330078125
-0.32730484008789062 -0.042694091796875 0.72121429443359375
-0.331451416015625 -0.0484619140625 0.719390869140625
-0.33722305297851562 -0.0544586181640625 0.71681976318359375
0.08063507080078125 0.152435302734375 0.60748291015625
0.073516845703125 0.150360107421875 0.613677978515625
0.0665283203125 0.151397705078125 0.618804931640625
0.06841278076171875 0.128814697265625 0.6304168701171875
0.0743865966796875 0.106689453125 0.64117431640625
0.0774993896484375 0.08502197265625 0.651519775390625
-0.32767486572265625 -0.0384368896484375 0.72341156005859375
-0.32846450805664062 -0.0364532470703125 0.7248077392578125
-0.327728271484375 -0.0347442626953125 0.7261505126953125
-0.32963943481445312 -0.0350341796875 0.72620010375976562
-0.33372116088867188 -0.0426788330078125 0.72478485107421875
-0.3386077880859375 -0.0494384765625 0.724151611328125
0.02585601806640625 0.2518310546875 0.583251953125
0.023406982421875 0.24468994140625 0.5895538330078125
0.0196685791015625 0.24267578125 0.5951995849609375
0.02826690673828125 0.21893310546875 0.603546142578125
0.0393829345703125 0.198516845703125 0.6086883544921875
0.0502471923828125 0.1761474609375 0.614654541015625
-0.3209381103515625 -0.023223876953125 0.72697067260742188
-0.31478500366210938 -0.0123748779296875 0.72807693481445312
-0.30780792236328125 0.0010223388671875 0.7287445068359375
-0.30213165283203125 0.0099639892578125 0.72786331176757812
-0.30542373657226562 0.0060882568359375 0.72797393798828125
-0.30825042724609375 0.0006256103515625 0.72916412353515625
-0.01619720458984375 0.323089599609375 0.57879638671875
-0.0167999267578125 0.315582275390625 0.5830078125
-0.018341064453125 0.307281494140625 0.5898590087890625
-0.009796142578125 0.287261962890625 0.593170166015625
-0.000244140625 0.27239990234375 0.593017578125
0.00806427001953125 0.25714111328125 0.5962677001953125
-0.29198837280273438 0.0280303955078125 0.72504806518554688
-0.28366851806640625 0.0439300537109375 0.72399139404296875
-0.27378463745117188 0.0612640380859375 0.72315216064453125
-0.2639007568359375 0.0814971923828125 0.7198028564453125
-0.26398086547851562 0.0814666748046875 0.71844100952148438
-0.26486968994140625 0.0809478759765625 0.7187347412109375
-0.0512237548828125 0.37530517578125 0.5906829833984375
-0.0536346435546875 0.3609619140625 0.600006103515625
-0.055328369140625 0.3472900390625 0.6082611083984375
-0.04999542236328125 0.330230712890625 0.6125030517578125
-0.04084014892578125 0.32122802734375 0.606109619140625
-0.0303497314453125 0.312042236328125 0.5990447998046875
-0.25051116943359375 0.102752685546875 0.71748733520507812
-0.23623275756835938 0.129638671875 0.71650314331054688
-0.22190475463867188 0.152496337890625 0.71166610717773438
-0.20722198486328125 0.181915283203125 0.70471954345703125
-0.20459365844726562 0.188629150390625 0.69858169555664062
-0.200103759765625 0.1975555419921875 0.694580078125
-0.0594635009765625 0.40997314453125 0.58709716796875
-0.06169891357421875 0.3934326171875 0.594146728515625
-0.0637664794921875 0.37884521484375 0.6014862060546875
-0.06427001953125 0.364410400390625 0.608551025390625
-0.06349945068359375 0.357421875 0.6121368408203125
-0.0610504150390625 0.34796142578125 0.61431884765625
-0.19884872436523438 0.19512939453125 0.70108413696289062
-0.18898773193359375 0.21240234375 0.69512939453125
-0.18152618408203125 0.2253265380859375 0.68609619140625
-0.1708221435546875 0.2463531494140625 0.6767730712890625
-0.16503143310546875 0.2587432861328125 0.66986083984375
-0.156982421875 0.2760009765625 0.665496826171875
-0.06998443603515625 0.39410400390625 0.60162353515625
-0.0716552734375 0.37835693359375 0.6071319580078125
-0.07357025146484375 0.366424560546875 0.6122894287109375
-0.071563720703125 0.363525390625 0.6126861572265625
-0.06877899169921875 0.367950439453125 0.6092529296875
-0.06653594970703125 0.369415283203125 0.6074676513671875
-0.17026519775390625 0.244903564453125 0.67633819580078125
-0.16641998291015625 0.25091552734375 0.67366790771484375
-0.16436004638671875 0.25274658203125 0.6718597412109375
-0.1579742431640625 0.263458251953125 0.66739654541015625
-0.15193939208984375 0.277069091796875 0.662322998046875
-0.14395904541015625 0.2949676513671875 0.6568145751953125
-0.0841827392578125 0.319854736328125 0.633026123046875
-0.0806121826171875 0.334564208984375 0.6275634765625
-0.07720947265625 0.3465576171875 0.6216278076171875
-0.1634521484375 0.2504730224609375 0.6723785400390625
-0.16439056396484375 0.2454833984375 0.6720123291015625
-0.16556549072265625 0.23785400390625 0.67432403564453125
-0.073974609375 0.336334228515625 0.6222076416015625
-0.07469940185546875 0.34222412109375 0.62200927734375
-0.07454681396484375 0.347808837890625 0.6188507080078125
-0.08640289306640625 0.299468994140625 0.63970947265625
-0.08466339111328125 0.296142578125 0.638580322265625
-0.0823516845703125 0.294189453125 0.6359710693359375
-0.0787353515625 0.303375244140625 0.6307525634765625
-0.077056884765625 0.314361572265625 0.6262969970703125
-0.0754852294921875 0.323486328125 0.625244140625
-0.17653656005859375 0.2222442626953125 0.67749786376953125
-0.1768798828125 0.217315673828125 0.67588043212890625
-0.17822265625 0.21124267578125 0.67441558837890625
-0.17812347412109375 0.209625244140625 0.67554473876953125
-0.17530059814453125 0.213775634765625 0.676544189453125
-0.17235565185546875 0.22052001953125 0.67642974853515625
-0.16754913330078125 0.244171142578125 0.67470550537109375
-0.17073822021484375 0.237091064453125 0.67436981201171875
-0.17415618896484375 0.2303619384765625 0.67696380615234375
-0.0651702880859375 0.350006103515625 0.6131591796875
-0.06571197509765625 0.353729248046875 0.6118927001953125
-0.0658111572265625 0.360076904296875 0.61053466796875
-0.07131195068359375 0.336181640625 0.6194915771484375
-0.06912994384765625 0.341400146484375 0.61614990234375
-0.0665283203125 0.343597412109375 0.6144561767578125
-0.1821136474609375 0.2183990478515625 0.6814727783203125
-0.17935943603515625 0.2216796875 0.67987823486328125
-0.17752838134765625 0.2243499755859375 0.6777191162109375
-0.17884063720703125 0.228912353515625 0.682769775390625
-0.18157958984375 0.2220306396484375 0.68350982666015625
-0.18390655517578125 0.217315673828125 0.68231201171875
-0.0546875 0.3292236328125 0.6153106689453125
-0.05663299560546875 0.32916259765625 0.6177520751953125
-0.05792236328125 0.333343505859375 0.6184539794921875
-0.0627288818359375 0.341766357421875 0.61419677734375
-0.06040191650390625 0.339508056640625 0.6134185791015625
-0.0576629638671875 0.334228515625 0.61309814453125
-0.20490264892578125 0.180908203125 0.6966400146484375
-0.1969146728515625 0.193817138671875 0.6920623779296875
-0.19110870361328125 0.204315185546875 0.6872406005859375
-0.21071243286132812 0.172332763671875 0.70768356323242188
-0.21227264404296875 0.17010498046875 0.70642852783203125
-0.212982177734375 0.1665802001953125 0.70489501953125
-0.0160369873046875 0.293212890625 0.59393310546875
-0.01739501953125 0.2939453125 0.5951080322265625
-0.01894378662109375 0.29608154296875 0.5947418212890625
-0.04467010498046875 0.320098876953125 0.6077880859375
-0.03534698486328125 0.31207275390625 0.601715087890625
-0.024627685546875 0.303802490234375 0.595733642578125
-0.25064468383789062 0.0998992919921875 0.70726394653320312
-0.23798751831054688 0.1232452392578125 0.70555877685546875
-0.2253875732421875 0.1439361572265625 0.70354461669921875
-0.26239013671875 0.0803070068359375 0.719268798828125
-0.26242828369140625 0.08056640625 0.7154388427734375
-0.26242446899414062 0.079986572265625 0.71190261840820312
0.0164031982421875 0.2386474609375 0.597259521484375
0.01613616943359375 0.237396240234375 0.6006011962890625
0.01680755615234375 0.238189697265625 0.6013641357421875
-0.0047149658203125 0.28057861328125 0.5909423828125
0.00386810302734375 0.268096923828125 0.589996337890625
0.0103607177734375 0.2545166015625 0.5930633544921875
-0.28861236572265625 0.0340118408203125 0.71117401123046875
-0.28074264526367188 0.0466766357421875 0.70984649658203125
-0.27234649658203125 0.060821533203125 0.70767974853515625
-0.297943115234375 0.0172576904296875 0.72575759887695312
-0.29621124267578125 0.0190277099609375 0.72196197509765625
-0.29477310180664062 0.0209503173828125 0.71781539916992188
0.04969024658203125 0.16424560546875 0.6203460693359375
0.05297088623046875 0.159698486328125 0.621673583984375
0.05620574951171875 0.156768798828125 0.62249755859375
0.02544403076171875 0.223663330078125 0.599517822265625
0.032623291015625 0.206756591796875 0.604339599609375
0.04058074951171875 0.18963623046875 0.6107635498046875
-0.31036376953125 -0.00634765625 0.716064453125
-0.30535507202148438 0.0018157958984375 0.71522903442382812
-0.30045700073242188 0.011199951171875 0.71303176879882812
-0.32223892211914062 -0.025482177734375 0.72491455078125
-0.31980514526367188 -0.0209808349609375 0.72272872924804688
-0.3165435791015625 -0.01739501953125 0.7178802490234375
0.06386566162109375 0.084228515625 0.6562347412109375
0.0670013427734375 0.07879638671875 0.6581573486328125
0.07110595703125 0.072784423828125 0.658599853515625
0.05371856689453125 0.148345947265625 0.6264801025390625
0.057891845703125 0.12554931640625 0.6367950439453125
0.060394287109375 0.107025146484375 0.645660400390625
-0.31616592407226562 -0.0240936279296875 0.71760177612304688
-0.31806564331054688 -0.0225067138671875 0.718048095703125
-0.31611251831054688 -0.019012451171875 0.71844863891601562
