# XYZ point cloud file
-0.02132288736208765 -0.1338068814916929 0.76228809855552027
-0.0097887521656256915 -0.12542807484845855 0.76305221774918719
0.0024500346838669529 -0.11543266520183824 0.76338318191429821
0.033645244650349682 -0.11343757416934805 0.7602518922918815
0.047722634456930813 -0.12261527100722727 0.75636855421596794
0.059736289911551887 -0.13055561980184643 0.75224149724973954
-0.11584537017078111 -0.011066694410463915 0.74043867885587633
-0.090767142215576468 -0.03651365173523724 0.7389165958362709
-0.068980348619759768 -0.056216315583531462 0.73714128682324187
0.018339251237440068 -0.039127079441357751 0.73645198937434309
0.014957553399615575 -0.029668122895712995 0.73909584030070552
0.013809997575654709 -0.01578103489142639 0.74125455097546911
-0.13305107547464612 -0.10670145057162453 0.74809390249508079
-0.11520903309848496 -0.10919510405934327 0.74492061437166246
-0.10366976417330775 -0.11298373404033199 0.74154194268103324
0.10128490669321621 -0.074876038306558257 0.72235418314312039
0.10655226133465145 -0.073033573832370344 0.71776648178920488
0.11285185010491805 -0.070639046954887014 0.71113624340890813
0.097922654026393108 -0.056457563796129331 0.70816835160158509
0.074428856247721997 -0.042129888813536312 0.71711994129158962
0.049525565683909756 -0.023392030753793716 0.7274031795960374
-0.13650385511512275 -0.13672600145796365 0.73437833519713513
-0.1185807779261383 -0.15685043657740172 0.72290423337738963
-0.10430690685362864 -0.17422980571615904 0.71276615260980702
-0.080975123046502118 -0.17979115128833761 0.7145999049275773
-0.072274120254283369 -0.17279761250780351 0.72113584243017659
-0.065735615807601011 -0.16748346939542369 0.72558746907819582
0.15961161228316079 -0.12282912230261911 0.71209798048330164
0.17490253077664941 -0.11809339758822922 0.70659178475894802
0.18859683903654956 -0.11310198130805806 0.69930343279704887
0.17694643135794053 -0.097219435084561073 0.69112423309798499
0.15725830400792473 -0.087519783393239611 0.69325133734478261
0.13869885797236892 -0.078009080531033531 0.69634923741508192
-0.079729259738585023 -0.20052789017281991 0.69867814402218431
-0.06682600095889013 -0.21062871840710373 0.6946205911181651
-0.052499907624133924 -0.22031094260945405 0.6915831553212346
-0.018668229580477869 -0.21948639239093132 0.6991861401008812
-0.0035325237919427988 -0.20883124899545202 0.70670639583722528
0.01002962343475633 -0.19853473706160124 0.71227503007759752
0.3028138351315206 -0.15031195755509613 0.68093528159829586
0.26180547249994945 -0.13393820594526229 0.68454731446908657
0.22774868062551712 -0.11989251635945225 0.68724099617281587
-0.015663012051829517 -0.24258430093462136 0.68542291183795356
0.0090230371577071367 -0.25623600269806901 0.68108523761936035
0.039470807719981682 -0.27163223089211153 0.67537188116437386
0.29535183970732115 -0.12081134493689799 0.61819265583464311
0.25858414185726342 -0.10692606179723557 0.619705942027996
0.22774793724765741 -0.095634261750608129 0.62080575038402341
0.20911931543660511 -0.09077197416928065 0.64079689857134059
0.21067480182374299 -0.096262658546404561 0.65911931149325365
0.20732497634474001 -0.10208916959800778 0.67562617476736553
-0.055369221187379525 -0.24252477735158465 0.67446951934009181
-0.075711698882662715 -0.25420877215868254 0.65719572326105946
-0.095204113572764815 -0.26467050841626277 0.63806047158621282
-0.099215172500644266 -0.28421854733846635 0.61594791592480425
-0.082513120557845321 -0.29697627795628495 0.6130588645617796
-0.06055975676249914 -0.31098163752811114 0.60921807755834956
0.18085506909346338 -0.077935109247889378 0.62296763733347116
0.16278104599500676 -0.070443678716113123 0.62443800004096595
0.14657999969982072 -0.063429990948991155 0.62632642126812832
0.13249333108539441 -0.0591579953435699 0.64810447753508593
0.13035183268339146 -0.062114662873580376 0.66787006455359021
0.12565908786874669 -0.065093685366181722 0.68611766983742939
-0.10552324165897997 -0.2003303516930699 0.689175411389364
-0.12012118422496232 -0.21282681898484929 0.67027517153968486
-0.13437714163635528 -0.22476095984981498 0.64963720811474324
-0.13977064391549021 -0.24389012933140231 0.62593890633594707
-0.13194244932353993 -0.25304405243940092 0.62307334772888989
-0.12293412980807839 -0.26249016288037791 0.62060753088049769
0.11519759100468718 -0.049458284947916542 0.63190501366248131
0.10173644061358078 -0.040567804507479821 0.63484083764436394
0.093436206151792822 -0.028282109923081347 0.63655238171230288
-0.17696012716016307 -0.20953874958585431 0.63964844412751587
-0.16274919651820996 -0.21505929382578134 0.63731700790437085
-0.15360927915737999 -0.22412536061377952 0.63355319249776909
0.61261690370221888 -0.31826270022006276 0.6530988294901956
0.61325252479187609 -0.31601705195799623 0.65520162124011305
0.61417375554502973 -0.31305894391638445 0.65636147854882387
0.55817913508249117 -0.33056977330858378 0.65227026602437066
0.5635614436131815 -0.33271751971054686 0.65018177339748284
0.56566424403106597 -0.33438067758125078 0.647635656957956
0.57845853708285988 -0.33109369836094554 0.64631733150031945
0.58903573531624187 -0.3259865302366014 0.64837291804918884
0.5991849416649031 -0.32185224749171271 0.64977725903393435
0.51283870681999044 -0.34418830867511258 0.64128200426106097
0.52813236110738293 -0.3416699370625178 0.64225162412430459
0.54699522150336888 -0.33913742077606829 0.64308410290552409
0.48828948628664248 -0.34561734679426626 0.64456321762069591
0.49835280796932158 -0.34551835959442101 0.64421764960452643
0.50377264098893115 -0.34617404198646534 0.64256634798446477
0.68774255779275251 -0.34014618901102422 0.63984302683857086
0.69647682571300962 -0.34030698579293506 0.64060724929868762
0.7078411093369128 -0.34090682315760246 0.63961984319570431
0.62743747076934975 -0.32205060500849902 0.64826600383579147
0.64575478411736009 -0.32678041526993995 0.6453276734055704
0.66397013520987191 -0.33320060507628491 0.64158189660098408
0.54285259102960293 -0.36209717449762374 0.62871286308621088
0.52352432905348567 -0.35691476010561951 0.63284365092595629
0.50996770525514101 -0.35180895702807535 0.63663974526814604
0.5694218083769842 -0.37161504173948939 0.62421948032008068
0.56994623543539569 -0.36866776902159243 0.62655952903694079
0.56848114739804134 -0.36720753589653687 0.62662679416574463
0.71144262605309705 -0.36360378493030521 0.62489854386304877
0.72083675548922521 -0.36438796004864715 0.62560171207661419
0.73136589710801769 -0.365451915073853 0.62492193411026253
0.69101596589398473 -0.34690730725868635 0.63339568862871287
0.6980750219060019 -0.35301266404467657 0.62950999364250881
0.70157429908003044 -0.35842598477197957 0.62595579143834912
0.62362967209776521 -0.37510931813528542 0.61658536191427959
0.60548642691692534 -0.37323779561069165 0.61861012862131237
0.5857096245081943 -0.37049105280446126 0.62134275705059361
0.65284953225268394 -0.38113932884780666 0.61522763337495734
0.65071024748960893 -0.37859883989924703 0.61696990105806693
0.64633433755833614 -0.37702795499920827 0.61691751516569338
0.69121769138564537 -0.37442970658476216 0.61792201291814286
0.69798434457073188 -0.37568620825703819 0.61814719729423828
0.70438369739996598 -0.37754673001909106 0.61697110407354172
0.70024534447337272 -0.36668540483585377 0.62055177695579555
0.69631319813275705 -0.3695708516568661 0.61876558548298233
0.69059985332911111 -0.37182817521743317 0.61741655613446356
0.6750255102460343 -0.37503335850815445 0.61548978055135151
0.66516009400877385 -0.3760094046587138 0.61491808559403927
0.65350369670029718 -0.37641937556238925 0.61480478262545724
0.64864370608785271 -0.37074430926378366 0.60774609637927113
0.66235491906841881 -0.37224970150448988 0.61036522613484978
0.67386501611089722 -0.37303594989603156 0.61355127456746472
0.69171186775379079 -0.36257276315735226 0.61970863164394552
0.6802099527563461 -0.36172977542012685 0.61623451782108418
0.66753314818667886 -0.35993778231977658 0.61344441128039828
0.65085474366505758 -0.35995977119808814 0.61069324938941949
0.64643147687094471 -0.36302393988005888 0.60918638470865383
0.64033236699814799 -0.3657247404439482 0.60783596618683267
0.62298262175229535 -0.36977817771534316 0.60572116687138133
0.61207041346815183 -0.37109036972399312 0.60502361173447272
0.60015493959016264 -0.37194918617203387 0.60461001991352981
0.60532702574664232 -0.37427571062034942 0.60599336610545218
0.6196653031486612 -0.37523006728266806 0.60893242280452142
0.63100800600835827 -0.37570474427416156 0.61234680416432208
0.67091692816894133 -0.34045281069159739 0.63358380122459734
0.66188722290635238 -0.34071043999462158 0.6291918576191522
0.65363668333012814 -0.34095330288677828 0.62532585207608582
0.65100276339484919 -0.34470815726370913 0.61970527819026611
0.65406274739007486 -0.34912431034135216 0.61641147186293987
0.65482523727734354 -0.35304325130153857 0.61409911152622199
0.57481880739122504 -0.37235448347190103 0.60475975436218432
0.5620052951543939 -0.37161461005713503 0.6058528445216389
0.54940841889902869 -0.36984382304206032 0.60829554046991396
0.54444248158662378 -0.36785416087998407 0.61328953437246492
0.55089280498156068 -0.36750582186749381 0.61695418975717398
0.55823903907608341 -0.36702575907043467 0.62114806018128998
0.60794396513615756 -0.32172045454155007 0.64553652713240339
0.60463770612643564 -0.3237548475561266 0.64023946111030106
0.60309129506013304 -0.32670891928182932 0.63438642637554388
0.61548902771515479 -0.33132468768072038 0.62741581029311577
0.62688702623899739 -0.33369557822098828 0.62572983165918461
0.63864406633894011 -0.33760265673684686 0.62396768008025449
0.52775812712398684 -0.36585978913507106 0.61196740918228509
0.51502322007898615 -0.3628370539574241 0.61389245919300195
0.50857599181504809 -0.35959760533959118 0.616261386932071
0.50314470538001954 -0.35334460618120861 0.62427099891450966
0.50223292807256725 -0.35080711404171139 0.63006543239133816
0.50390855089145581 -0.34885254351362327 0.63531447474518554
0.56282574166310928 -0.33751717020771593 0.63979649374737924
0.56076519328157226 -0.33964517236289465 0.63443813219123779
0.56118632480450525 -0.34257318265112668 0.62854200809150296
0.57842116802088772 -0.34226685897719411 0.62437153407538171
0.58800848219461366 -0.33758935676648277 0.6263503027520767
0.5964385462326125 -0.33352053649501173 0.62784777400503966
0.51877446483688239 -0.35419206975868545 0.61965837858392137
0.53339351919321221 -0.35204660509169367 0.62048003791402562
0.5502553981156324 -0.34967527638195256 0.62128960302629488
0.57830871994908661 -0.35196550579710095 0.61663455731037153
0.59492935197838781 -0.35785279734506326 0.61166008016895668
0.61379988885345838 -0.36345155931734419 0.60815065190223105
0.63849171257223669 -0.35110438611770411 0.61392494597786706
0.62413936329897757 -0.34435343725725071 0.61755618832204795
0.61257624223022078 -0.3373323933020913 0.62256034545208561
0.52409261040288713 -0.36055995676229896 0.61297647924361898
0.54399735290735718 -0.36485886990937189 0.60853064007772351
0.56615934579425908 -0.36901099950100247 0.60552402147009721
-0.12065687117252755 0.22914130928448306 0.74620908460145663
-0.12576239871653216 0.22288967889169672 0.7454647711785034
-0.13282147797715238 0.21491076526595787 0.74462543999070441
-0.096330066284698646 0.17111859581212072 0.74031456106260385
-0.092310910155119386 0.18199895350996009 0.74190260356405657
-0.089597176562051795 0.18922265593431162 0.74335751407186312
-0.096152091383519878 0.20218229728452314 0.74438774717723422
-0.10381501089867062 0.21136590251442153 0.74502263089317711
-0.1107267756917838 0.22204518214824914 0.74560950193055975
-0.30079267366120876 0.055033600251021303 0.76486007982334003
-0.29942912797836319 0.042373391021144735 0.76436298420590232
-0.29874729025354063 0.029957255437652583 0.76394427890320982
-0.29476684632622252 0.017891445463608505 0.76256955098148294
-0.28909419501133016 0.017998182489005671 0.76000985945346233
-0.2804116184484664 0.018282222781998037 0.75668639123107018
-0.28404401638250087 0.079531544751021352 0.76016037519391122
-0.29202051688058006 0.074212085457004584 0.76262950780948691
-0.29803384957644008 0.070600940839113543 0.76458630612781153
-0.13679291698065787 0.29478138489874606 0.74428704270444168
-0.14339894817207433 0.29092732362933754 0.74447359612976372
-0.15173852493675088 0.28639343557896152 0.74529976956800725
-0.12218968484033121 0.24804864348614999 0.7459651073191198
-0.12652384193811894 0.26332894690687469 0.74557037646474544
-0.12970637643644367 0.2800107282076828 0.74480613093029091
-0.31142922771457449 0.10723466186025968 0.76496394510949428
-0.30812388101851718 0.094261933661728053 0.76530184165682758
-0.30521786614501845 0.081085021482035502 0.76541031599535669
-0.29626988434389667 0.1444645503118544 0.76186505747493372
-0.30394991904142787 0.1339879298163893 0.76273086798342371
-0.31017352858800451 0.12597038847546338 0.76393240118763628
-0.12997849283640206 0.37906891147005672 0.73576987422183082
-0.13552097248393324 0.3809195389795404 0.73607637096409517
-0.14183879758991202 0.382704345802104 0.73748616737621964
-0.1321350735179565 0.31717528313862758 0.74220873578966295
-0.13123125811378911 0.33711270586941028 0.74034721282714622
-0.12889663654619077 0.35733899703746019 0.73806937513018078
-0.32829891103114384 0.1512573847265003 0.76173799292942457
-0.32356357868283858 0.14223199939234629 0.76283768458771628
-0.31917177803606189 0.13157500432348895 0.76372540447928405
-0.31698691494409159 0.19352026052924601 0.75882704616038854
-0.32322615882261885 0.18000972741711102 0.75886363872046703
-0.32875784793538276 0.16823970732504212 0.75979768634374323
-0.039079512690112894 0.15647723327667579 0.73206292576546339
-0.039900326770681227 0.16792563979137129 0.73397203610979234
-0.039659831112887733 0.17545721311105511 0.73641501818751975
-0.055130504184247364 0.18099825875761749 0.74131246304586718
-0.068038058845624194 0.18354327387470293 0.74294272864541888
-0.078645597791248134 0.1881345083841679 0.74358900556015062
-0.29972285087708239 0.0058500750187683165 0.76399274219076752
-0.3022488319275014 -0.0068052128531569112 0.76414938703445534
-0.30721133991759131 -0.021126481668979583 0.76374050652795833
-0.31159971428019895 -0.039473118235871893 0.75990960535635077
-0.30633619669887113 -0.041967366138909501 0.75650664130056122
-0.29828868389057628 -0.046023062620845365 0.75314991925263475
0.057930899012845094 0.18694729307239805 0.70020817943918634
0.052221694285707443 0.1945246955219343 0.70466990018089604
0.047791222908673436 0.20131447073141617 0.70850804847073823
0.024644642115271731 0.19659973836177391 0.71855035396658939
0.0028301683493197061 0.18862055518416776 0.72599441925843933
-0.019120559910750901 0.18336529649176533 0.73274335514084687
-0.32773707651816952 -0.058431765936534985 0.7590020357386158
-0.34316781341406388 -0.080205068798747836 0.75441606193773358
-0.3607223213998576 -0.10134116434721846 0.74895467376034963
-0.37688792501948054 -0.12515634888318505 0.74007340924487997
-0.37420387101479191 -0.1317078443857396 0.73537543506914438
-0.37134791400147504 -0.13958313429795757 0.72987179868247987
0.10293510226879143 0.27168637430713899 0.66774323378193445
0.095519014856295659 0.27306965579341491 0.67422110256014922
0.089433770270856305 0.27590814744212055 0.67928781117961545
0.078475111112446205 0.25670588821601098 0.69014591190291963
0.070393771073145261 0.2372899303195545 0.69717090156855543
0.059193064641887005 0.22086359686433932 0.70402189844861596
-0.39781348713357922 -0.13403056954997514 0.73808959562039944
-0.41628673541674099 -0.14448331723729368 0.73324422054366645
-0.43480096106358213 -0.15199776457146918 0.72842791705558652
-0.45447722765287835 -0.16406656828651855 0.71942357261430789
-0.45636542712779549 -0.17236239963427152 0.71369480179617373
-0.45993702897679256 -0.18220999092166834 0.70661382048025123
0.10934745467837304 0.39816990608891101 0.63420190697249734
0.10254729473739732 0.39278628191674836 0.64095657099794234
0.096465240044881329 0.38940265547335284 0.64635266901851751
0.09194767514696256 0.36051234426944501 0.65722356652280567
0.091076193564264107 0.33253072856537713 0.66553105067115226
0.088460752227188966 0.30495555447625311 0.67422356943426798
-0.47193465162874904 -0.16093098370312517 0.7173954248223815
-0.48912969078652679 -0.16261137908059586 0.71133397850114499
-0.50375088753783137 -0.16184329751126647 0.70569907457858516
-0.51977670081621263 -0.16520847223338225 0.69752125608638194
-0.52557968718236725 -0.17325398097045108 0.6922263553918806
-0.53268008703387704 -0.18224185395768705 0.68560725672680456
0.086425286106915022 0.49445306466827771 0.62301891552527611
0.080735586182004715 0.48405413500189237 0.62946385909058744
0.075533299289496147 0.47603306399945527 0.63533519476513245
0.077158754434896393 0.45271970913997106 0.64042845917851432
0.082940915466592768 0.43340135414178838 0.64208736914977926
0.087702552423082558 0.41166643217353349 0.6451911230573828
-0.52163302971441006 -0.15104209793181017 0.69821587744046743
-0.5248842641051279 -0.14121085625319521 0.69663249831971608
-0.52530739114092806 -0.12939168811295826 0.69598702780410182
-0.5288581158552389 -0.12184373564306639 0.69201913163451922
-0.53474223058167947 -0.12801765969014556 0.68660384849337053
-0.54147141168664914 -0.13430019790599115 0.68063101047975239
0.047163578909716231 0.53967466016196264 0.63563143699216806
0.043443893904864472 0.5283414049489632 0.6404516251269341
0.040125699314324415 0.51868755094088226 0.64575239949395535
0.048292682818754651 0.50526334505538861 0.64401028171167085
0.057159607742604868 0.49644104282100232 0.64079509383555378
0.064431540061110626 0.48443856694416221 0.63964378002341582
-0.52046847223733339 -0.10299188006753304 0.69606204290197793
-0.5154759481630754 -0.088269430044907005 0.6972527912766957
-0.50819278836857162 -0.0711922874558025 0.70027064219212476
-0.50126018575074704 -0.052748750378031006 0.70197895876075411
-0.50456910001133815 -0.054935886677686147 0.69710376702292787
-0.50844774081680832 -0.056813591961139553 0.69287077109901407
-0.023204740000286161 0.53327079633050944 0.67733128343756466
-0.023575919845169047 0.52046045966272525 0.68223635802066473
-0.02413811162954338 0.51036528477897047 0.6879179684300365
-0.0092676127432416155 0.50650141085267897 0.68283036785564288
0.0070692562910137369 0.50990616112224862 0.6713091850174393
0.022954334554069478 0.5116108172617585 0.65977978419566408
-0.48490951791160453 -0.025825732405890534 0.71464301356462556
-0.46963795156032306 0.0015171891189285636 0.72468293346995738
-0.45353330430759919 0.029295050607097306 0.73413244496859975
-0.43741935381133168 0.058245729881052671 0.73670802713166017
-0.4365478879364949 0.062400294960120894 0.73092672426211136
-0.43529263540127983 0.068964689396291884 0.72603256332713495
-0.072673557723017979 0.5175450588292464 0.69885684483231514
-0.071245727304288131 0.50383205663525477 0.70043052499063285
-0.070143383546524163 0.49359942177195659 0.70321160467237442
-0.060144572917755212 0.49114958536506936 0.70392314648007703
-0.049905759680417772 0.49541613034361165 0.70186363841715171
-0.038233545743529662 0.49902088715691262 0.69844748185091987
-0.42350501910161398 0.078156039331730986 0.74467570816751016
-0.41068556032427606 0.097595306141774529 0.74554250337886896
-0.39924981186382336 0.1141282638700396 0.74518762537881922
-0.38681947067979938 0.1353689792735496 0.74197515109185574
-0.38372355432205252 0.14524076360429142 0.73884295198803374
-0.37973039036431655 0.15907398637016645 0.73693084513691698
-0.10910055935560359 0.4705226370551312 0.71805942006790224
-0.10565906779051737 0.46028890254617744 0.71805686354893483
-0.10274590780178805 0.45253134911008286 0.71940447527571649
-0.093062845521796778 0.45915471359357951 0.71657832486041495
-0.085582599801861559 0.46984933405562435 0.71244904773584472
-0.077714937760989811 0.47865900604542722 0.70876147459871541
-0.3802462153471643 0.1395997557828304 0.74580865377835304
-0.37234162167278706 0.14885008038364522 0.7476606859181858
-0.36514373735706418 0.15586180637090674 0.75004712266715434
-0.35477766608589367 0.17038593779480132 0.75053243811464365
-0.35034490717566635 0.18264544120619389 0.74845616312136576
-0.34502673594188482 0.19861401761039305 0.74766242028581398
-0.12012207869231806 0.3966427189486097 0.73224543199645464
-0.11409048503304731 0.41482592664080253 0.7287460615733814
-0.10738580110458296 0.43154306383371066 0.72492200991354516
-0.35169220045879168 0.16355397807616937 0.7548875146570313
-0.34524553439449024 0.16417173462245127 0.75696069079807371
-0.33913081670246337 0.16241934892101928 0.75880313911858255
-0.094580818852361581 0.43263972897233832 0.71947180953948897
-0.096278876758846277 0.43670694264084664 0.72058351009306931
-0.098155088381398636 0.44123161412966505 0.72113539414804251
-0.1210709860551491 0.37601570504655446 0.73368240646646643
-0.11752445029397407 0.37496919978709908 0.73104118012497499
-0.11435437389535807 0.37413193389160315 0.72776241542721642
-0.10745781227390805 0.38900333384329339 0.7228828728737815
-0.10307544791300427 0.40352710199032932 0.7216445095125561
-0.09823908720592911 0.41684229707047543 0.72014718670534594
-0.36074374132145981 0.13513149729154406 0.75151450539543951
-0.35536829126777758 0.1349357246746446 0.75156819752186577
-0.35013474551968327 0.13312013531197256 0.75139243564542935
-0.34270599397219081 0.13594280304907017 0.75454068181097877
-0.34017786635879999 0.14241886642048179 0.75738516169550674
-0.33717255565664628 0.14968803072661041 0.7594658100296261
-0.36109029179674246 0.15259433178387038 0.7533046517642612
-0.36318255036346825 0.14560169283736335 0.75304510762296051
-0.3648537093377251 0.13936660402172538 0.75213800005068054
-0.067298993706018884 0.46851292063300809 0.70606327798901503
-0.067888793763335453 0.47349384862026289 0.70685862717826442
-0.06854632092564783 0.47912455474487275 0.70690427704464343
-0.087228919039366692 0.43931066121492013 0.71515045173991454
-0.080996577138070958 0.4485260598872578 0.71172254701441573
-0.074191711804578508 0.45665089742750498 0.70817855179263178
-0.38513128735771163 0.116890222077316 0.74540543378357893
-0.37829455495419118 0.12435323378265972 0.74742249067494093
-0.37208482013003152 0.12991560842081076 0.74939917689503543
-0.39068568313920438 0.1218968420047864 0.74605159398995058
-0.39169148009560883 0.11663638683991445 0.74598368931591641
-0.39233335484300735 0.11196638343950588 0.74508835313781674
-0.02662085547950821 0.48782796993598043 0.69155624941546101
-0.02601117128608843 0.49168983241885966 0.69356741954441348
-0.025405608521000378 0.49643604856541046 0.69412480332812132
-0.058532974202944565 0.47033898717669492 0.70224954549663643
-0.04937341509698423 0.47596481005806934 0.69930209331021209
-0.039024200442384638 0.48066656163393306 0.69512691097153922
-0.42202473099044635 0.067260552314212851 0.74002417819078725
-0.41116336561957678 0.083294625995358779 0.74205030356461932
-0.40143760024446595 0.096570024443713876 0.74297688523364425
-0.43742001155924937 0.053210387311590335 0.74271376209736073
-0.43657214606794659 0.051260330344751026 0.7417468308753612
-0.43540274880525931 0.04954330506168278 0.73921013924270484
0.02922640366435858 0.49153685079667836 0.65100465380084915
0.031733384327764735 0.49718472838715555 0.65209667993489262
0.034345807831497543 0.50339518387794036 0.65198796547344595
-0.013727422527212596 0.48723795489164928 0.67945858415208527
0.00047851664599574129 0.48876473332565706 0.66868994785972302
0.014339360941570289 0.48856863425821334 0.65811168437185197
-0.47363191609916777 -0.024639450959381581 0.71004224194832566
-0.46085750822426208 -4.9550511397877806e-06 0.71948371022973712
-0.447342822785886 0.024861654578188147 0.72859137895227755
-0.49491385011235911 -0.049310436438026573 0.7071100380127775
-0.49156007627270382 -0.04833532339309049 0.70643107897018398
-0.48814027526675818 -0.047637044074905294 0.70447024789828028
0.059443724757460847 0.45564687456472147 0.64161672577077655
0.062932403541667181 0.45977683705853523 0.64234039598395398
0.066687106308987998 0.46437863529103174 0.6419168400355415
0.036628279060429536 0.48099623531473368 0.64380220537372179
0.044439379468034446 0.47333958733563369 0.64092464797391457
0.050738949619099749 0.46348375768556149 0.63998615312287788
-0.50310852568865605 -0.092933540514820612 0.69294751023227752
-0.49904056616142278 -0.080331254594859181 0.69393455100020374
-0.4930233516457514 -0.065332208703180072 0.69669667478513286
-0.51874554869611911 -0.11218763948918048 0.69733530932515109
-0.5141889343887408 -0.10894903847339057 0.69692388196929822
-0.50983846499022345 -0.10632696126343744 0.69529394002070477
0.075840270006986676 0.38516165008796655 0.65197625239003631
0.080663948413424835 0.38549279915965895 0.65246645410824478
0.085661001720684915 0.38617492291997357 0.65200743788290394
0.061056924814433255 0.43841627285726353 0.64124244608328906
0.065392663917465121 0.42311753118694123 0.64313021527903702
0.068832022693722239 0.40543910446561904 0.64629304242816321
-0.50370658207504526 -0.13147683391464537 0.69670110744941516
-0.50639930770664665 -0.12364554214599868 0.69469577144738714
-0.5068515260382962 -0.11436268581637837 0.6935608312400352
-0.51030543482529156 -0.15211515506657775 0.70262193526418426
-0.50609127541390686 -0.14684079568567066 0.70256597544620147
-0.50208814414132341 -0.14205843789268069 0.70145941323437455
0.070654256420634054 0.28650818193590738 0.68217112571571947
0.074933650417865261 0.28440927995429416 0.68354124490286039
0.079425241450750139 0.28202239380524219 0.68385890491337942
0.071977193615834878 0.36139098395133235 0.65749548470167829
0.071514969842589204 0.33635430555893642 0.66497051702285837
0.069718665346000908 0.3115186797241622 0.67274833734009531
-0.46324113698833758 -0.14296327116800722 0.71511208203784382
-0.47730447426457512 -0.14318693154225237 0.70952405546169239
-0.48920919547557196 -0.1413901986562234 0.70425949819599909
-0.4521249677382051 -0.15188548466262164 0.7247306521030823
-0.45080432736495379 -0.14759415778159207 0.7243630361074076
-0.44942699143371612 -0.1440196013502365 0.72277390282492693
0.034870782136051881 0.22151185088556358 0.70855641747725628
0.037766177820772961 0.21724275910853003 0.71056721344751073
0.040835239672146528 0.21257863773892821 0.71155559694456239
0.061702738237142007 0.26865420411367313 0.68707801738169327
0.054733945935983908 0.25179040983774847 0.69346789552866217
0.045027200744553575 0.2375370817586139 0.69969755242781018
-0.40226038775219397 -0.12112062670987905 0.73444987419586161
-0.41761896555810241 -0.13031506376960575 0.72995798044040061
-0.4328282876323164 -0.13671938205528872 0.72540873548929286
-0.38143942719693369 -0.11595529339478594 0.74420384341514101
-0.38330147727286046 -0.1129739333401388 0.74345874516391985
-0.38498930796944131 -0.1106477777111094 0.74156772468364363
-0.039189797414720395 0.19520304491118012 0.73281569103166921
-0.038964814029338823 0.19060389693329682 0.73580640670421094
-0.038903159278443677 0.18584294971835189 0.73773642349617607
0.015460549606429064 0.21564130439862012 0.71267603134686675
-0.0031444985123318947 0.2078810727956788 0.71914285792067179
-0.022021775294178036 0.20250476652892371 0.72487010365430748
-0.34054862585390078 -0.054619995408248523 0.75231755452308713
-0.35461514120259396 -0.073828760888620171 0.74857533566183032
-0.37031042851886098 -0.092363132514278801 0.74399058074356628
-0.31906029078889531 -0.037125006750605122 0.76233954016851735
-0.32252595096387981 -0.036629776219923887 0.76078217635098144
-0.32586512994915173 -0.036419084452247563 0.75808873578115787
-0.084387749400229195 0.20864037506058511 0.73624863603016255
-0.08526724048988954 0.20407441837611115 0.73986854549297609
-0.086353232342358588 0.19937345228009337 0.74255128251547919
-0.053910403225945647 0.19980008759632417 0.73169232364750614
-0.065757964320598106 0.2023135947349175 0.73264364957272887
-0.075496841840463569 0.20689121127494642 0.73262093290481123
-0.31378740121851934 0.0048185657781525532 0.75475839369291409
-0.31639824767993741 -0.0071952598261876555 0.75554430341366952
-0.32128947623294768 -0.020737542644082646 0.75571273777369075
-0.30259843756060567 0.0174876369252637 0.76301989450979191
-0.30614871537347854 0.017042321729142954 0.76079340056485645
-0.30953414055928641 0.016483947116816527 0.75755917205222589
-0.12752982643105293 0.30062290799507407 0.74160857326780816
-0.12428398368910942 0.30283046952374104 0.73843009737790655
-0.1215962703651714 0.30477290320598394 0.73450663943138683
-0.11897155858357222 0.32302749215312671 0.72903887446401616
-0.11740860878427295 0.33994804157727643 0.72749655497137167
-0.11477975868561097 0.35690090482186587 0.72579107636113349
-0.33988993617856189 0.12535002205826229 0.75160955917189876
-0.33497664378836611 0.11948628409416683 0.75212484290096016
-0.33043240319715705 0.11219918652876561 0.75267016326262404
-0.32433460752639087 0.10680839108454106 0.75702952548395341
-0.32191642665205489 0.11047250857423604 0.76053680222863163
-0.31893388082865326 0.11469288838016721 0.76314676111667934
-0.1137416999354679 0.23883580209502428 0.74389074746342909
-0.11112452693285091 0.24302391439141285 0.74039072675905881
-0.10884034792289055 0.24697077582529031 0.73593027130520561
-0.11122483115447657 0.26315810566247422 0.73098007306000068
-0.11502835705394521 0.2765985115727001 0.730976748748144
-0.11778475357838269 0.29109592641818832 0.73077870859860861
-0.3233277852796026 0.093076384258367367 0.75310209835688258
-0.32080018245181563 0.081765856923173924 0.75292296842088935
-0.31869643281102422 0.070049254917359735 0.75265205190628381
-0.31374187348195548 0.060759295901626417 0.75697858135455709
-0.3104588779874311 0.063071474924386473 0.76096845852273098
-0.30684623067536076 0.065446712826277079 0.76389640357236388
-0.090552869246610879 0.22072085018453405 0.73170204704486563
-0.09658013010824229 0.22954971646980321 0.73135044411370376
-0.10190226115860934 0.23959659851040443 0.73109687431113324
-0.31510116169220215 0.047530777372924299 0.75241401756888404
-0.31369509121314376 0.036962134489731652 0.75262596900601486
-0.31285809526081088 0.026490501297852451 0.75308401711041162
-0.21732096027304149 0.31826969831176644 0.65043441714522054
-0.21979053086746014 0.31801515630973776 0.67256031584567899
-0.2220980165566544 0.31935091470039523 0.69531141129116536
-0.17848604671142665 0.42374522405284992 0.68537201208039855
-0.17220047800502636 0.42550807154481018 0.66096797547699104
-0.16306117439237533 0.43084125075122104 0.63587934174197125
-0.1740612293012771 0.39426746983249206 0.62061181535455634
-0.19103965587751315 0.36081802001579644 0.62692572451406581
-0.2038618940214274 0.33851207587456905 0.62948029712617637
-0.22471370595683648 0.3120652278719771 0.63144444770836405
-0.23557090146910054 0.30383354609148672 0.63089572000242367
-0.24768333310505253 0.29833361301826661 0.62687760770688539
-0.25589390651441191 0.30866093430721764 0.64366393560462898
-0.25204782274422377 0.32209294122345405 0.66788748074890214
-0.25109657068009694 0.33128066083401264 0.69189156424719922
-0.10209738252047196 0.63788187786014783 0.64919009007926642
-0.097532730822954661 0.63492189007467204 0.62585586841167173
-0.093624366789997193 0.62885717026767518 0.6070516671425259
-0.10016304436810164 0.59312393247117401 0.59671329649199834
-0.11357268799340159 0.55007955620666227 0.60032013510434812
-0.12896822274194819 0.50088837958991794 0.60509958474174041
-0.26956026224736918 0.30578078850063661 0.61629487146766815
-0.26720227534553898 0.32936158070349941 0.61293176408852235
-0.26228528919359462 0.35309036148285977 0.61047871824433297
-0.25162680736889798 0.38950529052401628 0.6210343173092554
-0.2464041599047142 0.4097070984776654 0.63935789905330265
-0.2456123074854184 0.42282244611641862 0.66272653610669563
-0.034457823618279204 0.75138492976678162 0.6112045010516487
-0.032119259581833925 0.74482784969713034 0.58859813856345977
-0.033192641832051173 0.73051500262389968 0.57229178115801904
-0.045654408588381767 0.70071015601348752 0.5654433846565643
-0.060184317617585692 0.67713881139868093 0.57192036001561064
-0.076910197134571257 0.64797759262436194 0.58366014591896165
-0.26279222189857876 0.36359132100493435 0.60008497548048223
-0.27119249864284745 0.35080672916023542 0.59124448458924639
-0.28263285357278023 0.33322978549731441 0.5880898868864104
-0.28966542940637785 0.33155001007940071 0.59805856841315608
-0.28685640456379136 0.34815267825319118 0.61496918664750089
-0.28686273740287282 0.36137335831792033 0.63840293920166058
0.010733363138587748 0.72006913753232726 0.58329803389333557
0.011834741667759108 0.71450762874977969 0.56030947921441743
0.0089029746449458269 0.70055688269943961 0.53977485439803519
-0.017182978147600725 0.68267952587269654 0.54099666670185664
-0.025866205023976629 0.69593476978740143 0.549914275630218
-0.031919931642566457 0.70782883268045726 0.55737812000245168
-0.30709466246352313 0.2876197988959292 0.58446099884668823
-0.32802878988271644 0.24394958638753883 0.57939955802049381
-0.35276594162121067 0.19279294169076425 0.57309160612523602
-0.39320105246414938 0.13026438913726462 0.57943818576352846
-0.39826997722559854 0.1379142339861141 0.60325141167993035
-0.40144773622457297 0.14761794550490809 0.62870110219172548
0.08835296244663926 0.70084249912477381 0.53981880290698636
0.088692232568646334 0.70115043153952528 0.51600615683255313
0.088183385754750043 0.69889238763807038 0.49037553677834178
0.068796470633266216 0.69526295552176631 0.4733986748393062
0.048521454737674441 0.69269166159163298 0.48716295702859935
0.025912743369544078 0.68672045191823616 0.50337414168011851
-0.41962951468124132 0.063148365228099496 0.54344109494158199
-0.45066142610532056 0.0068313896116782014 0.53009371158817653
-0.4782019444543899 -0.042786254778652055 0.51771652604393048
-0.50990208025715689 -0.078328325365803586 0.53887949289724557
-0.51621236310649377 -0.070572040702568339 0.56791438601857869
-0.52169619217120622 -0.06321613677758009 0.59492505194474221
0.15089580467963248 0.66553631724724005 0.50132140125329139
0.14948406654993662 0.66809112342447152 0.47980302445593703
0.14645318219453229 0.66883674876720367 0.45655490602002224
0.13116782205544331 0.68720819409006906 0.43914683454244341
0.11835729414501861 0.69550580483085478 0.44635923727020343
0.10371594563939368 0.6975199238335219 0.45363033093187144
-0.52396471400095412 -0.12164697900606003 0.49887076807139175
-0.54334647455628937 -0.15401718568275735 0.49195873080917107
-0.56127597835000764 -0.18565926182261394 0.48490392427794959
-0.58777221343981056 -0.21547316432931624 0.50537083596327848
-0.59626891555023964 -0.21097610321981747 0.53204523015707905
-0.60263748161221253 -0.20522763122873694 0.55674241132808944
0.19640586174380559 0.48609107898249393 0.47894580829072608
0.19285136328993735 0.49111640104484372 0.45966879809241989
0.18785472340738263 0.49905515402724299 0.43594105051159993
0.17520968834168782 0.56033019073754198 0.40400060798028248
0.16495721972819788 0.60386871849437251 0.4102615124983473
0.15393556364882954 0.6411235178400031 0.42015456375659488
-0.59341156017510377 -0.25681584129509771 0.46374192457825036
-0.60499218260527543 -0.29378121636973514 0.45063817085674573
-0.61068285176638359 -0.32590197872223226 0.4398569026614596
-0.61303850843978069 -0.34147329989485642 0.47036410410548135
-0.6180781457868969 -0.33635133789811394 0.49730472236394041
-0.62216402817704197 -0.33099944281658455 0.51954081487935766
0.19947639615013091 0.2765124173167639 0.54339739412149068
0.19349608799956863 0.28158016878480663 0.52370189639840903
0.18679767266418157 0.28968400195163213 0.49827084525239362
0.18697991690992044 0.35252881113686446 0.44549228618340253
0.18904546911951603 0.40639244981394396 0.42762484683249236
0.18799768305299702 0.46019905933783639 0.41291430006569341
-0.59847402919285919 -0.3622786129078639 0.43834640602416108
-0.58031460205493701 -0.36600934361027032 0.44847500346416935
-0.55544077820083348 -0.36297691601608739 0.46255422763086385
-0.52040365981504477 -0.34052417024355142 0.51617852159550859
-0.51848296242422087 -0.33201070647368724 0.54454306844989397
-0.51846318039443462 -0.32588623785157445 0.56667369363888032
0.15698993680297901 0.11449137021471745 0.58875410811666828
0.15206918771490452 0.11719635158594806 0.57432439834061988
0.14474098310233185 0.11795854057950683 0.55910851136533357
0.15250120741716189 0.16054614505427212 0.51819202042802903
0.16498880463054233 0.20629371146394276 0.49939279622295429
0.17486130586385307 0.25242805613839725 0.48171947348640809
-0.49176345776578989 -0.3442099232323646 0.49264163301422226
-0.45445439327011017 -0.33008008363395058 0.50745697880105545
-0.41258135413306207 -0.31262060495577637 0.52360688479478568
-0.36675321923542947 -0.28515328908643295 0.56519892146059214
-0.36570629058877913 -0.2816751261969942 0.58209768557462782
-0.36257044331180577 -0.27715815906136265 0.59786870741562503
0.25379001337654783 -0.27633368999308111 0.48718515937870066
0.23804437048878957 -0.29304374183653986 0.48139090192656564
0.22021172281366175 -0.30831951048005224 0.47666738664045005
0.16285895570087461 -0.30952270202495824 0.46891791540186123
0.132793296270872 -0.30030423530699946 0.46197731356369443
0.10822427502111509 -0.29377238600615935 0.45282763415432759
0.11308940818259083 -0.2696008539349265 0.44353084008174415
0.13222255021343821 -0.24693227111365096 0.44564381355342508
0.14683506564530435 -0.22290685911209526 0.44969013760188425
0.17733939926861186 -0.21072951234411202 0.46948967682750942
0.20141400666703713 -0.22489905372033886 0.47989556658018828
0.23139264072908228 -0.24109053715480844 0.48814960307605837
0.052927115736816743 -0.3444362178043181 0.47427269997766186
0.015603113205902464 -0.33849326413982428 0.46603735889065834
-0.016974388536094231 -0.33530051559311014 0.45555001423135622
-0.013944510357486228 -0.32934887763520493 0.43715595390748696
0.020698416529072006 -0.31985726570361084 0.43612297273373235
0.055971988563349173 -0.30652521826264256 0.43835775333837179
0.17574162519278325 -0.33217090646765807 0.47245685793485137
0.14955718055309442 -0.34071202575814541 0.47330997512600348
0.12214085672001085 -0.34765274984233141 0.475773651154201
0.46553106435096692 -0.34823939706600715 0.49258198313291812
0.45126148026307922 -0.36146698407888422 0.48789345059604439
0.43444639801348672 -0.37317171173760189 0.48351059878699876
0.35341269347396365 -0.36842785619526752 0.47750950935921654
0.29629536176919502 -0.35253060359002808 0.47646512492593684
0.24452670150357281 -0.33643507718494181 0.47557425118866115
0.31244972740076693 -0.27785159957387512 0.49592598471462335
0.36323441237092191 -0.29716782225043731 0.49638305090494739
0.41907858120919306 -0.31607263644682798 0.49634637184267505
0.24053092805023235 -0.39339633045166628 0.47825937414666386
0.18863578714115103 -0.37947276629645632 0.48005378513657093
0.13982026596911235 -0.36567906453951005 0.4809417949210848
0.38885968860807751 -0.39050521975190267 0.47803521764985146
0.35998854046276341 -0.39648979179804666 0.47718901876095399
0.32834389191665436 -0.40155441227435407 0.47701356734368505
0.69356335109454958 -0.39414097051473929 0.51864309040514667
0.67998349916513812 -0.40297263496316504 0.51732366560114484
0.66279472145556473 -0.41076225030311536 0.51506111986873915
0.59223245838786287 -0.41252759887093887 0.50156548904927645
0.53628751581024958 -0.40506090338755452 0.49253986514913595
0.47588915721410086 -0.3951785601972666 0.4851985192969388
0.53923873809939704 -0.35019670268397268 0.49963281571831453
0.5991367855355374 -0.3643837342092956 0.5041334560749271
0.65528767634239227 -0.37599417553209685 0.51059530272109677
0.45782028137911723 -0.4323215852559793 0.48497806447426317
0.40605881239602426 -0.42595468601802505 0.48026524662809456
0.35086346332094709 -0.41721314907843637 0.47763343310393447
0.61235384049247332 -0.42282801974187439 0.50785666195822299
0.57914015483279035 -0.42751932837231532 0.50312812355982617
0.54237865361316473 -0.43184704188476619 0.49779298646742376
0.74497548891125587 -0.38914441674706757 0.52948534463446983
0.77605832498532279 -0.3908979088130824 0.54104682173535434
0.79864473324127827 -0.39049811391187689 0.55291919972301273
0.72666433962260735 -0.41712869602225006 0.54640772352006106
0.70685066484150294 -0.41906529428951567 0.53488250133855275
0.67856433721824772 -0.41935257960065098 0.52318844270020781
0.59011981263363578 -0.43328768255621009 0.52362675721720708
0.56859017113295129 -0.4359651458504849 0.51201888533544615
0.54003308835295138 -0.43710447668100327 0.50118800591351786
0.75605965850016776 -0.34885119780106888 0.5272141153909482
0.78736856693598556 -0.35152325686138447 0.53712930165470296
0.81413165505073337 -0.35380205856059987 0.54959372464750733
0.71518629176972337 -0.37421048364892312 0.5185866092661402
0.72323708470256198 -0.36384072738416512 0.51828058053681203
0.72783659119057442 -0.35399590711666701 0.51930749687556821
0.39579638572506948 -0.44613977624908857 0.47768299747647314
0.42642832268994657 -0.44424049993841763 0.48012780550970979
0.46354434144726109 -0.44057332038387403 0.48544912238335458
0.44073155710632372 -0.44250389926109318 0.50213656484789038
0.41434278887429765 -0.44586681185662425 0.49020011501357508
0.39142391923759723 -0.44702421459339714 0.48194650281843909
0.60944455374270068 -0.2872645988578918 0.52926881115814273
0.66338596389545912 -0.29242814570810072 0.54296315932884753
0.7152072527073261 -0.30016235301558652 0.55793237144556329
0.70391519187359863 -0.3372235868636585 0.5182414448185384
0.66429876870619609 -0.32307011511533618 0.51613016125028821
0.6155085462841281 -0.30601879332999177 0.51624332441291498
0.25443475637854029 -0.43452932212866557 0.47854573160807767
0.30074399565314858 -0.44142717028729089 0.47536580363101932
0.34381458753341176 -0.44518608574865298 0.47553807823125949
0.29562925088025804 -0.42873674949670038 0.51457301632245711
0.25607375382456077 -0.42948998305905678 0.50255567610852747
0.22417185353181912 -0.42815865445984957 0.49214945124316611
0.40587104762948845 -0.20458237488301206 0.54573692031117216
0.46328734854723508 -0.20997933697277629 0.56300445315067305
0.52017663628502619 -0.21913511709045139 0.58069114335743799
0.50781256415320142 -0.26713614124239571 0.52072497539861917
0.45461244851470006 -0.2465555941842478 0.52398518283007611
0.40366558223540405 -0.22569912339811909 0.52732960289198361
0.071701641502984526 -0.38775879706386274 0.50426823445891866
0.11482126197183873 -0.40129919686618482 0.49746919259818623
0.1601317202465955 -0.41389311227645964 0.49047316716532663
0.11362264023713808 -0.38775933525433398 0.55342568844809703
0.076505271855218826 -0.38510743048848206 0.53878179149665906
0.047528850859858807 -0.38006736916979378 0.52408735908747728
0.52894273869388564 -0.29373976751699271 0.51022308408036898
0.50648171748560022 -0.30507623837918663 0.50489098823464906
0.49081539884127667 -0.31906446539756783 0.50086116708865536
0.28171591687687347 -0.24138166872970296 0.50044186482901121
0.2983529352512988 -0.22537574401646385 0.50829034933351691
0.3218400224062643 -0.21258878429540373 0.51797664503725138
0.032156460979655632 -0.36838157132276039 0.49894276313946606
0.045588965196955433 -0.36335211681691559 0.49031900154118935
0.067664897799773138 -0.35850427368544108 0.48405008964968554
0.26048853122023119 -0.41122151620055014 0.47651463379246972
0.23074514309615823 -0.41622528281202559 0.47683367109222852
0.21106845038924948 -0.42097940544440765 0.4790206150388816
0.1682170099184328 -0.1772450061678445 0.47175829298240912
0.17900868375194134 -0.1583881604559122 0.49034629161665944
0.19332607747367914 -0.14335348509073031 0.51174347731624881
0.24194213806225062 -0.14823416503948772 0.53402924279137576
0.27509587017944814 -0.1657181233302604 0.53346047508093086
0.31323356671639746 -0.18481260920559384 0.53226616521690895
-0.0059072308223111492 -0.36047251648152023 0.51481901747408143
-0.039204263876049472 -0.34768479605032215 0.51822833054146589
-0.06792409090519258 -0.33571554243172219 0.52071778231459942
-0.09061074344280895 -0.32737453570652575 0.49897627057609384
-0.082511323335994868 -0.33130107230754441 0.47651942456573382
-0.067151023937459087 -0.33436755822650821 0.45735924582931453
0.24349395807736163 -0.12803364162391767 0.55602722027329254
0.27759020719999494 -0.12791320983938065 0.57700498839522218
0.31119973882610719 -0.13162823400279125 0.59700584372799681
-0.054233633484993549 -0.32807847753119301 0.58547806344936859
-0.072492896793858952 -0.32728031693425758 0.56594942596982079
-0.08522867549554447 -0.32549118084399437 0.5449853209906248
0.18893337134589117 -0.083362769347195137 0.60341624557682905
0.17218373349185589 -0.081369403726859635 0.58382076021517859
0.1541867889204469 -0.079281667059059535 0.5609255203162038
0.12859668882467856 -0.056186485394446317 0.5432119547253611
0.12124760559617376 -0.043925419132154447 0.55477274940429
0.11374816368395568 -0.035323102732255973 0.56504568529103594
0.10998272681938492 -0.043901899406395162 0.58496617862124189
0.11729461414582754 -0.051402414345478931 0.59754957227443972
0.12517190994611682 -0.054752539264835809 0.61201741467453652
-0.1561722834440975 -0.24011618365071918 0.61190202760749379
-0.16604357847737683 -0.24338776027682932 0.59676582521204913
-0.18010559229547951 -0.24609878804779078 0.58341967167869968
-0.19923661769666379 -0.25974666038333205 0.56138466546725208
-0.19405890949119042 -0.26968027158684038 0.54974860310275231
-0.18514642781018997 -0.28008418372506505 0.53669478415343441
-0.15000587718794955 -0.28343864009370384 0.55503187897474482
-0.13689764073678989 -0.27983926296890371 0.5791195834632159
-0.12520528567919165 -0.27707100723632322 0.59940096372322893
0.19082174190483858 -0.12056774498010014 0.53427707594066765
0.1712632757253818 -0.10893812356360244 0.53383478321641253
0.15383665283115411 -0.095834158255138163 0.53236591902548236
-0.14333141675098582 -0.29890806146550131 0.52376342557090783
-0.12582492650291033 -0.30642966733661103 0.52454919209164053
-0.10964371843469412 -0.31500712599966085 0.52397532392977619
0.090800629362888685 -0.003962360633077644 0.59535348778708364
0.091809601529406093 -0.0084109396616062759 0.60477445432104093
0.093526131402739132 -0.010638974100959125 0.61805191661219783
0.09695723478762508 -0.02519935176421978 0.58037492721863204
0.090396780269595522 -0.019571243936137184 0.58520612506570191
0.089081323239409205 -0.0093803319222898196 0.58822078768894492
-0.21660833418354453 -0.2317658546554337 0.58840360961805738
-0.20635750779050666 -0.23413008010752584 0.58481072898643927
-0.2027807218709119 -0.24098270728717902 0.57910455760134405
-0.20534813669941321 -0.21922032427578986 0.62054157857702852
-0.21215352401572241 -0.22483743502559597 0.60640261354915559
-0.22036552447482394 -0.22911997814746315 0.59636071033134419
0.096373169767926425 0.017180651873780373 0.58586116366135221
0.10656122532117673 0.042195093969477182 0.578118392651916
0.12044260832663611 0.072139330654343581 0.56512186465329628
-0.31564256129519852 -0.26579880094359365 0.56744944507256734
-0.27888480424765105 -0.24924867971819314 0.57966758187835565
-0.24805212378462205 -0.23811525719672627 0.58679114107732855
-0.26006307451290933 -0.30787480838083375 -0.41671162534468276
-0.26452740749389991 -0.2647829427002677 -0.47551661766960618
-0.2620810512695626 -0.20566304062710494 -0.52990561465794839
-0.20823756722000386 -0.040047584121157331 -0.56826618558625475
-0.16553240300461369 0.044001653119256884 -0.54086458112696034
-0.12512418159497818 0.11966480531361406 -0.50627740437204105
-0.098630249191382635 0.10356207856887267 -0.42889880588410656
-0.099897588348657029 0.044661229744129144 -0.38510503173919575
-0.093865712120363209 0.0030730119153697388 -0.33537928026940667
-0.11846584534284443 -0.10543025256836808 -0.29525250231384081
-0.16002737209770501 -0.18520624738680652 -0.31731776620782015
-0.20461375782232682 -0.26437671949554298 -0.33823643740743803
