# XYZ point cloud file
-0.17308710650421649 0.14389016818364009 0.45347764634427901
-0.17377080652359239 0.1444646549312984 0.43907334738812875
-0.1738226872630404 0.14279121902816616 0.42195433076073718
-0.19173663191974658 0.1125469925763411 0.40435189504217439
-0.20804627489782207 0.088636381489007127 0.40421016715746938
-0.22280770655570098 0.064374410255269354 0.40383404727095995
0.13517014360875818 0.42250886182516145 0.27718962363204414
0.12797058062747191 0.43802100534391342 0.27381742481126303
0.12145349429552882 0.45580132981416704 0.26977479337316923
0.11033558080930672 0.46430781343030775 0.28143712735834581
0.10438518772773599 0.44873937988151313 0.29969899109750908
0.098958005719736924 0.43073618019819915 0.31753598121363791
0.1018795474669834 0.39549344736930253 0.33451351628578507
0.11000680569819299 0.37955374109166568 0.33605487105815324
0.11853959551565077 0.36477836803446767 0.33769666402411813
-0.15386031623496868 0.16850428827180458 0.46265603263610233
-0.13424328226122112 0.19908173582713551 0.45937645398436044
-0.11438405206976462 0.23121700278083296 0.45385536124594217
-0.093424492242587309 0.27337913783420448 0.4345138483453147
-0.09105788217627267 0.27995490363231246 0.41865660362632873
-0.088986651533936381 0.28236761154626006 0.40092586363122473
-0.1089634404971334 0.24139730629459799 0.39172954023149231
-0.131061682401579 0.20408048151489622 0.39794218969532724
-0.15289790329616904 0.16945214653879453 0.40186402106284491
0.11210099616709676 0.49795254740982647 0.25852389938995524
0.10905145834907377 0.5195158967831115 0.2526778942514829
0.10616158129620043 0.53748027337457882 0.24901850897261191
0.095612200765507749 0.53410070635131834 0.26910799520642414
0.088306753403900901 0.51296777641756075 0.29102361110812802
0.081678224462930327 0.48762810799581691 0.31247815552282354
0.080614735877266197 0.45351817829288893 0.32934023058091533
0.084639070581630324 0.4422087214146822 0.32959993339539695
0.089184771990745551 0.42783764559700771 0.33109220991255217
-0.079916201389007416 0.29224575123272001 0.43892161800050367
-0.066352355219663331 0.31837116957945072 0.43131416747652696
-0.054885517396220926 0.34044575877572081 0.42462944216747489
-0.03806845634058497 0.38076792139963911 0.40240287244621953
-0.030629736628542507 0.39992021913997289 0.38197288677366958
-0.023831597888396394 0.41338147117951307 0.3606276141214525
-0.032485260802205221 0.39212686712745703 0.34957228387577299
-0.048897028337262685 0.35801738967112251 0.36068450471247027
-0.067354803979945116 0.31993251262260286 0.37237623934190411
0.097590573217052001 0.54999181450053425 0.25479753508367609
0.090969207676722924 0.54129786638288713 0.26542214780506346
0.082762833902407573 0.5228158629726587 0.28066889603720457
0.06721174850319607 0.48321834940947456 0.31834871729212133
0.061556935692960502 0.46615312666063657 0.33726607193308344
0.056839137661751887 0.44563961980354472 0.35486177486086534
0.060680415687469735 0.44287572099825651 0.35496776853719203
0.066775384933367404 0.45534681909551394 0.34388235040743087
0.072033937618103824 0.46104817504083428 0.33598183048738905
-0.037573597588811035 0.36852136378391054 0.41690309455909524
-0.031596707732272779 0.37299159414442196 0.41682600119046098
-0.027377812297907367 0.37052583907253617 0.4195871429281377
-0.016577623003106071 0.38372821154126824 0.40885659037885869
-0.0079093306383332673 0.40363299825916854 0.38903690681985292
0.00018165174781828441 0.41884872496735515 0.36818694992425471
0.0049013380438161364 0.44119945811141975 0.33980678220410787
0.00018016830703501685 0.44447000364759803 0.33558430762032931
-0.0076470156439720771 0.4371327089555177 0.33595717463323593
0.06218157541659583 0.45863062474575034 0.32325054635830797
0.050981865890626574 0.41880445323754578 0.3473664689921151
0.040304011815723267 0.38010843444013004 0.37006120465856307
0.026922245290745536 0.3394894319498275 0.40484253068981235
0.023791791975791871 0.33014714293734049 0.41951193850231172
0.021885325862460669 0.31992314394243315 0.43164223827596493
0.029276625186212768 0.3376285306964954 0.42363468648917479
0.037441644912176428 0.36751471737920882 0.40552207471717694
0.045737595670007181 0.39719165248766614 0.3868089846890943
-0.023875645761639835 0.34412105017405392 0.43421171921102786
-0.023666094358079454 0.32339603534579142 0.44471139849010455
-0.023489981640200469 0.30174004322811881 0.45536688327504116
-0.017180416293817863 0.29362630647931631 0.45391254787441204
-0.011327606857630276 0.30495386581111533 0.43942430393140175
-0.0058349430520375778 0.3143141397969933 0.42307572508006408
0.00029098778908168144 0.34535123665195328 0.3932914678945717
0.0029497473169527721 0.37452026802796351 0.37767762383822134
0.0054805570181806207 0.40343103276087017 0.3620475850820527
0.022839451567613425 0.32104506602713484 0.4035955691171953
0.016226506317457215 0.30293496095195627 0.41356559115765179
0.010732692333322927 0.29130365321114132 0.41990587324616402
0.0027669218566252485 0.27926086363621183 0.43828049911888067
-0.0010012475648467911 0.26895659454018483 0.45361225852317744
-0.0047805698810166469 0.25481930762108151 0.4684426349970483
0.00095967974690815139 0.25171269925352047 0.47248626771304103
0.0080783824490947009 0.26884899416639157 0.46277831414637705
0.014769435167265324 0.28791166334952506 0.45221993838947727
-0.020998663358228295 0.26603323932781459 0.4714020410614771
-0.018299413927224367 0.25335610804918751 0.47623758563483798
-0.014650154236563823 0.24288607259207745 0.48009231168749777
0.0025852366429445772 0.28522035266487566 0.42379983102082763
-3.1460324372498127e-05 0.29057302925285222 0.4215239712626101
-0.001453629656863506 0.30198469421443508 0.41597705540235985
0.023340490685690801 0.30278284387655813 0.44193635427110389
0.026267627185632997 0.2968232910670176 0.44071535983761345
0.029681102283179897 0.29189332267383961 0.43801008073618741
0.038187162908379868 0.30393476550173759 0.42483453179211905
0.043672707946097719 0.31949179219087531 0.41388508424916493
0.049136019951971116 0.33347067344966302 0.40340510137091545
0.05346464769196102 0.36147081469246101 0.38976503534561147
0.052655495679844788 0.38045297676309092 0.38517214814494283
0.0525059829529963 0.4014159362191192 0.37884536678500846
-0.031897930027590914 0.33670261286845377 0.43637680770137666
-0.038049598844815062 0.31264466196437435 0.4434592708876135
-0.043557636937531577 0.29023536850750598 0.44819535786384934
-0.045570856166258722 0.2668345164883269 0.45609913614953135
-0.043139116880723777 0.26030879046820332 0.46097406866837543
-0.041239372809286245 0.25172398217083763 0.46656315955058292
-0.035811782785529961 0.25066910057067771 0.47223670295067766
-0.031753056645255365 0.26048846658085001 0.47205084220488247
-0.027492672978419536 0.27085116134305598 0.47016473430654648
0.059115573551883391 0.35410653816360949 0.38603194574429434
0.063506536005175196 0.36013391159246144 0.37968589583462786
0.067623282769355156 0.36337185415584988 0.37485361095896552
0.071851716404759264 0.38373283416976833 0.36403323942661014
0.072365628832811585 0.40711652900914763 0.35559641436019651
0.073718732974765069 0.43302549919742955 0.34507737044579923
-0.05179323827229481 0.33149055377772374 0.43132998235111286
-0.057574968288132612 0.30509814476174907 0.43910506166596563
-0.062782135154424934 0.2804945696667116 0.44449892866469676
-0.061368173041372612 0.2666903864622191 0.44801010715068701
-0.056306875785100186 0.27089794015386115 0.44814954931958328
-0.05207953904535606 0.27231185254653262 0.44955169228482728
0.075478148491411712 0.36185004545904115 0.36952764480711719
0.079641904081676609 0.35773337844218989 0.36844446663754005
0.084369985586807056 0.35210395249411475 0.36772078763724736
0.090641914646091379 0.35980821824674325 0.35997420234875532
0.091270996844133465 0.37591941265172668 0.35284963657145485
0.092430403266034647 0.39340688955986441 0.34429848807580332
-0.098053627332575333 0.24896210888705073 0.45344011927479566
-0.10016561958185445 0.23348144347560223 0.45675654414523237
-0.10219217342289463 0.2184369817158926 0.45865081388303053
-0.092670681186191345 0.22287524086031421 0.45796955370070136
-0.082883694436900135 0.23767492842339763 0.45457956484551332
-0.074517801254878752 0.24998746710989889 0.45146871503083852
0.096723762933408439 0.33848874036861826 0.36546696276833057
0.10401892244816238 0.33090103812228761 0.3643389162201317
0.11121464555464637 0.32263477868610885 0.36418003161276291
0.11974435781015896 0.32138401402127764 0.36056780612036765
0.12180077808681301 0.33005441468938973 0.35529172567078804
0.12402724996682937 0.34008262635615982 0.34856900108038935
-0.16890658567167874 0.13726987804645457 0.46762021236637463
-0.16564666739133047 0.13252801927120494 0.46804735852526402
-0.16218814194211295 0.12806911159304807 0.46700627926133031
-0.14598021170174458 0.14418243477156306 0.46586088114856306
-0.13174505309090326 0.16506553127094165 0.46494265630334797
-0.1174280321836931 0.18598461428040655 0.46342942090452532
0.12256452939069881 0.30381493763700629 0.36874135922017104
0.1262090912091301 0.29289554548865615 0.37377953701575006
0.12882291149950037 0.28052155124513334 0.38062280730933584
0.13439464127279488 0.27491783556149013 0.3818839397152608
0.13834093938023867 0.28503816316284919 0.37328088086805422
0.14259532697279204 0.29630980839613197 0.3633756017338361
-0.20599091296005767 0.067536530641163883 0.46403593603723137
-0.19985214418758132 0.067942914497194695 0.4689917800454978
-0.19415295053040491 0.067972274923744969 0.47281727290634346
-0.18378364196511859 0.080773360201314481 0.47260705157689331
-0.17740451674540922 0.093718911780245162 0.46976755351437938
-0.16927103908746174 0.108132460200355 0.46782274184176709
0.13212961071268484 0.25012126852681127 0.39981974212111693
0.13293847575954226 0.23221303678237559 0.41199320298510789
0.13286401711613433 0.21307539651181884 0.42554326730972869
0.13646603716883191 0.19697751105922279 0.43512259569927625
0.14194008680486853 0.20154052695873953 0.42921873472451577
0.14792835745680177 0.20606436663676778 0.42282809098452612
-0.22116596173881906 0.0056296915585092866 0.48125253766996079
-0.21213798567028352 0.014265389566078923 0.48896125384923261
-0.20410319975330232 0.021060109138950511 0.49513409647542961
-0.1978286299888479 0.035147986304873091 0.49317478506266244
-0.19639383531354221 0.04519651507887959 0.48679572939361837
-0.19326319126534691 0.056528880948183868 0.48118336313228194
0.12883135217161767 0.17287908703082355 0.45549949439102455
0.12473965223409635 0.15326260661422839 0.47061254753198956
0.11955467004416598 0.13516804787469733 0.48472002772639977
0.11876846837688655 0.11815742214487535 0.49551141850529157
0.1248058528105789 0.11714442234064537 0.49356873152157332
0.1311337601823058 0.11542570823660392 0.49185519161106395
-0.19697387762791349 -0.012179064005467644 0.51775794186007551
-0.18809955113979368 -0.0028121649813878657 0.52331620656874855
-0.17987180571791786 0.0052979924702362957 0.52799816446979564
-0.18122959621898058 0.013695414246433779 0.52446540485181015
-0.1883879964982223 0.016316449296465224 0.51631852434763659
-0.19383331341616805 0.020623101840330837 0.50812394635943592
0.10692498221382449 0.10636348366805654 0.50773215683996087
0.099499449460323269 0.096347492865009737 0.51631563326186258
0.091002346756866193 0.089354250053874457 0.52310192216287144
0.083451943658169589 0.078167269401527628 0.5311502522835293
0.08624742653991567 0.070119598857547011 0.534316748587086
0.089506543735710153 0.061537477899437809 0.53697752465491511
-0.13936383699220539 7.397918005971893e-05 0.55100334671914886
-0.13569179144974486 0.0088708264193897435 0.55299258903479964
-0.1328376041338859 0.016462084412126626 0.55355961857503833
-0.14278719062361803 0.01771044438695818 0.54970408861451903
-0.15378960215262394 0.014281825992584735 0.54467579234889618
-0.16375823245809701 0.012642879385464545 0.53883164374791714
0.070050687262889266 0.084727072758368743 0.53195758259116555
0.058472978655888463 0.086475510253641363 0.53448780401477747
0.047476571346209417 0.090073968008977601 0.53589146446053082
0.035645787708378313 0.081471219917635396 0.54509001300031401
0.033293401678802501 0.064771320088279793 0.55673591506220921
0.031374900810046236 0.045699501429042555 0.56948360285784849
-0.067350443591028084 0.028173392346191539 0.5808641076744282
-0.072737953908493025 0.041066126576632361 0.57155486185828486
-0.077148467786059632 0.05179934056475019 0.56340749563258696
-0.091199889010705845 0.050497491140024608 0.55915715196677751
-0.10372323278372605 0.040519548672488581 0.55895625259999582
-0.11721258633083101 0.031147194559636882 0.55711225723819102
0.030777392967349493 0.1005879251739355 0.5343682996897301
0.02546773387354187 0.10700502608881174 0.53133174919067983
0.021611562423477407 0.11425623135434559 0.52725192747653793
0.012489888726942344 0.1123240284269118 0.52778262816543087
0.0042572289769048643 0.099886841334381804 0.53441975924058327
-0.0058516980318325529 0.08572724149558919 0.54167265242107654
-0.0060334506255520365 0.057195637456767146 0.55942060088072243
0.0049531284284224514 0.047301377809612438 0.56823510046038739
0.016269517892503277 0.036407948028917558 0.57664531546929632
-0.049454373713101796 0.026252831233343432 0.58429925827196916
-0.040871002093362932 0.038523533278469968 0.57438755963955079
-0.031965874053317467 0.05120013214496727 0.56324515195040614
-0.033809110370233639 0.077116857369550901 0.54622684836673374
-0.043949518577278121 0.084042748467075934 0.54343791330291535
-0.052154047477676296 0.089974918915544405 0.54139097291464455
-0.062092595606265621 0.085938127760709693 0.54541849293086775
-0.066622334543298606 0.077530165994224881 0.55024832444674798
-0.072576584784687939 0.069135157562102395 0.554477865486105
0.020127045770010676 0.23679364905840347 0.46540502279606932
0.023776008014419758 0.25351394315377651 0.45613961739696118
0.028071241455524115 0.27049138236382342 0.44623413269975021
-0.0006727908659466264 0.2270830076938869 0.48274201218411106
0.0060752925375051614 0.22402810638513096 0.47975391665345291
0.012110411764890847 0.22196753253616575 0.47652909652902142
-0.033623440916436251 0.19783620969057816 0.49606267036778817
-0.026885922052970607 0.20669520237321604 0.49440409315351375
-0.019158981253593943 0.21734759551952265 0.49130574753698619
-0.038993992591594376 0.22987390316167555 0.4786958849251195
-0.038634390380224967 0.21733526215711968 0.48490927864867017
-0.038784833302776364 0.20416066539605598 0.49117715221354219
0.013349453962033742 0.17702515340939773 0.49579373526509818
0.013912755369248825 0.19069441772474854 0.48911699831757549
0.015178333733185959 0.20523518141361397 0.48186723379542684
-0.011641572002930839 0.20630752565056548 0.49403764611049727
-0.013514830562090796 0.18583037431185956 0.50107556480715476
-0.015089245791099909 0.1671427109909642 0.50750841817313097
-0.0079600230777988612 0.15328266244484356 0.51068285961943205
0.00011881836769782328 0.15718223608211268 0.50736972751934961
0.007367194596854254 0.16092532204518256 0.50428770901740805
-0.040561912125343672 0.14005379523487826 0.51925941961108468
-0.033114854897897325 0.14277455658939642 0.51771131786153757
-0.024960433677904362 0.14594912293387435 0.51596552889176339
-0.040734212880774168 0.1770589413479553 0.50365658487970544
-0.04246739229820605 0.16362080048864913 0.50969451079846184
-0.0445644274239584 0.15052864075412681 0.51547170968599743
-0.017685864991873412 0.13212658425401327 0.52004531204378246
-0.018773801296442197 0.11399305483514416 0.52737535986045225
-0.019585539508838498 0.094174935614786737 0.53647319309167552
0.01659007821980539 0.13146117829756929 0.51780363247493977
0.014979561149940951 0.14146175505079117 0.51284204969957614
0.013923960369105287 0.15239430513946803 0.5075895127417438
-0.049433112622423322 0.1260634068199647 0.52600073552902549
-0.052154958312907868 0.1148767201487329 0.53084836649414513
-0.055139707784257447 0.10443256973081852 0.53560407068301186
0.16990509924778985 -0.20214612700008211 0.60570911874564126
0.16385437644262116 -0.19376608460572381 0.60900585059528101
0.15718278531264046 -0.18622128536528806 0.61157493879463876
0.14423722600235811 -0.17827682642834886 0.61059206963338375
0.13686083197371066 -0.17580656740080128 0.60804295644946127
0.12893508481388422 -0.17283753568421073 0.6057468161343097
0.12070466174793096 -0.1723691620151081 0.60051840949786583
0.12014657455661981 -0.17598120683740032 0.59618158608376137
0.11893467462380652 -0.18015175838876879 0.59095465227098443
0.11227001359869389 -0.16592259974335577 0.60205540068841967
0.10381571579473907 -0.16213239350041148 0.60074449813287878
0.095391488768102078 -0.15816306610042608 0.59986010315120986
0.080105239087433208 -0.1543237570126734 0.59443236844551939
0.071176550255598603 -0.1549860254835167 0.58774116809735311
0.061187562502983683 -0.15622157323509256 0.57978862984177582
0.19326448351914019 -0.20726487998221588 0.61845180519708354
0.18285788126161742 -0.19569490700661094 0.62112632803015488
0.17243410639607459 -0.18558142018135806 0.62326699724657197
0.16311850122438812 -0.18015022249289681 0.62209279328292855
0.16072883998241902 -0.18127554662871492 0.61920963827969566
0.15649700818573831 -0.18119065503033238 0.61625671649654901
0.078981162122537835 -0.14982048020143468 0.59954197851141955
0.071190618365776809 -0.14551819827217427 0.60018420005937367
0.063824666874961355 -0.14117654201918539 0.60139614354815907
0.047927727999371936 -0.1370243655685302 0.59721583078633966
0.036290124416780228 -0.13762567832409506 0.58917145347651823
0.02266805755817386 -0.13873508444878113 0.57937660512563227
0.18455249435341953 -0.18742489952382332 0.62928706731520578
0.17010570158145949 -0.17517909526983655 0.63068086459362893
0.15485251719210374 -0.16398170280253477 0.63155568663900241
0.14895639394924248 -0.16158515313524213 0.63085165067147941
0.15592392325404481 -0.16801806053868354 0.62926209756630758
0.16077772748862615 -0.17346609996087992 0.6272266485822211
0.050814062997992099 -0.13247018333615379 0.60550323633682068
0.04600897937214099 -0.12840227484433664 0.60827485363689338
0.043245636355629641 -0.12487077893328663 0.6113768259150193
0.028745625969944566 -0.12108960127388491 0.60832161028284282
0.014054314057036998 -0.12111751186011593 0.60034827379164857
-0.0014028697335016771 -0.12198194064966023 0.59078622060540908
0.091707859898079724 -0.097491065393471743 0.62150818107775496
0.082786410128456334 -0.094247223958175641 0.62359964777079313
0.073271287124524229 -0.091363700696431072 0.62470128152276083
0.076324720930551149 -0.10144529848193135 0.62799864548140316
0.090383664351215781 -0.11409502559651666 0.6301933227494575
0.10461666461966637 -0.1258982047084227 0.63167154613184484
0.12938934946552344 -0.14145316931684468 0.63303065947348258
0.14124721585806274 -0.14780411120396558 0.63294798298698507
0.1521324956634893 -0.15469062185234411 0.63210290063690966
-0.019327147046558191 -0.10708958619561348 0.60112479156530962
-0.003705216871367531 -0.10711902953165392 0.60820008361128231
0.011002167044734015 -0.10804829286106757 0.61368678527070797
0.017676011799072147 -0.10359191214055863 0.61897173864256816
0.010054524285209157 -0.09604915356688265 0.61968283099227683
0.0024952511791680593 -0.087491429047521996 0.61951620327213908
-0.015863217128708418 -0.078073274851371222 0.61543112445941794
-0.028283975128619798 -0.078268772329214392 0.61129201922691656
-0.041678736412441464 -0.079371055830758375 0.60538863128806597
0.12641526167579403 -0.14296204986590846 0.63279873104011752
0.13252002864284596 -0.14784880513824278 0.6327420111544787
0.13634249323595643 -0.15118812596230805 0.63244717619951341
0.03931493679243564 -0.11970535374841257 0.61543508273889236
0.035176605099513383 -0.11722862125642139 0.61598647198605316
0.030461164631413115 -0.11405693359787406 0.61677865062881199
0.053895182711085121 -0.07769594095953869 0.62163711575510128
0.046157625267980618 -0.06741729288335635 0.61796946075726078
0.040296782508995252 -0.057848370174469921 0.61445998185279704
0.029908213066310696 -0.051095863354132465 0.61365526777359647
0.023720249606193664 -0.05294215554184023 0.61461876071747101
0.01706448637293341 -0.053933799228972235 0.61488982448708418
0.012749409871415762 -0.059378656365836197 0.61575216434753877
0.017208111997492434 -0.066096432203447075 0.61796233430630398
0.023257550989043599 -0.074044047558930237 0.620665542680225
0.038850081596546876 -0.084313073712069975 0.62404791318747843
0.046825498979053498 -0.085576938915505274 0.6246982038478025
0.055081024816883511 -0.087066886354063566 0.62508160554478953
0.005474287882283102 -0.079394785239071924 0.62022717554174511
0.014544818857517114 -0.08054093248432917 0.62155875962316076
0.022943673870160053 -0.081821345674409407 0.62249780964481438
0.0019889879583325915 -0.053052522146507242 0.61397615211976575
-0.0065246954710539568 -0.051303278422594606 0.61290783552913197
-0.015712705388761392 -0.048953742864696892 0.61134106731380611
-0.021626661590393476 -0.054145573378939937 0.61073580159303287
-0.016567411479915833 -0.061934024379342117 0.61334564861924701
-0.010893007413150746 -0.07002404326977163 0.61602625077715722
0.08306623223989465 -0.12400567687997396 0.62828549008887558
0.094258282273275248 -0.12740350123311067 0.63001438624820394
0.10562332736016145 -0.13127711719947677 0.63146737178891477
0.040352899738580902 -0.093237595455542777 0.62514504164496865
0.050905537257984454 -0.1034130630857098 0.62621858827986865
0.061792198503714868 -0.1128441847148095 0.62657526682970188
0.037414062213962845 -0.11198401397906965 0.62080015078518258
0.049341841451047586 -0.11469877219187552 0.62301785617226102
0.060769362296080889 -0.11770108226399578 0.62480644509727479
0.080066827366646109 -0.12676395517034206 0.62625831483171057
0.086239168227310564 -0.13105357114867283 0.62599484716816589
0.09063919990265383 -0.13411537140311597 0.62565030069594452
0.10440672177895464 -0.13969612660262928 0.62737031439462798
0.11480761973872028 -0.14302504325856968 0.62944653533006756
0.12552733570390101 -0.14706577572699059 0.63109849054455491
0.05656666814802748 -0.12444024960690234 0.61884515160846565
0.069021394389635782 -0.12805045525030076 0.62118024678928463
0.081531373673980043 -0.13221051539327763 0.62316314326754618
0.037673390877726615 -0.041237363340417554 0.60908933862142289
0.038269763636331791 -0.035576035732766853 0.60713350799989152
0.037897788049078521 -0.030046499350351558 0.60517067601277197
0.035997032028663362 -0.02326808220283727 0.60560232742783371
0.03633808044744119 -0.022328598410340572 0.60853026973797886
0.036936510790623933 -0.021474947301841352 0.61158938394807627
0.038217862415869719 -0.025538495356884128 0.61662184991644264
0.037549330115291477 -0.029620413470445084 0.61786473117388885
0.035474103505818061 -0.033166711820737327 0.61865265258872137
0.032010483645640769 -0.038019027479457929 0.61701969870950335
0.031948355756332772 -0.040091604893920746 0.61468753259698805
0.032724768180084227 -0.043028098004882109 0.61267990114841642
-0.02494467437216033 -0.041275583435492202 0.61088916885225608
-0.024226645151842183 -0.038308896186593999 0.61353253351209258
-0.023710929286564625 -0.036044619957289525 0.61641521533734944
-0.029096597140535432 -0.030998386784294674 0.61913716491778914
-0.033843896437055182 -0.027695376783501591 0.61907114020250087
-0.037513868151902871 -0.024112632959556929 0.61863305311044914
-0.041195435675842343 -0.021479303793673077 0.61375940031450249
-0.042074373082785305 -0.02296907391051245 0.61000539529619091
-0.043199704835884423 -0.024517520694808781 0.60640937641242176
-0.042750704768967668 -0.030809032873997444 0.60443768980596924
-0.03926423364094829 -0.035332625109551402 0.60557435358869638
-0.03426903933165161 -0.040028816420296126 0.60685877388169762
0.033559067850639196 -0.017707820855066114 0.6003890533161389
0.029596919248116901 -0.01093301616522202 0.59748586395631254
0.024601168076766586 -0.0044582502441048999 0.59447799966508286
0.01915127973840354 8.2336498428065008e-05 0.59308616418284887
0.019976460608857563 0.0002347796804486324 0.59525765632031635
0.020879421446652141 0.00091079481814412833 0.59792913491167132
0.026615754880271333 -0.0032693383160770084 0.60404313760453932
0.031111744893793647 -0.0089965620306241556 0.60774828153290705
0.034818660343370361 -0.015035111824202196 0.6114601656086146
-0.041915811532779595 -0.015552533435304688 0.61501204606256277
-0.042520722906325137 -0.010727266724213591 0.61184020976769493
-0.041868601443764225 -0.006022715260934175 0.60839332862698914
-0.040248424722656828 -0.0029568360246962633 0.60169181715420295
-0.040348827657139583 -0.0040363110321809392 0.5985321934712603
-0.040482154141815177 -0.0045209777306306209 0.59606473054176234
-0.044135398256534814 -0.0091227530390822209 0.59727729635931237
-0.045790319906628199 -0.014881777250167538 0.59963519520360131
-0.046015373112549329 -0.020646824076338749 0.60161289803318363
0.011696496219223182 0.0052119798529424999 0.58892689959410993
0.0041248291486805505 0.007310223942798566 0.58711444384914657
-0.0037965298426755056 0.0070270141400523567 0.586604344490397
-0.005824297858475963 0.0020816678310680847 0.59138362738082473
-0.0020549952973090424 0.0023287405730935962 0.59432953518669374
0.00064427461520252804 0.0032063742266034423 0.59731288120664183
0.0065852369776884662 0.0055970806844320709 0.59888409812709265
0.011308326572718713 0.0058124862441090164 0.59840813004748949
0.016438628656727947 0.0044662374207489197 0.59907723309169292
-0.036461141925995533 0.001078079980910196 0.60294715390372278
-0.032120153206161156 0.0028258321124224328 0.60163331155377764
-0.027285964286605471 0.0032650360371448139 0.60134168585134062
-0.021467417235002229 0.001581083902762126 0.59862768992352711
-0.019837832143601283 0.00086948092720118275 0.59524981182226022
-0.017347125106715808 0.0010315769225285876 0.5919301025922058
-0.022321248490363682 0.0050258047014997143 0.58771754307814794
-0.029863572758984699 0.0037629481439467316 0.5892199636501031
-0.036120029450178628 0.00065776728970107223 0.59172225075516627
-0.010833978331225208 -0.0016922556185399451 0.59295956692047513
-0.0096188196448817459 -0.0047754361671696055 0.59621004710526582
-0.0088991380973587053 -0.0057490863160475913 0.59852606785441165
-0.0083893470644893775 -0.006374535986122809 0.60019393448134384
-0.0077917991793744756 -0.0070755721364511304 0.60217663192369619
-0.0071604528171038545 -0.0065842876739856671 0.60519380474828433
-0.0041927825467620305 -0.0046382048701801848 0.60771766820331208
-0.0022621505210283777 -0.0020659711276598824 0.60556140615921139
-0.00015584723434369785 0.0010931148628777476 0.60289416706868959
-0.017725528097637583 0.00010729195810851855 0.60394295236284068
-0.013439068431915696 -0.0025867560626720298 0.60612619824400504
-0.0096275664869947125 -0.0048490346276855723 0.60795182878332765
0.008332031503023557 -0.045071621700143338 0.61910691978639443
0.0081471419187595512 -0.047206385538121565 0.61679456171822722
0.0084947781634661795 -0.050050279073747872 0.61512511189778407
0.027781458318367952 -0.039248172288474104 0.62015379286740013
0.022368866766790466 -0.041555664097401357 0.62092882719163689
0.015958431940836348 -0.042958769475371472 0.62143261988357268
0.00046670432502375625 -0.042080880992223624 0.6210532001829574
-0.0079132484315354717 -0.039972248560945778 0.620356569785256
-0.015963376975815818 -0.03722329745617059 0.61967650156019816
0.0075927802177262332 -0.036031453096988714 0.62614286649114304
0.0082598829015485958 -0.038800420775261302 0.62498968808672406
0.0085989633411202165 -0.041154967365446049 0.62346091306431262
0.031652693073133481 -0.034543074294922482 0.62120032725524632
0.030595098379449764 -0.032800850269170179 0.62274645665718031
0.029080275810918474 -0.031266290425991328 0.62399431927842963
0.024447627539258818 -0.030975725524462761 0.62540493547329179
0.019562245683124355 -0.031929564913126429 0.62608850798842408
0.013513212319475651 -0.032642124665806738 0.62665993929507824
-0.00087313520499210373 -0.031840635557357944 0.62686478608689078
-0.0080917212281163414 -0.030460922317945449 0.62658613760717108
-0.014315323729923182 -0.029035928442635223 0.62626356893760149
-0.019892124485939688 -0.028982802623660042 0.6250326613938878
-0.021318753083569369 -0.030462987677859488 0.62351860389891267
-0.022395478069646257 -0.032228473483105535 0.6215826330323303
-0.0056911689516483538 -0.0056938151165060458 0.61222451401569544
-0.0047007615651131901 -0.0064048509766143624 0.61580400787452383
-0.0033925124953409075 -0.0081592528103742179 0.61955104747038681
0.0037430334149716749 -0.0084887857942158029 0.62072796382901063
0.006092819136818764 -0.0050100934836336264 0.61753617094468871
0.0075861903584795581 -0.0019527073693162422 0.61447815838549436
0.0072499742273988005 0.0015665797593533148 0.61001425658639474
0.0057833039552978999 0.0030233867490076505 0.60699947603651061
0.0042931985995494637 0.0038643436944985621 0.60371931139652235
-0.022629620333059874 0.0024069962973831127 0.60572551340744107
-0.022501766885145991 0.0018000105610975481 0.60923441860900895
-0.022198919344358345 0.00060631806839897551 0.61241073503205901
-0.019268687667694948 -0.0023905320725853274 0.61661718496620899
-0.015117410687737212 -0.0051167409194132207 0.61913502537397824
-0.0096552449447476624 -0.0083927818897752693 0.6216687896897598
0.011168609463792195 0.00027559862596948648 0.61216368933249443
0.014831954858585017 -2.3984605945298609e-05 0.61217445529538062
0.018586734513712219 -0.0010384215523366602 0.61230420203639402
0.02190006505956299 -0.00094118499701614788 0.61033762434734018
0.022176711973177665 0.00038774459060403332 0.6073876801362591
0.02208402145842403 0.0012319425238414561 0.60418068169059747
-0.038892209319673104 -0.001494272961386045 0.60878614556242105
-0.037378876961633348 -0.0016691817366716599 0.61213487394497379
-0.035400278184737469 -0.0023636588897191779 0.61503294547386989
-0.031314503945661501 -0.0020265980582635235 0.61653970950236769
-0.028111381825638715 -0.00097678954102980997 0.61586413354036251
-0.024656579067234771 -0.00057469039451230053 0.61519391514196664
0.023499043527434191 -0.0050186955191118265 0.61489388123336486
0.026009644200088958 -0.0091093979445015516 0.61801845188987181
0.028271523974528465 -0.0137207486487049 0.62102374251378734
0.033649800417612383 -0.018972887931928362 0.62187644180299317
0.035971169655531321 -0.019584249282091015 0.61984494781336386
0.037110820742142364 -0.020142743653861594 0.61738490797990009
-0.038657942460044059 -0.018967778490743492 0.62072517586094489
-0.036422836569463726 -0.017991092820063947 0.62351855228601905
-0.033287746058800541 -0.017158066545188977 0.62564984265513957
-0.031096838332623125 -0.012589254840367381 0.62512506907222476
-0.032571487380957928 -0.0087741972323004958 0.62245643627147584
-0.033354994246563463 -0.0054472143739709988 0.61946423528917893
0.030354690005485158 -0.022057891525805895 0.62460034687606658
0.029922789604257538 -0.025332132307932131 0.62502597556334694
0.028821200748039524 -0.028154520315782416 0.62500994174757085
-0.021015301259579178 -0.025877291017229409 0.62663676498593079
-0.023954029560623868 -0.023037382920856442 0.62729643028312165
-0.026658530546646506 -0.019899324871417351 0.62754913356903863
0.0092181407724029329 -0.014559828631136529 0.62462162430091839
0.017409073532664729 -0.016078515298080048 0.62464977418976142
0.024379597906916683 -0.01728293642331924 0.62427371194932857
-0.023572240636961464 -0.015771702096830986 0.62735285306863842
-0.017063902778526638 -0.015024282941461631 0.62695695236559768
-0.0098003611895738779 -0.014032587496771748 0.62593994856177781
0.0015187271923301909 -0.01884093624165431 0.62659132938000972
0.003565868432482952 -0.02414969535906708 0.62743137086307599
0.0052558310067218061 -0.028771711926966814 0.62746872712007085
-0.018376469502624851 0.042490902446395307 0.56581593038495204
-0.016625777814220755 0.026095505067637692 0.57513873767985024
-0.014717860754057621 0.013692344415262986 0.58195940041511252
0.018653962539787142 0.0040714346782299293 0.59082389910263988
0.019851844346328348 0.0085679613869031335 0.59002077765593985
0.022843865155903517 0.014321217486553267 0.58823745101640579
-0.049514320924486141 0.0069202790512498669 0.59406322120829513
-0.044601045418059551 0.0025986560568134476 0.59457862331234435
-0.042021531214330721 -0.0011942785276179979 0.59443810005814779
0.037943725402536821 -0.025188161770326012 0.60093160853674221
0.040365124140049696 -0.026298274483801343 0.59858766823680809
0.043278440423573913 -0.027772482649466329 0.59519412098198854
0.041952135680546607 -0.020851273901829503 0.58897219624705455
0.037590625901905275 -0.010116888244585315 0.5881059893529833
0.033640763210780869 0.0028516121351248591 0.58682077665270549
-0.05933004174892352 -0.0061311488800850356 0.59084114355344441
-0.060221822084964349 -0.01804739762410365 0.58924463710731156
-0.061775990678627379 -0.027925045485887784 0.58733044596147055
-0.056661439343795958 -0.031975635723849649 0.5930291203438377
-0.05153011226665416 -0.029350118847334294 0.59758693451219658
-0.047679179988436696 -0.027534280732098126 0.60061716447900293
0.043896979875277242 -0.050605607669817088 0.60987568410965143
0.051003868966900331 -0.053056027188431526 0.6079265494601952
0.057554348135104613 -0.055609703495533791 0.6049452141871795
0.058088499402604993 -0.050994781360601066 0.59691736255269168
0.053938737654701641 -0.044239227708294748 0.594019105669225
0.050148414005668301 -0.037397886624247534 0.59171583786626514
-0.064000208224786456 -0.042310602742278353 0.58542779379546239
-0.064042121987942166 -0.047570808843143131 0.58606481365011354
-0.063603975035762678 -0.052349652457151452 0.58752402694200401
-0.052751108146627659 -0.053235871571629401 0.59724688470189502
-0.043582976144856081 -0.05031157825731894 0.60244559444126122
-0.035117409668684291 -0.048008684396697032 0.60595360156028388
0.087435784460157484 -0.08788295243300398 0.61348534393669096
0.077594655564796916 -0.076522361054881194 0.60884147339884354
0.069550195659466935 -0.066724315273398976 0.60441653651059279
-0.061889754569553979 -0.06248667201134217 0.5917734221661497
-0.06057060228872406 -0.068347548080663068 0.59398954760307798
-0.058672079827275514 -0.074765918294928679 0.59591026877230879
0.08955313191987925 -0.09821073701177041 0.5817713906042995
0.08023251676776573 -0.086664904140913268 0.57603107205893367
0.072345847518346246 -0.076912756568819712 0.57082056351214427
0.068875170109948064 -0.066500382219196186 0.57630899900429411
0.069190578625701632 -0.063950759723567063 0.5855704938306332
0.067127986300603487 -0.061146623597430338 0.59374366506108112
-0.074149010316319611 -0.062636898006313779 0.57845973512429161
-0.085852720173688904 -0.069408312345931616 0.56482793598659076
-0.097054795004678465 -0.077066891658741421 0.54959637665217365
-0.10848684222918857 -0.089653542314748647 0.5355284037906205
-0.11007390971507833 -0.094662949130480734 0.53738594561721176
-0.11120857973147616 -0.10001616117586803 0.53920434282287233
0.060726543335177657 -0.061336263970922039 0.56252465469169266
0.056567129784725931 -0.054774814256309839 0.55937951697789279
0.052995110540844742 -0.048567080733464496 0.55669427514329939
0.050972280526967478 -0.039421247494938361 0.56378089256975084
0.050598758153212728 -0.036052097243866515 0.57337927676850553
0.048890192952500716 -0.032716182930315862 0.58241102798660749
-0.071801208059773594 -0.042084834661837101 0.57472954238646856
-0.081357912683960712 -0.049766137160245361 0.56100295049890847
-0.091015954677391667 -0.058256281666467624 0.54599080962330115
-0.10164540263305902 -0.071410036366586105 0.53125166896680653
-0.10343129447796065 -0.075981247941361435 0.53168748857989423
-0.10509248514677648 -0.080428285836930263 0.53256001760498051
0.046360896251966932 -0.035769817755876732 0.55205807552975383
0.044388461352634828 -0.028907883523014322 0.54990506605213063
0.045064938340107288 -0.021797786720683165 0.54767917837684543
-0.097858749864044484 -0.05105535087419355 0.53014320981357199
-0.096059308056811288 -0.055484824740829164 0.5313966284256243
-0.097180897759691562 -0.060904300428348435 0.53153540956719825
0.12942375234505826 -0.15208082986820659 0.62856580747281832
0.13149620845924789 -0.15165409884565378 0.63026098221420779
0.13415825083418451 -0.15205501569080054 0.63129131931768545
0.095288849420086405 -0.13801950676476882 0.6243615688590276
0.09590646887442375 -0.13943174706225225 0.62311516014734358
0.095442790348755732 -0.14077276951521878 0.62120477333110491
0.10373552482876774 -0.14529686211920134 0.62068547146430797
0.11255426876777803 -0.14786337213446221 0.6229553597973182
0.12038027671138496 -0.15034255357765836 0.62484228266547759
0.064330552078506575 -0.13161954429846345 0.61406639465035151
0.072988678030658685 -0.13466611793371849 0.61523522463627367
0.083261914951796662 -0.13845785921582887 0.61662967816564762
0.052717758021930627 -0.1247238032019308 0.61664454154455695
0.057015884917201942 -0.12657042274075395 0.61667019456526939
0.058751474465077197 -0.12824625855462043 0.61542181479845615
0.14725573463576419 -0.16800703717438339 0.62398555821254265
0.15144924832975273 -0.16937396677723121 0.62531247127784095
0.15652821346920537 -0.17240570562008789 0.6255448475923101
0.13321446541810167 -0.15673654666468678 0.62610024284202559
0.13805690225139386 -0.16067997433063891 0.62529079554582512
0.14148881814104181 -0.16453894276408199 0.62370613054546631
0.060935866795797294 -0.13556388632857552 0.60749259624832752
0.057521222953300283 -0.1324379436457942 0.60948063740590142
0.056430878396174722 -0.13042909075818143 0.61131513035280527
0.062941868151487446 -0.13694724823503804 0.60675415794963516
0.066176151797986027 -0.13739329548580309 0.60820697493720599
0.067053495272554969 -0.13818431414410842 0.60774291744346975
0.13756957662363845 -0.17231635675412399 0.61278057618670723
0.14152467538302443 -0.17353627471245961 0.61400099228663541
0.14579386974098377 -0.17602064796098277 0.61418040189940004
0.14283597056670561 -0.17019588409045505 0.61887377579435188
0.14081061490760438 -0.17161795357550569 0.61602218631991379
0.13753560644594381 -0.17220686207818847 0.6131598026147681
0.084107530414929757 -0.15150808446217434 0.60142239452836299
0.077702913870469487 -0.14750062816373527 0.60238133457147691
0.071554298650626499 -0.14339756913529367 0.60378491740345552
0.091242374412855126 -0.15397918517393699 0.60238513838458563
0.092969351579312423 -0.15412611941880594 0.60348721953803008
0.092621096216962906 -0.15452550640297982 0.6029590768977533
0.11687182370703225 -0.16594610870783144 0.60560068070586048
0.11888138164293416 -0.16641283494675657 0.60623614911964396
0.12010308591959618 -0.16756038474326093 0.60563035049109482
0.1290099607734469 -0.17123937755386714 0.60832588605618176
0.12425302257960857 -0.16989197485867011 0.60652341098404039
0.11921613996368452 -0.16812789694164104 0.60503006757210664
0.10842653077086425 -0.16382594741954548 0.60261025426677139
0.10269333340925578 -0.16132430362750938 0.60169176525052048
0.096727842504507527 -0.15848493254382057 0.6011113567618025
0.10014675285057315 -0.16756322148115288 0.59423450994780913
0.10517992303061892 -0.1673691566842414 0.59729766274127327
0.10990878107486311 -0.16670001075595275 0.60073256382618556
0.12869307806208408 -0.1724534349053809 0.60721391076796061
0.12377310817414569 -0.17307596921848331 0.60365939204683117
0.11919564368556525 -0.17342595767916988 0.60065092449983837
0.11117293905186162 -0.17193318977616895 0.59722641760235351
0.1063130847111915 -0.17052538349467194 0.59550624163513832
0.10097841188692076 -0.16878071177152654 0.59386393614681576
0.089176558145568005 -0.16443672168599333 0.59094290980872788
0.082964639794959577 -0.16195286904501013 0.58974357805183231
0.076780996628021 -0.15935607334224583 0.58877673157278598
0.076832065070304309 -0.15761638148356738 0.59048525498735072
0.082351580229305971 -0.15729936527806707 0.59396802369076918
0.087017961254716336 -0.15632709222935451 0.59772767671292171
0.13850369531875478 -0.16852466594006466 0.61781037728370258
0.1337024244260607 -0.16954221557352203 0.61375100359171131
0.12933354318935331 -0.17040150856109612 0.61017279310798556
0.12466782807251524 -0.17231454367440802 0.60545811064266775
0.12226162890888692 -0.17348395641610001 0.60283429317710002
0.11919220938158608 -0.17359519028365383 0.60076737465477947
0.065186493783053065 -0.15407926077086007 0.58768079247036387
0.060331950815523019 -0.15128848778242765 0.58799687507401555
0.056617749734697756 -0.14817070649410036 0.5894414092297503
0.056380661338044549 -0.14449398075842362 0.59362404702327443
0.059433647152005359 -0.14284147872782932 0.59738385152482176
0.062982526891887561 -0.14101747388919214 0.60171861812784788
0.12425513398438724 -0.15470449151926929 0.622371378773937
0.12088105395886295 -0.15673400156855616 0.61806130078663191
0.1175616055229918 -0.15922204897161663 0.61345883909521115
0.11923331327531889 -0.16469811338824439 0.60917869751618825
0.12254832130266799 -0.16730340014397965 0.60879010329763761
0.12485072873030766 -0.16950731989593643 0.6081965858864018
0.051208099602699494 -0.14400736998397506 0.59124353838128041
0.048683298690593957 -0.14221205392820402 0.59192109132364934
0.04895733418040682 -0.14119409941657585 0.59324892983334032
0.052309444946805714 -0.1376694398486788 0.5993368877146239
0.054173156622403351 -0.13459133707062021 0.60426528632537635
0.05656256638756986 -0.13206352002309335 0.60896074062108008
0.091443302028787227 -0.14416472250684484 0.61456265438332147
0.088629840269560445 -0.14653540682339714 0.61004811657045721
0.086199774447835165 -0.14943384731841139 0.60531563077343331
0.093813645971786541 -0.15559776981268536 0.60318172095988942
0.1018945699246967 -0.15786168796929678 0.60558870569553402
0.10892576202821916 -0.15993641458216371 0.60762738839858432
0.058026275410523714 -0.14316074419531211 0.59604062074345276
0.06605922684961002 -0.14605119587578852 0.59734222689117145
0.075304542859133849 -0.14948776175760942 0.59887803542340834
0.085408292809404887 -0.15687295623669512 0.59693786409792049
0.087517709067744087 -0.16087063137060498 0.59402377350337821
0.090904284079175113 -0.16433629964706437 0.59237631861111106
0.11317648076853085 -0.17114888995831409 0.59945622525205411
0.1123142889888944 -0.16842559881495797 0.60156654604393989
0.11292440984527391 -0.16529887849267133 0.60486129028880908
0.054531195780468486 -0.14572086132613554 0.59113730981994583
0.058986800673723763 -0.15014204002338 0.58868211490924904
0.064617574177431719 -0.1540131861763244 0.58756868588964173
0.023324600450929378 0.17080355310542145 0.4999953535901035
0.020986805377407949 0.16901288115494997 0.50039522411107895
0.017802146073841091 0.16689099612777386 0.50084610086183723
0.023076970605769728 0.12943238401540091 0.51960170753674972
0.025871714376611982 0.13410020824143998 0.51816750779721676
0.0276750493890425 0.13716240827031989 0.51745407744517968
0.027388446450502882 0.14654651460789564 0.51272890756239098
0.026223928003083846 0.15438358973662369 0.50861138310278309
0.025487833542222685 0.16299941318403321 0.50409450162591629
-0.062045551607815719 0.12694074580396719 0.5314188642437081
-0.064111503743543796 0.11863753292725315 0.53548274133939933
-0.066420868033355646 0.11086725907296024 0.53936723787474694
-0.067656017078855893 0.10245409908661768 0.54295763402438291
-0.065720004638371146 0.10075124801662808 0.54194440452003034
-0.062792405441787644 0.098272072371939523 0.54085319210060923
-0.051804039484344047 0.13669313418468476 0.52300750193074874
-0.055462520632957368 0.13607316243494599 0.52505155236535928
-0.058165771428632509 0.1358583188420614 0.5265649003843097
0.026790999285235415 0.21852649224086235 0.47310167087598554
0.024350004431429983 0.21894451166024864 0.47295186136811929
0.021234484092507097 0.219631368731243 0.47302954067280323
0.025350286929450752 0.18280135316941765 0.49334708903872448
0.0259907005220847 0.19396697239231531 0.48704126142508541
0.02713065279259147 0.20585633026548428 0.48019196687507382
-0.055770456171119975 0.16518293794698663 0.51167409440006051
-0.05702149890679932 0.1550264861738509 0.51708411183434644
-0.058505813523207884 0.14518411223809075 0.52224121944399049
-0.044507512988585587 0.18508757988826813 0.49970847880754243
-0.0487207867434261 0.18092020804912862 0.50230540661428857
-0.052133708849543992 0.17784179520788509 0.50464929822711901
0.038646517859479507 0.27377139175797349 0.43922647101173873
0.037175711161582956 0.27810325116290591 0.43726279805415513
0.035330935203294389 0.28273707857240604 0.43581843375199125
0.030929210221960352 0.23138462708489393 0.46510905260278468
0.033542721586556731 0.24457873404576072 0.45708242210231131
0.036564381771393206 0.25758802352135468 0.44894144269533898
-0.054006389739892191 0.2051341605090885 0.48987326407191933
-0.053849919290267723 0.19584397255155045 0.49506398309618882
-0.054134376751713204 0.18584482429905702 0.50052996568707053
-0.04398618662722914 0.23303322361965562 0.47492002574121173
-0.047960375412552742 0.2255151980347071 0.47838524801379989
-0.051584988325747372 0.21894384491413393 0.48208122240707152
0.03982380499851286 0.10438076517474976 0.53082432195087526
0.041221951874433865 0.11048816347935364 0.52852897040118085
0.042270174478833938 0.11426737999901196 0.52783718078755137
0.03766237909144296 0.12179192959204363 0.52589154324455611
0.033739309992306288 0.12714462801550658 0.52343299263929199
0.030967880081913771 0.13299495796870464 0.52023470792273918
-0.071888380111996261 0.096911856863168999 0.547121385687378
-0.075492878657329607 0.090336950033116425 0.55094128288537836
-0.080257938960523204 0.083510687730564775 0.5544510024617133
-0.085680758905087279 0.074071202879422066 0.55659667313507422
-0.084477199150967658 0.071086257262672703 0.55549569882969163
-0.082855851732332869 0.066628657547706638 0.55540887529061078
0.079653250914007143 0.091716859375047033 0.5264211239180504
0.078536906795726114 0.097084475333612752 0.5252362835267208
0.077744295102056354 0.10170354679923194 0.52424833426083062
0.068330281506617074 0.10605885282911104 0.52561178929280528
0.059178881322783691 0.10841880109906255 0.52715199792350764
0.0505255456195845 0.11220399436789688 0.52775177353266989
-0.095177195477211554 0.067469035858685744 0.5594692363522078
-0.10513730761772812 0.058664759613437978 0.56043826857279178
-0.11576663485341504 0.050427300826089982 0.56020526814593852
-0.12682152948789077 0.039785048744434448 0.55823253404843076
-0.12769307144410824 0.035042125707129612 0.55681348930859498
-0.12893319817120391 0.029470786212410061 0.5551675187209888
0.10957196803130179 0.12152318469260087 0.49830878300963399
0.10663508175951483 0.12440667997168225 0.49875008591354419
0.10443760865607804 0.12765451387714796 0.4985510625471915
0.097374825293173817 0.12079131459744363 0.50655387170955402
0.091494842106463942 0.11317399214683349 0.51363119994830231
0.084829860409737945 0.10813697995800692 0.51906829811034061
-0.13555452348504105 0.038972026996250353 0.55638675995337128
-0.14394242362164256 0.036259495994799246 0.55296110108827767
-0.15156562114820224 0.035092677254085047 0.54847300759442519
-0.16082767942596438 0.030814603146570807 0.54168977438637256
-0.16368975748754905 0.025466280760625959 0.53930312077826958
-0.16757282400336898 0.019310244887191214 0.53600347464635334
0.12749206525281595 0.19082633605411101 0.44401711534385047
0.12401820876181721 0.18974898152219227 0.44679543659731191
0.12108918159562192 0.18966251802064907 0.44855894708309652
0.11599417906356853 0.17401843614399692 0.46210170929924443
0.11230411818550157 0.15817969153714173 0.47490356015666213
0.1077900055233153 0.14359591952637174 0.48698703144162736
-0.16533153915485846 0.036095614675807852 0.53583646926106532
-0.17121313098360694 0.038099159458159532 0.52812356421274809
-0.17580590936202434 0.041381374253100289 0.52025146374094644
