# XYZ point cloud file
-0.70512911364437514 -0.4156693914779126 0.65472836960679714
-0.72589128078462295 -0.42686228795592562 0.63961100578067587
-0.74223180941008593 -0.43623898433533448 0.62025815970602061
-0.71741207692733155 -0.48477791098934997 0.57200398421268162
-0.6694140051216948 -0.52339524414553651 0.5445812002852719
-0.61223439601199914 -0.55377730073638354 0.51983672811268811
0.05308492024280298 0.89060575657659191 0.5809639265864206
0.023279726805718326 0.88095640456791902 0.59464400807232032
-0.0074281715138866389 0.86260848430072024 0.60591166832231735
-0.039493651450968059 0.8319767904855162 0.64414799257538746
-0.035923756767928694 0.81905135298249476 0.66779214343745608
-0.031712189019877712 0.80165620624679956 0.68558961310870714
0.0035160096638762184 0.79861506909903834 0.68227474058321924
0.028800882450276788 0.80922668981250601 0.66864761238891113
0.051378099292470836 0.81229502889218619 0.65468170920829927
-0.69799091901716537 -0.37784359719700689 0.68005283234566605
-0.70651938406757608 -0.34985572793832631 0.69456151558292767
-0.709383409797681 -0.31690517033631949 0.7089764062496684
-0.72869278086720612 -0.27382002020860519 0.71554696319271294
-0.7466570126774883 -0.2710155586670604 0.69996884769194789
-0.76085199086435296 -0.26800338609728147 0.67837104447078556
-0.77505747637174238 -0.31520873498829438 0.64128941313922461
-0.77680798347324753 -0.35936896551566733 0.6297806438531115
-0.77064927046932041 -0.40093031617222685 0.61580114703220001
-0.082062649895462414 0.81395837522154491 0.62824595591404986
-0.12689438539428011 0.78963887863684379 0.64064933281577652
-0.17447574007359634 0.76796654620096128 0.65309436222955242
-0.22463811937090128 0.74206116209073425 0.69399534446711186
-0.22272175081941725 0.72775573496053392 0.71930861705549809
-0.21708754346966685 0.70946206808097934 0.73835103370274346
-0.16091712466851504 0.70970222236493807 0.73639325602375472
-0.11313715727021645 0.73372222192177006 0.72309907590509148
-0.06757680642360242 0.75858250736382793 0.70942958981737192
-0.70602331614699665 -0.22175395719450108 0.73837809313232228
-0.70237225034824036 -0.16031401427716574 0.7523486589606776
-0.69846220647388435 -0.095755673435162336 0.76479534975480057
-0.71536297445221919 -0.020572232411188551 0.76722538977102417
-0.7327231128498255 -0.011909741135946561 0.75034825673925809
-0.74602290705133356 -0.0071774601890126632 0.72695046853717038
-0.75554535190854466 -0.075803333651155214 0.68858799887270905
-0.75918174070299926 -0.14362767169196911 0.67681252745026121
-0.76402298649202294 -0.20771189223144404 0.66445313508682879
-0.27074890561461729 0.73918167482658248 0.67510284492107964
-0.31570825621105314 0.73067126466880961 0.68434678190233633
-0.35617876784334612 0.72178021255823577 0.69297292636527885
-0.38852224418224068 0.69841054408333481 0.73019391910808729
-0.37970607450621685 0.68154756762469404 0.75505298819163613
-0.36468685217403873 0.66010305438936534 0.77328169093493138
-0.31809747933607468 0.64993666043741349 0.77575469657875296
-0.28649078886807899 0.66164119288299172 0.76809396149375253
-0.24951771725558558 0.67384124813338131 0.75917815955826562
-0.69385330251894572 0.023802249058501701 0.78430440730724271
-0.69247176050451742 0.073776849509668452 0.79164533376967761
-0.68935858459442301 0.11677103232760722 0.79762418404727242
-0.70471401975525794 0.18263701710133518 0.79468193971298007
-0.72306409622284917 0.20778564794809373 0.77788465073711421
-0.73676950683241671 0.22567372977303624 0.75431694838956531
-0.75259856420057503 0.18472699913235502 0.72169803124389276
-0.75509330885004999 0.12616697215851147 0.71581082903755799
-0.75458684842193691 0.061482176954581469 0.70834301687615486
-0.41724046590042008 0.68756873687466147 0.70905303805766806
-0.43580196127287962 0.65795656165724381 0.71634075590818114
-0.44561127787480359 0.62000538431902186 0.72281525891239795
-0.44069396020341145 0.56722061728464102 0.75569517949753617
-0.42786173464934052 0.55657540583163545 0.77855338021286613
-0.40877794559958858 0.54336916137036795 0.79475310420645506
-0.38487603985263519 0.56456512850453855 0.7982818623048562
-0.3777974271090514 0.59413611324036175 0.79368003511360996
-0.36405576066226075 0.61781786626828428 0.78840217794558676
-0.67106978138323825 0.18021686445060858 0.80624025003491795
-0.65391709405241016 0.19988399015942626 0.80909566996692917
-0.63099559745936062 0.21116478668418459 0.81101356232651156
-0.61616438632420056 0.24693699933585389 0.80436842981315593
-0.62748929829508171 0.27549679514872238 0.78794615887672848
-0.63547183299179721 0.29694132288914599 0.76489574594335608
-0.67591881798253439 0.30905895509989278 0.73573420261280198
-0.70569136577276481 0.29686185909290153 0.73326534395653731
-0.72874692471143732 0.27184554765405444 0.73012712087285792
-0.43566880060963342 0.52163948935725646 0.73250096314865942
-0.41856737420373946 0.46679436014835129 0.7352550976469292
-0.39854112226386462 0.41390009084530455 0.73652293873962371
-0.37534482668061742 0.36200421737675903 0.76295338696019321
-0.36498461824157147 0.3573068154016692 0.7847131283125055
-0.35052385658322294 0.35364104299006804 0.80018610636621368
-0.34849942943277057 0.39535666466220221 0.80832309512363842
-0.36395391006158917 0.44103542764028525 0.80754618076885443
-0.37696929396020096 0.48649972657628737 0.80543006105285819
-0.56602125822336546 0.20880460115772514 0.81212005904981588
-0.52613827275832392 0.19931654940877053 0.81163777876348675
-0.48499676969515093 0.18907957041207712 0.81066191321949788
-0.45015265954224759 0.20217468280721462 0.80124026216124733
-0.45537075195958465 0.22088414532919654 0.7855697049128505
-0.46010005878391524 0.23507817142179732 0.76373286668359874
-0.50535570378145422 0.25780192556479342 0.73801949782809118
-0.55115038709521968 0.277045321369501 0.73825905251959156
-0.59704865633465687 0.29578847268991204 0.73812905446122379
-0.36752418266489428 0.32776907199850847 0.73574452445493144
-0.36145254144607009 0.2966060778471542 0.73462600818723089
-0.36183827984544337 0.27227529075258161 0.73365711851015902
-0.36347221664561147 0.24778204380613733 0.75833706326636197
-0.35310804666691098 0.23697674728778928 0.77886140786812419
-0.33730281949043217 0.22182095498086163 0.79374460294261695
-0.3103288978651193 0.24273587440383082 0.80162658483908977
-0.31467823079467649 0.27831277805429 0.80346260176355599
-0.32234879799223393 0.3140024937131729 0.80576329605480268
-0.41061557606377619 0.17781834277026221 0.80662271631155136
-0.37857406804346283 0.17901808110328599 0.80392089548765888
-0.34752471388573269 0.18457861501647077 0.80180317614205876
-0.38185266747913715 0.24179312463779823 0.73386095846672461
-0.40179614559929888 0.23542809910087836 0.73501111930209184
-0.4288488031766704 0.23550016187228451 0.73631695747075554
-0.31578817945676718 0.35412644198355103 0.80548320318272815
-0.29775899048517829 0.35842611499197297 0.79718174116882778
-0.28012180780778806 0.36404380659192093 0.78641863368673981
-0.27070199189490296 0.39815386831706512 0.77513342783580974
-0.27509633254513943 0.42634431643838955 0.77239007488301681
-0.27660170112316962 0.45346249012363415 0.76889243001825847
-0.30028424107789675 0.48787365882944123 0.7758747143188458
-0.32842447056961532 0.49982551960485289 0.78852428665084418
-0.35732513261204701 0.51377469505691309 0.7987053923374301
-0.58503568372147896 0.17969642194267621 0.80879332388073699
-0.56704521619472104 0.14601326935888093 0.79879622400873984
-0.54946054925972732 0.11489565963720416 0.78614903003747827
-0.51317163406407929 0.094665575744330432 0.77728934381286763
-0.48986905604145647 0.098681241006451259 0.77917531146821162
-0.46482840861489194 0.10004359245145977 0.7805483139534708
-0.4395659597874868 0.11808917854009504 0.79003978051085255
-0.44063239078323591 0.13853782776612178 0.79998982893126147
-0.44246340473008416 0.15969216126367325 0.8075053887097603
-0.27069002601276537 0.5006849071752546 0.76098399259228167
-0.26313610638477769 0.52026765236684902 0.75694146693684772
-0.25239685685732383 0.53773408711965676 0.75283607400217534
-0.26287593251222319 0.56948011802193133 0.7587326462244004
-0.29050924812611356 0.58924850124718375 0.77069034473298714
-0.31846959202330538 0.6119446114854119 0.78007864668632365
-0.6583174080934171 0.11916803339000204 0.79880945123706226
-0.63291411278095211 0.085983912231649917 0.78823689542175934
-0.6084625385639626 0.055379562398537807 0.77512411802518955
-0.5776622656481436 0.049464166895662132 0.76702214953375147
-0.56588283156931141 0.065675072316112804 0.76990905733612891
-0.55141696225418713 0.078387371953221319 0.7725936887365723
-0.22091490018793536 0.56823176115834473 0.74442333509362513
-0.19995696885825964 0.58286848097687249 0.73950084643927383
-0.1754020346777736 0.59858890627979289 0.73328029416594731
-0.16172141162229536 0.63150554879873644 0.7317085135301209
-0.17793600647311791 0.64905087713196297 0.74086030328207286
-0.19384845478024459 0.66853493715564749 0.74804083607701521
-0.67357460683742687 -0.048150987285911384 0.77268651466454052
-0.65147065980655583 -0.064587261347940128 0.76361851079371945
-0.63026731022211635 -0.080307785523928032 0.7527552017936614
-0.60572181812194259 -0.055941963479924972 0.75163050558369449
-0.60028332435364007 -0.022957665351132306 0.7567984943809023
-0.59432425001434552 0.0054194145409844907 0.76072610178748334
-0.11524992793953714 0.63790688173648835 0.71446867723808971
-0.081796629501909024 0.66034972699133743 0.70256159256015849
-0.048947088455150833 0.68139141755610666 0.69064485048210322
-0.019960901428831335 0.71704272160327154 0.68480960515980804
-0.021799418284707883 0.73782478154274234 0.69161733337990761
-0.024321217629498904 0.75963361257430284 0.69651094632015287
-0.68790034526149668 -0.27493200561686137 0.72248845568912579
-0.66738106997092217 -0.27268211520250674 0.71604538818626473
-0.64793532934351816 -0.26923743036261971 0.70795131709773784
-0.62919180427635268 -0.22568826197154124 0.71288027298378331
-0.62462098791577603 -0.18182623688445254 0.72440072753714269
-0.61822386093406578 -0.1368127212301582 0.73531291224310102
0.006753611069825638 0.70844185884964439 0.671244289586447
0.028976974721722115 0.71215595669745024 0.66441862356836623
0.049269452916867351 0.71015457423660067 0.65900841757641615
0.070633327436773641 0.72586058030878142 0.65233194446485498
0.07166391439660913 0.75160260783776245 0.65056298383778
0.072732089141254619 0.77915530279021183 0.64724114282725154
-0.65721883744735976 -0.39385534892156571 0.66986529237833992
-0.63305292314099404 -0.38424591076800851 0.67145716501401687
-0.61055318239269241 -0.37498453964948375 0.67192044683969065
-0.60756651700445019 -0.34610218586436492 0.67871162996888579
-0.61964779262901004 -0.32383191931613542 0.68505994659752467
-0.62733012994601722 -0.29742241052051011 0.69267966370837541
0.089506553740420713 0.69198260155923386 0.65110309139109646
0.10998196361791202 0.67618409655037492 0.64877677755643859
0.12954538516875402 0.65526751728175059 0.6481335139745461
0.15530303338939433 0.64794948149050891 0.63996125219874322
0.16410620173196122 0.66977007569405744 0.62857886785022998
0.17430000121226641 0.69231755795782979 0.61401723592054935
-0.52380226235694494 -0.47387019851805512 0.62843249746988405
-0.50978988428990846 -0.45426195026626015 0.64134222919091144
-0.49566978300224207 -0.43669693529473719 0.65141922632652616
-0.51638736404324703 -0.41337545550858223 0.66139711636843401
-0.54544490189411476 -0.40075031966765895 0.66430779837832432
-0.57040059611906457 -0.38446740722151418 0.66839007361735447
0.16225722587387992 0.59579583676083914 0.65335540497261135
0.17421132596518873 0.55856385172758927 0.65887117849574039
0.1828783427008176 0.518955487047283 0.66553356116108375
0.20155546887803411 0.49274446620081891 0.6617322048667571
0.21656243797903585 0.50908872163222729 0.64939947519848396
0.23299820505122426 0.52502281744031554 0.63501288219949892
-0.34599761990876488 -0.45992330672032189 0.6374519930554392
-0.34163343617918684 -0.43755845400398385 0.65146382896119803
-0.33607349004264364 -0.41659804729144057 0.6634858416096705
-0.36893611939418491 -0.41059327688319769 0.66842149108861548
-0.40773971488626159 -0.41903625835557001 0.66374595390595736
-0.44650610878485253 -0.42278111854507472 0.66089144443392378
0.18919510991305089 0.44075369239809348 0.68069983293533731
0.18559293534841004 0.40383975980067 0.68908698773703669
0.17620433218988296 0.36790164191679464 0.6982639241436317
0.17555501422294384 0.32839518049198468 0.70225570125137438
0.1933434646886667 0.32449033314807441 0.69510512217748399
0.2131290433415316 0.32083461995802276 0.68456130681046545
-0.18205414698790179 -0.34948058231900125 0.68137803699447375
-0.19590445958446878 -0.33375892929638518 0.69294674075778495
-0.20896219318966303 -0.32016171355420786 0.70119110015339459
-0.24295571976368535 -0.33879417050415128 0.69795985417958128
-0.26879799291181428 -0.36312483414267138 0.68900133341298542
-0.29850081082086177 -0.38265255691144073 0.68124628434839707
0.13630535274871391 0.29780832633019649 0.71997597890923792
0.10764845018498193 0.26538188066563118 0.73159706949417469
0.076960153621897121 0.23722401940897209 0.74207690450892727
0.063510041437581322 0.19002979687395039 0.75309249845145843
0.085874243087189939 0.15885805243596751 0.75827144613538344
0.11452409425375265 0.12263623893053488 0.76309617195266277
-0.06028728654868587 -0.16969248916082957 0.75986027357923547
-0.10648572566059045 -0.16242966287204208 0.75529609213077364
-0.14528007706891088 -0.15800972497796728 0.75113339666288681
-0.18060390726781606 -0.19227249550316738 0.74199924697865427
-0.18984870325051162 -0.23223487901753659 0.73184463904555663
-0.20338379205223589 -0.27217594170929305 0.72013066065960629
0.021028535556617101 0.20048346878513756 0.75399939806950655
-0.0022834837737946145 0.19211782411916101 0.75522519977439373
-0.023799343815824159 0.1886669660461564 0.75501680365027468
-0.04343705675082532 0.1584960019220425 0.75211400984779786
-0.042240749356459162 0.11997135560804129 0.7499562333836316
-0.041230780337734529 0.074297342857954529 0.74731576665231358
0.013256313870300573 0.036338764998755657 0.75147455376630923
0.056606746367322103 0.050906406606661569 0.76029593373565163
0.10072729889327547 0.063551118681413499 0.76719493871706135
-0.014890238704431624 -0.12947573790182965 0.76635859974338771
-0.025444788246261396 -0.086010571841982575 0.7602638952458296
-0.033916069028840923 -0.042329911175363666 0.75163246994859456
-0.094002201288759579 -0.013456675333793466 0.74581937892591732
-0.13474438431274649 -0.033368992694404298 0.74798885815431504
-0.16924726962571413 -0.04942149994179168 0.75052461804839155
-0.18660909243836699 -0.080377885270494609 0.75388368445394427
-0.17941325275084807 -0.10122831749474326 0.75397709744867392
-0.17559747494465938 -0.12580811406982217 0.75290336346688136
-0.22638858259305294 0.29267743343960317 0.77519893794354644
-0.24113181061485278 0.3165885946734881 0.77667405277235879
-0.25357332027977009 0.34250065564636412 0.77729539749881305
-0.27468415595191686 0.22005662717236874 0.79476115504094835
-0.24899946177190913 0.23887476008990527 0.78688301181538733
-0.22734688449555307 0.25608079899341529 0.77903423469086519
-0.3307491331351784 0.092190494494051478 0.78105403653136563
-0.32415313757159936 0.12002971871687862 0.7884792102943976
-0.3172606593227485 0.15291446222812066 0.79571493091887113
-0.41258572707852892 0.094923275163354859 0.78077486714596489
-0.38656515165541805 0.088606483786286994 0.77955875199447178
-0.36119247616198891 0.079961997638868354 0.77772123711301511
-0.15008830959759223 0.22407829265922352 0.76528068863888876
-0.17096080120352042 0.23725583135708961 0.76803425429875638
-0.19094582130799864 0.25289620172810023 0.77068142552359653
-0.27387956998525453 0.16906998299098674 0.79120493345427434
-0.24421679388118633 0.14685096205930304 0.78179073707318203
-0.21592433872002914 0.1265256033451756 0.77298533184790941
-0.17062173410734971 0.13631250702522291 0.76405154602071157
-0.15449712578425334 0.16465158230761068 0.76292859924814849
-0.14033773849363484 0.19072130799762466 0.76214813554046934
-0.24044974555484089 0.028201301881639385 0.76294529550789925
-0.22388293229610667 0.051998743474059417 0.76341138007712672
-0.20610836204419059 0.078691797151023035 0.76426694109003535
-0.31422400942707895 0.055972872237179061 0.77281900452898
-0.29302416015287491 0.041166997184071796 0.76993333744150405
-0.27326151467677562 0.025146223954740421 0.76683380427682835
-0.15958863134959955 0.087968646447396104 0.75703192358221472
-0.12838693019791236 0.067634376757540249 0.75046928358113618
-0.092223699383723101 0.045021631706685383 0.74572774069810954
-0.065394045419409963 0.19160018715369809 0.75555898984546488
-0.086425190351903325 0.19664112233273157 0.75735167613341403
-0.10757138162151847 0.20384816792203653 0.75976594881093718
-0.23785345477895703 -0.0085791273674780122 0.76037589260332794
-0.22233331541885093 -0.025867509914700104 0.75745815244599335
-0.20849982652835308 -0.043541918018133341 0.75518473663105645
0.85437927099747668 -0.36440718182273812 0.6452049379786331
0.83603599049430954 -0.37148363750730518 0.66092188329018597
0.81821468074642212 -0.37883949852061227 0.67410135138439031
0.79771421438874768 -0.4027261865543772 0.68257587490870364
0.79073030395539234 -0.41989348935399362 0.68189400052861693
0.78211429621305228 -0.43659458992105593 0.68176720388720469
0.77956431032877305 -0.45876403766027618 0.67451568667027573
0.78796206726119777 -0.46584192776430955 0.66415200889115233
0.79681306561030141 -0.47343983345522656 0.65164453659158639
0.7614255160333272 -0.46810308414307533 0.68300102159611598
0.74969133146981903 -0.48240864635247593 0.68432284739600746
0.73700826012478871 -0.49524547061358604 0.68612790837844173
0.72248823090498604 -0.52473693797949972 0.67994671269011775
0.72132119522421334 -0.54621472766509682 0.6680168745223849
0.72039865116636292 -0.56837527651805142 0.65329316587496322
0.8644086988403572 -0.2825515174626283 0.64694934974997409
0.83791835282320903 -0.29455495282284883 0.66661297692110288
0.81287706659870196 -0.3056935982415292 0.68301135792509626
0.80064061411696485 -0.33222139031814124 0.69150395403093867
0.80490974523293346 -0.34975378540489288 0.6883339446713741
0.80535189368471549 -0.36749057119496387 0.6857822952045538
0.70873058281466683 -0.51502513915470804 0.69125992112016554
0.69301414118984894 -0.52088108400131916 0.6945824735098256
0.67610343395089956 -0.52309867429238288 0.69837961596048537
0.65646050969734659 -0.54587540472305518 0.69220668056838441
0.65469393049120583 -0.57558531630460519 0.67766573706503763
0.65244633409852071 -0.60730660972440598 0.65950312565995262
0.80630222926135531 -0.21100804495998515 0.66713450769770688
0.77385284016164491 -0.22869648290929057 0.68716779044189025
0.7416273576587713 -0.24780652038617146 0.70421110949225252
0.73708280390189174 -0.27422377890738425 0.71118574506239085
0.75905808203466307 -0.28458176402149449 0.70509136210259271
0.77762016398888534 -0.29872819673099293 0.69982471358116172
0.63820673998613842 -0.51381749221632922 0.70727944710806767
0.61875228606814403 -0.50193060647816123 0.71236045194943465
0.60120444680975993 -0.48557630394182105 0.71780186953102998
0.57910762378007519 -0.50140557099277472 0.71235900326773383
0.57409381266737824 -0.54009895962104637 0.69761714557230547
0.57020262847802172 -0.57871513716108969 0.6792586060153738
0.50068550856420302 -0.071125584924763174 0.7065462996457903
0.48473152831401478 -0.096497504610516982 0.720604270212446
0.46877488248289012 -0.12154317385821245 0.73037239089910244
0.50219462616952626 -0.16615828711604408 0.73371282027924956
0.55227533747592616 -0.18714734626777774 0.73010486482447945
0.5994627167221509 -0.20722617435509694 0.72666433449817092
0.65922739137496933 -0.20012616001021821 0.71523314944418459
0.68013686263193307 -0.17523449443778949 0.70316139245867149
0.7008050242663515 -0.15077749093174209 0.68734213811458744
0.47593650363605633 -0.50911904416309417 0.69453381369446987
0.48904496270264985 -0.47912859410288555 0.70955467463938149
0.50250871164325872 -0.44901840827939421 0.72054497962352393
0.48227056005866586 -0.39458042683401851 0.73034138373410329
0.44200576619083876 -0.36488103845033626 0.7331033144412995
0.39886324115560967 -0.33405753246016245 0.73571075255669882
0.34187619212149656 -0.32955087880436684 0.73148244966506226
0.32711540240109827 -0.35542508093044844 0.72192749694720959
0.31225310840967069 -0.38166857338184568 0.70798196857391282
0.66745565797357642 -0.23902432541600693 0.7219363163999386
0.68672279857171503 -0.25027026474498704 0.72056207874453548
0.69985162504333687 -0.25994128437236497 0.71953456663899473
0.5738426793675373 -0.45728635303273024 0.72452821956100877
0.55972955551310122 -0.44979103520806141 0.72525839741158649
0.54140695124554838 -0.43790326849416239 0.72632589135345071
0.41158942098583395 -0.12625252683740196 0.73828090894307863
0.37485615493429947 -0.10816235934266505 0.73918411423078112
0.34275116666108829 -0.090866821923103025 0.74046044679792367
0.31203082127824899 -0.10078803118322144 0.74718040505229233
0.30857660268560494 -0.1247322896429921 0.74830972716184618
0.30242795869290262 -0.14659851607620222 0.7484757337778678
0.31203205353799035 -0.17628245723083724 0.7455170516285623
0.33744058277296318 -0.18950787798836255 0.74459365028207003
0.36903537377985174 -0.20613747673903493 0.7443086715118028
0.41767230404591515 -0.20749410253778522 0.74351771460061755
0.4288159318132756 -0.18805230054266819 0.74273930718283765
0.44064539851002138 -0.16751047421247556 0.74068793293039725
0.36981286348709119 -0.28334240841286373 0.74125534954047367
0.38271463743001988 -0.26340381414360015 0.74307573144852768
0.39496018884184991 -0.24460904054078747 0.74366827101522581
0.27977464786494011 -0.18420185473611816 0.74777373955476989
0.2629750244634721 -0.20046684347901311 0.74704336930416915
0.24289930201531007 -0.21570920366169477 0.74559849534161771
0.24986980376392154 -0.2451489899472965 0.73919464391425471
0.28226759733105666 -0.26139299427971419 0.73837573798152256
0.31752807945817096 -0.28115967925997531 0.73816710709245115
0.59045177052576747 -0.29754455068790442 0.73365108303066506
0.60552725190202494 -0.2736858911883564 0.73230857427466667
0.62160691080883623 -0.24953134917516628 0.72929841116264882
0.44989681960315409 -0.24978922421866745 0.74152246809917344
0.49505275738801657 -0.27484602897125354 0.73881114287537386
0.53824469569379119 -0.29935115276423674 0.73616739964048428
0.53093358939596413 -0.3933417136720383 0.73218537256833116
0.54579407762686571 -0.36840053444587761 0.73411835794782654
0.56080389511676998 -0.34455305786045387 0.73451163409229814
0.60398662396820413 -0.3379583646476596 0.73304794370861437
0.62457819813651838 -0.35049332622145135 0.73241600467915191
0.6391198905097184 -0.3595367803614824 0.73174890784005164
0.66195064107706969 -0.34173678729245505 0.73042446542457817
0.67383753096494559 -0.31672225905707951 0.72922927650837011
0.68773802092093916 -0.29253426975656494 0.72613206074713155
0.59853111257524461 -0.43192561690437126 0.72896495383508686
0.61477972796887315 -0.40896170594026549 0.73058337817771246
0.63254266023481875 -0.3876372302509421 0.73088924875737682
0.29890366576533012 -0.047780720731389614 0.74551714664651314
0.28681189118273664 -0.030552201795430722 0.74724147248817552
0.2739128912700437 -0.017032923955179857 0.7491109037921948
0.25591055460173351 -0.0081242587596741522 0.75973312422723716
0.25412163939869004 -0.0080038183901720572 0.76920553981256035
0.25289321194446757 -0.0073138518267248376 0.7789186350090862
0.26343781743143779 -0.017832277440810618 0.7872799164185178
0.27159210896078889 -0.030760415846434741 0.78511149678345937
0.27670005525956753 -0.046152878786185791 0.78249266269288142
0.28317165592192595 -0.066016747686881594 0.77179819362657476
0.28799614459942546 -0.068374909117324245 0.76288371611091854
0.29608134049251333 -0.070791973617088555 0.7537445883865157
0.20725664327724758 -0.21856859266938944 0.75187346623151541
0.20091216332498618 -0.21303696318172971 0.76090497159966652
0.19633791358805297 -0.21000949286190185 0.76977763579947478
0.17491478602050137 -0.21466436114675425 0.78039089334009937
0.15824152904108502 -0.21844774658791999 0.78295296447173257
0.14225883797264771 -0.21854232921293404 0.7851408912746507
0.12722452516631222 -0.21605793877904889 0.77691869894146848
0.12845768599713381 -0.21720732249771002 0.76725332505374233
0.12944623780440168 -0.21910087236581433 0.75785532787618237
0.14686435845417378 -0.22926873225802247 0.74718415399174809
0.16585667296846651 -0.23247802460381894 0.74526746780384556
0.18778911275101251 -0.23310101632631031 0.74364266016409175
0.24035215836124024 0.0017230145973043953 0.75303806285410957
0.21949835791641448 0.0068163151488089824 0.75472497048885856
0.19744304355433684 0.0078815277184296484 0.75580212478704567
0.17834283312956956 0.0024459836517705114 0.7585026454130972
0.17933121557869214 0.0034056971164524441 0.76451719591546308
0.17929605663561432 0.0052724812382300978 0.77262687149968734
0.19752165444895553 0.0087332299193505492 0.78348577612063508
0.21686518993384851 0.0067745012170126184 0.78571840289599493
0.23549243197511771 0.0012234440389815582 0.78755856289943971
0.11045969305796177 -0.2062267268948037 0.78574149717060671
0.095715396741773873 -0.19447907499559003 0.78412560129338438
0.083826863932891627 -0.18035269509789575 0.78206405098140053
0.077363565778242105 -0.16472355009804707 0.77139280013523681
0.079022986911553517 -0.16415948560642635 0.76339659193606657
0.079325819222262339 -0.16316117264805019 0.75753270720067611
0.084251477003022046 -0.18147921715859594 0.75477288430156442
0.096730416808874509 -0.19851989274045856 0.75342501201505385
0.11226982494576276 -0.21243381340600154 0.75147393426365738
0.15421516543687375 -0.0056851009338401148 0.75465858733464408
0.13569334153692125 -0.021126669587420377 0.75283414620762557
0.12128489689399657 -0.042189304223667179 0.75114269209294093
0.12851894989658774 -0.059282250926437019 0.75647599041112024
0.13508004878507762 -0.051151913515980141 0.76415580688517792
0.1381729420972917 -0.044594161546401168 0.77283383093143598
0.14377550404697104 -0.025410557788901222 0.7804508250377058
0.15185355052388871 -0.011945824598573296 0.77999049387154429
0.16385695518025045 -0.00091756878870663527 0.78033627959057839
0.074952434096090315 -0.14897666171865165 0.77913323900655485
0.078693091366289991 -0.13381414836052308 0.7788745359542304
0.086724350618304413 -0.1204500839082292 0.77939764104195142
0.10114142467473641 -0.10639504053217097 0.77195522220626955
0.10538457455891148 -0.10079689112686552 0.76347293149233764
0.10929865157068974 -0.091462552219383486 0.75608614922719752
0.090112097670370872 -0.094397992986732682 0.75095993360727853
0.078515216207627248 -0.11685368161471299 0.75259670858049965
0.074115494510650137 -0.13974566804681743 0.7542299976082365
0.12779538591701822 -0.080094065263984326 0.75541381018722653
0.13734636657265753 -0.08509536928059358 0.75944310784234936
0.14108893309850146 -0.086966143390152961 0.76383476953248675
0.14359098970628281 -0.088223086488877556 0.76709711687612092
0.14644786807235732 -0.089685014012784947 0.77103409046624627
0.146683946398106 -0.089637152655750896 0.77892458986191393
0.14757030357568368 -0.080028182258532921 0.78775123502079225
0.14497364562051018 -0.068193889332195168 0.78601414376551837
0.14153070132483947 -0.05458364541564853 0.78378668212056724
0.11217217532046675 -0.10348042909715005 0.78285108610139531
0.12641079170742842 -0.099102359252381422 0.78525221273547707
0.13859060719733662 -0.094977449967627692 0.78731521282561445
0.26791201815584742 -0.15283273701744315 0.76881057938392416
0.27286297030097018 -0.15564314988414107 0.76073205899707119
0.28059447010937077 -0.15985441102439779 0.75353036089343561
0.28023412749857357 -0.084948260028381961 0.77866153067445154
0.27846014146753362 -0.10716370413833531 0.77780483600552941
0.27325528819637412 -0.12945649360789346 0.77726886226661662
0.2494103466527946 -0.16888545378382869 0.77641998616380548
0.23165060763310663 -0.18458908983184674 0.77631127306906222
0.21221215652669656 -0.19750884950644032 0.77680490161069748
0.24430704969477546 -0.13985039083242734 0.79624599295804899
0.25230605826551056 -0.14412940506415373 0.7903339078655609
0.25872188150446362 -0.14762385941432843 0.7839469801471175
0.27439058433814267 -0.063235596658529181 0.78746969053242388
0.26872300350817113 -0.063476259484183561 0.79377585111257787
0.2628887328700813 -0.065130490241896766 0.79893692514007419
0.25554543691706044 -0.078867954139433483 0.80250959133215716
0.25089818480635273 -0.095743740990631876 0.80248422296240918
0.24407729740245543 -0.11504330445762756 0.8022706790457832
0.22138212031578774 -0.15241768351082907 0.80155923062764245
0.20716093336235986 -0.16778258906930654 0.8012381903374397
0.1940637570887489 -0.1801558385191413 0.80094612085263073
0.18523608997156771 -0.1931680469936925 0.79717768141384049
0.18670751370389382 -0.19884949246435624 0.79193246758160107
0.18937398054438859 -0.20374387506327185 0.78554076631349901
0.14774561866136082 -0.089699353116367675 0.79702590419447716
0.1513636089023862 -0.091373795185652584 0.80486241242746637
0.15794362760468061 -0.094629807757983464 0.81189264989685483
0.17050491298580539 -0.077011086167701359 0.81585052621150211
0.16632367012021376 -0.060571024674358709 0.81298100483844493
0.16193933771628366 -0.047834858976147032 0.80969326834152255
0.15360073753387837 -0.038551106103063226 0.80313995267234262
0.14786289739796388 -0.03769452097804793 0.79729162730722791
0.14338612270850604 -0.037968002124370903 0.79000305099014589
0.098088746448347308 -0.11328095799348903 0.7889416064965431
0.10026675308935751 -0.11669086192098632 0.79617688949066867
0.10410415694524744 -0.12057317920750599 0.80198949692425892
0.11701581675227146 -0.12213269973721697 0.80858422629491145
0.13101736024091082 -0.11889834552901934 0.81202560935168222
0.14833271765612466 -0.11359397841602714 0.8152092577579122
0.16313639026260773 -0.031862299324307397 0.80753854387656787
0.17002289999033593 -0.022419755029507549 0.80784411508222931
0.17855882609516982 -0.01425377748824519 0.80746755931665604
0.18406021595080091 -0.0036405426525529805 0.80301987524819829
0.1819202589907718 0.0016921471321553749 0.7971439845505337
0.18022600468673744 0.0051253146402756578 0.78982148454424461
0.078088010564322019 -0.16457366115844074 0.78841714811885666
0.082126343728944562 -0.16382075064943891 0.79567961808764309
0.088119901989529126 -0.16251876979714686 0.80154227731313732
0.094927469902678752 -0.15259582876030575 0.80610239151188345
0.097930085366918718 -0.14168823076292014 0.80655625611735715
0.10297997811908743 -0.13141015129198097 0.80631513669046839
0.19516990855388627 -0.010803052024461302 0.80957232078939612
0.2079293842127683 -0.015000647716936655 0.81254749864264753
0.22146209593257282 -0.021485291662318939 0.81449108575280604
0.24138362005805902 -0.019568807563144386 0.81033198758579239
0.24645361204190408 -0.012827131661042657 0.80426355525654003
0.24966536995837174 -0.0088819186876976097 0.79684447948450554
0.12701589733364216 -0.21173341503393672 0.7948252138967824
0.12895680829205958 -0.20679549648661721 0.80229903141687053
0.13248368200744665 -0.19906587956062838 0.80849781775226326
0.12390638356848171 -0.1822506756945943 0.81292762691898446
0.11094966093063618 -0.17502576061282471 0.81103335488168327
0.10046761829014628 -0.16729018036073118 0.80810328744886917
0.24322799050369071 -0.038754116447496711 0.8128910770081994
0.25012840594230568 -0.048605696805740006 0.80955256792118035
0.25512850794574149 -0.058896380489663391 0.80563501889058031
0.17553204616867646 -0.18999451112851862 0.80392748253376389
0.16352834280107942 -0.19117154800778113 0.80786095201158048
0.15095446715410787 -0.19063044718637512 0.81122749327182042
0.19355175719496742 -0.079226577445287605 0.81886626180738453
0.20982233371915981 -0.060293072945140747 0.81867734806040637
0.22330133460548041 -0.043474378216998399 0.81746184619804652
0.14496180853515739 -0.17236564770697793 0.81614958087880041
0.15338437590275333 -0.15312793261457625 0.81774509134140416
0.1623403370975538 -0.13057292515780805 0.81834891735073612
0.19198534808343481 -0.11233530589822949 0.81668213036907744
0.20830727761710932 -0.12091269460128373 0.81270491906148479
0.22245386775171738 -0.12833891223461591 0.80759573021154729
0.015321836921970089 -0.018008119977185544 0.74695673428808185
0.054066729675618319 -0.039853635852842295 0.747889500646572
0.085192928270579671 -0.057104315286903073 0.74832627458173206
0.16921795563631292 0.0097869139672379646 0.75808139218542081
0.16211693743520783 0.021429960411380122 0.762355762742569
0.15605166869819698 0.040615404442266634 0.76601613595512319
0.033046447681165603 -0.16488030303604218 0.76511767016450349
0.053493276024333625 -0.16009583033839725 0.76191726444504582
0.067762031091852748 -0.15988577609131926 0.75761847214976896
0.26360870320030472 -0.0020201502293466511 0.74375710739925438
0.27009243428549468 0.0048660207790036658 0.73520376793222475
0.27827369053183304 0.013676937283632729 0.72278354502244468
0.26217881913782293 0.029867580305710906 0.71468844132555631
0.23250704922378418 0.038141039915735364 0.72869473179733291
0.19914604801571301 0.051195634264061374 0.74484569832752179
0.044977965125994501 -0.20743118286160733 0.74354545295547148
0.074087220374750018 -0.22825853401759577 0.72772857635068355
0.097496763241259998 -0.24761764054772639 0.71366533790618902
0.12105023961024841 -0.25059654995536063 0.72135794780618312
0.12479451173032174 -0.23875131662603755 0.7336570176140178
0.12774987312767649 -0.22942168786651962 0.7420871331042509
0.32968635524893131 -0.054120312367040402 0.73521816879196855
0.34518064074376298 -0.036883602324258469 0.72505893814095757
0.36008074961348058 -0.019414980457763908 0.71114114816296592
0.35100269206740364 0.0053887050914602774 0.69208608870894039
0.33043866342912764 0.012011182350372129 0.69360060503538357
0.31014971286555237 0.018134546031030929 0.69718696947535186
0.13427647949681898 -0.27872670655595178 0.69561921162013718
0.15069086754220251 -0.29125973944778272 0.69196338092062959
0.16750920624802035 -0.30384386807049379 0.69058122568612745
0.19429099115783544 -0.29717324625503427 0.70998336803627637
0.20215560516591324 -0.27582542726159254 0.72386004702178042
0.20962982187168677 -0.25431444958171046 0.73386784710328357
0.47154615363506025 -0.031540209762215055 0.68973602761401409
0.43359280442765424 -0.019716758958548075 0.69099212685978451
0.40124372520782003 -0.010064044964709806 0.69148414082859944
0.20754913621144766 -0.33506380511611589 0.69061845446025494
0.23282812409028253 -0.35543805692451524 0.6906207306998553
0.2626102657990188 -0.37937561298185618 0.69009866149140464
0.49401256562692453 0.038036138071068981 0.56267508385907306
0.45840392134657293 0.045187905249882032 0.562936885458587
0.42791035039851977 0.049932876722036168 0.56298146612335387
0.40127333868100123 0.044454418067861212 0.59834643672153121
0.39566808136925857 0.031336981237886752 0.63299787524907991
0.38617065078967983 0.015428713138420314 0.66487479865218546
0.17734458688117627 -0.33776877518548121 0.66354961537923174
0.16878355739110873 -0.35476378541769904 0.63149334426386972
0.16086803521195492 -0.36718377739063834 0.59661658514367666
0.17086758704121507 -0.39192860211131286 0.56132305487176737
0.19096348958999698 -0.41338335199249654 0.56171057163903271
0.21554679298948543 -0.43772543393373198 0.56202665582955191
0.37976988004917445 0.056594326249560289 0.56418357164016442
0.36029780073135242 0.059595134046245057 0.56587494468498356
0.34229291330690614 0.062367253431931502 0.56843544361432308
0.31935087319742195 0.057174058220638369 0.60630032059864192
0.3103987156392165 0.046896890283614212 0.64207845982206813
0.29939054247495278 0.035426016215169387 0.67578198239296583
0.1129874886798774 -0.28078869703487985 0.67448664912335232
0.10918507712798942 -0.29651725796434292 0.64067817014926831
0.10564252993260226 -0.30971414968835331 0.60465715452576774
0.11433103070496031 -0.33099452392204265 0.56623909445981369
0.12647285469711989 -0.34377353220480833 0.56357690699072016
0.13951972144149494 -0.35758502118033242 0.56196318104581522
0.30589994845836088 0.067219560493570807 0.57680611517796976
0.28897992712533238 0.073046106944051337 0.58149737865703166
0.27645274583621671 0.086079291137737712 0.58465461357215176
0.057600486417605623 -0.2911450458725291 0.5823979279994731
0.075799927443206627 -0.2944870296331854 0.57979494903968742
0.090172921864123623 -0.30486720112903143 0.57515940269499133
0.70474234033236627 -0.30221179989368463 0.71805227511922354
0.7044942020579299 -0.29624631166587356 0.72170673081395975
0.70577557859558482 -0.28691838735420228 0.72214439748832149
0.65620212903084507 -0.37051676091934027 0.72868523675383301
0.66093011368669607 -0.37376127138767457 0.72534720848613254
0.66401065955692218 -0.37609553069026558 0.72006083015168265
0.67737989196456283 -0.35642731040934561 0.7123936905613153
0.68667881990847235 -0.33535272046312326 0.7125773384920322
0.69558342609695956 -0.31759605066611218 0.71228701583205556
0.62377427483936998 -0.42972543136248098 0.71433370898274973
0.63611230287631315 -0.41429592521312197 0.7137477825012617
0.65128446359414482 -0.39714598728552075 0.71287855872825467
0.60070274442205118 -0.45077357314258482 0.72607073457460025
0.60861949655394199 -0.44568290346761774 0.72502481612440484
0.6139470680276844 -0.44376420754105217 0.72110773895093061
0.76177793186821674 -0.32994566999191388 0.7030337566806395
0.76768266313413847 -0.32680931900962196 0.70511542902128355
0.77720819093138971 -0.32201540908563664 0.70262348486911463
0.71860510910025255 -0.30357325043056127 0.70850928404064462
0.732709952748543 -0.30833081946892071 0.7050354040800606
0.74638988781998705 -0.31840109392090366 0.70098651784185151
0.64426362868302078 -0.47665660302539425 0.7051434414391391
0.63008163622014735 -0.46782460000552728 0.70907495627725936
0.62035760960200292 -0.456643908935076 0.7121544355987286
0.65910665134746438 -0.50371069148514858 0.70848721460112785
0.66003518027608976 -0.49258591996663137 0.71002525473887168
0.66055413119642026 -0.48604531859368527 0.7073967425631551
0.77727997525546044 -0.39264633911306857 0.68801969159607879
0.78315626297752772 -0.39169353036371946 0.69055096280426298
0.79132599639104484 -0.38935713025895224 0.68925627351472585
0.76608909423524807 -0.34669975204442771 0.69234408515712431
0.77094771962467235 -0.36224605276755639 0.6882715070389569
0.77303586313886541 -0.37778233131558103 0.68471136654382825
0.70641172345879255 -0.48012978565910958 0.68757071341775244
0.69202856534145241 -0.48366631001663341 0.69158956264895366
0.67660478101584687 -0.48464013645584347 0.6960799473491921
0.72340281696089193 -0.49304803663230334 0.69287369742741767
0.722695111418723 -0.48410684120832093 0.69352865650682105
0.72131637253487213 -0.47832671417097306 0.690617547713817
0.75846831761411693 -0.44230772630322623 0.6852371060076603
0.76212171792620609 -0.44481158984296032 0.68749256845102913
0.76656013239440313 -0.44816360966454893 0.68647071402993021
0.77055709640968217 -0.40609811088828129 0.68032777502439323
0.76669220037830854 -0.4184041338765776 0.67957773639434294
0.76146202873221114 -0.42974038242467727 0.67946172776536784
0.7480529292301199 -0.45027903931284707 0.68011433141958832
0.7398957052478039 -0.45946259150800262 0.68085370759400554
0.73041577046764417 -0.4676374927956275 0.68217863574514048
0.74128772427444289 -0.43231868563679043 0.65190248982147914
0.74738440898697434 -0.43600565691770377 0.66102430454394856
0.7517313276838351 -0.4384375858452636 0.67097843991131789
0.76869042716202074 -0.39202938852316183 0.67267292152021874
0.76435767744487748 -0.38994321448277902 0.66223502163443371
0.75907088989474403 -0.385468115092922 0.65272098454287608
0.74911093895134684 -0.3901813226495312 0.64575926869587796
0.74483585704694377 -0.402695752064677 0.64554843992174327
0.73932591930445568 -0.41496999457346107 0.64553066084308064
0.72472440848451214 -0.43762688043786602 0.64591173751792752
0.71592538809341022 -0.44757491326725707 0.64632288099336854
0.70647220748206507 -0.45641294084695749 0.64694506479023417
0.70646579639178952 -0.46695517167571876 0.65453118778802732
0.71288452945462666 -0.46940052319935655 0.66423622006492167
0.71685478514493894 -0.47178930310514167 0.67485697659557431
0.75501810158762339 -0.3329203759300412 0.68629309256062854
0.75236689458106554 -0.33359276755474743 0.67468650265024621
0.74975659914746728 -0.33429611709290619 0.66460451145798416
0.75092166762430423 -0.34298697259598221 0.65335243977096447
0.75364013829307908 -0.35401552211190745 0.64901249223324164
0.75383569879296175 -0.3656318762157813 0.64696595372509691
0.68664123215283013 -0.47019580738447142 0.64900712133402649
0.67640375582899992 -0.47433074499962746 0.65144821784743989
0.66579379269652605 -0.47572969382159092 0.65611522908699627
0.6581507880510955 -0.47700075332353009 0.66782184220907581
0.65897336905482007 -0.47871829042654102 0.67817927254470689
0.65989776124568067 -0.48030107570268932 0.69006009301924465
0.70651604137724178 -0.3089313143517225 0.70062432164006339
0.70794297569077003 -0.31220708434574784 0.68821448213777359
0.71071244110146381 -0.31716986377014456 0.67532681394434491
0.72427587801936255 -0.32036203118541917 0.66120790973768706
0.73327702490017543 -0.32163313858249665 0.65894226210049567
0.7416895521549165 -0.32800027226782502 0.65788463600191172
0.64911802312712297 -0.47274494947369594 0.66087676838677822
0.64017699576385212 -0.46752698186998232 0.66184290521036004
0.63553241921334802 -0.4596406633192367 0.66378540546031672
0.62785738161950633 -0.44722840061178615 0.67770048411364314
0.6228947628940773 -0.44548239042521032 0.69085140388802557
0.6199376653905162 -0.44431487764735689 0.70344512225630496
0.66786826722395887 -0.37980548901089195 0.70143853770918518
0.67039192115350943 -0.38225265075129133 0.68887125197759502
0.67476386645792985 -0.38593812301994923 0.67590460824579779
0.69225969087759154 -0.37230072110372836 0.66409363332368265
0.70056897990507139 -0.35334846667407782 0.6644386336543544
0.70799969492129122 -0.33687603668950605 0.66438032954415149
0.64378459025932244 -0.43774276891723041 0.66575429860886892
0.65546543100747812 -0.42416673283196937 0.66520072838059896
0.66901726313761145 -0.40877478434543502 0.66439979113209802
0.69338430545547425 -0.39964415931692909 0.65415114487062098
0.7068243771577869 -0.40906620539051319 0.647425095089595
0.72051637232853949 -0.41851569538446332 0.64437938855946442
0.74279454880198159 -0.36582909588633217 0.64478531302856013
0.73263308561989504 -0.35175268061771003 0.64766081135267051
0.72321326583513468 -0.33742714151742814 0.65405909843237353
0.64987985395956116 -0.45249116745001028 0.65572807629885688
0.66602957750772163 -0.45601101603639416 0.64910901584023151
0.68238329142018017 -0.46008994685719951 0.6462375317224982
-0.11103727982811762 0.25306662478131781 0.77036172287663085
-0.1148601036238972 0.24316141826254611 0.76786100090985876
-0.1205454000758337 0.23017835407274712 0.76482591192577409
-0.04514350922867294 0.21018344947414924 0.7585386931072069
-0.045510257750223104 0.22452085168127578 0.76273567370320627
-0.045750218724826652 0.23403897001196849 0.76620881230678961
-0.061406846248516445 0.24312936857349055 0.76821770196891492
-0.076940497803278163 0.2472210598396769 0.76905270618114763
-0.092595176074361518 0.25316164543938546 0.7700869079839805
-0.2744121771910244 -0.042638717445799834 0.77133938903984145
-0.26241372789879591 -0.055428404125275499 0.77010796801655523
-0.2519446354151782 -0.068612197013527609 0.7690846273237657
-0.23693590407254561 -0.079684646647090851 0.76685917201298182
-0.22844107257903801 -0.07593977724668477 0.76319917378702229
-0.21561595847819603 -0.070220700186772511 0.75851540433675702
-0.26626895712597332 -0.0062961975829107786 0.76611774545925648
-0.27518146779020469 -0.016934170767122225 0.76924742517154954
-0.28220443249071536 -0.024552732506558428 0.7717900351522573
-0.17622786435435245 0.30347818068176746 0.77234977853989406
-0.1846086615557212 0.29475824909543302 0.77135981676854293
-0.19552851747558719 0.2841079655250307 0.77108746012590679
-0.12426318440733297 0.27060447481762706 0.7717534830550381
-0.13998839207437896 0.28209774805292875 0.77218979587423675
-0.15525935034269622 0.29541565842522566 0.77242282542112761
-0.33682708755986113 0.0045495825471366658 0.77480299599436009
-0.31927164333947644 -0.0063743963311324592 0.77423398904360141
-0.30292172806967699 -0.018030145497501593 0.77349724485199012
-0.34252797080151254 0.050333564071241454 0.77355222035768278
-0.34751639935284118 0.035384066721821483 0.77392101061960794
-0.35184093377685599 0.023638552935794976 0.77500279393409599
-0.2233118954681359 0.38217138115024962 0.77068963105796584
-0.23507190510601816 0.37881559741279425 0.77066383194058119
-0.24847443300588878 0.37475978537198396 0.77215074033463793
-0.18331550931206664 0.32739342474044975 0.77242065851037367
-0.19535746676777421 0.34567043399569508 0.7721256394004925
-0.20546940840753791 0.36499219854001641 0.77151787311610143
-0.41512860722452416 0.035777290541568085 0.77599940165048586
-0.39504720596465148 0.030495951385428377 0.77592246827238753
-0.37500762054500569 0.023280572369023034 0.7756492879842618
-0.43789735229671578 0.081060036081117559 0.7769523819986901
-0.43687508064513025 0.065031689833858763 0.77573467303800392
-0.43582478055334661 0.050858005402581341 0.77589164405882549
0.036434699209230814 0.2329544697642647 0.75166324200159096
0.030025813993503903 0.24535505299009674 0.75597160477457948
0.026494739874898698 0.25390937686858139 0.76093013405071197
0.0035280468247833596 0.24911003109128904 0.76727432768015191
-0.014527430437652811 0.24286454868145402 0.76821914749489828
-0.030700140765233641 0.24046236711901692 0.76811750726300154
-0.23567401450733172 -0.096387155310873496 0.76861518024265685
-0.23031981496377085 -0.11242868167682785 0.76863706798518905
-0.22736970326984363 -0.13175755646509746 0.76776679592835784
-0.22065994956625445 -0.15493869373428337 0.76174974407383189
-0.21133465312892952 -0.15441994837855066 0.75671665321303117
-0.19709734472532148 -0.15455225449998222 0.75193037434958043
0.14725811852856197 0.33735582991002255 0.71617205651681815
0.1366871065420483 0.3422728881097421 0.72410855097728977
0.12799070604187079 0.34708564775368211 0.7310205602952653
0.10003270031977962 0.32450979414830616 0.74369653426277615
0.07532795202617848 0.29931932836485897 0.75171468277078191
0.049267718042088404 0.27743258245609237 0.75892883387234988
-0.23024851973639926 -0.18570708871295949 0.75993929832810281
-0.23645521379183521 -0.21868646755664578 0.75277207845260818
-0.24586974558512509 -0.25172912719319074 0.74448240686114531
-0.25099470134084356 -0.2866227270178574 0.73141627549474109
-0.2421922248478694 -0.292411883946051 0.72451194615928216
-0.23220898077799035 -0.29967114863347311 0.71643932980900082
0.17581772594964207 0.47089076816108477 0.68385880161056356
0.16504117949251906 0.46692247635301265 0.69376639307994736
0.15556256410610558 0.46557407184253385 0.70180143568667397
0.14742159268333666 0.43511374734507546 0.71445259645741999
0.14362441605212695 0.40638112274464344 0.72142088519616543
0.13503328363766798 0.37864794959485515 0.72837574620967871
-0.27459306842920483 -0.30640357223057268 0.72857537012668239
-0.2939663653982123 -0.32606230790742785 0.72177491966952445
-0.31664579939248227 -0.34178152565965814 0.7153136990857849
-0.33840143329260997 -0.36231246643890103 0.70334642501859435
-0.33437110775567902 -0.37178552309182944 0.69523559793060308
-0.33178556963116534 -0.38351405739236011 0.68533376926220946
0.13944924798190073 0.61379060737755164 0.65877916437841222
0.13183514295592857 0.60243065372965399 0.66706136968768348
