# XYZ point cloud file
0.23812316888163781 0.057370514542678386 0.13917542084178045
-0.51197591633564665 -0.39936818715991651 -0.022108349126126352
-0.53536610148166874 -0.41780255864830707 -0.044998055222609336
-0.50920310271612756 -0.39541333615808438 -0.013442179947509732
-0.49056355290685821 -0.38202019409851418 -0.0031072512434019393
-0.51352015661209605 -0.40152388030596564 -0.030269899193856066
-0.53623528594090253 -0.41920233697094439 -0.052543909264764307
-0.53284961198703029 -0.41409637677850047 -0.036649165023019459
-0.48751858154236261 -0.37780713489120293 0.0057131028283201168
-0.49269989018419602 -0.38485794420781994 -0.011631049625026535
0.21769384990382293 0.096493766788074087 0.11969767620077434
0.20926774731479486 0.089346700301975168 0.12153076000431591
0.21879653342037375 0.088242599978022015 0.12188677638333742
0.22743137043671546 0.10540724693034886 0.11790923214356347
0.21507476198264897 0.10408879841779245 0.11780070343590596
0.20700549792001538 0.096989212970872221 0.11959812368319073
0.21000068501140098 0.080995374562587458 0.12359297266856037
0.22895513049322513 0.097157391674539184 0.12015433405110837
0.22443212246394054 0.11301035329347306 0.11608892065163835
-0.45606826635285941 -0.34593777251600849 -0.041173030134127486
-0.46118445639089362 -0.35339926566899577 -0.037208585905740756
-0.44978062688887094 -0.34381635323857784 -0.034604777098816972
-0.44939608069237336 -0.33734094816198107 -0.044046084449033469
-0.46278247155142066 -0.34740529527052144 -0.048397100841642712
-0.46834522452972355 -0.35517566453279326 -0.044445406976287724
-0.45458080435464832 -0.35114245021988305 -0.030718119904733311
-0.44349432490081009 -0.33549229966098287 -0.037629264134328877
-0.4556603810269137 -0.33844305143989967 -0.05106347188233118
0.25890436348660456 0.1381931448337532 0.10975344867786738
0.24838006547173963 0.12657852807838316 0.11302152339776217
0.26168039334801602 0.12908637964433145 0.11118912452736034
0.26937596726131341 0.15026463495894551 0.10618891910578571
0.25505437636850065 0.14623181415951669 0.10858108634216937
0.24475235126236597 0.13442214520044909 0.11157720948783849
0.25074222154099279 0.11786710585929563 0.11488019557634098
0.27260670718403185 0.14078888606245143 0.10717117724600256
0.26533000824727981 0.15847989638040627 0.10527570983983693
-0.48249897804939579 -0.34887964405037275 -0.076088479406817927
-0.49023426391987518 -0.35903049810693444 -0.073411844965351317
-0.47618699235487938 -0.34883225565492443 -0.065876700314814185
-0.47398309162243091 -0.33837872905497529 -0.077660734815994711
-0.48849286526028529 -0.34844611221817534 -0.086849323410727486
-0.49711462509387772 -0.35963692231997929 -0.084877346818871727
-0.48308076739300687 -0.35798073314090545 -0.062571419829812014
-0.46811702200788252 -0.33888646318114529 -0.067876116666493846
-0.47956940906544088 -0.33742544774080763 -0.08800808514815292
0.29985949456528993 0.1872302042497139 0.095643760977960277
0.28986155210557857 0.17503299422141702 0.098991877726075095
0.30489880212123649 0.17767490439728373 0.095857250359327392
0.30978284566902275 0.19888631476445748 0.092566818268001505
0.29520515659942581 0.19550272743565578 0.094981537144679273
0.28540003528893448 0.18336185327344523 0.098352662887277759
0.29425329040719483 0.16530815730156012 0.099333477222086963
0.3153943804204356 0.18963593978252308 0.092739421952570164
0.30501508150336543 0.20709817855413054 0.091790352480160597
-0.50438214354497446 -0.34445018275457656 -0.11917385456501807
-0.51534994503746712 -0.35776470375507213 -0.11886464001617472
-0.4993374169347311 -0.34607377863863775 -0.10863884823260213
-0.494630655123386 -0.33261429410965343 -0.11973660701612215
-0.50950431779091665 -0.3429776118634697 -0.1292783392205977
-0.52093849533212744 -0.35649059617077028 -0.12927726471960946
-0.5096375497088268 -0.35892372034714498 -0.10790070265083815
-0.48977653336516014 -0.33435947518054304 -0.10925420885176679
-0.49968255731636435 -0.33116106355669533 -0.12995531674771438
0.34024756540850942 0.2281990189347862 0.085178808530126465
0.32967566422084904 0.21929606791907963 0.087576487304662692
0.34610618804938487 0.22016323933568213 0.08551857652803134
0.35198109340152722 0.23687607856618181 0.082051922060785473
0.3360697853730284 0.23665953226383951 0.083645340524222317
0.32514682433493336 0.22757765275006958 0.086336013440963269
0.33583139347815683 0.21088229176674245 0.087819957681919886
0.35692286985725646 0.2290474224759193 0.082547918003400028
0.34823047262143175 0.2456072565264438 0.080250183717613416
-0.52801622157336847 -0.34288997392151899 -0.15675944124650534
-0.53890379396663968 -0.3552306227040386 -0.15686304732700626
-0.52099976496210665 -0.3418820973839487 -0.14758067847268846
-0.51886471296866399 -0.33179705464997722 -0.15885460639750185
-0.53641226224163108 -0.34528579083584576 -0.16751068382543588
-0.54612423308083224 -0.35656778559361463 -0.16708474922986691
-0.53248662493827748 -0.35492918054417105 -0.14784711402867778
-0.51150206174213908 -0.33048260065007612 -0.14905980408170866
-0.527628268053979 -0.33446019522969034 -0.17024897109676185
0.32322789900089366 0.26113811737451342 0.077077634814538387
0.31891179099725797 0.26824632912640034 0.075758581852100187
0.31123447401642257 0.25171851757271035 0.081453137056063149
0.32787767661695633 0.25340146129917696 0.079117381201807307
0.33592388499837011 0.27001046155827563 0.072441679906785406
0.3322551007771169 0.27700082981003338 0.070499104594429235
0.30651655102806363 0.2588840156222732 0.080801248978298698
0.31623815249014925 0.24392355269031019 0.082845147007483605
0.34030898286560735 0.2625311825804898 0.074969397577081626
-0.49140740026792917 -0.29841369481578006 -0.16641545396477514
-0.48279870263406982 -0.2954935540478022 -0.15357914295795952
-0.48259420506024492 -0.28745381618984012 -0.16727348966822225
-0.50100363638032597 -0.3024454214218788 -0.17995844882591824
-0.50082712429904497 -0.30977295873708072 -0.16449574786467119
-0.49274745613239695 -0.30762259438258366 -0.15276899297054428
-0.47338150323370676 -0.28368945389326883 -0.15326939943461937
-0.49309246681037483 -0.29259012900916631 -0.18203855455744047
-0.50989757191985274 -0.31298068514499794 -0.17721750984093226
0.27916329696451869 0.21935303756952912 0.093207442621722758
0.26940060133260701 0.20743625112057523 0.096655367171906939
0.28479898196385278 0.21139721449376164 0.093494869187735627
0.28928923242013094 0.23080421873640466 0.089515252226378947
0.27403401888458623 0.22674098431173478 0.093582563231251428
0.26434402969403836 0.21491034120447752 0.097006842598511264
0.27499302743551235 0.19937232182189527 0.096955698914171481
0.2948377385507806 0.22295031666611084 0.089952382111875437
0.28419810005610385 0.23809788510892388 0.089758379516428261
-0.46317409503683504 -0.29420021720790124 -0.11875414927333901
-0.47413613242955788 -0.30775392727266404 -0.11980753215168283
-0.45820338299441038 -0.29573232248448128 -0.10825648370527899
-0.45291873347472389 -0.28110101908019935 -0.11679161279278168
-0.46877424728969264 -0.29346836962547429 -0.12979052520797821
-0.479536247819489 -0.30673502963240995 -0.13060948478996764
-0.46919151996712521 -0.30935599938919695 -0.10924414998244217
-0.44795800706886513 -0.28260852999860647 -0.10638354303796359
-0.45866876201516449 -0.28060490539760058 -0.12801609076913764
0.24095462966291037 0.1702416708868838 0.10539911011942286
0.23677658210285832 0.17765975096511777 0.10514576424569988
0.23143449075947553 0.15772199160178368 0.1077233834756554
0.24566532568855751 0.16215624553358937 0.10631068804940993
0.25040390502391469 0.18276361920077 0.10276736659145384
0.24586972375809218 0.19030698716231575 0.10275801932687076
0.22753956304908457 0.16479287431415154 0.10725264430639406
0.23583041498424384 0.14995082909109009 0.10886719742483365
0.25548628817692787 0.17457937822717329 0.10342649533870468
-0.44492173906866217 -0.30258905753971782 -0.079772076949491261
-0.44051740878132994 -0.30499466262411379 -0.071255638740424287
-0.43580973676090662 -0.29075217622072147 -0.079198836008942078
-0.44925262390386816 -0.30013768719187822 -0.088777173115247174
-0.45480082005052969 -0.31501152327033477 -0.079444905386737014
-0.44979830313442742 -0.3166314504054808 -0.070467123326259554
-0.43198054455453905 -0.29395306221559914 -0.071111874409656023
-0.43960924700559545 -0.28765975504405661 -0.087690762897293537
-0.45967000973162286 -0.31318350886343627 -0.08898167353116615
0.20258675517266844 0.12189636411603785 0.11294959509870281
0.20701053838195321 0.11680039583289417 0.11431416803815415
0.21188395501534413 0.13305303026133181 0.11138750766308229
0.19868257451532351 0.12629057162404997 0.11232331092416509
0.19466016803946809 0.1127435285057061 0.11467615979679811
0.19904003642146989 0.10856981810196105 0.11601879398082547
0.21619268213604456 0.12687145814014628 0.11275370512404424
0.20795294499503994 0.13842445107750528 0.11074522006411074
0.19138396108836309 0.11668850533999006 0.11406051497626861
-0.42609032489852505 -0.31025846287615 -0.048628107667418138
-0.43099471881935342 -0.30905303304730153 -0.055679404998602598
-0.43382730810005604 -0.31905959684561858 -0.047747844217464336
-0.42152101767885947 -0.3105409187939806 -0.042080326900428566
-0.41910534287833034 -0.3021028685262197 -0.048522820294116552
-0.42342795100617842 -0.29987880811550571 -0.055674185547065276
-0.43921250816339719 -0.31882638263013685 -0.054642467840656024
-0.4286939053404516 -0.31840640924614888 -0.04132413773796649
-0.41552596688338428 -0.30347208190901975 -0.042157307303525279
0.2102463767547062 0.061694416018918743 0.13136785722498387
0.20574020650047434 0.054421206546387497 0.13543792588482437
0.22086270813981226 0.068410768491654075 0.13124600647064524
0.21470310555908501 0.070332215883384036 0.12770157418440445
0.20169949738915754 0.056172650723629647 0.13099666968514054
0.19828100672018348 0.050447244255223012 0.13427726997405021
0.21603958158130446 0.059776712841254367 0.13603508960649022
0.22537474197082577 0.078199668436024869 0.12684379585478767
0.20568974935365508 0.063762845714607039 0.12823389246318739
-0.46254326852494182 -0.3640634883445184 -0.016677886452659451
-0.47086141677471888 -0.36718935913107398 -0.021175877690115474
-0.45977860582300817 -0.36381977417460731 -0.008124641150369984
-0.45602965198237172 -0.36182141010203955 -0.013666977935149142
-0.46428695164406353 -0.36260702265979305 -0.024791004266325418
-0.47229428527051243 -0.36521701502364085 -0.03063650757703433
-0.46822641854423536 -0.36740993695080881 -0.011179986885320032
-0.45394912520439229 -0.36167732457912538 -0.0068940122804674632
-0.4574883783882846 -0.36030982062530093 -0.020113220882716838
0.26097168465372572 0.090392111757181953 0.1183370403400579
0.27653433251370868 0.098983372396581115 0.11082205592071448
0.26255008173574912 0.10464546176101509 0.11545266729979554
0.24646102657705521 0.082800417082539712 0.12486527776182886
0.25892771215399113 0.077219831476169315 0.12168715078665389
0.27652639364203985 0.084455064119846934 0.1126764530345718
0.27607773327165686 0.11457720180959489 0.10942024408866004
0.24956869279920485 0.095480024189966706 0.12081082939613016
0.24291612024079748 0.071210639799118514 0.12936983334098595
-0.5080833153837836 -0.38887037543569875 -0.055257557147507241
-0.50317559418234781 -0.3794506775442793 -0.062889805504675864
-0.52303068977344869 -0.39822935261131875 -0.072186585181886476
-0.511610185184738 -0.39633665890249181 -0.046888922167561652
-0.49388237577041916 -0.37974141771593228 -0.040313635976399184
-0.49196863612023772 -0.37372918671793798 -0.049621378587633796
-0.51465293777331211 -0.38509494134611472 -0.077513595575066568
-0.53000288220842173 -0.40936299421426603 -0.066111694284700345
-0.49446353697591089 -0.38386645255171709 -0.030316225527491979
0.32747025253443018 0.1354104270294251 0.091191408463666329
0.34426732490402157 0.1508155779202042 0.086367416350311171
0.31882120251513874 0.15126042454716082 0.093507577351027243
0.31018160592736044 0.12139467170667692 0.096796768360925045
0.33572446007807988 0.12050797745256978 0.089121573287143832
0.35532100710427317 0.13739359846690979 0.083404678980604816
0.33284338823773302 0.16516908771383587 0.089499347367375831
0.3044438948117214 0.13793211511012562 0.098123693804334611
0.31549809439507498 0.10584426499026339 0.095801194724517758
-0.56420762100933808 -0.41594479517919292 -0.12310939283002323
-0.5458599152251643 -0.3943945695940258 -0.12100191011059594
-0.57495485118626022 -0.41706759389460318 -0.13869041693308265
-0.58118424596868956 -0.43547950406776909 -0.12466113847558528
-0.55172350420745964 -0.41243322988517317 -0.10680805441842682
-0.53633085848430229 -0.39290838124193633 -0.10709013679430174
-0.55433704887652946 -0.3944619419018624 -0.13422658080720096
-0.59423102164926356 -0.43767662897124254 -0.14270490569932334
-0.56572099963499478 -0.42993058327208833 -0.10587585266984369
0.38558456276853709 0.20164802794282427 0.075446744161628776
0.39466308020054297 0.21872783083612493 0.07237572829237908
0.36913196127364289 0.20676186044392408 0.080396532175693675
0.3738672672663762 0.18433939808478411 0.078655567069443433
0.40188055999274142 0.19765621750199888 0.070488066114680142
0.411292800641815 0.21863406851353243 0.066999292311211975
0.37839206474285125 0.21994781769243224 0.077479593253983195
0.35830589080700831 0.19316976901626692 0.083136560168175999
0.38909363197582825 0.17655307872044912 0.074261980893622972
-0.59309122792498226 -0.40661341687302865 -0.18066364384725822
-0.57206890521711173 -0.38783850355015181 -0.16931697336224788
-0.59367061641006957 -0.39897383641134676 -0.19272644663191532
-0.61303557885792614 -0.42360782594733382 -0.19202529641245547
-0.58967658025074876 -0.41229357043714032 -0.16754959877078679
-0.56756649827035477 -0.39103215560704152 -0.1582849251839834
-0.57503060749069623 -0.38381211088920603 -0.18007443211654106
-0.61188033721243362 -0.41295626458735074 -0.20601080051815113
-0.6104874269499837 -0.43157718743225987 -0.17656452497024347
0.39952544125737866 0.26375986852655742 0.064083427155807893
0.39518624026705162 0.27530424487760791 0.061683750384040822
0.38214608683852241 0.25470794276332959 0.071254778316601181
0.40154598488827187 0.2502287894349785 0.066677469541923259
0.41569547528127715 0.27241427546611963 0.057317425127699356
0.40992847869026788 0.28494568566067996 0.055010050579028857
0.37851762472427697 0.2650508154154666 0.068975076049046763
0.38475776427239416 0.24394079991354564 0.072994849168000087
0.41817417024709103 0.25676153840011273 0.060307670234241148
-0.57456243127225537 -0.36385976618198029 -0.21736380778074083
-0.56029755215035715 -0.35640343308751526 -0.19844999954483666
-0.56364874464646431 -0.35036755909207024 -0.22163434549077113
-0.58757878505117456 -0.37020188129038278 -0.23508628230397924
-0.5840471386474384 -0.3771559811537773 -0.21127258313292316
-0.56896334353715472 -0.36796856249776888 -0.19456012797718961
-0.55080281520463636 -0.34447312073059683 -0.20243707712569634
-0.57459999699513908 -0.35474787207787434 -0.23900425491712704
-0.59868610068480244 -0.38559744919781663 -0.22797502420281054
0.37414823840458972 0.29167506044362879 0.058688160390773819
0.36350334920533883 0.28655771714201755 0.062274568070242176
0.38122923672605102 0.28971844559520132 0.058635595812037693
0.37733570313519416 0.2979283512277342 0.055609819327262826
0.36218830701870819 0.29289753267745111 0.059804446062708724
0.36811303523556288 0.28074732515443424 0.06442343807218022
0.39044606151479094 0.29813176765695998 0.053737690406824093
-0.53194431673295173 -0.31842621003272525 -0.22014590623964242
-0.54073105768895169 -0.32624564742741086 -0.2230099546180653
-0.52293151484984324 -0.31334222419630692 -0.20942138454790346
-0.53213602349480638 -0.31584663045297717 -0.22699915133751788
-0.54636575891768091 -0.32704590961493701 -0.23546711134185647
-0.53107314781660442 -0.3222782625737155 -0.20745976274778877
-0.51811596205006016 -0.30663793641336695 -0.21335911479863737
0.21882507643593552 -0.011643874562741054 0.13934019415763288
0.22010123463432615 -0.010723522349424267 0.15376979292522377
0.19011682670471086 -0.017656544356240388 0.14965995128246168
0.22032207209177357 -6.1967290423417531e-05 0.12349982864325437
0.25122454045788711 -0.0018462367881342256 0.12638739473845181
0.25192796774334225 -0.0012985769607791672 0.14031142878677216
0.1916881898356621 -0.016662382239693713 0.16462301789541631
0.19179662798667768 -0.0065294995274638307 0.13311127218397145
0.25277008719571287 0.010313098367356874 0.11126041403492892
-0.50507472096292694 -0.42524224103737485 0.0087289082778983923
-0.47186445876971483 -0.40048656675211375 0.03101225874714849
-0.49966372196676423 -0.41447341793238773 0.029212175990053414
-0.54054224589796029 -0.45011249759852057 -0.019003848748490482
-0.50734309960094759 -0.42896314744460717 -0.017547353862696204
-0.4752264948290077 -0.40518927518753234 0.0041102802793220976
-0.4661862663862204 -0.38937656215670019 0.052070358347757077
-0.53533133035981673 -0.43985203904524744 0.0010091598440970708
-0.54181195671875804 -0.45276493802708179 -0.044682755917110017
0.36681399227144879 0.060659262431086235 0.092004608814885841
0.36405114834076541 0.0597547232236426 0.10353350842152251
0.32649636216988898 0.033890313641718774 0.10160858358185187
0.36997622518147333 0.073195869065233399 0.07953535920814267
0.40579890447933709 0.092900889217221283 0.084024807950869945
0.40170291992050106 0.091865130337711057 0.094544353311682316
0.32510965519135515 0.033374194569195693 0.11409898070072184
0.32892569715392761 0.046744002831914537 0.088173649523538428
0.40966642411874343 0.10442118350327823 0.072527320030931763
-0.64220818056814499 -0.49940346193178292 -0.11114946932029064
-0.61100717572933239 -0.48912861985476869 -0.080430614516198679
-0.63635416229063568 -0.49082491914079485 -0.093392525798970019
-0.66813617993955798 -0.50231478807196495 -0.14165201574498246
-0.6424446708021142 -0.49993244728555197 -0.13410060846003274
-0.61119056352777668 -0.49006640701966692 -0.10453933895422753
-0.60558845394782079 -0.48002493770002919 -0.06170744102945766
-0.66176793597917127 -0.49417901426144833 -0.12503500330400466
-0.66875512647774038 -0.50282193119588425 -0.16310847683119536
0.49126053668603464 0.21682431446615402 0.067733058171042679
0.4856345545286771 0.21760769335398411 0.075529152534858396
0.46954090116047426 0.17242517267726218 0.072463985147356857
0.49478957054492778 0.22004400780012981 0.059145334044925411
0.50570746088056318 0.26100687593308269 0.062482877194833648
0.50061527045824694 0.26302832848552404 0.069570674589241974
0.46388689728373644 0.17223721338414336 0.081082806013302477
0.47383063502210088 0.17923699977518592 0.062853328033029759
0.50756327494176134 0.26008398784443437 0.055077009061137938
-0.69581564552717545 -0.46169605591043666 -0.22979966351420328
-0.69567647590709503 -0.48300747713931952 -0.20131839735985649
-0.68877920267806203 -0.45385343385857363 -0.21727392925472649
-0.68792975615781882 -0.43491216524085058 -0.25662740114748839
-0.69837501576558403 -0.46524017505807047 -0.24398879344002644
-0.69766872856517026 -0.48503355266231762 -0.21846707073953636
-0.68862113690271931 -0.47528564502185905 -0.18735747645114775
-0.68119172361450953 -0.42673075313911452 -0.24554818721209132
-0.69057728703948462 -0.44025689701941545 -0.26723671703660545
0.50635907921301637 0.37025566868292187 0.038802273210661278
0.50162121283997341 0.3760590305876399 0.045640567369208816
0.51323225309095299 0.33954001856798355 0.047486789632377797
0.50808900495852272 0.35774702816748 0.033288494002691543
0.49240213315819481 0.39327515248795791 0.031508449035770505
0.48789516722140069 0.40019875850181802 0.038696137752295343
0.50861745425059801 0.34416497666680557 0.054092111366838599
0.51417245805640899 0.33052912598743467 0.04167421639384504
0.49411100934574786 0.37753529641788919 0.026277662908451554
-0.62974806838715447 -0.3424396956239229 -0.32157113083800748
-0.65369722344799419 -0.37368928351906133 -0.30400877604374077
-0.62212882121855773 -0.33055106973908133 -0.31141682139961935
-0.60248443116047656 -0.31215367126690202 -0.33151831610162635
-0.63791323446103931 -0.35838349127497177 -0.3267032890608656
-0.65925462541571811 -0.38544493180434547 -0.30993411219238776
-0.6466647866736851 -0.36338908812099013 -0.29414852952542209
-0.59455512751064266 -0.29879428780072043 -0.32098856046984908
-0.61240122395994401 -0.33179765855090582 -0.33577233266914597
0.41549085265536245 0.40525271750950298 0.029788309189719631
0.41326909786891602 0.41462126179504694 0.038318875725431356
0.44540105748402015 0.41033608908219366 0.026770948459985826
0.41456067328589025 0.38318396396552951 0.024537997275414291
0.38457812758674914 0.39431332939461272 0.035185208302285408
0.38345967680210785 0.40414808346548853 0.044068596337615416
0.44220984654296414 0.41906856328035602 0.034856332479908762
0.44560373769208905 0.38974751868730939 0.021672460962315114
0.38238481881418757 0.37129470417594035 0.029779016256821767
-0.51389893673638243 -0.23992054764102211 -0.2991530040715169
-0.54330306670100326 -0.26027431162156528 -0.31970674577314551
-0.50656058137788162 -0.22388541370931891 -0.2873537984004918
-0.48612649609083358 -0.22282448717768993 -0.2732837820595686
-0.52516386032446805 -0.26625761962645483 -0.30267662116402028
-0.55466630784481563 -0.28522112652180825 -0.32311912107356527
-0.53552724613063829 -0.24475859759441915 -0.30828203306450097
-0.47945110935913421 -0.20670752151573391 -0.26130608478319017
-0.49684076013622219 -0.2497030887046621 -0.27696859895367154
0.30465003640977528 0.34909327572510196 0.057325122322920891
0.30712465523548244 0.35941532204202753 0.066259611944820232
0.32828746491834238 0.3649643968768142 0.04965796421710425
0.29859686750917169 0.32565999740472096 0.052271804663545661
0.28373378558147966 0.33239295204238889 0.06448834972831112
0.28730431320866667 0.34288477329842842 0.073430505509358854
0.32957796085701785 0.37521052550661005 0.05869191405213494
0.32345967895108257 0.34136374220516869 0.044407741151572075
0.27659410817362307 0.30924613908538368 0.059406415983251373
-0.42057623393590871 -0.18775081998140392 -0.19295183751903094
-0.43907704066038822 -0.19670095040333671 -0.21826966387011063
-0.41697806510348545 -0.1739079810397022 -0.18215696070316606
-0.40543912041366365 -0.18215512832010311 -0.17012859413554909
-0.4276682570200851 -0.21192251979593482 -0.1958376262111132
-0.44756772675383266 -0.22229085579869781 -0.22155911367529477
-0.43436899114934774 -0.18183417004113622 -0.20689751445145491
-0.40280025469378666 -0.16917907850386829 -0.15973643753122008
-0.41121264081396308 -0.20485244013938103 -0.17291751802257935
0.2531541216221842 0.15252606302887184 0.077359449863709628
0.28243032564778903 0.166125450272714 0.067765207709149719
0.23732818947590056 0.084385111697732773 0.092415466195784529
0.22764801162800513 0.1407968446575342 0.0849027334700206
0.27107467675556812 0.22324079542158395 0.06350565440297154
0.29877419672303751 0.2378246735552601 0.054677430745947941
0.2680830549978433 0.096804653636669485 0.081947383366791915
0.21056385812812256 0.074899236108787251 0.10049992627379196
0.24681345073996419 0.20938313881736573 0.070745303839922793
-0.4742496982650562 -0.34799021171377148 -0.12424192453568168
-0.49145561986257891 -0.39117254086524245 -0.085851457035010209
-0.50133128771092872 -0.36533108010698201 -0.15038992433274773
-0.45565780661584471 -0.29725980845508809 -0.15968096737784415
-0.45017833421857606 -0.33192658264911246 -0.10266507472005262
-0.4641778633485738 -0.37181726371078389 -0.064628111965229981
-0.52147386916508653 -0.41109350551277307 -0.11214572222332637
-0.47987993725504025 -0.31194694458661359 -0.18574916951086864
-0.43469136933328989 -0.2847074252555859 -0.13754595628977581
0.39015173361284378 0.22023758182652942 0.042945088300307022
0.40044480022620688 0.2869349133057803 0.03207443380516832
0.4265976723111165 0.23912226117970567 0.037967557678080251
0.38109216641985461 0.15542155353573017 0.054952409679291075
0.35220712401577725 0.20065238326606571 0.049621011676237003
0.3646217603386972 0.27055482057507374 0.038082058924222228
0.43487053021796385 0.30060509550617953 0.028027664024322871
0.41943310045686089 0.17964756705012447 0.049282096062275543
0.34130013327319497 0.13270909386982788 0.062210179739196417
-0.59061711009536866 -0.4087719497380447 -0.23412511255887522
-0.61840982124593269 -0.41783074535681924 -0.2579632298645218
-0.56467002494520835 -0.35563896046089033 -0.26829246075022578
-0.56075481400264748 -0.39682027309252038 -0.20725860643431124
-0.61538209818228529 -0.45496031921361535 -0.19726019979246054
-0.6425497641654806 -0.46079635976961364 -0.22286571070972505
-0.59324719457194375 -0.36850038056329137 -0.29048575251960534
-0.53535105349700873 -0.34192818912514228 -0.24205623942048765
-0.58492376811512359 -0.44437751506835588 -0.16966292610115485
0.49483026077735304 0.27626745951842607 0.035600542911308132
0.50217620923547712 0.30516221080661687 0.031941339123099169
0.49734722756923788 0.25429751347947238 0.041358950295360297
0.48258643346927393 0.26859204063880265 0.034117762420165156
0.48783627787847128 0.31217833479289953 0.027666430121869118
0.50721136061842964 0.28553129299811647 0.039118852145234646
0.47936585868301312 0.22816241375252061 0.042957662164710857
-0.66845608846067139 -0.42684666046681186 -0.29462368386053672
-0.68298675691649868 -0.44544178203208373 -0.2805591764567511
-0.6602253980567413 -0.40609174963062272 -0.31113956390398551
-0.65997547889370622 -0.4271131565461414 -0.29004627386595916
-0.6784321771324302 -0.45711797348971628 -0.26407244543356811
-0.67628913728045958 -0.42427571943431475 -0.29707786101507511
-0.64156860555185868 -0.39232742924727165 -0.3138170597418517
0.23612729341642558 0.28105349965815901 0.077558376253351061
0.22659857884959436 0.2736822002484407 0.078121541004328693
0.24212519419007555 0.29335356988630595 0.089019431311543412
0.24925699010918553 0.29621789340684396 0.075006692568216696
0.22655995685130803 0.25810975921268847 0.068764499551288452
0.21612465712419923 0.2502664027116992 0.065896383329356975
0.23291202636505245 0.28599706784666695 0.092335069420926785
0.25463940904417232 0.30787611677444504 0.084927818281829048
0.24044269947317745 0.27342946534927648 0.068327391332380971
-0.37862818629896505 -0.18479752789321116 -0.12344886970576717
-0.37674169736033369 -0.1711030807365535 -0.1105167940247668
-0.37179054793656946 -0.18216530274744799 -0.11687833186230177
-0.38231716205250549 -0.20570244599992127 -0.13069516920876342
-0.38534497117144323 -0.18273463716398575 -0.13480735131964228
-0.38353490735448686 -0.16981947028755129 -0.12375299152871
-0.36976977170189546 -0.16756919388549388 -0.10026717276950091
-0.37506993243598979 -0.20372598718344465 -0.12821373335673536
-0.38944445283622753 -0.20361973062127814 -0.13948177711961821
0.17109686252722844 0.11287429264314328 0.081211114341578114
0.19256848001317625 0.17045596052930345 0.07080670215399229
0.18725677304954796 0.12109168800195556 0.087216995430611316
0.15128171567532944 0.058165981959783529 0.094771224824427278
0.15641427305270234 0.10606960431500818 0.071474950648569111
0.17931255331801016 0.16234523929094594 0.06248758912986558
0.20794179037697585 0.18226104602396612 0.075018455738936618
0.16827457796964695 0.062437870636992757 0.10193033990038457
0.13562832578433678 0.054223426807382402 0.084032128207099419
-0.40161257621382279 -0.30411886837202523 -0.081865592068380913
-0.41430465551554801 -0.3100950046834815 -0.081338859416129256
-0.39475976548594532 -0.26920272703111947 -0.10940479182291937
-0.39034168576771677 -0.29909506758889659 -0.087758066835464318
-0.40649991943981739 -0.33258180964249734 -0.049456368280360222
-0.42192678966674807 -0.34224070933617334 -0.04652629784960436
-0.4049279809498525 -0.27143253517744304 -0.11185831926678108
-0.38526184262968194 -0.26615045772505624 -0.11327928293342129
-0.39311855983949923 -0.32479943925271682 -0.05734373460259929
0.12305888444278544 -0.024200218017096917 0.14906115881298718
0.10466026640946621 -0.026514021687063509 0.1409886233926467
0.12662325851490891 -0.012197782872035282 0.12950077504536589
0.14288081327281568 -0.022780295639904087 0.15446324830242769
0.12413756381052966 -0.025511881882953218 0.16743837750767579
0.10561184613067295 -0.028697852476279068 0.162457836504941
0.10900046571687713 -0.013576169530183715 0.11951207925106672
0.14565128097029928 -0.011472910590748737 0.13621112555613979
0.14425043603805524 -0.023021013111124575 0.17107544830886987
-0.39801892829510344 -0.34740258248809386 0.04807049859372458
-0.40421357042988582 -0.35344884964725831 0.017756109746064501
-0.38080161297186643 -0.33671547649131256 0.042257055925694793
-0.39156871811123295 -0.3364497193310958 0.07355628108718576
-0.41821980707742934 -0.36097270785016494 0.050165005194133444
-0.42357966961272242 -0.36681990522476277 0.021433197117298013
-0.3877688069785013 -0.34291086892663403 0.0095983738711559047
-0.3736340322800783 -0.32507721462911443 0.071706122851339482
-0.41210637649645154 -0.34999864121550639 0.073329817686314358
0.13655372830767612 0.23952631859480406 0.41164654034155757
0.13102576260981166 0.2396835122602588 0.41863849801195441
0.12608991272831985 0.23988813668238373 0.42474232529337702
0.12277137082782447 0.22863066564364862 0.43435268718546938
0.12170013873878763 0.21744147525809499 0.43886195753856816
0.11915309737371749 0.20697927906662231 0.44312603180252758
0.11776416564479496 0.19250198666989018 0.44376469412538638
0.12132456835177584 0.18602121874833985 0.43999852658482869
0.12529897192148823 0.1788337126355049 0.43559588056777965
0.13567876436675846 0.18656742281131988 0.42457251347330766
0.14007024687898981 0.20325649740870677 0.4180864530353911
0.14222199405717265 0.221066123661631 0.41113144286053344
-0.21591069789451531 0.084510001677896393 0.39454429004005809
-0.21251188922174677 0.073161428311415283 0.40493740350661089
-0.20650388860935678 0.06439109455969208 0.41487872982770452
-0.19288513917926234 0.070707129645095554 0.4304822671180446
-0.18793627046610076 0.082464168628213208 0.4358944540579669
-0.18368671676697523 0.092781556879539304 0.44035488274925622
-0.18601652282472447 0.10498956815364821 0.43840584081000483
-0.1899639654052154 0.11092359814341737 0.43219094871114172
-0.19231159651520571 0.11845408025647329 0.4257001486045045
-0.19734030834042179 0.12198814310610279 0.41261300863860306
-0.20314246090381372 0.11504979005573322 0.40440592017142962
-0.20975114890145355 0.10698872913565716 0.39483278021395324
0.15513960413581296 0.23831656730676828 0.37825358989356822
0.1511727665966863 0.2386761086499542 0.38706905814795034
0.14686517555441231 0.23903832994908072 0.39569389505481822
0.13229579079925782 0.16498158455387513 0.42423927593875099
0.1349066417269193 0.1588195726178519 0.41738940567935517
0.1371511654642163 0.15298532861091488 0.41014659491539895
0.14849389624387638 0.16728887311522439 0.3958185226470336
0.1549568543173328 0.18957212213572963 0.38782200882405093
0.15847406499623862 0.21342588480577318 0.37894547867252854
-0.23993961714715334 0.042995832220883726 0.34934203994408797
-0.23622596281036118 0.028407133426386757 0.3630457095231126
-0.22887985709706402 0.017527984342945897 0.37600637474620863
-0.2131269370135247 0.022382394347041094 0.39756379490556099
-0.20815278996163195 0.034279151166941413 0.40710680228587637
-0.20317229891093291 0.046242190241860076 0.41600301500806514
-0.22270988204786787 0.089212167099476547 0.37267912457032437
-0.22854626879248785 0.079993276629761287 0.36059442376857137
-0.23418629860760873 0.070604548645741352 0.34811455688105092
0.12059021631238979 0.15895123675936929 0.43546094372234345
0.11041015923989402 0.14883287726226979 0.43957810499504868
0.099035148195831563 0.14148156381793056 0.44262481629014766
0.085990883405322474 0.12725980936838197 0.43905937846795395
0.084703833479459312 0.11806327887760153 0.4327015223486681
0.083156628930563636 0.1093144432154306 0.42576533354917556
0.097794359623114002 0.10692256667351886 0.41673104341247907
0.1132841960331175 0.11689672522334879 0.41339945879709128
0.12729186145319238 0.13045640652191914 0.40871308522190519
-0.20439108510219217 0.007325093500832088 0.3976341092853154
-0.18842565247299611 0.0077729024060558156 0.40573892729660488
-0.17111995838027855 0.011575407324042062 0.41192244595348809
-0.15198803308602099 0.029022794338581605 0.42431854830951082
-0.15084981359446153 0.039598834689201258 0.43227336680571821
-0.14993239028431959 0.050391502653495936 0.43947308409760072
-0.16256163345335867 0.056846663896513452 0.44249590753479118
-0.17552400469918569 0.054713361705041604 0.4378162875077119
-0.18757613430476078 0.055177764885599799 0.43158537582592815
0.10965992615941464 0.18957027917767325 0.45040728928085516
0.10305710343609396 0.18313261327297156 0.4532196978822719
0.095666512214389515 0.17845143526182716 0.45536589458346211
0.087701797993777433 0.16826354741890789 0.45435630130169596
0.087601415621715931 0.15864017122893223 0.45175608794465055
0.087393159262006803 0.14791982169214876 0.44858801451107222
-0.14892513399394175 0.073073861503061527 0.44986031185440323
-0.14877685351305256 0.084284192868496269 0.45308556357457402
-0.14875218862586298 0.094276371894568889 0.45565704782943661
-0.15734192678269038 0.099223722007939677 0.45606936247301916
-0.16577633248207896 0.097994929028908648 0.45299960121289135
-0.17365650005502717 0.098497720070009037 0.44897655986359314
0.079916918578007687 0.17512416697377559 0.45733178677741382
0.072187676938776826 0.17654427012207138 0.45705602593151473
0.064920956590833162 0.17986008292019343 0.45590545678443689
0.055138528624905515 0.17834456873644899 0.45091668211441721
0.050876063810165961 0.16981996477759234 0.44763320961464992
0.04599102866257232 0.16024287715504332 0.44368752106486825
0.051012420265822513 0.14284176537939786 0.44221535358618791
0.06239127733682967 0.1379989353782137 0.44425623844351114
0.074528287869857754 0.13604067864869218 0.44500683843538286
-0.13624653133769399 0.068692049462359461 0.4466053154539838
-0.12394642368190306 0.07806042406243012 0.44593833661683335
-0.11282242320102986 0.089330052695963599 0.44355210581747401
-0.10773921991978863 0.10959520563388697 0.44437511875424435
-0.11235508964898919 0.11665773594819699 0.44827328522646115
-0.11655971168428036 0.12299428379049003 0.45156224942878764
-0.12574799704350054 0.11989357924271128 0.45718042613593912
-0.13272531428556844 0.11268792657786236 0.4586365033522018
-0.14048272119047517 0.10669843015121738 0.45894093212375586
0.035919459602335377 0.14123352050427573 0.43275678945482943
0.031068378577793335 0.13244658545493665 0.42585372008063405
0.026271222596274377 0.12392220688469452 0.41841474846260857
0.034281340552717185 0.10629661678611232 0.41498717868451135
0.048986811587039436 0.10069638637716194 0.41766391555454274
0.064945669312780022 0.098804350462270651 0.41887083332342734
-0.13572770694771 0.02869383908827124 0.41783960444742146
-0.11911733361420919 0.041532381603228335 0.41747296504888182
-0.10408205465930943 0.056754035426242119 0.41502228457733498
-0.093631977258897756 0.080962417322495941 0.41848140660164851
-0.096368492976865644 0.087945212477827175 0.42618824740485756
-0.099534201297218086 0.09504039627697515 0.43332584852167499
0.032437492568975899 0.16070609648601211 0.43390803651218618
0.025977907287130543 0.17333132513942578 0.42787519567227089
0.021726421685164116 0.18801158526744438 0.42106107055209313
0.013810245282312301 0.19959591000514573 0.40575011318165188
0.0082348423706309244 0.19472061099565141 0.39713409605776534
0.0029746531099428073 0.18978253136463302 0.3881718074306626
-0.0008114017064036025 0.1632715837802044 0.38858964088497921
0.0036791987084542929 0.14431360174939761 0.39723429626200596
0.011181841764085883 0.12828283056604442 0.40471538149262309
-0.080855146096764113 0.093301989149063014 0.4042403903160145
-0.073175625816292361 0.11388905857314882 0.39614937947263984
-0.068160706175762198 0.13529278789889609 0.38650154168845668
-0.070109639363663767 0.15881833752832139 0.38463825103004051
-0.074644631072769169 0.16074899889918773 0.39365083723046729
-0.079654386098077928 0.16250760036708337 0.40236416482206838
-0.086616035467585617 0.14791749815824534 0.41910377285701605
-0.090101422212996621 0.13197292889491249 0.42700756482300944
-0.095680522660080564 0.11660299030350715 0.43391227862777965
0.052832758970955615 0.1917769302064358 0.45073207279868271
0.048445411968617326 0.20008417827478236 0.44688376528444862
0.045376206752359788 0.20968723975797082 0.442524184645959
0.039239179256257348 0.21737068728553796 0.43317158834372899
0.03327342112206013 0.21355330415777277 0.42755464316605679
0.026583465307561682 0.20915041541007295 0.42108675369368764
-0.091810775548226767 0.16487550915483132 0.41792341219523765
-0.098413170072810308 0.16555852012568922 0.42452146094125454
-0.10437454273159401 0.16620442143391206 0.43030841274405518
-0.10954460086991638 0.15689491284132448 0.44093300616665188
-0.11161268867478678 0.1468629125350786 0.44621911344512477
-0.11504852671059926 0.13718925391429992 0.45084893108258495
0.043730627672459436 0.23191870568529813 0.43323527737224193
0.045175488493700858 0.24377643936228188 0.42864633989015716
0.047993219028891608 0.25537122960192854 0.42424378214302305
0.048871148548434024 0.26776456649065616 0.4135907247710624
0.044713262516769985 0.27024013360717758 0.40548156090304471
0.040156158451291703 0.27304074674191309 0.39612478444090232
0.028695651417685097 0.25859601716228459 0.39221957081139575
0.023573690991014955 0.24045581952794298 0.39919499554062149
0.020558922184769297 0.22212879884108583 0.40646224365468536
-0.08633068550841691 0.17946811114472191 0.40167536350171895
-0.089467217029825769 0.19386102100701508 0.39271043007825257
-0.094578807261986891 0.20639029563990557 0.3838353954025045
-0.10691937382482879 0.21177487209791102 0.38635656305441646
-0.11220735308995948 0.2071679510675237 0.39647811976009967
-0.1169102751394953 0.20318209251198271 0.40526788805668484
-0.1157328440438908 0.1942338394838323 0.41786926576470951
-0.11213607294133075 0.18618296219747116 0.42358549671465268
-0.10982692339650629 0.17693930058033805 0.42942004759797631
0.031861119821637258 0.27770036148112376 0.37477832314109483
0.028447886635432105 0.27924388013045603 0.3632607747614548
0.025331677383837691 0.28048317490504998 0.35144016686131807
0.012382904559388442 0.25791021913883755 0.34868630911425841
0.0047664136186917339 0.23310266836355939 0.3586974605092661
-0.00017364087149040162 0.20836620012796017 0.36897944781572051
-0.066409810869960811 0.17787336978400067 0.36364305990715384
-0.069583143859393404 0.1974153640942006 0.3511628488400767
-0.075278726787955039 0.21446349340273585 0.33854209262455348
-0.087628530838898364 0.22535374125343008 0.33874584756689008
-0.091980066407216551 0.22277210377327078 0.35122761819122184
-0.096594501519469703 0.21983108820297609 0.3634562428033945
0.044433725975646828 0.29082138406727093 0.38025129616342035
0.054432826391372882 0.30341744333780479 0.37573923807511184
0.065315235685160483 0.31291704719778329 0.37245192985215758
0.076775680623905079 0.32566702964080152 0.35822604301831013
0.076993478339012919 0.33185038268140199 0.34547469515544743
0.077314494547741558 0.33761796292538365 0.33249409232086419
0.062671714295280054 0.33443065499233759 0.32154674509908493
0.048096588409858823 0.32069164680264728 0.32574455254169621
0.034483139198702849 0.30279777614287801 0.33179985682538199
-0.09412511074838531 0.2362805420896063 0.31450638266852526
-0.10694414918512286 0.23953662851673907 0.30402141368219304
-0.121551456195057 0.23744865712568003 0.29524651114271688
-0.13914685562589885 0.22780147106618123 0.30409198742594684
-0.14079736836159137 0.22549848789997123 0.31943143336067492
-0.1424375964617825 0.22270931453145687 0.33453397780926375
-0.13183706600191394 0.22412502839282658 0.35370170782133331
-0.12048352354139721 0.22526190683312572 0.35977146435209306
-0.11028431752510041 0.22259901595740519 0.36707857669170757
0.057342850263600816 0.27531688036081464 0.41657069233438376
0.063541472409197955 0.28279510371640032 0.41357827874712633
0.070453449324722472 0.28829936160370501 0.41131559950349311
0.07751560832986451 0.29640230565906939 0.40249948421367976
0.077139807426162416 0.30316280894185688 0.39318293098301782
0.076844197287388588 0.31095078305528162 0.3823977555594697
-0.14544702253530162 0.21439911930112757 0.36337398787754199
-0.14670639369477126 0.20947643028264332 0.37633446823937622
-0.14775830347534188 0.20520392631951712 0.38753888379132551
-0.14062349954131731 0.2054468105310765 0.39909398321257611
-0.13315598135104137 0.20615991022496047 0.40278965548636797
-0.12638731135688777 0.20452298408860403 0.4072977667738425
0.085574608564839852 0.29252654751327489 0.40950673827762513
0.093256172419570599 0.29106235971873579 0.41007709723531283
0.10058225021186899 0.28725296667565808 0.41158804355509732
0.10953457156323049 0.28494599140689569 0.40731606898356237
0.11266703017857654 0.29028137015278133 0.3989376537059382
0.11626493170073673 0.29646814282831585 0.38924354919580051
0.11029065070473885 0.31235968558025234 0.37450401422510921
0.099580977755300865 0.31835230445422935 0.37169025366723363
0.088257006038880648 0.320557421395264 0.37035321502988999
-0.15662878110453027 0.21022249448747793 0.34674116253207737
-0.16922855998417885 0.1980626669407452 0.34626165581374801
-0.18130369432194354 0.18331699925298051 0.34785906702614455
-0.18871584825418355 0.16817664413971395 0.3657037355718557
-0.18510027309682617 0.16914724680385643 0.37857766534291187
-0.18189339258445866 0.16991059862015898 0.38965538271326083
-0.17268122592560797 0.1808692616255769 0.39590897356697624
-0.16498342327894705 0.18977140679447119 0.39478779844136169
-0.15682488555421309 0.19706705955611922 0.39497098620959742
0.12343248751219824 0.30850961875793947 0.36755712651154959
0.12670049288116836 0.31381340476870745 0.35614527592868467
0.12984082483444589 0.31890067136946287 0.34455408854568292
0.12081424454331657 0.33660856420483365 0.32653917746565647
0.10723757307677492 0.34419057929499186 0.32202665502581995
0.092708764858408246 0.34646643663767918 0.31960995910934892
-0.15440569392867134 0.21705676603636506 0.28473148086642008
-0.17153558358707804 0.19964559927367059 0.28360004703663028
-0.18821471107792689 0.17868603698597649 0.28542282856468904
-0.20099142014333066 0.15858713291117837 0.30606105068098877
-0.19830081469467684 0.16173492394266922 0.32160342774622391
-0.19545650068486967 0.16451229763387104 0.3368388367273929
0.12818337205427335 0.28989037090545611 0.38390024905110337
0.13474852506116566 0.2744882825410106 0.39004869164561018
0.13945547241183195 0.25738702173401456 0.39682553758734018
0.15626740800237712 0.26243341378123702 0.35957071135737517
0.1508423758559635 0.2856517236544634 0.34987659702312224
0.14298343771625951 0.30656124166498455 0.34083501082903295
-0.21707634212265836 0.13053966050565069 0.29862582231793733
-0.22790502593925716 0.10582579411674013 0.30938925141393175
-0.23564199892775115 0.082320376478319274 0.32189720121159277
-0.21412007897410859 0.11401686167223583 0.37427156829418745
-0.20907087898637267 0.13121528156264875 0.36526287376205485
-0.20168610057032549 0.14906176856768283 0.35755621458563447
0.11279722718036431 0.2728043319049302 0.41716150733804985
0.11725214579260602 0.26281970357357726 0.42097141334013854
0.12048059020288684 0.25176712117073463 0.42522948366145652
-0.19194601712168041 0.13759703022813263 0.41293388720140894
-0.18927729917202415 0.14855323680274621 0.40718903762549724
-0.18509618292003163 0.15977976668059191 0.40223896028445411
0.11820483069798803 0.24131166906691684 0.43847236362929842
0.11941214753868172 0.2410765393266493 0.43621134444910126
0.12046971139235652 0.2406529194454245 0.43344437976762834
0.10604922152050951 0.2795556890923323 0.41853038379157942
0.10541700099167756 0.27889026628721753 0.42181385053675469
0.10469637741848585 0.27790153927034872 0.42466991061339932
0.10819180407163913 0.2684494857833129 0.43029054826743013
0.11207695440397863 0.26036049014246787 0.43316809261889955
0.11448900951033025 0.25104898646297341 0.43677888501571227
-0.18502811671128544 0.14635195916699861 0.42761719746137383
-0.18338318403471568 0.1552146095018051 0.42265225299832482
-0.17996864424272893 0.16439499584951106 0.41883067054673473
-0.17704597274271841 0.17370065992952335 0.41177686589744666
-0.17783953974665057 0.17302245763909024 0.40826345965195049
-0.1784185926218165 0.17190566579708641 0.40418813090575884
-0.19073628001800941 0.13093542306762632 0.42388999114961062
-0.18945424743368797 0.1333604721155458 0.42734492730170248
-0.1880433453431915 0.13545262658981208 0.43019561235407328
0.078067752799656942 0.28971586811165861 0.41500158573336793
0.078193813490166464 0.28906867586751422 0.4186828059212831
0.078339447303344856 0.28804983549762192 0.42187225748420087
0.085203792216713148 0.28604323120467878 0.42466679666280049
0.091693032449219974 0.28498196826773703 0.42464728719601064
0.097738757631629536 0.28114531816223554 0.42589800512238241
-0.16990190867224925 0.18234732731519546 0.41361567993587989
-0.16380077717106348 0.19004788056981264 0.41251237087996756
-0.15703889985105221 0.19589949705555271 0.41313579982982307
-0.14986839459076881 0.20207598415473021 0.41044591103698153
-0.14958990776028291 0.20221335645398794 0.40670194401969628
-0.14917831302174345 0.20186853132762017 0.4024161861806867
0.053775872166529341 0.26571101858169893 0.42491201135867984
0.054701742756181726 0.26578042106134153 0.4284463184459083
0.055639723689307634 0.2654676931059432 0.43138692986932503
0.061589975169547999 0.27206484563067679 0.43111126037166309
0.066502341563088804 0.2786156563616925 0.42837122360848201
0.072279517641767654 0.28276913856369396 0.42660213868236529
-0.14327881299113737 0.20296760803513633 0.41687622692671134
-0.13697753830489443 0.20376557647211049 0.41970830438372675
-0.13141424022822226 0.20186308249264254 0.42369936520648027
-0.1246985791224683 0.19991163312782262 0.42475413830869907
-0.12364389198301548 0.20015560991701808 0.42143306488035931
-0.12250648153884043 0.19995425051878893 0.41755233775499789
0.046116871368011757 0.22234816022066123 0.44167434021158331
0.047354241891386047 0.22369276697615989 0.44467600435582294
0.048546309141512436 0.22478945368915113 0.4470653159115735
0.050355611117782979 0.2357163148468325 0.44503978627386875
0.051219758557831681 0.24555104679245082 0.44118308770803338
0.053750019806275473 0.25502767409430011 0.43767196849171469
-0.12195036916936498 0.19293547326237059 0.43268578358838167
-0.11848405692996458 0.18655978696008951 0.4372727733285256
-0.11660633844818312 0.1787995711231033 0.44218679416527878
-0.11365771897649929 0.17020280227667697 0.44510848467393144
-0.11246982155667437 0.1693721143783469 0.44252827051079713
-0.11125900408734603 0.16819592411201562 0.43928325203785173
0.060212213565500772 0.18883441710200816 0.4566518810293928
0.061280498053711753 0.19120713367581782 0.45915530096933765
0.062242277470868981 0.19335972674168594 0.46108103549000878
0.058673477068950229 0.20212664816258721 0.45959137271376715
0.054602176277352886 0.20876542614314786 0.45645521132674688
0.052079319721123028 0.21687006396432179 0.45287584833480105
-0.11613862118276964 0.16191543761820537 0.45197100062864787
-0.11759399998292949 0.1536585206640852 0.45638415863679838
-0.12073068253683951 0.14576210106067233 0.46020020459282895
-0.12325798155137642 0.13587622035040128 0.46242333771651523
-0.12234258703793652 0.13389194198097831 0.46040134107695985
-0.12144973815155075 0.13153708339654185 0.45766069184878366
0.088132554310079894 0.17989560104265989 0.45936032785758529
0.088428291624966154 0.18231905456367326 0.46176330836179807
0.088563427907347683 0.18453756964361115 0.46360332527744702
0.081713981389033172 0.18739055329465007 0.46523473294800871
0.075269897999294996 0.188392799324894 0.46513087568160694
