# XYZ point cloud file
0.77599499714818165 -0.37861615973162621 0.69175734191114913
0.6937548985891695 -0.49614223469153096 0.70033725180322648
0.67727463440094482 -0.49706974481891564 0.70482900545874827
0.69394195527495128 -0.50676141584358447 0.69910174078654563
0.70891030670229327 -0.49213792717531213 0.69631089727121065
0.69297732550352009 -0.48947567655221036 0.69762702709405744
0.67696901060110548 -0.49031317681313524 0.70222666966297709
0.6771222303516069 -0.5081092856763334 0.7033336439605975
0.70940520271469154 -0.50204653862084569 0.69534991669986823
0.70776620211965025 -0.48582727745941412 0.69350241634849397
0.77453875476105338 -0.42130619207466324 0.68790630996939939
0.7810657589078005 -0.42143690516055088 0.68683094246271281
0.77903927050951438 -0.40760042701720245 0.68915527878784388
0.76962564541285161 -0.42071826241799393 0.68552364570582114
0.76856768839075329 -0.43413192240787701 0.68736120541392154
0.77413424638365314 -0.43582545586966148 0.68627684462691718
0.78645876627237499 -0.40632288997387533 0.6880501777260335
0.77359371544849864 -0.40787083443730587 0.68664453544872117
0.76423201429569332 -0.43261809791517258 0.68509867972758087
0.74457899664663074 -0.46826651443414491 0.68886824367171329
0.73431577011560023 -0.47771391243605521 0.69053220098992085
0.74708553558066626 -0.47465672072400622 0.6880339194922982
0.75354433529695086 -0.45767780157282623 0.68785773080778512
0.74205350212684351 -0.46399890983221681 0.68635181777835186
0.73233571581833701 -0.47264926261778584 0.68782641159103264
0.73593389793826702 -0.48546797997369318 0.68978572336468602
0.757055950231873 -0.46257284081456795 0.68689529960737872
0.75042569261707115 -0.45428678401852096 0.6855277988622035
0.75728700496378565 -0.41621226721938598 0.66097090579209095
0.76175004116898748 -0.41858488414600181 0.67095578878760875
0.76083063192005085 -0.40427684381463713 0.6615336422987852
0.75143424687297511 -0.41175328491214813 0.65192834496212981
0.75243813184696506 -0.42728288411099236 0.66087969681623804
0.75686739147441529 -0.42966671466000683 0.67080089654193387
0.76528468233696145 -0.40655275798676094 0.67168564655721497
0.75516284426162628 -0.3996520848292473 0.65235969640111335
0.74643751179073803 -0.42321200555524108 0.65184386131812033
0.73193803272960878 -0.45634147730867802 0.66160890954978413
0.7228867900730549 -0.46436735211197799 0.66245083516406567
0.73631876930438978 -0.45870978053236477 0.67166313977233472
0.73974782697822405 -0.44736856073231834 0.66120845829217245
0.72519416740068721 -0.45343889368561108 0.65245958917403613
0.71609023404356265 -0.4617480677484167 0.65314523613918851
0.72716087261778739 -0.46672390055303303 0.67269406840627255
0.74414670543676209 -0.44973244464655693 0.67116783884289077
0.73325966019920941 -0.444142087522712 0.65211306674645897
0.76121121297994421 -0.3627618626534943 0.66798016568295537
0.76502466946558911 -0.3637358776413393 0.67933836651058499
0.75690709129345635 -0.34848469756175149 0.67179232363616848
0.75694624854044434 -0.36025300813967398 0.65748661787358742
0.76307604586446587 -0.37727809515268085 0.66496330031948503
0.76722932058343218 -0.37887528282707805 0.67589180574326946
0.76024150637490351 -0.34866675554154725 0.68332382277576187
0.75334154801890918 -0.34755700015100111 0.6615798426456081
0.75819276255896284 -0.37358273689950572 0.65486173051997554
0.68691748889963833 -0.48064414119745891 0.66960012135485414
0.67282576162133267 -0.48201831385319771 0.67364472902271189
0.68978653043536298 -0.48269506149996033 0.68106196312418632
0.70025449156734254 -0.47688047164410996 0.66635358888981244
0.6825496342849533 -0.47870857744866946 0.6590045665280897
0.67013763984667207 -0.48011479763284548 0.66331798319616553
0.67480723966788503 -0.48387883326489067 0.68528815365135642
0.70380308466137365 -0.4790848208414662 0.67738471450874727
0.69459899054027119 -0.47476706362343002 0.65613812054863274
0.72831883672066766 -0.31441760651605932 0.68361916782284027
0.72874332547726084 -0.31218358286586145 0.69609427221362097
0.71619799126810335 -0.31079274921980016 0.68701824794962363
0.72875611200944235 -0.31767869471482868 0.671122898178794
0.7399719312064903 -0.32310100027779143 0.67988805278549336
0.74155386439137772 -0.321609415389986 0.69198729028340011
0.71555448730371296 -0.30793150269145286 0.69956985589835341
0.71800109238878917 -0.31507413467281786 0.67406936522518635
0.7388335780789177 -0.32518895881896448 0.66864500483928424
0.63158798082152146 -0.46868303399525679 0.68574555907839141
0.62345279904347706 -0.45889869350790136 0.68892542494972986
0.63029140821657847 -0.46869849258422569 0.69833001765285019
0.64392473059893973 -0.4760389486002321 0.68204161790026774
0.63414046312200867 -0.46900546177275082 0.67309015749032142
0.62744274221294205 -0.46008022781253466 0.6758125069687182
0.62116776945482854 -0.45820657308194868 0.70157296846641515
0.6437413521390809 -0.47685161590225178 0.6942597954515719
0.64484566034177959 -0.47527804521950756 0.67064498892885638
0.68760709042726376 -0.34280510697933408 0.69036868639850013
0.68534287041391906 -0.33966861773959423 0.70291886602272058
0.67880322369198609 -0.36320538554155668 0.68980894162694995
0.69152544436794017 -0.34759002187142762 0.67735086965882374
0.69586401467560677 -0.32548681546619029 0.69045534178381729
0.69386974324483219 -0.32217200513322908 0.70296980111957197
0.67638169358141909 -0.36038065425503518 0.70239576874136134
0.68298728142305976 -0.36749376763813046 0.67679655727865651
0.69938823471399303 -0.33054265812189776 0.67744029730438626
0.63978309417175439 -0.4192622426153676 0.69076129776656359
0.65411988532409993 -0.40265634321646715 0.68990524243220364
0.63665665554990625 -0.4172925196874484 0.70332881361233035
0.62796782474308088 -0.43404041047493891 0.69135256944973378
0.64503084320188009 -0.42209489987074988 0.67767563528700947
0.6590031204295812 -0.40591854417974105 0.67686560760594716
0.65125332927445356 -0.40043541228707724 0.70249424027798568
0.62475611903630579 -0.43236885609822018 0.703911236985725
0.63332312815146707 -0.43642391370907241 0.6782229488986431
0.72009373479892247 -0.37976766226280567 0.64830809400942968
0.71344323492764516 -0.39540345702216051 0.64793340367976526
0.73241400740224805 -0.39301025556739333 0.64492968024649855
0.72558066643220798 -0.36532023650417322 0.64856814973514787
0.7081008485914424 -0.36649150383783535 0.65530182263974268
0.70068001900368415 -0.383959244104636 0.65483814152366193
0.72648278773796449 -0.40684373572032406 0.64467631856366836
0.73712199713739324 -0.37960697765005058 0.6452295317266632
0.71451084071571103 -0.35092458177573604 0.65548553895770567
0.68392334546041411 -0.43772719294238804 0.64840915621898887
0.70053516145764405 -0.44397456664486512 0.64513339977284545
0.69491735356615436 -0.42508224025121599 0.64793613698560648
0.66756793032284634 -0.43152898455025124 0.65541756171018761
0.67352492978579903 -0.44876088301671757 0.64889655363697329
0.69072032933853933 -0.45381583406588 0.64564382751277094
0.7102599520642201 -0.4327721843998269 0.64475042531415738
0.67983940059716019 -0.41738959100451112 0.6548268641120174
0.65657675678589555 -0.44390887065676665 0.65589272422425893
0.73793077052477685 -0.341416671260383 0.64861779376916928
0.73481338249682437 -0.34520583380106018 0.6478231361297162
0.74433702252056833 -0.34765549910683369 0.64720819136827146
0.73438809459386789 -0.33223242756483096 0.65208335874716994
0.72729008061973133 -0.3327622550901328 0.65350929232540267
0.74357377936669877 -0.35714218224029892 0.64562541186652567
0.74192146788294622 -0.33773043827073934 0.65177972970313647
0.65780633538443567 -0.46984682850731474 0.64987756116102702
0.6658872789028436 -0.47325252907101145 0.64852475760124406
0.65976096359833747 -0.46555420307256412 0.64883435109837251
0.6484512368467108 -0.47004495125722201 0.65355093770970996
0.65640823502494072 -0.47464816728447445 0.65334107931882102
0.67377279116428213 -0.46886157224379943 0.64664597223359266
0.64596796090787478 -0.46327230986359424 0.65470997168649347
-0.079843745008325584 0.22982251389661279 0.76471897068974926
-0.08237223130741711 0.21598013262527971 0.7606825501683403
-0.062570305395041714 0.22645930102132894 0.76336603527520452
-0.078327606456710441 0.23959710046976745 0.76783376119699653
-0.097459369824598241 0.23503890177829323 0.76624273587207625
-0.10148866075606833 0.22158026248826523 0.76258022574014461
-0.063585902623671586 0.21231436824814764 0.75909864761425183
-0.062035262094077837 0.23609948104084477 0.76670994551179916
-0.094879831363087419 0.24492538030624189 0.76911775476278876
-0.24525567822064431 -0.048749564352525532 0.76574286665707092
-0.23423532104186506 -0.063244465143094786 0.76418284099882783
-0.23444381790854152 -0.040308126528762145 0.76142429553473079
-0.25790428417377598 -0.034524253365556756 0.76746879697375192
-0.25301406920834069 -0.054451640128407419 0.76894750733204376
-0.24234515354849151 -0.068009622852752472 0.76765773470205545
-0.22243201694358561 -0.056005087200611481 0.7595305780126651
-0.24812167943792929 -0.024892599755256928 0.76363158622963567
-0.26526640726899586 -0.041241673345673746 0.77039591899084314
-0.15144572234522968 0.2626271962319553 0.77001952834999088
-0.15986827182984342 0.25031603738645458 0.7682197118911489
-0.13343645021941342 0.25135680932751647 0.76896972633263516
-0.1454466471891962 0.27246570166353568 0.77190141027141124
-0.16909411973402655 0.27609034895044182 0.77092321512261464
-0.17879968438707294 0.2643439966065797 0.76988282704494537
-0.14044221703602489 0.23864152454105003 0.76645031379516837
-0.12859437136697238 0.26131908751790967 0.7712354000219932
-0.1619453848587824 0.2856050941688002 0.77238872576734252
-0.30570250961326906 0.0058916335639507267 0.77194322022610606
-0.28815327304650395 -0.0070620828475620456 0.77064579541939793
-0.29883936750904638 0.019114832671817794 0.77015875769736653
-0.32478059147494065 0.018003560346846914 0.77309965381811452
-0.31153205902330683 -0.0040121903281984395 0.77383042467664609
-0.29457612131228217 -0.015914722724025054 0.7729161193616676
-0.28034306502624418 0.0049976917032914514 0.76811780886672665
-0.31891067858799005 0.032234991877987618 0.77204904677530806
-0.32987191879453803 0.0071069473559273177 0.77459515628139286
-0.21669589676212553 0.32989305943187075 0.77277901013440697
-0.22896668145326515 0.32165104563487334 0.77371279978029861
-0.20218553916201643 0.30989553899833489 0.77240541164262311
-0.20636664592202436 0.33666218367124312 0.77304610781652627
-0.22899402976959493 0.351368114082514 0.77261716503292632
-0.24184074008437051 0.34488101207700872 0.77395983953779535
-0.21380209452377841 0.30016123710307108 0.77278017834456136
-0.1928351728318134 0.31788102079934255 0.77302306697882273
-0.21783741112575683 0.35670235635963987 0.77265829794865226
-0.39003784912556938 0.046677082940161707 0.7760887327725996
-0.36728537872828326 0.038737852635055692 0.7752262889095789
-0.38795654563539017 0.062282546481717826 0.77678974586771687
-0.41298361091305935 0.05236428794519199 0.77657183242699546
-0.39167893377007346 0.033460363130452198 0.77649945508882467
-0.37027102803136813 0.026161464629613995 0.77595794061993217
-0.36377427076206459 0.0541466982666714 0.77544191757400682
-0.41250702742985368 0.068062214671120724 0.77764489077193133
-0.41317698896980914 0.038667590602377899 0.77675854318691506
-0.012146466675766021 0.22784881113798328 0.76124181659066892
-0.0085525681742808501 0.21389645258195245 0.75708836843597993
0.007088562420349831 0.23465130074725504 0.75940271948920213
-0.013951240959237055 0.23704832285732724 0.76547991980146435
-0.029320725433386485 0.22496731197370146 0.76196216625258728
-0.027260568596254586 0.21070894646381522 0.75770190416893968
0.012171380756626604 0.22131669349369609 0.755235632188068
0.0044813985102081233 0.24359013249113382 0.7640455306078664
-0.030406572118081954 0.23433553787971917 0.76584986311078751
-0.21120533331213664 -0.10961915633179364 0.76161053502707432
-0.20771788302525351 -0.12995240073787162 0.75995106285139968
-0.19718823330454427 -0.10630169878998919 0.75692185321805994
-0.21702963088200988 -0.092851025174768509 0.76237020888361684
-0.22012791020910072 -0.11220149004508428 0.76602677019783982
-0.2168307641368088 -0.13173493634184164 0.76472048719410424
-0.19344978465007046 -0.12813717796643376 0.75527719248695746
-0.20355886499707765 -0.088146797374034858 0.757588879696101
-0.2257206008928847 -0.096107697530090519 0.76644719570340669
0.085612169050016007 0.28804240469183995 0.74134920651150793
0.094560632442018289 0.2788898898653871 0.73531520844215237
0.11301257302243783 0.31490670938634047 0.73275748735304802
0.079316085884130416 0.29510434423048792 0.74744652594327476
0.056827067146898003 0.26478542134541705 0.74928583424021866
0.064625452527181437 0.25386196125910221 0.74417395842095146
0.12291673830755201 0.30778170375564073 0.72570030464888191
0.10536802378271659 0.32093624979914459 0.73932980952085359
0.051939357881529702 0.27268455297378846 0.75488503895466863
-0.21454669767491197 -0.22384743585373235 0.74271748780865465
-0.22346190139877109 -0.2599834965088923 0.73361341050032536
-0.20188499843532526 -0.22733411810322623 0.73646687365383912
-0.20911536878456616 -0.1879247866475251 0.75063660934426224
-0.22392599472099306 -0.22149380949982156 0.74868890214182215
-0.23267292182345045 -0.25595817324416315 0.74006899678457927
-0.21202615228644817 -0.2652933129492987 0.72641970140407608
-0.19552534179477732 -0.18955105652080562 0.74519810399485209
-0.21848838335270671 -0.1872124624905136 0.75616953793728214
0.16092258166190732 0.40353490008464199 0.7091463281299184
0.17220585692069079 0.4030812023008874 0.69968837110904047
0.16478420461508847 0.43514649657499049 0.7019799857578235
0.1511578429552074 0.40556470212003859 0.71695871184899573
0.15166973828478092 0.3732555596998024 0.71649148429827392
0.16275686948689128 0.3705529058437369 0.70763818086968655
0.17600244131314469 0.43691480610305433 0.69215729877188181
0.1549915424538284 0.43557396919680613 0.71001804269561575
0.14223044561219922 0.3767508381335487 0.72394394192422595
-0.27377657954844636 -0.34170679169331963 0.70834590395124764
-0.29855087855785456 -0.35927752769002597 0.70130342759088649
-0.26719781742813353 -0.35145071642855363 0.69881655597617254
-0.2529507069526602 -0.31998275158020917 0.71593903699564265
-0.28079195639082144 -0.33392236152010835 0.71621083691876208
-0.30423968585468231 -0.35068291908977134 0.70942467871288528
-0.29387466762208447 -0.3700441179317191 0.69141450017489348
-0.24459894428500206 -0.32846831015739175 0.7070101615378519
-0.26100944766745471 -0.31319194169819964 0.72339705155741285
0.15324697016629329 0.54032479683098877 0.68016600766670621
0.16282574800880667 0.54830269481791838 0.67092193237807152
0.14304510203518106 0.57436828584969213 0.67375500147894485
0.14452758321224479 0.5351398620875738 0.68758383763746878
0.16037093444258232 0.50435863881819998 0.68736549039549288
0.17070579324067836 0.51037321015537174 0.67768585757655586
0.15172864646066131 0.58415096724855964 0.66504757809608606
0.13493466872052551 0.56730347528936953 0.68074880047397812
0.15114923781307255 0.50112778184188222 0.69517756077382842
-0.39412654367954758 -0.39489437504846459 0.68197369402211905
-0.42881027301041286 -0.39995392950347375 0.67755778346123918
-0.39565828244776924 -0.40715537828296711 0.67272204501993826
-0.3596479500129135 -0.38584002971150833 0.68784985829047685
-0.39444187712860668 -0.38459491012520441 0.68950032095016667
-0.42716325024162671 -0.38938556423219461 0.68457676292191394
-0.43242003026914944 -0.41219052910476695 0.66892936167310069
-0.35906742058185159 -0.39787194496422629 0.67812014842815671
-0.36191681480541149 -0.37598818738758721 0.6957913075829012
0.096229571353198651 0.64716660230025624 0.66544633355116645
0.10186298511146674 0.66103653973592458 0.65816290263934007
0.077302336647086634 0.66133838815092183 0.66617977427821984
0.090364986564757999 0.63599600910115317 0.67180442995842071
0.11404028035396152 0.62842994342696823 0.66618495330911998
0.12070761844042011 0.64120131939844427 0.65846876712411984
0.081934687337202661 0.67598302297368296 0.65937268701301832
0.072275318235355712 0.64943248768494666 0.6724366864783633
0.10737386967330309 0.61831110960935476 0.67264480632550061
-0.51713315385542913 -0.38468093678383752 0.67594131122560697
-0.53960236296437358 -0.37116272389415661 0.67830672882312371
-0.52616141186610932 -0.39555580356384024 0.6690757352514396
-0.4912396531338814 -0.3947144286251576 0.67468717616952034
-0.51058259925436644 -0.37464817874482481 0.68193090491091368
-0.53188712430708662 -0.36173961619112349 0.68408790510564188
-0.54994201762503536 -0.38124762284097846 0.67199973788923018
-0.49866159392231424 -0.40623219829348889 0.66728644080864541
-0.48609684895945904 -0.3842764148360045 0.68090377472277197
0.019849926671824392 0.68141697019866498 0.67337132423591584
0.021854111008135391 0.69605418855334378 0.6686155978768582
-0.00097434828425591036 0.67901221085873686 0.67847663260010904
0.017520928895947918 0.66916924989403448 0.6787732142142886
0.03920448155388101 0.67864163364261643 0.67007580451642923
0.042074478524618542 0.69366348116813903 0.66459047366327439
7.0513974748109831e-07 0.69297003486652464 0.6742698926868016
-0.0022557207055839967 0.66721086331537194 0.68366276854725072
0.035928606717661182 0.6662092156806807 0.67582160555954829
-0.58714913769224353 -0.31884318330171713 0.68902652526200825
-0.59559286080732576 -0.29590830303684079 0.69501802087425801
-0.59911071097463164 -0.32589348325801915 0.68495823563785052
-0.57473650555076006 -0.33824363176987626 0.68468846040781983
-0.57752302447527271 -0.31233369012118484 0.69372309114047681
-0.58579702092770702 -0.29079014677814596 0.69942044750311538
-0.60752577674874431 -0.30150868084097682 0.69159631768422258
-0.58652246354957072 -0.34644885162797134 0.6798227303315727
-0.56549173595090707 -0.33057503265395694 0.68980035205163404
-0.0793978743645809 0.63547235054356044 0.70949179423686815
-0.083458795475827685 0.64646800461226306 0.70471807299378497
-0.10809833071536445 0.61394788382597909 0.72182520385800331
-0.076671316521355948 0.62619451868032705 0.71573133791449806
-0.050898229487508218 0.65516278332383671 0.69700444828179542
-0.052975736209514679 0.66719287392942128 0.69270057248643724
-0.1142374868558349 0.62401057181252728 0.71672668843719833
-0.10388006417176143 0.60559727335567892 0.72846702526479845
-0.049632290929444878 0.64492294364746439 0.70268351061793766
-0.5948315468066312 -0.19752531812889407 0.7266806023343193
-0.5887203942674617 -0.15955296950716757 0.73830468244596403
-0.60649765428758684 -0.19613045116478789 0.72310525938346615
-0.59894555779585446 -0.23459774993510996 0.71444845512510824
-0.58543717810557894 -0.19816125054413769 0.73188731698532195
-0.57957572602058249 -0.16233333853389054 0.74390830582998291
-0.60037723966662782 -0.15535236324350832 0.73443239692413442
-0.61066990489084105 -0.23592637745226641 0.71122858684393009
-0.58931375837511268 -0.23310628180321036 0.71915799809558933
-0.18010871474793078 0.55865104361364093 0.74258145200010972
-0.19169808614452677 0.56718443880322855 0.73965782492705046
-0.19786407998758904 0.54365971429389148 0.74493307924355889
-0.17186462858789042 0.55205577795868521 0.74746967145669174
-0.15928819926639193 0.57481070917443411 0.73872242955617651
-0.16927397189678572 0.58366846251868232 0.7345624002648492
-0.2108217391909406 0.55189383614084253 0.74336348596522583
-0.18854125327122517 0.53742866061420003 0.74863350254837258
-0.15226822651248995 0.56780500855870031 0.7446756918338906
-0.5704257143425373 -0.062841591647794015 0.75664968892720452
-0.56438749701423419 -0.03836967205468067 0.75832988240910737
-0.58255810249657003 -0.051816444375455628 0.75471421768451563
-0.57611099569932378 -0.09105276266340212 0.75348580921142627
-0.56146639631109707 -0.070877952867852478 0.76071534167871135
-0.55541217498956286 -0.047687504746239284 0.76129893326167775
-0.57665309535995135 -0.025751854777980032 0.75764944163393011
-0.58803094491254271 -0.08193719510707087 0.75041276381426059
-0.56718556557062882 -0.097590133743580498 0.7585273025189565
-0.23392750298598486 0.49810802770424489 0.75312877221752927
-0.24941525994355374 0.50443791093925894 0.75383957195671769
-0.24074176554207583 0.48100595714307337 0.75681027220895913
-0.22241247903400563 0.49355490135215341 0.75479874520362245
-0.22462570122420544 0.51398788432603215 0.74975555096651192
-0.23954661942216404 0.52119961913641433 0.75007849931039772
-0.25650498571798863 0.48616288662236595 0.75771778639218468
-0.22882268881566858 0.47736893832255367 0.75826201540650828
-0.2136665141338483 0.50871539800074039 0.75178220212626456
-0.53887285689393138 0.014995729234513533 0.76406941024827546
-0.52682535307301848 0.027166072670049779 0.76675896773839725
-0.55012354977649736 0.030779969461235623 0.76539026395673204
-0.54899940328185082 0.00025733214758938416 0.76160958959108171
-0.53073450711499603 0.0029133224195994067 0.76525043126097358
-0.51936658950937797 0.014457249572011222 0.76781003072493803
-0.53710743226683277 0.043470553968579573 0.76815289549529808
-0.56088765730198276 0.01524641749290323 0.76264143710540111
-0.540388119439978 -0.011063374036920592 0.76306814684048163
-0.24742993407933511 0.41962081974266319 0.7673148813152153
-0.2622406886940496 0.41938208876347804 0.76878435553030045
-0.24450120164801348 0.3968077650427575 0.76990143468640326
-0.23508243179795585 0.42005944199842382 0.76781761544088312
-0.24756952533538623 0.4416533061745902 0.76413319438111671
-0.26295082152327609 0.44347790068033444 0.76539481584631375
-0.25862652245776019 0.39441132670582446 0.77149754147093574
-0.23232812212044252 0.3988966897869286 0.77007731651195144
-0.23522624003484083 0.44053773330902279 0.76501998984277719
-0.47739804605911473 0.051369100262832479 0.77393023178709797
-0.45711966815122196 0.054805077811212577 0.77551638206961826
-0.48271179930505426 0.067666165552517921 0.77534972854656559
-0.49601985360278888 0.045352883157484758 0.77186106618258066
-0.47323584408577091 0.037445017193249441 0.77438799089714649
-0.4543581746072789 0.040750692515172826 0.77574373381397521
-0.46040657504189397 0.070835988203169276 0.7769269806506145
-0.50327250536098589 0.061857109068346183 0.77325464514299114
-0.49057387837912714 0.031718084177063677 0.77258006218906417
-0.20865578398008466 0.42136440967741784 0.76490087314491007
-0.21610881103684676 0.42098417522170806 0.76732263782079002
-0.20582286840089381 0.40371242796052442 0.7654499560135406
-0.20201897515886458 0.42171551696235987 0.76160418479006609
-0.20944955424758405 0.43844717293613478 0.76389128733981693
-0.21673297152674564 0.43909358608101812 0.76564153048333594
-0.21326884742916974 0.40229621667168391 0.76852860900797282
-0.19921369966432678 0.40501761236804334 0.76144173971245976
-0.20295321146507206 0.43783280836108673 0.76131306263192755
-0.46432613168262549 0.0080556176115282874 0.77138868371090297
-0.44820696052431686 0.010659949307253225 0.77120571754524292
-0.46693758283480236 0.016114883026121962 0.77379378170860491
-0.47915713557623718 0.0036126059184966586 0.77115092796274354
-0.46193098400840427 0.0010428833839783991 0.76814506750952205
-0.44658051966845846 0.0034981829606341996 0.76729898360817117
-0.44999423513706915 0.018901085260224715 0.77421826305867114
-0.48253429262828007 0.011304634650983747 0.77294971054399042
-0.47603581523198102 -0.0030685759273763047 0.7685628446893773
-0.19973962538740153 0.48399765114969462 0.75667275328323313
-0.20614482367667364 0.48688021277636473 0.75735873624190475
-0.20499933085861244 0.46975985650086116 0.75959217728291861
-0.19402566231455864 0.48129964540441517 0.75519706692250566
-0.19240293749893311 0.49768532564831069 0.75402736443503215
-0.19838601314292248 0.50097131383251803 0.75471800296352143
-0.21173749269142661 0.47207575595277884 0.76043112756785547
-0.19898322863207341 0.46757795575288519 0.75798077594497215
-0.18708314467512821 0.49463746894616634 0.75246959291956728
-0.51411638813875626 -0.020388619520260942 0.76622388161255373
-0.5040403806483198 -0.010516770794000152 0.76841028267110545
-0.5190541320134372 -0.014092301977866484 0.76713551159853921
-0.52294180203396579 -0.032454273450694515 0.76426447933332042
-0.50953815369247479 -0.025796471109841512 0.76457558678100668
-0.49979606666646959 -0.016372777225868163 0.76666802755796226
-0.50860778858298872 -0.0037319888396365464 0.76942754273361658
-0.52808763744372911 -0.026733080686713429 0.76521766188228924
-0.51819448474742913 -0.037326798965269248 0.76250514135821135
-0.15722171082386183 0.53863528948725392 0.75151327265261614
-0.16111453947253551 0.54241294335778178 0.75282153971141241
-0.1713083840060321 0.52466433129091694 0.75195462596502693
-0.15392322721951501 0.53528042825348798 0.74860910430960814
-0.14040814144301095 0.55342243404546032 0.74931194433236215
-0.14343696808010975 0.55744369226615298 0.75088347528600252
-0.17602368624394416 0.52832436388279724 0.75299605093665178
-0.16721248614395279 0.52136460595354883 0.74962219086246051
-0.13793756619762121 0.54987322563746943 0.74586989121448966
-0.5441373810540675 -0.084111581999565921 0.76338063343953166
-0.53776807698266893 -0.06407194559246232 0.76332521752225091
-0.54898994311226801 -0.080972379336587075 0.7649801938676859
-0.55000325554432905 -0.10732266131137269 0.76173117007807889
-0.53983234937926383 -0.086482906576723195 0.76028873471624081
-0.53322274078730914 -0.067421411604295045 0.76077877000172123
-0.54281113564725914 -0.059928441166534618 0.76466639720742791
-0.55474690416379602 -0.1052734680055698 0.7635721318820714
-0.54584226234770838 -0.10864981941760821 0.75814608090881563
-0.072988651303631968 0.60466831337414373 0.71995502315073878
-0.073733335353331597 0.61109980469037772 0.72181673783693867
-0.097577288855475786 0.58707870857315569 0.73317719831176476
-0.072532322202661703 0.5986934713865244 0.71613165528337674
-0.048462447271411691 0.62041077172861137 0.70635490785871013
-0.048583424713811496 0.62788113815872748 0.70815454951111434
-0.099004477573203076 0.59246157220784745 0.73504111549097217
-0.09655490778834519 0.58218000193909525 0.72925496576560533
-0.048500009562133073 0.61337274031581845 0.70274170136011804
-0.56508391983540207 -0.19597677359948928 0.73458105886349756
-0.56083295442713066 -0.164250199165207 0.74711276227355938
-0.571018073038978 -0.19729760675523655 0.73669163954808425
-0.5673887551440977 -0.22691071037588717 0.72130923755461396
-0.5596488279258196 -0.19428963685056599 0.73066295742549414
-0.5560876265468977 -0.16351518903701345 0.74310461992017451
-0.56613357325382552 -0.16446483245945576 0.74921528904281587
-0.57396040253480862 -0.22927879917975957 0.72337316904503979
-0.56124650941491439 -0.22434985928119033 0.71757576069629891
0.011635204910604102 0.64008832878439925 0.68226875974627887
0.013278324409540687 0.64897620866560679 0.68378706375371934
-0.0058296369464869713 0.63872784030648155 0.68690989101540367
0.010190665829902912 0.63169418468620009 0.67913990738156826
0.027686382752364125 0.63732287534460141 0.67972989250976923
0.029995369848066389 0.6460614835188796 0.68111964497240507
-0.0047888807985501103 0.6474916641416657 0.68852909909330862
-0.0067739873404093487 0.630414014660305 0.68366841849445592
0.02564622984365883 0.62912696309356608 0.67672559367267837
-0.55502522293796375 -0.29626816044259341 0.69598164631828041
-0.56261641081421487 -0.27760037928124337 0.70129940973603055
-0.56197002913986083 -0.30111319679147863 0.69772613547599605
-0.54444788050435022 -0.3119346644590939 0.69263387939664511
-0.54840269356084193 -0.29171373979618531 0.692739626161746
-0.55580050827838079 -0.27362011152929222 0.69792122064197315
-0.56976731389202229 -0.28172613797116508 0.70317731033875219
-0.55090513167044719 -0.31745798069120923 0.69420466758455035
-0.53831568371894889 -0.3068125656456675 0.6895525544999046
0.074420814757139908 0.61146876124674776 0.67693245176582906
0.079339533970298248 0.61867960536321931 0.6776872686099864
0.058929687470957504 0.62288048443206367 0.67722020685805973
0.06974695926935226 0.60484006443307869 0.6747040289220223
0.089088365437298478 0.59638855241176181 0.67805962967324263
0.094845211379102068 0.6028256775023797 0.67862487906305091
0.062916138056657189 0.63074082134092535 0.67820803231905558
0.055227335450680926 0.61561862913645182 0.67468408537664715
0.083540905525602227 0.59047550123847969 0.67607896837586168
-0.49770319399494412 -0.34958304865012169 0.68667856330493748
-0.51575388485085938 -0.3385181308091596 0.68821435561671507
-0.50139808972074107 -0.3572004122582455 0.68742633769454642
-0.47683110115578131 -0.35798329470618429 0.68625323737094135
-0.4943636452871587 -0.34240365662143191 0.68452471060565756
-0.51133086842098407 -0.33203825426434808 0.68569608901694323
-0.52053174543299008 -0.34546677751089971 0.68927017781144428
-0.47938145775096075 -0.36608011073058089 0.68672861011499009
-0.474602642740237 -0.3502813229541113 0.68441321795080512
0.12266722737042102 0.5244605213951008 0.69366401453974902
0.1293644314688791 0.52789282652829961 0.69427147162002001
0.11365334870541233 0.55241053503485738 0.68663647645585257
0.11632895272691002 0.52109917528681748 0.69148217363075304
0.12910312824471504 0.49480212615818431 0.70137540415954192
0.13567905666641167 0.49707909494027191 0.70213852133502286
0.1203163060824437 0.55694266975555706 0.68712962094082997
0.10725341156772572 0.54813386666779884 0.6846770054822926
0.12299309897090183 0.49241505080429882 0.69891797331185046
-0.3968970535982379 -0.35994693693485447 0.69630853066499299
-0.42568803296032343 -0.36333790822915857 0.69101252812716751
-0.396323089964703 -0.36750809588920363 0.69662606247048586
-0.36817479026442612 -0.35320819660904279 0.70276961131160931
-0.39733042249293504 -0.35277946937762383 0.69443117273381461
-0.42536657762541807 -0.35564897440907206 0.68931547590894837
-0.42607518296876634 -0.37140004185702402 0.69126172799277441
-0.36668794054100573 -0.36010351346152847 0.70322365596477709
-0.36930960915656641 -0.34673523871333023 0.70064074810714061
0.12964096633265143 0.41088368443023171 0.72247639125294683
0.13573725529285241 0.40973872646238618 0.72366260247339653
0.13306975713885549 0.43737840746867995 0.71594822680003745
0.12418719357496144 0.41163435364241963 0.71947463742847617
0.12170472853987491 0.38519895627619327 0.72893046228747238
0.12750611646767851 0.38302872055553738 0.73025833727582068
0.13933704782055401 0.43733382951406341 0.71700847847329641
0.12742420151164424 0.43707348220555531 0.71306757270869525
0.11652473252335938 0.38696385904561659 0.72580775862516589
-0.29656484398264382 -0.3171859468971312 0.72233885762393868
-0.31728611060842127 -0.33190259789805321 0.71605589609080766
-0.29246367951590457 -0.3220308325459218 0.72323612731266707
-0.27885937141348194 -0.29879579346786578 0.72883134205541467
-0.29998498363510606 -0.31279455813813017 0.71967366942649846
-0.31992025347010156 -0.32684993070879953 0.71352207781928456
-0.31401605298830049 -0.33741533360562226 0.71680772100503987
-0.27405760179676975 -0.30291010349718928 0.72991178660858225
-0.28298627818572442 -0.29510646464936752 0.72601226393218354
0.067085402617337309 0.31034606517786223 0.75034669617343752
0.070636308670806613 0.30582213939899106 0.75241846493591424
0.089638562385268017 0.33437415925761282 0.74303101551525685
0.06384501281231536 0.31452209688390553 0.74644926996447225
0.043189251345552293 0.28926453782664652 0.75683274169762882
0.045802264964841299 0.28424845918338093 0.75924418615951339
0.094134040778044437 0.33049356444952771 0.74479421617999009
0.085586178429345239 0.33788074302971971 0.73946947025918064
0.040753408168427541 0.29396230481940311 0.75258141588178518
-0.24308072129718994 -0.21735844664806825 0.75135467971646364
-0.2521319370330275 -0.24798062514785491 0.74370000940264447
-0.23748781131669716 -0.21849374387192411 0.75336519568992344
-0.23700579737401739 -0.18672158980802633 0.75789962409618283
-0.24821108390528224 -0.21637825120806031 0.74760755947454527
-0.25712081807656517 -0.24602260333781745 0.74032605652074324
-0.24659002926871665 -0.25020834759458443 0.74535524592547375
-0.23147345509958939 -0.18683332131536456 0.76025095426507505
-0.24216691370592258 -0.18664962679848163 0.75379356643423989
-0.016957987059335267 0.2553729376563858 0.76408612902501005
-0.015902692220812753 0.24968692366241996 0.76735470055864852
0.00040609139740155342 0.26159393720691337 0.76377982213372775
-0.018052585590993431 0.26079804330482137 0.75912697221276204
-0.032618434349856784 0.25293965629108861 0.7633713620898277
-0.031800196135598924 0.24716449214747627 0.76687475052764142
0.0017567100615991649 0.25602967249617858 0.76680404578873151
-0.00094804925205949075 0.26688739527714045 0.75898820626765939
-0.033493516135187917 0.25845103330245145 0.75825435141327091
-0.237266550338191 -0.11747595695292112 0.7648571142414653
-0.23423770708897251 -0.13597698843207873 0.76456580544391528
-0.23194132317956928 -0.11599220049525982 0.76797378178206799
-0.2426792555110211 -0.10212380325322812 0.76423567799507452
-0.24237016200446249 -0.11880001298124698 0.760108958506855
-0.23936406723662174 -0.13705783446706654 0.75996856312647054
-0.22886464509095816 -0.13477483377225807 0.76746107759365145
-0.23740539028089103 -0.10043396394458126 0.76758048790268418
-0.247737480733349 -0.10362974078002196 0.75933067966693812
-0.18508824828828097 0.3504147037850398 0.76639871581288332
-0.19084688435834352 0.34668000549432243 0.77043405364382522
-0.17451872755920306 0.33379845263219998 0.76651631687008859
-0.18013437194302639 0.3536383792522475 0.76126143811104185
-0.19395589936998192 0.3678809657570401 0.76612373428384473
-0.20053141520049422 0.36475954312937731 0.77002160488649452
-0.1793802023169917 0.3295512886458436 0.77061996090763785
-0.17040931671970583 0.3374108750003888 0.76124167084033445
-0.18821502750848396 0.37064043011478098 0.76118377691293659
-0.39454483982215294 0.0069200030056251194 0.77019176943228729
-0.37603938640014434 0.0020152635753571957 0.76982199349300373
-0.39386235315683393 0.013897061902401475 0.77409517235377479
-0.41300550318336349 0.010069255623904372 0.77051327625385824
-0.39507082257369319 0.001070884031161512 0.76521084375894333
-0.37721899512310841 -0.0030992377586627207 0.76472219468124791
-0.37458592372086486 0.0082324647319262922 0.77377833257774142
-0.41312467924542773 0.017737262362131467 0.7742943429076945
-0.41285482749736246 0.0035248538211578584 0.76571690404189496
-0.13480240549066735 0.29268485187127613 0.76543834320972337
-0.13761803919154403 0.28704056503935416 0.76999206887401783
-0.12002309376382669 0.28221226759876572 0.76473037405720845
-0.13243298042274887 0.29766892176125115 0.75943671244633748
-0.14907622989054659 0.30474778122767532 0.76602192439751349
-0.15243354712487189 0.29955161998908864 0.77038081489567389
-0.12234541600662396 0.27620184495141853 0.76943410708891946
-0.11803038432152135 0.28764736506845257 0.75849626690000349
-0.14628506028310539 0.30923115534951418 0.76031428922122046
-0.32395444462052581 -0.022124683277155555 0.76775393338319731
-0.30843676171778611 -0.032342281911113435 0.76677200457855577
-0.32049924641862759 -0.01738463634848042 0.77211315453676121
-0.34048175828490201 -0.01273647629436292 0.76862544777603858
-0.32700906701121113 -0.026084790653649659 0.76199540635071372
-0.31203343887229806 -0.036150808611030261 0.76078344828678013
-0.30446491798622333 -0.027908014093921629 0.771283192207882
-0.33762756792166471 -0.0076605193633190183 0.77279767206972849
-0.34293585701143314 -0.016888459623450647 0.76314297361567185
-0.07615047779660955 0.25991107839977268 0.76255840472042991
-0.076706255894713138 0.25371395320893697 0.7669201233735663
-0.061779824427674157 0.2557243667658442 0.76226526945604434
-0.075706157328191637 0.26576025377057988 0.7566241496182613
-0.090559972760196672 0.26580047832301368 0.76318056887261321
-0.09175385029999461 0.25951603226708642 0.76779037568424258
-0.061741256416802059 0.2496821987372666 0.76632515613817276
-0.061901999933901664 0.26146000028751537 0.75665090013993108
-0.08952449550621111 0.27167755172630415 0.75698235083787324
-0.26925625485142746 -0.064873036896763381 0.76391762713078037
-0.25892353223349573 -0.076481068846724565 0.76345512917454528
-0.26431858677117503 -0.061905549367675672 0.76812910979157323
-0.28098924326451424 -0.05379039056993884 0.76473500488486224
-0.27392096119397991 -0.067537642281248811 0.75818790107782519
-0.26377519625182089 -0.078639761447945933 0.75803993073664344
-0.25382681035677734 -0.074074917715658994 0.76736600627542373
-0.27627958943229203 -0.050241155693980577 0.76918166887888617
-0.28539279068363044 -0.056959842070867239 0.75875498777133998
-0.3578883107716031 0.29446366270656466 0.67445524303698079
-0.36233671042139548 0.29142502075288856 0.70512535268919407
-0.36164537796823737 0.32689981706847071 0.67489090754676795
-0.35380435718647973 0.29854406299862868 0.64515313665025076
-0.36018155041671207 0.26885081872047278 0.67384186108630217
-0.36305602145544213 0.26687146233036385 0.70423010025614019
-0.36827400733488602 0.32231009530661625 0.70622672529465547
-0.35334301318700767 0.33436027872550733 0.64400964824525886
-0.35852191031657199 0.27164388071133461 0.64503715779462567
-0.40283097543959201 0.22430606253270913 0.67516058653941968
-0.43066544421800046 0.21999644248219674 0.67595730148605782
-0.40367439691870288 0.22658023649579606 0.70560875804044088
-0.38233923406392023 0.23411673530116595 0.67421487153394111
-0.40289158060451058 0.22228471757164048 0.6461506258198213
-0.43228827652179547 0.21265411473095064 0.64554559731036676
-0.43085890170821983 0.22488988410791144 0.70693357789452449
-0.38361418429837357 0.23448615627059199 0.70448724105122551
-0.38201685399909024 0.23500093814296497 0.64557661136879574
-0.41104224388068289 0.46312626228393139 0.67545316955794732
-0.42177189845447671 0.45754602972017322 0.7066556950416043
-0.42920918830263588 0.51403272205554762 0.67402038720535984
-0.39521690947005794 0.47429821202717415 0.64595711560435376
-0.39045042573759048 0.41264020764262987 0.67569178827827869
-0.4004324018521892 0.40628924882768969 0.70745107595829637
-0.44040091295456563 0.51075607838466697 0.7044114642198096
-0.41287483493799471 0.5196943257959652 0.64715746618992398
-0.37571342951885711 0.42516763653807166 0.64427852101150052
-0.55464317777225247 0.2518382502284271 0.67942335550612398
-0.59971642964292471 0.26877868356226609 0.68057627047399194
-0.55457979592343065 0.26106176485627719 0.70978498200393858
-0.50869757219486544 0.23488283316760494 0.67805076600495084
-0.55845901638633677 0.23503542886503492 0.65116037078581002
-0.59959702452366059 0.25157039467028142 0.65482151990647708
-0.60126352923781212 0.2782340982810374 0.71014907554472728
-0.50810521062760117 0.24353558005618448 0.70909445756341682
-0.51330474931344483 0.21927910734464762 0.64765389644055205
-0.43149937976556174 0.64227655085267354 0.65824002713403473
-0.44391192208533425 0.64499639020908406 0.68881409724789933
-0.41390741196849135 0.67157617992721308 0.65127626049950038
-0.41341261509188953 0.63429159392987833 0.63135984763517428
-0.44079685578956074 0.6057350175589189 0.66511070857928445
-0.45295048163748319 0.60711504654746795 0.69532542029426025
-0.42575799212946919 0.67512388457696737 0.68130263427532611
-0.39778340666757472 0.66211926794065601 0.62611954299467953
-0.42295867305650958 0.60047040823929443 0.63913875864762559
-0.70573378959157651 0.26525457923895601 0.67592166141625398
-0.72835204625867433 0.24020302902607149 0.67313161670220722
-0.7115551819752497 0.27600528692114246 0.70606939796629575
-0.67657164630255551 0.27865342848660068 0.67875901480523027
-0.69493336065655598 0.24580078821924722 0.64917965145880885
-0.71665875891177677 0.22293842058236635 0.64780932539510161
-0.73460350360892335 0.25040595539729349 0.70286954238449084
-0.68146767537951192 0.28904361820252888 0.70844542952981016
-0.6679956522471926 0.25959850609103263 0.65315661379872836
-0.31524311482121803 0.71648635800598504 0.62568679595818821
-0.32354196149407954 0.72261719599569174 0.65541954874265684
-0.27089557027806421 0.72636430294353937 0.61543267108240229
-0.308313295135072 0.70085299294674286 0.60085125038116161
-0.3549236317512019 0.70670238130161511 0.6351419817857149
-0.36443424550530068 0.71190848765319492 0.66444596329171901
-0.27828753449097832 0.73304438707280051 0.64586632926646104
-0.26520075231735873 0.7094868754973378 0.58816647151203938
-0.34529684911545289 0.69348164982061089 0.61189867824845834
-0.75071784353328752 0.099177807490358205 0.6574113703305926
-0.74867000265309969 0.036470741010282914 0.64863264064587867
-0.75859531921603107 0.10460271075508931 0.68755088056289537
-0.74997623987277962 0.15569806777942619 0.66440436583894069
-0.73444318200794356 0.095843687991026272 0.63056855133805811
-0.7314600124253019 0.035594753650353361 0.61918421482123875
-0.75681691468992085 0.04067164543940871 0.67954163191016903
-0.75723184578094305 0.16287594518203541 0.69389581123147082
-0.73560633140164811 0.14770424990267372 0.63975407390410766
-0.13161360535934463 0.78306169868323749 0.57880653037087626
-0.13608753458417411 0.78797412815672274 0.6114023273830469
-0.089153431374107583 0.80818978678080988 0.56652777159290224
-0.12673756179241735 0.7740856418670532 0.54449175672793615
-0.17709333071620037 0.75939787160139449 0.5916619309442126
-0.18273212807766726 0.76511878584179449 0.62366747725137373
-0.092181030868214719 0.81325472619697337 0.59941914146685349
-0.085563605150291266 0.79994575280355651 0.53117544552967644
-0.17180283588543332 0.74687535680483919 0.55922863574424042
-0.75301152845351993 -0.16064934416624377 0.61421164910694159
-0.75788097386113762 -0.22132214127427075 0.60166057663824546
-0.75832498087713773 -0.15900118486044867 0.64655254805430928
-0.74888480842893301 -0.095900048145119321 0.62660372507777851
-0.743607636485482 -0.16175582647758846 0.579653796794112
-0.7497991613261874 -0.22132151368549202 0.56645201285936508
-0.76263464683209392 -0.22103872847532857 0.63405697557568885
-0.75548712519959693 -0.093359958656184627 0.65869594330145276
-0.73589777595766037 -0.096541110363681959 0.59309378786943512
0.012587723380526938 0.87672213410741939 0.53653623537567796
0.012937746725985022 0.883251388953739 0.56863464897548255
0.042855096667256731 0.88723643927102813 0.52470851976216437
0.011892785079698598 0.86605265221087091 0.50167178273980539
-0.017767879091316274 0.85763961934910959 0.54614742517052406
-0.018272983789266561 0.86383042202477345 0.57878112767580348
0.043885167858508822 0.89384635516448796 0.55604994965187871
0.041019866999945975 0.87626481942212919 0.4906706882421048
-0.017201244191664244 0.84772101162217695 0.5106647027500486
-0.7706944654546426 -0.36746207101407835 0.56936141608021984
-0.76439933113567449 -0.40850518770388966 0.55664809987186459
-0.77508292019659919 -0.37026624668390928 0.60039908648997908
-0.76888835963319835 -0.3241866056874998 0.57969698299185524
-0.76257041004627624 -0.36270085613729641 0.53517644361273398
-0.75656560908852555 -0.40259291122543761 0.52344710230986635
-0.76860389929585082 -0.41179221737620075 0.58682831699498195
-0.77338014639693853 -0.32629821171158158 0.61142441940637582
-0.7608012522301415 -0.32079463248500284 0.54473923184744422
0.15613595828637727 0.84318327724190212 0.46420943693954086
0.15879381993389075 0.84818711571712413 0.49257283103919747
0.19758651181531661 0.80689514036382448 0.44469075951673176
0.15124504310805165 0.836002559730467 0.43209651658141013
0.11450702474981611 0.87031921798281253 0.48710130871143065
0.11666544269234791 0.87609373951259339 0.51644411492131326
0.20068401242878053 0.8111142805677467 0.4723841604579917
0.19194398977135663 0.80185583180645104 0.4125449442648943
0.1105623991369491 0.8611755053687622 0.45459304049641958
-0.6608801334084724 -0.52808242568414387 0.4885889487665267
-0.60276402231296444 -0.55700612383159198 0.46447134801213963
-0.66336524188886514 -0.53213581291538858 0.515831571705192
-0.70986186177892208 -0.49076901382333427 0.51512292121181957
-0.65786374780728352 -0.52060710117902564 0.45778058474750338
-0.60203306835382264 -0.54993045696805543 0.43361955484914461
-0.60443783360836534 -0.56104892297440179 0.49116832564613588
-0.71310988421198829 -0.49468185807459619 0.54326993722654748
-0.70464031682126205 -0.48339570012684607 0.48381043415946579
0.28701748696499152 0.65686930922973374 0.44118120207825484
0.29091545360162385 0.65943775061144372 0.47035294754944346
0.30257118813185002 0.59842057365063717 0.45342718205094457
0.28136089406340403 0.65646823390696873 0.40541291641005728
0.26483981073608476 0.71243457624273532 0.4330842860806996
0.26858289922629197 0.71546871667684186 0.46128889634729831
0.30648141034349408 0.60044564628398156 0.48343237917431736
0.29748092085853628 0.59885805124941349 0.41636381881809825
0.25880174699606684 0.71088531609159666 0.39892849459731394
-0.41509769927668572 -0.57287318268137355 0.44643878120913882
-0.3561032861742035 -0.55952174672571919 0.45579028008467759
-0.41516436018579483 -0.57633707933684342 0.47482197497448908
-0.47679192394814862 -0.57878650698504508 0.44259449065180689
-0.41828462091407204 -0.56918983486300867 0.41169339464128996
-0.35951891926396584 -0.55698508726132889 0.4196729319166721
-0.35589865199281689 -0.56270590638447748 0.48499211154438626
-0.47721311742652617 -0.58248954086916793 0.46999859265036292
-0.47930150231034219 -0.57380349615385562 0.40953779174775917
0.31969485798543928 0.42740736299516513 0.4857090311449781
0.32280993098671473 0.42707551546962996 0.51350332817033006
0.31719791819012499 0.37182724803226819 0.4942450031347505
0.3156599383788361 0.42802597222143213 0.4517132601612559
0.31819726113452163 0.48291729330307476 0.47674745835428212
0.32170538480711031 0.48334162261078717 0.50617877862305249
0.31978546270457286 0.3712227524682703 0.5198325010244389
0.31325955831218977 0.3705183309887623 0.46447635601121817
0.31398764099876075 0.48412807426716498 0.44021392139026716
-0.20269331404391977 -0.49438956128176859 0.48415588927335307
-0.15727225660506861 -0.46544585394020377 0.49172900208466075
-0.20141545928368032 -0.4962329315399856 0.51136290590432765
-0.25014396410434614 -0.51946333401363454 0.47620405443656466
-0.20518606706451692 -0.49266541158205879 0.45059558944339528
-0.1580165170669332 -0.46261562577101722 0.46209134247061456
-0.1560698756179022 -0.46688436462718652 0.5169673678575748
-0.24919604030461073 -0.52181171823258721 0.50489104445946964
-0.25335586795097953 -0.51805826477044103 0.44036439171497221
0.47547046930312575 -0.18524649000675808 0.30661303378730054
0.4638734176784709 -0.22164777503074795 0.30334381373189245
0.45668769425205369 -0.16821754791376975 0.2893651331626188
0.4833259465055022 -0.14899895722474632 0.31260723417668146
0.49983467484259592 -0.20497184568885274 0.32133515752057207
0.48834841253108863 -0.23899577632592717 0.31702746297852258
0.44491315176610158 -0.20728680009521838 0.28718757163740349
0.46391469079256353 -0.12989190216274693 0.2946972196302724
0.50828998933445035 -0.17055348777349799 0.32802085246316892
0.40105333566479118 -0.31623561704616421 0.30295866652937065
0.37717528021951807 -0.30858740863458856 0.28523227948610952
0.42616836771713196 -0.2879657976405916 0.30127456548187581
0.42981537888389454 -0.32773557106931328 0.31829512528723569
0.37416061406860024 -0.34133102335786525 0.30809080999753746
0.34815624805559509 -0.33446418364127606 0.28969051748784125
0.40444861739318583 -0.27866008748109827 0.28482052866745278
0.45303789417477702 -0.30086409107815193 0.31531901679656471
0.40475098799589659 -0.35222508214270309 0.3242103067139297
0.61098695564757577 -0.27757500042247862 0.34870421534115792
0.59942743992419878 -0.30956329553348816 0.34390823957104999
0.5684081438487425 -0.2516624454052625 0.34148770955306418
0.6204187148100857 -0.24411905267903222 0.3550131648302397
0.65587880243138841 -0.30410250857228505 0.35684173626991367
