# XYZ point cloud file
-0.56704212353418237 -0.026437260691289266 0.70653455023868883
-0.57653709703666334 -0.066922691842162818 0.70120687266476356
-0.56297706704676742 -0.11076974243553006 0.71562866284009674
-0.5467497705585187 -0.1119417260287654 0.73264649941426718
-0.53252468597722913 -0.11288656940280961 0.7470669595748225
-0.5200611164365383 -0.08662183579625804 0.76174199552657251
-0.5140058309286506 -0.060931278866685368 0.76527608504446398
-0.50425085317387142 -0.037545479203562548 0.76899086583934695
-0.020663377698030505 0.60924107828618435 0.65035522274063595
-0.020759735345058462 0.62662682907666012 0.62677666564003287
-0.0207494267098342 0.64340948843639989 0.60209591260088002
-0.054671515689087687 0.65759003945369465 0.58355866493158182
-0.08781339330265342 0.64665029148930309 0.59228137912936552
-0.11931063517767837 0.62710868106380557 0.60249463729592678
-0.59858363614459031 0.057801232619461018 0.62286221790046881
-0.61983779690869367 0.0081572633998356903 0.61583863853985887
-0.63330367178241342 -0.046846952263538633 0.60927851592933902
-0.62397068068517358 -0.10577200646805807 0.62827450868803902
-0.60982809095106516 -0.10692030156909227 0.65228711663924699
-0.59515354334988313 -0.10817020036515768 0.67510788246690145
0.0065758196331024837 0.58648169531506533 0.66826794063868977
0.033341298005175199 0.57607701358396457 0.66556987504352616
0.059179384278668423 0.56042513275856987 0.66456199826589391
0.080821099786726913 0.61835992134842876 0.56846598805437187
0.04769569898341159 0.63905990028406445 0.56898612595349896
0.013625574778310216 0.65321259546107613 0.57173701897542095
-0.63263317954444076 -0.1630502596272867 0.59901848278382142
-0.61825226266836764 -0.21881978968918792 0.59546183275442166
-0.5956119333366634 -0.26937248530410152 0.59276307768156311
-0.54856907482986261 -0.23074007490003523 0.68671499613105125
-0.5651940963918205 -0.19332199684229145 0.6890807072159495
-0.57571956442434624 -0.15226906272275276 0.69232289225406074
-0.00014684896886998922 0.52123673472082732 0.73547860876302851
0.017923056516334357 0.5141856575921242 0.73377442956451366
0.035224817856113311 0.5035589222942809 0.73310869986909788
-0.50032523525663519 -0.1899771317473673 0.75237922679303049
-0.51148971501326024 -0.16633299075800112 0.7538198235310114
-0.51883953434189811 -0.14047218518319649 0.75590059159585943
0.043827330876928028 0.47818606986944445 0.75368118706282416
0.045866612994872907 0.48148767834013184 0.74847363766638697
0.047803903105950757 0.4846738361903975 0.74222788944038287
-0.01827818698699446 0.51750145128200287 0.74652649023883377
-0.018234685810633505 0.51365617837815436 0.75263673982810353
-0.018109865785928006 0.50951876610309466 0.75778690469167564
-0.0020665651291950637 0.50012638453652647 0.76053514911556652
0.013050758269903637 0.49475925119975539 0.75877069703988642
0.027103872838967591 0.48499002578232897 0.75858086884969955
-0.48458155824388355 -0.17634773519798141 0.7768673325145139
-0.49468849191647724 -0.15761716452490582 0.77767057846329646
-0.50042360829378152 -0.13642043905974721 0.77966840950922434
-0.50943712164354926 -0.11374019288021464 0.77755545098096057
-0.51306972431965214 -0.11376341320995831 0.77270995034736334
-0.51629397305457125 -0.11374835761926616 0.76673023685125541
-0.48169920991986881 -0.20499159809790801 0.76021954046049256
-0.4791543243787374 -0.20183679089854101 0.7663643399411213
-0.47645272277938444 -0.19854152361733757 0.77143962831772273
-0.079795676934237836 0.48584763305805212 0.76371808290755494
-0.078102953294763383 0.48314798759774291 0.76975241033976927
-0.076163970052905317 0.48027264599952924 0.77467309004653684
-0.060912007148173769 0.48754101959114782 0.77436880858953572
-0.048026042929124546 0.49695952022281298 0.76982111323394431
-0.033331940002692143 0.50136966072927835 0.7662148056030702
-0.50230946791080788 -0.091047525523357598 0.78515939241669352
-0.498364494888062 -0.069433858379645219 0.78832700689747837
-0.48987777658004727 -0.050502071396346881 0.79204755628873125
-0.48318538812273137 -0.028359389864237583 0.79148055718533827
-0.48554672862866888 -0.025490300770089513 0.78659219221920429
-0.48760138866931219 -0.022807893555289782 0.78055916008084258
-0.10253881925029396 0.40760871817822486 0.78139570020569504
-0.099769799051912467 0.40721642928352475 0.78692938951652636
-0.096800285799421487 0.40668714757396685 0.79121267196163236
-0.091421946009555721 0.42578847450446911 0.79124400018469476
-0.088649052764497957 0.44435804069786777 0.78750630374369113
-0.081792729591428165 0.46057115280042438 0.78350093686490307
-0.46591311791771811 -0.020341740508529549 0.79906591424100348
-0.45174414044421624 -0.010673256774616391 0.80196682842980049
-0.4356544782257189 -0.0068092951057840967 0.80466203658448476
-0.4191156087587149 0.00074318612621349089 0.80322715154358404
-0.41949730830121923 0.0048405647300586718 0.79872355464306288
-0.41965289112120585 0.0087565021086630779 0.7930800258935875
-0.068931826976727006 0.32672510292211387 0.78821073294625732
-0.067120195628908808 0.32870305595968219 0.79350435493805982
-0.065303283785731858 0.33068673072369137 0.79761026011621805
-0.073902080455209296 0.3496787779559003 0.79979197997028617
-0.083344334135890874 0.36667971663871879 0.79860687626317972
-0.088747434076208553 0.38583061021270648 0.79686827728690535
-0.40092339938913396 -0.0097507588608098938 0.8082358900492963
-0.3839553212837572 -0.016104972584614075 0.80908921351335561
-0.36841641262682862 -0.027336609070834017 0.80967031760066677
-0.35073130196402647 -0.036655913009859376 0.80677704153038743
-0.34900535123893095 -0.034159533442837731 0.80251306376950859
-0.34726167079367415 -0.031677207739026159 0.79705120064865254
0.0013012555977566509 0.29794533655788991 0.78650079988533239
0.00099713980716456541 0.30107148931571404 0.79183133280431139
0.00064743026210267729 0.30416921466852864 0.79603874941298214
-0.016922742560650045 0.31031447516124477 0.80047156715368084
-0.033199517098987996 0.31397217270018052 0.80101737242588333
-0.048146556428706855 0.32262476056832612 0.80100518726630732
-0.34195035763642245 -0.05735493297999894 0.81012893408115083
-0.33239021226153004 -0.074701252462045842 0.80994112317470668
-0.32696859793035976 -0.094029137731142187 0.80930139918285082
-0.31857533835655705 -0.1140830631005898 0.80481584263100281
-0.31548855905979739 -0.11395664614173917 0.80054130228705445
-0.31242841368885899 -0.11387190801809943 0.79500197754263624
0.065094329647953197 0.33476636036164598 0.77205433848698624
0.062928081702195937 0.33642267729439257 0.77781637078937171
0.060675418953864746 0.33800995452815452 0.78246207610966989
0.045012933388758114 0.32818168687264215 0.79050487381347034
0.031945047486502648 0.31804692641721366 0.79399521930641548
0.01654520318126379 0.31244917504977709 0.79695458201025593
-0.32405993433704605 -0.1347171277142416 0.80591825410974227
-0.32680819689540763 -0.15418685951252686 0.8031910135623761
-0.33421341030566143 -0.17191820043497219 0.80004306624272825
-0.34053933677432707 -0.19263560305044591 0.79223791502658303
-0.33839642815299276 -0.19495961517639793 0.78745171072439479
-0.3362816508906431 -0.19734256671213846 0.7815280843848762
0.083873110919173655 0.41322617900295566 0.75296828470963106
0.080967250858834661 0.41255714883656003 0.7588671391162376
0.077863920193549818 0.41167895771343677 0.76367649186477848
0.073407711834541589 0.39183398397209968 0.77250669769309388
0.071630386419564596 0.37363774098187053 0.77687633815490997
0.065391390110030756 0.35677324231061713 0.78169526545454193
-0.35797316508946042 -0.20277722388775543 0.79230230257792611
-0.37306087314196246 -0.21424844829178036 0.78824468288800631
-0.39027856143006662 -0.22066226823878599 0.78488558745166381
-0.40834168655119568 -0.23058749681523238 0.77690684034207136
-0.40843210742875646 -0.2346745603177387 0.77193773361830731
-0.40839309167717253 -0.23862537793155125 0.76597271396210331
0.05233377348851978 0.45948705062905848 0.76006968789811191
0.062226664248660968 0.44494367716670347 0.76167969534706259
0.068507778770234784 0.42834351192751452 0.7646725788512998
-0.42610062747396504 -0.22244098376985755 0.77924958777841402
-0.44285189079161008 -0.21756789294815615 0.77728012459338558
-0.45797896402376054 -0.20710002582001241 0.77664882924377032
0.033439362194085165 0.46269936174651183 0.76652295307653917
0.023614420283007531 0.44864466077526166 0.77508654019924306
0.010739862526947419 0.43072129360577671 0.78449909732749967
0.023232034660662454 0.40425249157966703 0.78802108802824256
0.044354426188824569 0.40641534901005305 0.78090913964093245
0.060700287105881878 0.40855537489379357 0.77430271095191427
-0.43597052645071543 -0.14733378005743325 0.79955679636757138
-0.45130247723825573 -0.16697563270127191 0.79118361857384967
-0.46331814656213099 -0.18218348881879365 0.78343279778916042
-0.40871836399844363 -0.20866861146355475 0.78821728364387145
-0.40933344645835068 -0.18765403218319654 0.79510491518462612
-0.41014249381426482 -0.16015879691299095 0.80211795745755898
0.016351942349906057 0.37629773200141448 0.79550653537674876
0.033447647385281942 0.36057641764591697 0.79322312465143385
0.046836027049963536 0.34902040385351452 0.7900978852478624
-0.35410616910608161 -0.17888718665857972 0.80057054326060229
-0.36747168943505143 -0.16510005861376209 0.80436982576068772
-0.38478039960709887 -0.14667713745630162 0.80754187809625799
-0.0061731036402656869 0.3640662695805994 0.80105926996323928
-0.0036031955173067287 0.34039078415170931 0.80205554446258365
-0.001540602045128181 0.3223970581779827 0.80130726134579033
-0.33631679841665246 -0.1148872363253064 0.81034178843553795
-0.35354077477951307 -0.11549867343155151 0.81168268246144626
-0.37595987353778737 -0.11604554248121124 0.8119272685489376
-0.03091275202658969 0.37456692604209074 0.80158824072071599
-0.044251226648319375 0.35709799039703172 0.8027619096232157
-0.054611150066192993 0.34383589061870712 0.80234115340844125
-0.36186834853532179 -0.051674637684917535 0.81232506658506853
-0.37310227324022588 -0.066421477850514554 0.81353008382457848
-0.3879671856516681 -0.08563703760751773 0.81338384682321863
-0.043287726693256368 0.40275276103695989 0.79852599917812572
-0.064154834597733634 0.40372841963214423 0.79823464686211221
-0.080156518407344501 0.40487049986459445 0.79683055926615154
-0.41740886331385474 -0.022052937390387273 0.8098383314562061
-0.41602991844201059 -0.04383807352149649 0.81177621994047389
-0.41430304959563158 -0.071971459664840198 0.81225074822258136
-0.036082705363231993 0.43089537649076148 0.79259208374011969
-0.052110451435397054 0.44962798932651871 0.78843275133481683
-0.064111141803529448 0.46444991854999973 0.78384644145078308
-0.46950297539274916 -0.045651204208192686 0.80011496002853599
-0.45634760255724099 -0.062324447708778541 0.80409106222125359
-0.43918446486925933 -0.083670477646924368 0.80740745544849801
-0.013491612132602859 0.4424020618916733 0.78650373820465846
-0.015421306363458342 0.46812493036508118 0.77812566189738464
-0.016815566272905286 0.48811617939503682 0.77018933073424289
-0.49002455879986673 -0.11428337793933085 0.78809112246567903
-0.47183880652227683 -0.11489109618938054 0.79458540373137199
-0.4484092628549517 -0.11553144761507594 0.80157336110557997
0.82969055923444401 -0.45025050327534966 0.56140409209396469
0.84974898040693336 -0.41977815831533927 0.55658995050186189
0.8673090340180083 -0.38951743360654567 0.55016930144804488
0.88225685478272942 -0.3578019879957639 0.56446001602495532
0.87776764188938627 -0.35604608475938671 0.58438904156388949
0.86946646501651881 -0.35541642537160678 0.6028246383567859
0.84547168492430935 -0.37999610162534236 0.62307028669919373
0.83055249149620525 -0.40524127497374862 0.62607235343019596
0.8130425157489658 -0.43144974312258655 0.62867321958125766
0.79943253634604716 -0.46442179666616279 0.61660892604214035
0.80418527489062419 -0.47059005869303561 0.60124854270967076
0.80685540624314966 -0.47599521783555399 0.58390521511893256
0.77109249053392037 -0.48329399983582788 0.63124387835552076
0.74788001776269752 -0.50748438660626505 0.63117700134535371
0.72452987169517491 -0.52971924394481329 0.63060761249356823
0.70058538612347976 -0.56429420058356228 0.61319708228692194
0.69943768913747428 -0.57618046598206218 0.59501803301710265
0.69786846409487535 -0.58505404090914226 0.574981611630347
0.72444007179344883 -0.56514434883802012 0.5578303282300574
0.7534553868205538 -0.53799909045616645 0.56174765161394036
0.78122995682475749 -0.50969342189827538 0.56399180004391947
0.89599089677165789 -0.3318812338853081 0.53490568219846102
0.90638732175061865 -0.30534479171668294 0.5274186863785657
0.91284948364740659 -0.28066273573688383 0.52101088301308041
0.91296049432749915 -0.26281015595867951 0.54314639480292803
0.90502200971600844 -0.26862686551423809 0.56892778980987724
0.89142019705255393 -0.27546514088232166 0.59345967394519672
0.87519233945087094 -0.29999736623991979 0.61533778785164839
0.87301434869014927 -0.3173087282190421 0.61582058635305681
0.866995671396255 -0.33593638734225939 0.61752400034990163
0.68175100024243185 -0.56583001496727392 0.62917072500031734
0.66260949016101933 -0.57881529383740338 0.62893171909358236
0.64383622411692576 -0.5880982812130211 0.62947115795111985
0.61653626461023636 -0.61792165899020191 0.60939084090381912
0.60738109746221247 -0.6388163712570305 0.58554415907122492
0.59719131051071306 -0.65516040438182044 0.55975049561627865
0.61144141432037769 -0.65393931003923012 0.53603902929247282
0.63826496540519495 -0.63658403083005899 0.54120804046321691
0.66624489791156838 -0.61517390044175624 0.54700004784238621
0.91013256778580476 -0.23782277262861551 0.51444946257040947
0.89991882408436585 -0.21895159283328147 0.51490190513517553
0.88361757432360533 -0.20053143465284973 0.51762280126201254
0.86674712887679317 -0.18956901635267931 0.55310444488103672
0.85999534870342798 -0.19805510790152336 0.58266862658356455
0.8434056751656841 -0.20745332615387935 0.61042180560476589
0.8385206389819303 -0.23363154621893822 0.62952644358385168
0.85407060678580327 -0.24982623796396752 0.62398552806012852
0.865741118006497 -0.26647333213689173 0.61947356856733649
0.60376908850481248 -0.59463703545361457 0.63433225798463244
0.58188839519425095 -0.59214925074234204 0.63862364415937778
0.55923834876615242 -0.58646123056568045 0.64359092797525363
0.52762724329547217 -0.60768289932853148 0.62472660104284117
0.51741951509839434 -0.63197125075635752 0.59748785851439035
0.50486734692099544 -0.64838704638777078 0.56755541891053296
0.51544510726508863 -0.66536113764061788 0.53212124165076236
0.53938931576802807 -0.6712111518875532 0.53035551956534488
0.56249001211346805 -0.67160234045811373 0.53033199061678515
0.83169568542129324 -0.16148954112866498 0.52928282319629472
0.79618891202477182 -0.14032636864257686 0.53732295934510832
0.75494885701539882 -0.11848738002308279 0.54582527285517646
0.72214900135537818 -0.10810865062298758 0.58493952226136647
0.72339884985681835 -0.12272902146153619 0.61349201749153215
0.71534311709731235 -0.13948191233033524 0.63910001019443063
0.74040627725515451 -0.17446882727826818 0.65471673396684005
0.77220287259992115 -0.1894805813006557 0.64829459522995281
0.79807924475314429 -0.20376135148452779 0.64193433307042147
0.51304920655990127 -0.56733955593477958 0.65372189422934124
0.48812320545471277 -0.55378025285559285 0.65846980506182407
0.45960327129683753 -0.53675766763589849 0.66314140593741655
0.40779447334545482 -0.53997771665386152 0.64592001593230752
0.38914194512821815 -0.55945550454285398 0.62003619265805598
0.36945716367048026 -0.57114917905645179 0.59079693474020267
0.38881496978674357 -0.59753034038740527 0.55273385548838094
0.425854272124361 -0.62006994587918052 0.54641812152660307
0.45937095157994823 -0.63926327680845718 0.54048007957909761
0.65764743429100947 -0.073810866475387149 0.56111314391297773
0.604924870166337 -0.052351299302645371 0.56721506460490057
0.5531482307241109 -0.032941118325447105 0.57231788614959211
0.51185192660382905 -0.027258875261306992 0.6080232874741982
0.51039178546320751 -0.042369217599838693 0.63778950010901192
0.50265437084030928 -0.060776149174526672 0.66441905357474695
0.54297077778134417 -0.099308129339069406 0.68125415020492253
0.5982746606919418 -0.11892536408581122 0.6748066991209507
0.65232729045528748 -0.13889035682991779 0.66800711544642355
0.38445807905729007 -0.48974364166791018 0.67304551838489646
0.33931775036526451 -0.46089369746678344 0.67833095770903329
0.29370424427613628 -0.43097693493140876 0.6834089986966585
0.23232108022438547 -0.42423346775529724 0.66516103564070383
0.21405064575053245 -0.44271363753532111 0.6380689685388572
0.19688258605513553 -0.45509910042640023 0.60769273585719996
0.21873833730431202 -0.48702168914158395 0.57228675562895126
0.26080191383287749 -0.51595232298505511 0.56850150600605676
0.3049003852760418 -0.54469279844636143 0.56401305594582363
0.17960249297289294 0.063071766343615776 0.72195984555054649
0.20846933404692891 0.069189025472055521 0.68136877366100013
0.22945017406489338 0.074346349937363776 0.64199536661631296
0.24816614905027262 0.11408737787825451 0.60242008388211499
0.25960582919923297 0.15874587339617729 0.59419970728457683
0.27336561922130348 0.20912738693339739 0.58403750054394266
0.27466130640145758 0.26135994517925099 0.60001023313578594
0.25775796251676464 0.2627482886911392 0.627699556947793
0.23770389118271984 0.26576417106794947 0.65374354494338593
0.19917989629785277 0.21805102352532946 0.69507841068364318
0.17830653122770324 0.16559395853939707 0.71683560414854508
0.1562523664399339 0.11299427607023826 0.7392367816993386
-0.090409818538616904 -0.22170235852217024 0.73895276775153818
-0.1364815131653081 -0.26341516524868469 0.71667235070798574
-0.18264200629968974 -0.30461584068701231 0.69550296776481524
-0.21794860558622231 -0.36353992682910774 0.65395682006008338
-0.20755600601025237 -0.38325848344197033 0.62682456663097774
-0.1992126482133334 -0.39989968857375668 0.59803416963213607
-0.1457351926726006 -0.37639297910730929 0.58038423378600434
-0.099808674561835176 -0.34179802695241523 0.5904846204207117
-0.058751257989053729 -0.31224406750882649 0.59911673331477378
-0.025992088919087109 -0.27797120166548583 0.64035049659643573
-0.028815735428392553 -0.25601310119674237 0.68067723264103952
-0.032630781894586958 -0.22581245744444955 0.72200764242819382
0.29427087178426398 0.3134897745286418 0.56489184925542979
0.29835747533719459 0.36484076413921174 0.55655355281799501
0.29832867371947841 0.41658434831557933 0.54725751429526692
0.28560762906332565 0.4708953190038303 0.55864032593916813
0.27176943334057424 0.47208917677003281 0.58103180591045511
0.25508733999575151 0.47146098707849915 0.60201508252071401
0.23964091883309727 0.4200242869591897 0.63235963860514399
0.23692854708592401 0.37126011607341236 0.64474594435984178
0.22937804844506732 0.32118988572531282 0.65878847387394135
-0.27644512241204827 -0.37632624670149339 0.66138143041673469
-0.32400106043248966 -0.40408306963363083 0.64913181869941017
-0.37152708591431011 -0.42589313212041757 0.6390972449131791
-0.41668301476401981 -0.46360132409997479 0.61066355085105117
-0.41065721976886149 -0.48325105831404391 0.58832404482719891
-0.40303927379765425 -0.49837832472239074 0.56437311091640563
-0.3436944413676859 -0.49001652585158828 0.54911233558802497
-0.29279662263255779 -0.46826211409460927 0.55637550235281186
-0.24315179836817552 -0.44202581211585823 0.56307505324992713
0.28645537295488621 0.52405133249854829 0.52006773840524811
0.27411984429040837 0.57833497302337666 0.50419964362785885
0.2568680419423322 0.63033482369681848 0.49175643619602205
0.22702463285845959 0.67196848537839537 0.5127565347677181
0.21577084869678054 0.66196520634738021 0.53978962079604376
0.20266700109621127 0.64897551434804668 0.56587058562261028
0.20691028430123898 0.59667944876701506 0.59218504692863272
0.22094386315303929 0.55635237083011413 0.59946586185177786
0.23134383277471515 0.51300648616769418 0.60946850367584648
-0.4653743084206281 -0.45017193989319026 0.62203690442964632
-0.5108263209523789 -0.45200647594635712 0.61536554330952509
-0.55442303829967632 -0.44653968538420252 0.61164665086674974
-0.60631794749713241 -0.45660393315528225 0.58919740695749034
-0.61382613809969122 -0.47927722753309543 0.56274033391250011
-0.61809856960407505 -0.49828432952248081 0.53474103674379148
-0.56411954631933692 -0.52387668632704276 0.50718817331881683
-0.50768143754954764 -0.5261614893248836 0.51499217070124947
-0.45138472276953451 -0.51991030973323138 0.52717068732067451
0.2069203357227235 0.72131510202651095 0.49335836582852277
0.17777615649639272 0.75825866717654034 0.50765795388259827
0.14961619172616347 0.78796855201870986 0.52583710008560258
0.12173427103188128 0.79665212349696213 0.56702145850565389
0.11800935394850026 0.77906264613933174 0.58775906552857826
0.11349770881014506 0.75742616011937458 0.60544692070337991
0.12781610370276253 0.71711553572338582 0.60782800193252262
0.14836636105870982 0.69428910877644512 0.59817006221573044
0.16947870086698552 0.66613547973662746 0.59147249357930765
-0.63306872089848765 -0.41207037865652962 0.61766044577311208
-0.6657183177552336 -0.38477104703401599 0.62699328313729596
-0.69196269760965468 -0.35400466318407253 0.63862362714708354
-0.73304075191773088 -0.33148383475146348 0.63901896634879041
-0.75307818216333722 -0.34031073865171191 0.62249435557085286
-0.76890143067270555 -0.34783068905946757 0.60246325057679329
-0.75450838870293147 -0.40023650347207473 0.55935905148439646
-0.71803759473223316 -0.44549014067100257 0.53782251482280419
-0.67193006865353899 -0.48355919843546524 0.51908005588833062
0.10148537498719573 0.81676465502251272 0.55912271817793613
0.079411940697532907 0.81537865608620597 0.57189172794248622
0.05562334367776231 0.80710335841465319 0.58360102527363722
0.029645920577081701 0.78523398112879783 0.61976068051351429
0.03101971460414036 0.77020874817305374 0.64126299580673285
0.032176244542745654 0.75178503151416876 0.65816129788482414
0.056931363248718128 0.73989426209737297 0.65562909401524605
0.076118102851885458 0.74383346171957743 0.64297624529644093
0.092639523356958561 0.7421116583850651 0.63083485325049127
-0.72044943594777267 -0.29390189831103974 0.66379341223986321
-0.72314286382725412 -0.26439670980723462 0.67659897860296114
-0.71995325990511527 -0.23049137393086738 0.68991929594866086
-0.72979753392310009 -0.18415929852050583 0.69417444213126434
-0.74584220875413698 -0.17903173509488135 0.6777967626547472
-0.75870301330422207 -0.17416546655025389 0.65624152656566537
-0.77942693808114782 -0.22063036940271075 0.61972324630581577
-0.78766185383248688 -0.26544584688543882 0.60826362590725935
-0.78852049136494995 -0.30849001282526389 0.59545151236250238
-0.0036397888755589497 0.78323502376831833 0.60810752160274673
-0.039121885463296507 0.77271351880458816 0.62128224245665775
-0.076534524943646889 0.76489202201029638 0.6340482203616582
-0.11519101940334661 0.75050406429479244 0.67132201806712777
-0.11485829579843833 0.73410459857839938 0.69418247375207232
-0.11299030161862871 0.71360818084923272 0.71198211408953505
-0.072429202233444248 0.69901439176450264 0.71042376929061302
-0.034621803911213639 0.70948562357190736 0.69689317449796828
0.0013553188966454188 0.72094409446048635 0.68281310980205978
-0.70017819649062729 -0.13378077441129488 0.7180205390379002
-0.68571595547436326 -0.071424170262243569 0.73138537043837371
-0.67005686608872095 -0.0058838974115429377 0.74307504795914303
-0.67109344783617253 0.073130573633864326 0.74290426249909203
-0.68628402869296645 0.084212090089937242 0.72552428236825417
-0.69906602250477645 0.090764357546750718 0.70263419844516495
-0.72226264684733521 0.021792237759851396 0.66693055722279126
-0.73749505569062446 -0.04716481946647666 0.65574241677026279
-0.75262076920756549 -0.11212850473854541 0.64351561442889071
-0.15070544139034109 0.76197717901386253 0.6549713072238843
-0.18491479001465361 0.76475885411661837 0.66301185360318016
-0.21634996174622453 0.76566310229456302 0.67039407905416848
-0.24248171456022999 0.74783811669601907 0.70366577715239265
-0.23713543819494506 0.72729295055045351 0.72655323557737228
-0.22892684644714667 0.70130665868488817 0.74412875438241777
-0.19620667734043162 0.67980283844699452 0.74786585234644587
-0.17098906323600188 0.68374592432224257 0.74081259259992249
-0.14205634448536653 0.68667097795103005 0.73257044953965078
-0.64213845609320486 0.11578520430210837 0.76024727894600641
-0.63041136755760907 0.16667133004713675 0.76623369634511951
-0.6183653500556362 0.21019168436529756 0.7711076215323831
-0.61853857051860273 0.2794684554520952 0.76520754420192283
-0.63139955258821745 0.30757855538428869 0.74735532506226576
-0.6424566711059968 0.32767955762304957 0.72398801025279447
-0.66840903264013241 0.28779669222473991 0.69358758973620471
-0.68282893227414099 0.22823056204554715 0.68929205332360066
-0.69540333057834092 0.16206985657567574 0.68376131112810867
-0.26964353696851667 0.7455195456066559 0.68550185600855329
-0.29077482913275254 0.71995655947266224 0.69359994233674627
-0.30729597535334391 0.68407239464002845 0.70183520163240054
-0.31229681203959286 0.62862493821807619 0.73431117491241249
-0.3017714477190695 0.61388408043126153 0.75502392607048252
-0.28776868570813474 0.59563515385773202 0.77025091073024354
-0.2637623261950407 0.61092480811291883 0.77231199622548896
-0.2520231976061349 0.63857656401439922 0.76637220768336967
-0.23665986344803794 0.65885241774423409 0.76036263376340729
-0.58809748773740689 0.27263745937051187 0.77927015011794465
-0.56855345429682969 0.29045896066175603 0.78304107756864783
-0.54592644493981213 0.29886192534582356 0.78664651271681851
-0.5262159148539941 0.33350313092986328 0.78114147012210333
-0.53193212026864145 0.36467994692751082 0.76478424576814241
-0.53708110358194505 0.38824233292290344 0.74296132406396254
-0.57317358591284762 0.4063244377868771 0.71217163220722979
-0.60221588183911312 0.39732099219020989 0.70677849299251561
-0.62828254428274599 0.37428743212210702 0.70183759518905608
-0.32185877721881451 0.58376266333347515 0.71778594370386717
-0.32002738609643078 0.52565806298215323 0.72441177371791321
-0.31476156336405459 0.46906827353400971 0.72937817065248289
-0.30330433826967007 0.41153022598204148 0.75544105470077216
-0.29331186139987164 0.40359164538328396 0.7743393229499036
-0.28038002892955949 0.39620324526556017 0.78782730325965877
-0.26971588865520435 0.43638804553219313 0.79247565613977677
-0.27308309825703292 0.484525099697386 0.78886607256646579
-0.27410704842438355 0.53209758857392764 0.78393942935623162
-0.49005806620695525 0.28711566376157638 0.79318415527356789
-0.45775037018737941 0.2714018132699032 0.79582400788797436
-0.42457580069809536 0.25456512487291905 0.79770534420334283
-0.39326215762144323 0.26256934130606124 0.79108814616982936
-0.3959086182521464 0.2830273064309865 0.77695114102302387
-0.39960732723657266 0.29908823013990893 0.75755418968494626
-0.43658150661466383 0.33032176947423975 0.73176470318155262
-0.47185932591750152 0.35684154182417638 0.72790285448407488
-0.50736855092289446 0.38254007693463632 0.723114228653011
-0.3061138421355441 0.37752650551449873 0.73412227182285594
-0.30691931372332876 0.34541227500440708 0.73468609559322173
-0.31178344813811826 0.32123071991285346 0.73477929762578409
-0.31527604961094724 0.29580721559558598 0.7566552812273013
-0.30633367207338913 0.28214901750382415 0.77469837850378909
-0.29398265829956438 0.26348822509818515 0.78808788978840072
-0.26658371493688893 0.27903077793637809 0.79450890159002441
-0.26394861018369603 0.31485699668871825 0.79462934481389569
-0.2637986021524088 0.35134373819277376 0.7948999503729528
-0.36330376643005713 0.23124731879603622 0.79795610796030259
-0.33582542283627154 0.22725086192408472 0.79673746119149058
-0.30835252137781621 0.22769721396042741 0.79567394745873532
-0.33438871727143993 0.29413547714975885 0.73527601914500673
-0.35253620134957442 0.29104240904044665 0.73564634610439539
-0.37558725567749129 0.29554167043961721 0.73551166276632518
-0.25110988912863447 0.38958354669244089 0.7929043870748318
-0.23636135150242688 0.39085338433345118 0.78611312469430272
-0.22191241936149664 0.3936434501713042 0.77716292065785408
-0.20928625655318028 0.42583278321729923 0.76609803994326553
-0.20810891785363889 0.45434837056966404 0.76214176106994946
-0.2047247844697456 0.48125657225607621 0.75755383252776598
-0.21641598030453588 0.51918585516363169 0.7607937623487806
-0.23491858030501672 0.53595351596879448 0.77003710581002371
-0.25354471944068174 0.55509985148313534 0.77696652843023006
-0.5129875879544652 0.26037628687727432 0.78961890083649333
-0.50548424620746657 0.22377540517280625 0.78319969919341981
-0.4977974831421097 0.18992468546151686 0.77420342511714058
-0.4709723897383033 0.16431958221074305 0.76941596779611077
-0.44967392156850267 0.16488591420773568 0.7724400922604997
-0.42741466679073753 0.16244074405064479 0.77500891788787118
-0.40109541897438239 0.1764429927385418 0.78405751940106061
-0.39719405388235607 0.19684709485640695 0.79205839980305859
-0.39399516530542422 0.21815764312499231 0.79786434901205805
-0.19199296843129507 0.5262960803369976 0.74791638704070396
-0.18273691482251353 0.54382062359530869 0.74324843790824557
-0.17142635597858755 0.55851385098640871 0.73865508928497947
-0.17297309481077691 0.59084051928267867 0.74103881825766571
-0.18902562629330708 0.61527696736950732 0.74911694789969863
-0.20443733183769072 0.64297981318097297 0.75470052035202517
-0.59052165068667128 0.20876298971675089 0.77548403385024667
-0.57613685100897338 0.1717914682314885 0.76935398644429132
-0.56206614883392902 0.13758224154331766 0.76058827159431841
-0.5370016666575308 0.12760238217837006 0.75625403841260974
-0.52332632677129476 0.14248299811161713 0.75955436654379049
-0.50797594649218669 0.15337181021312873 0.76286212731711656
-0.14209243135728705 0.581070773304875 0.72954350214476937
-0.12372038776470407 0.5904278884323706 0.72437172007895834
-0.10262224309523474 0.59992270581604279 0.7179623041653489
-0.086794599772138659 0.62745291892882249 0.71384069010308915
-0.095332676466066052 0.64692040045109511 0.71987308403402395
-0.10310355476098282 0.66839892755946928 0.72402515863812589
-0.63888158439826714 0.0398051331267959 0.75276559105174412
-0.6232149225271264 0.020410948063672496 0.74710111925017131
-0.60825972466568068 0.0018535660698502099 0.73959311825170193
-0.58238232527340128 0.023734500945701731 0.74089951808086463
-0.57121922256005564 0.056719603922370965 0.74586207394626092
-0.560436629362281 0.08491399461077731 0.74969125702157857
-0.05159325924110561 0.62361332566689809 0.69886322286200908
-0.023506430383282928 0.6370785413915101 0.6867923481978524
0.0037458430679290361 0.64917961005559399 0.67473105240352238
0.029882760212832316 0.67433839628000891 0.66627785351662716
0.03129080746724669 0.69242567471371963 0.66991331669413023
0.032345575063755981 0.71172864698321336 0.67177426982823629
-0.69379708606718149 -0.19022937157968056 0.70514276409604371
-0.67573693943916369 -0.19030060947561478 0.70153634067343873
-0.65848155473977243 -0.18901723371246848 0.69625656442235639
-0.63467423064000572 -0.14672333241121094 0.70312849708676373
-0.62273751455525439 -0.10247507344388884 0.71438062136699676
-0.60877014886677139 -0.057286201187171981 0.72507149346290367
0.048671738186838717 0.6615422044341901 0.65559497405185274
0.065862928584232025 0.66011197519184317 0.64937222670529682
0.081148036847712213 0.65406286441093409 0.64488521107954533
0.098947952761353708 0.66334764849342998 0.63761448873137017
0.1019802764533931 0.68549883668048861 0.6335916525279699
0.10521049081851885 0.70922865255635137 0.62798999028432112
-0.68738016385347256 -0.31511845565656316 0.6584200209394715
-0.66456318561151284 -0.30824435926509053 0.6624307112031893
-0.64321708533337874 -0.30151821283298763 0.66512746059998129
-0.6359683034965331 -0.27237849647688561 0.67221142533531841
-0.64304926025651943 -0.24815190806805409 0.67732969660869546
-0.64544848921363518 -0.2202348529604794 0.68400220997680083
0.11083652158440585 0.62974353514928616 0.63962150037164545
0.12588673992979363 0.61172489177959477 0.63889233043012972
0.14023576417678429 0.58945002864644569 0.63995227905946894
0.16078336182443287 0.57861899890647783 0.63334391746586016
0.16913534969087468 0.59681351469742205 0.62176491828759328
0.17861442818087392 0.61557573808685384 0.60733532842918914
-0.58117233290435943 -0.41276122565458584 0.62944611237076487
-0.56532052344358519 -0.3945176805331192 0.64278989021914734
-0.54963609547197989 -0.37835999380277485 0.65339496742781789
-0.56474357075364123 -0.35216750420841758 0.66184744813618179
-0.5890569302783395 -0.33577157367517252 0.66283267264321433
-0.60892941625910924 -0.31610863643992193 0.66507076118145969
0.16386701184144808 0.5305953890972579 0.64868851199242039
0.17219110094729179 0.49525833970134503 0.65586180204205835
0.17789872111445904 0.45827257313681358 0.66399656606414048
0.1930699952292097 0.43228568375344567 0.66206362256419204
0.20675301600670057 0.4452594964032115 0.65031666092926166
0.2216355950836213 0.45776949332030248 0.63676338149186185
-0.41452722624616156 -0.41869980247620475 0.64663504663032745
-0.40677913498172091 -0.39663044940349179 0.66018717663395865
-0.39811981087025827 -0.37612384436082835 0.67184869367653066
-0.42803516563275418 -0.36653560810781194 0.67547559737102292
-0.46568817742831214 -0.37071795218101578 0.66956556435167736
-0.50223481282430371 -0.37004626157412934 0.66511903444773868
0.18027112020734581 0.3865625368287986 0.6813055707613378
0.17562142305879991 0.35344040703498947 0.69036682447838604
0.16574605203166254 0.32182824447894465 0.70000500707986157
0.16343390410298858 0.2858643634977065 0.70508015829388704
0.1794218980544614 0.28028793521783313 0.69880434586286411
0.19731703407401768 0.27494678081653601 0.68957910563272762
-0.24031703155183726 -0.32423957465096787 0.69219296591339941
-0.25119145287437389 -0.30739092656926292 0.70275865975407781
-0.26166091782857837 -0.29265578312772789 0.7103009250738066
-0.2970178563131593 -0.30783965420179782 0.70662941528034429
-0.32552539644257372 -0.32950696530834112 0.69766929955176815
-0.356938925287627 -0.345995656261743 0.68967161192897741
0.1264469621734155 0.26240714929444353 0.72200725906206964
0.098669252761395626 0.23592920268330797 0.73348623492036191
0.069061792234781844 0.21354464688516894 0.743752583330207
0.053748200989844064 0.17068914755714149 0.75445491324636071
0.072605761434103744 0.13825067988745032 0.75893808083606462
0.097534879159605237 0.1006296620156375 0.76287781728999393
-0.095633392596207845 -0.15981184110263125 0.76326606305022571
-0.14014177837463559 -0.14791782845172086 0.76012444134061408
-0.17730169110012362 -0.13926570521972659 0.75697317248395724
-0.21586374447184492 -0.16903651106308182 0.74871360800429088
-0.23032391946077024 -0.20751519740571034 0.73919509511355974
-0.24907396798788695 -0.24564241393960984 0.72810148866527724
0.015546216833271648 0.18644389642101644 0.7557664167254865
-0.0064101054737895069 0.18185947214005971 0.75740335438837381
-0.026330332017769353 0.18177021374615676 0.75765592230200296
-0.047350690096405579 0.15603728453685961 0.75625236084205838
-0.050234931057062671 0.11904542084291614 0.75519489355346492
-0.053988042403285808 0.075106903432240024 0.75361358180038351
-0.0058868409025040203 0.031647246949535468 0.75648317515086339
0.037188907739303834 0.040067272466772108 0.76279171118560818
0.080799235492130694 0.046711570738978025 0.7673246496637014
-0.046852048692774706 -0.12535201597906798 0.76858884279144091
-0.053545536111459457 -0.082076332323280488 0.76421941913555136
-0.058152117557862482 -0.038595900328682209 0.75746884338469256
-0.11269626584471526 -0.0031637806986959394 0.75340878521291943
-0.15308373291307542 -0.017615127775092221 0.75546743883765011
-0.18711647742699161 -0.029121718058829904 0.75762608654465957
-0.20693051811822799 -0.057662906433913808 0.76026954160838622
-0.20274481158913379 -0.079217111590162981 0.76017988471335141
-0.2022248481620659 -0.10399199841522178 0.75900398641600075
-0.18970290926902666 0.3145717133199375 0.77170917125854066
-0.19828383044008088 0.34051473929897891 0.77178487302621868
-0.20443275536128436 0.36809661669766469 0.77097709365341061
-0.24053438848123096 0.25078131166912598 0.79011515957483969
-0.21626022601102921 0.26527511418910432 0.78324695624149232
-0.19575804791580798 0.27878573778935989 0.77631013829360818
-0.31114995413904939 0.13368607104493124 0.78064742298204859
-0.30015794850779121 0.16011956330702981 0.78656167322822856
-0.28809095170942745 0.19141585159512098 0.79206571219587296
-0.38262569572339156 0.1492197552763328 0.77773569550169563
-0.36101244486823031 0.13886146237177033 0.77778935449299658
-0.34030524924089378 0.12630680320599974 0.77718707172509216
-0.13437760824204462 0.23516102627260405 0.76619731038926231
-0.15066037006689648 0.25130092284022387 0.7680623547093397
-0.16561041253874689 0.26978813828829828 0.76967887059409756
-0.24819110905219402 0.20050674827153392 0.78863047560798094
-0.22642254531502043 0.17420699790709104 0.78165806622604084
-0.20504222647161741 0.15012924790300541 0.77496052991033082
-0.16401696745113931 0.15312532351732111 0.76746969948098709
-0.14606290275847666 0.17831274419561582 0.7659064504791
-0.1302436351420288 0.20142497356204014 0.7645623205511316
-0.24156956639996091 0.057034429611521498 0.76762497395273899
-0.22324519350956493 0.078205095046754547 0.76796932122142891
-0.20349840676038744 0.10191687899320123 0.76849985082052807
-0.30295584549012855 0.095255088136991128 0.77455177616658233
-0.28651239640290133 0.077384335870806842 0.7726805811508739
-0.27136115362426994 0.058601992496301492 0.7705140609547958
-0.16074667752957952 0.10448760044537297 0.76242750242022472
-0.13518860951448058 0.080408588362764988 0.7571098090095485
-0.10465323829299278 0.053606261222775675 0.75311590447872501
-0.063621279367171601 0.19083231719729499 0.75855589031779092
-0.081835734541991029 0.19883340747237011 0.76010650364937193
-0.099716299488109561 0.20898086902785873 0.76206254248884608
-0.24447698395638456 0.020202888652899098 0.76564491183752503
-0.23280228825701565 0.0009857001884887584 0.76332976282735121
-0.22253169891915714 -0.01834322953259182 0.76147307090415062
0.84262429845617137 -0.36028336319962384 0.63642832941738736
0.82598400467792321 -0.36546258057004022 0.65114074816809087
0.80941718118852068 -0.37109648269990858 0.66343657951305013
0.78969986331213504 -0.39078301194303044 0.67145386745664171
0.78264774622758959 -0.40516025657173982 0.67094293307533626
0.77387269917953594 -0.41916478235996135 0.67093675743367509
0.77056260114284802 -0.43791701189948284 0.66439962065219227
0.778131733792644 -0.44410189288266388 0.65491696555582246
0.78585059242391486 -0.4508472966172048 0.64344872471934078
0.75259361852972873 -0.44567100323793252 0.67223586770923771
0.74042646618788943 -0.45776875024781782 0.67349717274272258
0.7272133608140815 -0.46868968278033596 0.67517927457198468
0.71090311644708748 -0.49389162055137992 0.66957425152158523
0.70799280668284381 -0.5123032303423467 0.65870177399565377
0.70483417490092282 -0.531431223993027 0.6452453773765936
0.85052512775307021 -0.29206107082286259 0.63753801396197107
0.82638110704922452 -0.30113104794451395 0.65614221154563901
0.80298221905949574 -0.3097928136053516 0.67156812233541885
0.79209355972176942 -0.33169497524967539 0.67945278450074142
0.79661923342521923 -0.34641592250094755 0.67650765807326607
0.79723184153749416 -0.3612825648092608 0.67420417676108357
0.69758804372102234 -0.48579049965770649 0.67988393749847242
0.68104847024452919 -0.49107687478269324 0.68291957275016912
0.66320642131006158 -0.49339705752506258 0.68640525494993176
0.64088916884915059 -0.51347453569973656 0.68077975028350179
0.6367179245822886 -0.53900874718339198 0.6674246901763099
0.63128171873195449 -0.5664217089754493 0.65070494458599448
0.79155256030943022 -0.23064897300804144 0.6576137765399217
0.76097191659127073 -0.24475607501660068 0.67651765536862518
0.72991990730472689 -0.26036142708567356 0.69251275552477587
0.72659733626287981 -0.28255443509784484 0.69867433758377251
0.74914090220742113 -0.29142663644555 0.69267645340027517
0.76824651166429159 -0.30344602213360106 0.68748736220028439
0.62309970680211846 -0.48672919614260768 0.69472234820287948
0.60252970519397375 -0.47726780181042794 0.69956775519719949
0.58408593171532552 -0.4638725607582812 0.70481071465587108
0.55905530506189383 -0.47833173758776293 0.70000348058933004
0.55118896430511588 -0.51199039256095702 0.68631346611542599
0.54380433163919728 -0.54569349939619882 0.66928425671410974
0.47625846859842486 -0.10297735993270107 0.70373795622766222
0.46056536699212275 -0.12502539804879431 0.71614735871267632
0.44451085732532492 -0.14682260951356474 0.72479946633410552
0.47975756407930381 -0.18720429886043721 0.7260910928927784
0.53236951538620114 -0.2065035835955058 0.72119681032323468
0.58208900470932723 -0.22453259614621524 0.71658550318061853
0.6438104030580174 -0.21903335394254353 0.70490158789174795
0.66403539041348236 -0.19801676443782879 0.69384923891447858
0.68351568939640128 -0.17751599524112294 0.67939087475866833
0.44301594066661792 -0.48947758781802642 0.68561322488469401
0.45994181691981417 -0.46245145768038687 0.69933498629430035
0.47656406766711606 -0.43555831454492133 0.70942492298548476
0.45636093551018564 -0.38827083752533698 0.71961014495411302
0.41335854501071012 -0.36258745507410128 0.72361238193044963
0.36760062337284422 -0.33530060951770557 0.72768838815248071
0.30598585523378491 -0.33103279133977837 0.72571157442187406
0.28828883471738931 -0.35448436031085384 0.71721400204904651
0.26989883500998063 -0.37846025108773551 0.70485028381624582
0.65384421787556279 -0.25235189459115115 0.71021524233616584
0.67420107693827003 -0.26202056675948993 0.70839485624854848
0.68810347877226929 -0.27028389221269533 0.70707413153570431
0.55511312880110042 -0.44046495949095532 0.71156412975885908
0.53980815440519581 -0.43444941074435595 0.71255855235907939
0.51998473589748762 -0.42471159634713374 0.7140285240000277
0.38525761064447234 -0.14919996834063998 0.73335667853504849
0.34735167589308841 -0.1314870696067072 0.73551843307048692
0.31455490954253462 -0.11435822015025487 0.73781155981830615
0.28302240082361652 -0.12195068379018914 0.74433945916508892
0.27882435190008897 -0.14365928137680761 0.74513044588230071
0.27178015191184285 -0.16336043138802525 0.74517374622333077
0.28062615747248065 -0.19085968905128148 0.74193836526831558
0.3067728071652967 -0.20382031584062665 0.74015400635640405
0.33958339836851326 -0.21983266236633447 0.73865183997548889
0.39091968297951429 -0.22220374847252367 0.73648225308300597
0.40290314225559992 -0.20506609399130959 0.73578478807171566
0.41543970916069545 -0.18701172182714432 0.73396111735952418
0.33821169984760963 -0.28951918910019026 0.73443215544451212
0.35264928355185232 -0.27173892901308516 0.73606323063172407
0.36616257290371979 -0.25504160949050991 0.73660615505153815
0.24683771255380582 -0.19683344841008954 0.74466901191372559
0.22861129091091248 -0.21109145805458351 0.74424729023158021
0.20688429520874202 -0.22431663977236704 0.74330561938504958
0.21232334892861238 -0.25176550370451456 0.73705129400686054
0.24565737197525117 -0.26776492471476199 0.73502877154274682
0.28225455036378799 -0.28669475148743451 0.73334583234566031
0.57405568458778322 -0.30258089189958115 0.72182810739464576
0.58980872796783135 -0.2819559242455778 0.72058215150362548
0.60630802547312523 -0.2611736717243982 0.71780557398182454
0.42445781331767102 -0.26042414706884953 0.73310745341406891
0.4723006083853899 -0.28289405621871744 0.72909302690084399
0.51832142765552358 -0.30435893413894588 0.72527765013616396
0.50959067205965458 -0.38626317262380572 0.72023576135992862
0.5260899792730509 -0.36433795719935502 0.72209973565943675
0.54242538233782001 -0.34346797758743985 0.72254782081624613
0.58877808872645554 -0.33728018320420028 0.72042903457368679
0.61092626116266602 -0.34776360226169167 0.71926629811139176
0.62655033954547812 -0.35528061465035221 0.7182731359183665
0.65063621621995926 -0.33983984659573707 0.71684597557697671
0.66277271468097343 -0.31847793645245059 0.71577532018327483
0.67671890279314617 -0.29789219663066069 0.71293446982990605
0.58266974910116287 -0.41794930799050967 0.71551754006412249
0.60048064394451228 -0.3979095955285743 0.71703232791528659
0.61961319255908498 -0.37935139496675774 0.71729271953901819
0.27099134297512673 -0.072752697783105447 0.74376093631805484
0.25930500375250642 -0.05625990481481602 0.74565306460499414
0.2467791688304285 -0.04304198837089368 0.74765166996483079
0.22950971348728133 -0.033897059562108867 0.75702545239858821
0.22822674029206536 -0.033981387852667799 0.7648890076671242
0.22755346165352774 -0.033610875484254343 0.77290349684105908
0.23829149147055007 -0.044317433053890243 0.77941993503709628
0.24600372719790964 -0.056616640768803572 0.77737697683204532
0.25057122403747506 -0.070922208002831777 0.77503039728754253
0.25592721759546921 -0.089148679727192093 0.76594077353127799
0.26024797130274729 -0.091352731478173244 0.75841207616720507
0.2679036179004779 -0.093812914623468302 0.75056277629115664
0.17010296260099583 -0.22546543977888822 0.74949913894022524
0.16449041112727908 -0.22013374026611143 0.75731645915483581
0.16058980702162873 -0.21722891033199088 0.76486650830333347
0.13902769840246376 -0.22068915316369342 0.7741192578424323
0.12182543243604077 -0.22341419583599142 0.77659455266495336
0.10555676183733564 -0.22268483984751408 0.77881631076286384
0.089626422077240031 -0.21932442510757744 0.77249115277206926
0.090050764357781921 -0.2202943767617711 0.76444272560261073
0.090214209704866211 -0.22197550675776156 0.75657464279292874
0.10664747480010017 -0.23238857050505146 0.74698306354102506
0.12590871147072069 -0.2363809874261471 0.74479570375485382
0.1484761073392763 -0.23802231254133388 0.74282379994220737
0.21392274168679448 -0.023416743588778433 0.75197972324684281
0.19340229867929598 -0.017086869695551288 0.75401499374328962
0.17158604756912293 -0.014269354077519392 0.75556868553203449
0.15254198737602093 -0.017746037904101009 0.75836381975684519
0.15389988373197933 -0.017167071466387407 0.76328967521571389
0.1544131769107781 -0.015745349528781372 0.76995135807141057
0.17323166880114427 -0.014569562461519414 0.7783014936389514
0.19247242221741295 -0.01809916613196072 0.77955254525870643
0.21092373229574041 -0.024780022773591925 0.78049980301098931
0.073856974071041859 -0.20922233720178429 0.78040532346695368
0.059539814135301794 -0.19711159904047326 0.77969608681230174
0.048349579123253605 -0.18283507092163709 0.77857548452158376
0.042159009925884339 -0.16722774304374566 0.77022697719122135
0.043276176282146528 -0.16661674871261845 0.76358358413840621
0.043229772263469135 -0.16554963227557762 0.75873137071961549
0.046632487282914747 -0.18329443669586132 0.75596929837006721
0.057923652038185447 -0.20034529940789803 0.75418560585170802
0.07261324900279309 -0.21452363941722763 0.75185909192887035
0.12804117389466857 -0.023026846269528223 0.75587801633336582
0.10874336891715114 -0.035749163459317446 0.75485895713924833
0.093084182143890859 -0.054207491320835466 0.75377012575752866
0.099494649354354259 -0.071117148475814629 0.75789911721591885
0.10699126121725322 -0.064282427457294178 0.76411421419419989
0.11099743062904699 -0.058692134933507445 0.77120468706914558
0.11813672106451611 -0.041499413627253734 0.77735795920429984
0.12684035904089719 -0.02962254001083231 0.776773026297505
0.13929805265749173 -0.020434605052838783 0.77671573580946474
0.041480886913858261 -0.15227364379184616 0.77693312195060837
0.046307664932618009 -0.13815206866875984 0.77686038666997614
0.055320265181494077 -0.1261331768572953 0.77727605119143517
0.070152796227751446 -0.11376903735381738 0.77096324201236355
0.074188099589973633 -0.10856869955755966 0.7639205763991197
