# XYZ point cloud file
-0.30594262559273866 0.5529783020413821 0.62719476540548591
-0.29706470842196964 0.50493774199461905 0.62668706753204662
-0.49569421996946117 0.26970306341944505 0.63046172075970652
-0.53126455273944706 0.29245118130579417 0.63245250012092358
-0.56073654183879273 0.3163366814120887 0.63503168282500244
-0.58034875728318569 0.35349731523874217 0.65147457529627983
-0.57993586933030061 0.37333851078659608 0.67234243155223705
-0.57889082119076507 0.38488301093924049 0.69765899460338954
-0.2803216506930758 0.75645746389908419 0.65857093444987447
-0.2749409873867884 0.75053566043829578 0.63393262003513673
-0.26844814045395882 0.73750228264594719 0.61503777512092839
-0.27733906874119696 0.70672524387994873 0.60482041214647486
-0.29494126897325978 0.68065134448269049 0.6097760131235872
-0.31042189994802005 0.64949377931490915 0.61978707932804955
-0.60235123328156492 0.32666087971056212 0.62951447061520227
-0.62960891724020052 0.31260440604726059 0.62221203295518812
-0.65441954349352882 0.29274723502303557 0.62027112105507554
-0.68091502512610358 0.28866858140786977 0.63368265539698809
-0.68874520007280315 0.30457214734271076 0.65348739128147804
-0.6912326059771271 0.31583901866958985 0.67889343916515443
-0.13822474767415072 0.76450723061776893 0.62553570239202916
-0.13596013985533095 0.75852391362310367 0.59906220316820891
-0.13608350782718159 0.74369801151918091 0.57422229725331109
-0.18409092573161534 0.71105289729267929 0.5739684875441009
-0.21684760416977256 0.71521706844273591 0.58602878619273246
-0.244325418262059 0.72030262677749723 0.59608705108956972
-0.67420851925801883 0.24171209290610651 0.61474816116677555
-0.67665175051905468 0.1931325110609885 0.60572386918127119
-0.67934331341138698 0.13565329005484061 0.59470569513474869
-0.71500437028789021 0.059091315320396021 0.6007151396239454
-0.72895926491119389 0.061922710813232307 0.62828178873179219
-0.73439674739552652 0.06723651715122303 0.65639663749393629
0.0099756176028371613 0.81134195243735796 0.57540521977966952
0.009749256467193379 0.80869987589195214 0.54700688342310855
0.0094530030211806837 0.80310765913287918 0.51613965372821058
-0.021403275702351565 0.7811665612665486 0.49585341554117512
-0.0558563967799659 0.76383706798350381 0.51207986461688959
-0.095129663950865861 0.74295181464540105 0.53053317261378474
-0.71581538876154494 -0.01304191710065572 0.55709133444470416
-0.73492051014946924 -0.079977272534213384 0.54117319941824649
-0.74879094914450639 -0.1399334191802839 0.52625687441384894
-0.76813984593144879 -0.19431939401344334 0.54895136126370181
-0.77544438631109136 -0.19453336597584103 0.58138009095168641
-0.77943085409839252 -0.19450993992380061 0.6110627731500875
0.11156299075951925 0.83569384217994491 0.52443462923038142
0.10983218117573912 0.83339370050560291 0.49801222128440514
0.10683946661850163 0.82784946925928793 0.46931151666405047
0.079361467700053479 0.82586335517836718 0.451735885161757
0.057180265039256328 0.82158657924096534 0.46236969796001137
0.034200299337549533 0.81089925255365536 0.4718597036760479
-0.76887914314821748 -0.23848507840062849 0.50356600485582437
-0.77438733431936313 -0.28029701457815115 0.49478810438256815
-0.77298310387638358 -0.32116556923683293 0.48467781110207886
-0.76959379718428922 -0.37148091370385572 0.50346257079222623
-0.77698152803845333 -0.37739011153199042 0.53344504819951677
-0.78111329316596601 -0.38046842200592357 0.56083103911192422
0.23399003792826001 0.70860405381392333 0.46093346270685531
0.23158768299409171 0.70818109171024801 0.43634712819056709
0.22713168761738867 0.70882266658272775 0.40689072348074262
0.1924898938676739 0.75189048835214578 0.379691749033221
0.16093787841934182 0.78304474571061888 0.39771523857673241
0.13049288648801616 0.80660064395387776 0.41846202313060665
-0.73629462025025605 -0.40989670150181157 0.44996073161572214
-0.69937196991576989 -0.4544095081224957 0.42623572666327458
-0.65302464653758685 -0.49255057923629586 0.40361329888751873
-0.59687618159495992 -0.52562932070475599 0.42596018914281863
-0.59714084868168937 -0.53200620303399848 0.45630344536715706
-0.5990253376421657 -0.53590025701739918 0.48182640210453442
0.30119775288337736 0.49522317953029793 0.50735637169835757
0.29828997300609572 0.4959961464009992 0.48028377741557815
0.2948012840111105 0.49920197491758911 0.44629055576173915
0.28377167507188117 0.5618349942608476 0.38727103854094302
0.26829113769076174 0.61665331355247188 0.37518274394200724
0.24789514949741087 0.66789272125574506 0.36795905263318218
-0.54364785573156094 -0.53556614985212381 0.38003899082074177
-0.48568291282579801 -0.53975458723321745 0.38183622006277362
-0.42781976937101335 -0.53503043877564638 0.38971443641761638
-0.36714429993477343 -0.51947001115907598 0.44721936930835815
-0.36451642172160376 -0.52136759516416697 0.48217174114917816
-0.36458964269954686 -0.52434776340983902 0.50998043094308976
0.29980458515245123 0.28421194487802781 0.5455424038253982
0.29814362580317211 0.28578314663494897 0.5244534206041771
0.29471290063080924 0.283893629533849 0.50223149913735377
0.30009364728285237 0.3379945911429183 0.450359514615708
0.3022619492213191 0.39550820913421436 0.43196107073319556
0.30049110953575053 0.45085041248568558 0.41611225295066578
-0.31827781734093352 -0.50540958858116447 0.41299561089218173
-0.26612451987155439 -0.48205376322051086 0.42664062702260042
-0.213251895955618 -0.45303495528798754 0.44318154516702446
-0.16511082584483489 -0.42076299537611783 0.49550030133452472
-0.16616041870480469 -0.42441085403445467 0.51860564287650002
-0.16509729851846455 -0.42536040041172907 0.54031800026247545
0.52200489907933545 -0.21533323102980217 0.36052600855943617
0.51177901697649564 -0.24700692721408668 0.35293199235071926
0.49887416031168663 -0.2776930488829521 0.34731860997997699
0.45087355255424921 -0.28925089644464563 0.33594202578997034
0.42522146315620835 -0.27560188512194239 0.32476892654457901
0.40491498579764618 -0.26520156219443258 0.31089907883350953
0.40955594613655377 -0.21937719095881603 0.29591879150051303
0.42333959614465444 -0.17956224786627706 0.2983487893251775
0.43141310682119849 -0.14056335678722442 0.30432074138855025
0.45067045616042001 -0.12069487197984241 0.33316971278777219
0.47161564572181391 -0.13965481989215744 0.34812500021079096
0.49801288401294241 -0.16086296298303182 0.36053687261479217
0.34908703071335012 -0.38560907281365209 0.35179471710718402
0.31614185953386431 -0.37557506660182405 0.33833024547480406
0.28745736734556093 -0.36939776215158604 0.32254350825250366
0.29616319311731731 -0.34683141228415693 0.29398689248649301
0.32980378905918606 -0.32189653222908587 0.2903203122144542
0.36176640393148973 -0.29197479854707664 0.29149447385765281
0.46189716214420529 -0.33281095157319607 0.34479243170807217
0.43814692916653353 -0.35691179849490284 0.34821496627620419
0.41235498694575801 -0.37930466463085377 0.35413040579960131
0.69221542394847169 -0.30949206720153688 0.38102898452074641
0.68071308017764698 -0.34202853325079197 0.3772049896732077
0.6668982920677603 -0.3729575060225605 0.37401313517310242
0.60668250548814395 -0.37696370819216751 0.36177392353617721
0.56287443368092083 -0.35192196919473195 0.35506377698616132
0.52066842567368998 -0.3279728149503307 0.34998996270094707
0.56909048552352248 -0.20686500292706134 0.3742903560584967
0.61209099042129944 -0.23032874326211683 0.37702181205147256
0.65722187806465548 -0.25348347751874778 0.37983385476238274
0.50726560284595179 -0.47127729366740767 0.37525916738971699
0.46607294504787078 -0.444947531423451 0.37149925139374385
0.42508010167790111 -0.42077044892167725 0.36780218479667459
0.62834836672601124 -0.42781003570465659 0.37277616647492073
0.60353119238986042 -0.45206530729302585 0.37495539523213339
0.57623562575574838 -0.47528820081915568 0.37806316607846102
0.83412146378014418 -0.37997770912955264 0.45035383925519845
0.81887000099566165 -0.41334295646216934 0.45556019804524661
0.80144364426841719 -0.44579502746728195 0.45912626604646745
0.75685920203100188 -0.46331786796884988 0.43396379340882429
0.72613768410226454 -0.44562751549511881 0.40945956710272036
0.69004585629628123 -0.42481428605797933 0.38849377315628209
0.74568018500454292 -0.2973384486919366 0.39369889376492906
0.78534723273616058 -0.31686343213895873 0.40664484516764787
0.8198849512464248 -0.3335464909982091 0.42345052883853818
0.64866475853528838 -0.57021775000425046 0.42561013578835749
0.61943574826465664 -0.54876310553427943 0.4067159475316946
0.58525226644043826 -0.52439146918256485 0.39184768434714345
0.75721995153697397 -0.50602974121499966 0.46012574593149558
0.73050753658223921 -0.53387785962081491 0.45762452787597363
0.70178012496429909 -0.56087256086286774 0.45353713290740227
0.86816282766849795 -0.35356429055698402 0.46754486662697547
0.88166683261003964 -0.35670905977882605 0.49297912230820784
0.88934545528464559 -0.35687794374734461 0.51875330786867901
0.81409503542203288 -0.48855703569938935 0.54217546548266715
0.80849745918872251 -0.48858802680410496 0.51597440520186444
0.79790065108469654 -0.48499203621453524 0.48847044894452507
0.7046469723546408 -0.60729668550987981 0.52821356485047222
0.69840851957179428 -0.60549282922120495 0.50096435536929151
0.68791742427558311 -0.59906206578426269 0.47377124801915538
0.89518434323781515 -0.23744379376805913 0.44135525203548198
0.911248177014923 -0.23797644005926233 0.46136615746807963
0.92185610541176422 -0.2407392547502003 0.48721778237514601
0.86101714394669648 -0.31261768309272386 0.43646831889949445
0.87148829390605664 -0.28164613134423977 0.43051210835161968
0.87756082334333818 -0.25572997506866968 0.42840221356007335
0.5891129402559333 -0.65384607830285923 0.43483436245610396
0.61307437921341545 -0.63730499040032451 0.43635819870327275
0.64147207729638678 -0.61405740131516673 0.4416010589524455
0.5947371502809492 -0.68889110090527117 0.50167106284906593
0.58550739929353846 -0.6854203376169552 0.473191596878201
0.57794955306505069 -0.67484632021784674 0.45042750127163234
0.7925659366312392 -0.15299593989854521 0.43190171103749608
0.82537616880745546 -0.15144789246235457 0.45813697661937325
0.85438154512986386 -0.15617269102315201 0.48846596990649949
0.86448746560354361 -0.22371385994471682 0.42135352831812867
0.83836439417489828 -0.20435188397473913 0.41428302380068871
0.80314248195541371 -0.18389906579215332 0.41137884376298173
0.49564463261309966 -0.62137550935307106 0.41311753711038968
0.52653063286784774 -0.64278543349066575 0.41802600509389642
0.55363235054525217 -0.65653701140613263 0.42690108625570833
0.49503816892026997 -0.66377468647914206 0.49922118537961868
0.4781893724611157 -0.64570517161405139 0.46530037242519429
0.46558140955891375 -0.6217896444676021 0.43524421192609042
0.61925276596616463 -0.068791177411147597 0.45267519809144718
0.65815163943094113 -0.06505873879427404 0.48352593776616315
0.69466875189314448 -0.068152909332631628 0.51714707211409472
0.71829777350750135 -0.14181139214411842 0.41407055748666077
0.67331160222979058 -0.12080248672265226 0.41784477420876676
0.62834672854620843 -0.10013320022222638 0.42226057332179101
0.35079472201246964 -0.51349235946809824 0.41829637307145462
0.38856454933186735 -0.54068921856879149 0.4149586473849407
0.42580448903938095 -0.56832191607627314 0.41239743801481721
0.35452414281696465 -0.5693266681870508 0.52014972633203782
0.33485680176046306 -0.54531497539268559 0.48427028334213884
0.31981019008048195 -0.51659144685401825 0.45065011403901378
0.73985537980267591 -0.18296532937079157 0.39910152105737229
0.72403281520507312 -0.21020994708496588 0.39184221085397808
0.71229086314543377 -0.24204052186024683 0.38773805457909472
0.53763444593616028 -0.15249274866384877 0.3794096706755854
0.54702794586974746 -0.12377381853589409 0.39133740278452311
0.56170087323885942 -0.099016787815809693 0.40656779398691789
0.31973398307987194 -0.4629832198049626 0.39945482866509363
0.33604085696725189 -0.44104364129663498 0.38307615773027659
0.35909546072009713 -0.42058257483275474 0.37106547463601847
0.5178866276997528 -0.52162893838417879 0.38379999777796692
0.49137238146832762 -0.54559510645839948 0.38809310039928646
0.47146213406941317 -0.57019011664851682 0.3965595386026064
0.43408240218941085 -0.074534127690487395 0.33833915126063241
0.43312119619709977 -0.049404514791123955 0.3669293574475927
0.4351412678012162 -0.028982236273654483 0.39996254499858086
0.47279290856770828 -0.026559150506244578 0.43372543180778056
0.50648167775773234 -0.04265478516937149 0.43204013873429936
0.54397449358735495 -0.060668103681096319 0.42970165385848014
0.27706502943626271 -0.46429703609337336 0.42384706844067344
0.24299212755579014 -0.44324325649930296 0.42550189417953943
0.21211536550699495 -0.42444098147663478 0.4267462601015235
0.19502715409719051 -0.39691723918873123 0.39099439201427799
0.21195149031923755 -0.38834222435409727 0.35654225727025235
0.2352021985262599 -0.3790415827788034 0.32710326929596878
0.46095700914860749 -0.0012202141572954517 0.46967640612070349
0.48288096250533119 0.0055352432194011314 0.50411713781639067
0.5042639803979363 0.006671491058208634 0.53831793430746533
0.19802652387068931 -0.45717165631041379 0.53568184234380034
0.18871547821551121 -0.44205202705235269 0.50036779357541228
0.18393632550064992 -0.42420777738783411 0.46435812341140892
0.38119277294000309 0.034646468982291179 0.54796819495379623
0.37231410948576582 0.035710903321803489 0.51639772786500071
0.36279462359491466 0.037057838262788412 0.48068788014203623
0.33717631935545911 0.06254956674458878 0.45608707619922839
0.32220477054957186 0.073901351506819424 0.47481386064268172
0.30856639924373563 0.080549614703775863 0.49125341343423168
0.30049355634065678 0.064125002100425821 0.52078563564453662
0.30567602817009909 0.054250479744775593 0.53966350780660122
0.30938288848801254 0.049584386559558435 0.56224535137662945
0.065812357810249633 -0.32088743978137302 0.5586463506132846
0.059869915814579011 -0.32053844709040957 0.53534269784769695
0.048138637819809316 -0.32139381696266511 0.51521362911467561
0.036137684605995202 -0.33705210071738323 0.48317418144492263
0.048674359195328698 -0.34612172074608205 0.46619678486657357
0.066020151000825367 -0.35445442762596668 0.44703368341589478
0.10206029987869858 -0.36279508697327634 0.47421199487626886
0.10818714504996263 -0.36802048210530591 0.51146796239138181
0.11344537892434259 -0.37326171647129502 0.54390402344243105
0.41866907628799666 -0.0025773406826434808 0.43612441863045026
0.39712987271309808 0.0075290022920433408 0.4365350110234405
0.37721667743185117 0.020185339982832229 0.4356216681592513
0.12305636351714722 -0.3704804124505392 0.42756689238655365
0.14412718968758331 -0.38088465544322503 0.42903776111922021
0.16382294161014632 -0.39331215900363192 0.42885273446719596
0.26576222106945502 0.10713088402758553 0.54030093557458958
0.2651873240498952 0.10019434325875087 0.55419698708801279
0.26341320503994248 0.095621398470536079 0.57440490759765472
0.28321450613968535 0.084653557420347969 0.51554144678395408
0.27316915718692458 0.088565816829877519 0.52341736390380067
0.26780238783529664 0.10067113877022615 0.52898219079614783
-0.0015136092655028133 -0.30989473617263075 0.52253915656325844
0.012456609524604145 -0.30921402562956635 0.51715874352986102
0.020669546830817231 -0.31644082935865203 0.50885693727989034
0.00043800113752334724 -0.30317370943590261 0.56976878889350857
-0.0025100390756764845 -0.30675626724476857 0.54884805282492444
-0.008642622920707721 -0.31065982523483315 0.53419659395588903
0.26811412370407073 0.1377068817979481 0.52827560472992019
0.27340207307254016 0.1740629790072461 0.51969955464042084
0.28237098554765172 0.21781248733404279 0.50442056017798365
-0.10727067050783934 -0.3783665626778161 0.49595759487192304
-0.069367169972748388 -0.34919992043098302 0.51163206486694746
-0.036874987653080393 -0.32730047185830236 0.52088079534679821
0.12506902474014736 -0.18609943507045101 -0.59348370985528898
0.085949541330125223 -0.15625489783649638 -0.63245645318641563
0.041749555944225469 -0.11602999905374078 -0.66505985953042313
0.042115485859995028 0.014390590257742586 -0.67882248854206217
0.088686044846462697 0.090590375556889091 -0.65217095227465771
0.12974482129843057 0.16153939823793784 -0.61895625580183555
0.19883569204135332 0.16855313345004852 -0.5625663476893985
0.23026395614497197 0.12947045341237784 -0.53561615596377132
0.25896493200444093 0.10387285837112814 -0.50079593560107827
0.26734736172427942 0.014505432167104537 -0.48070499046845061
0.23974773856905296 -0.060433338407656967 -0.50738017243709321
0.20373804339733681 -0.13589871715059343 -0.53137836209395051
0.11149132347080615 -0.27274146193534388 -0.54686758061310825
0.059133108481074448 -0.32951781927612611 -0.53650241664757714
0.0059314478442472618 -0.3772086315071892 -0.52032765968481409
-0.075976119411555465 -0.39909061218942199 -0.54439600789747633
-0.10912906342727857 -0.37862993294808489 -0.5762633385514766
-0.15064496557692197 -0.35363045953530747 -0.60106549016210264
-0.16101005468913709 -0.26884371034373844 -0.64866399911272454
-0.11318570356706004 -0.20629362393663486 -0.67300001259372166
-0.06133864498616548 -0.13703594570444322 -0.68955146724665428
0.25323871682898513 -0.24161037753301984 -0.3467601990315865
0.22501777707593129 -0.23502444821613588 -0.42460956201864386
0.19399715850680055 -0.22402240888977021 -0.49080595772228985
0.31076228901803793 0.065634026846914661 -0.40394065215540631
0.33398745865657209 0.046865583907523156 -0.34167293722996517
0.35432226336417982 0.029330558376743365 -0.27016423001684986
0.36028156669774947 -0.050764061750105505 -0.20747848996538165
0.34111889768546078 -0.1171459102398289 -0.22687733156513201
0.31369791842777761 -0.1825633186235649 -0.24426791261834091
0.23567285655784853 -0.30021635105655675 -0.25826965249343004
0.18759646463435442 -0.34944258116633686 -0.25304032252839459
0.1363096239061472 -0.3913423636643889 -0.24282564430473252
0.053502589928956401 -0.42902519167545727 -0.31525033499594368
0.020694172615624451 -0.42883992720999276 -0.38906542009398848
-0.012929573581516141 -0.42415215588209509 -0.45182182207954247
0.33551541617030889 -0.24291009678238096 0.059867128667998593
0.31932353403075098 -0.24300296638287788 -0.042824292778213202
0.3003100883276616 -0.24394304951932222 -0.15151655106090711
0.38285709879561147 0.0013894714685862564 -0.098518714079172565
0.39144788583449941 -0.009844436118972677 -0.0024113550132116579
0.3977515930105513 -0.020975016018943471 0.09445011229622402
0.40196920770555222 -0.091926874248783541 0.16773206411262276
0.39216663213068637 -0.14563035600480845 0.155647842393563
0.3744561954432839 -0.19656794458810456 0.14968206249905602
0.31524555664115927 -0.28702438420393062 0.1426961345138773
0.27485734076531498 -0.32523162197983302 0.14250969545493808
0.2287294599822205 -0.35803461166100758 0.15003101029531285
0.15531458646523977 -0.39512106631281307 0.068188279328154522
0.13434956950429888 -0.40593894689085364 -0.034020587857965801
0.11071707042228662 -0.41649604011830332 -0.13521955066478064
0.37755916893481578 -0.25249579790691268 0.2754825581125564
0.36808067867081395 -0.24888529110270996 0.2483669351365152
0.35908212151775165 -0.24613701831386869 0.20731940199891508
0.40867186253622856 -0.062959517751527194 0.24605200994773346
0.41483848254152644 -0.079963102336350733 0.27761047752640611
0.42310342794965838 -0.092567585281688736 0.29961438930035422
0.24541729218401764 -0.3647425092588219 0.28775262050723605
0.22830515373281257 -0.36623833094189573 0.26452341484271802
0.20787780807354184 -0.37178763186165709 0.23057117145337624
0.39425301664059653 -0.0068413230509025702 0.26519666546189535
0.38251658172551761 0.010592737022231624 0.32287645713132029
0.36929022144903889 0.027944114373288809 0.37586910282389763
0.10997596868204063 -0.37221303160741082 0.3639353805091794
0.12985175829429596 -0.37967228918625651 0.30854310614850444
0.14920815874859528 -0.38538558281197099 0.24796306188945083
0.2163798575893372 0.76048219552104701 0.19617535250180573
0.21836700333416736 0.74158645402195766 0.25737559256421161
0.22005529485837139 0.72520664695781356 0.31673426485652412
0.30097206262169229 0.51650998649947422 0.34262541274860192
0.31272855287106882 0.52895681356542301 0.27256353113276122
0.32805883101795086 0.54041776318908363 0.19512128871374967
0.31581472451296522 0.62423298666459104 0.11787607046600801
0.28332751340155671 0.68657745538831128 0.12019736459318642
0.24877827683105447 0.73929447265964621 0.12498934314135202
-0.59675827734714093 -0.56350969180704613 0.13032189277489747
-0.53183288933640083 -0.58832123379041645 0.11689249770773502
-0.46133100176661457 -0.60326407815914207 0.1069221156844824
-0.38290761789326544 -0.58089766397192832 0.18298544092065372
-0.3808189343151186 -0.55682761103693768 0.26545431174396228
-0.37657360728724315 -0.53654864758082921 0.3393576039754671
-0.60848937705852679 -0.52067941535451068 0.33405410005424407
-0.62095396834932193 -0.52368861595266702 0.27368087671994168
-0.63627667948421085 -0.52712830505683739 0.21132327700491871
-0.065059434890654688 0.0061969861528861081 -0.71930005953664189
-0.12471207191032163 0.088264990054650161 -0.74176288202629737
-0.18462136692040065 0.18014293108808133 -0.75730869814300927
-0.17428415269848174 0.36709476371110039 -0.74743213505511008
-0.11073852001682027 0.44625684640407837 -0.71833048561144519
-0.053897338921866433 0.51347863112977521 -0.68023251820118258
0.041801750946526717 0.4722774220438084 -0.63820745155326497
0.085536226418878147 0.38012413642635479 -0.62529639113722268
0.12635787563755096 0.2954025031264913 -0.60642759897912413
-0.26481637076294584 -0.28444663413794413 -0.64146753378264654
-0.33555232608272934 -0.23669828502463597 -0.657090044176877
-0.41081427292282324 -0.17718348992615418 -0.66515973210309953
-0.43958338799860641 -0.015004712113243723 -0.69619399010200578
-0.3803171876158048 0.081796399032630696 -0.72843888858092321
-0.3130500258660176 0.1812510500824398 -0.75221175992500688
-0.52668888020269178 0.79473212183565689 -0.085376647561673291
-0.53117188500775914 0.78181417231653194 0.018675784709913046
-0.52927717665941865 0.7533502219990531 0.11909236847983529
-0.44091567466991555 0.77854261410535441 0.21054164000600384
-0.36576007327586246 0.83708111987258116 0.20019218404311045
-0.29741292373162143 0.88312548126563017 0.1840916373122945
-0.24419943280870227 0.95375149804640724 0.082248823171935381
-0.24471346540044903 0.97880731164210122 -0.0012733286956132517
-0.24079118972296931 0.99220400218769811 -0.086872674257076454
-0.29174709108172414 0.96618637366962057 -0.17347945700679146
-0.3596735736888852 0.92195551630228412 -0.17918523566140587
-0.43549884940794836 0.86380390139009977 -0.18659070875149153
-0.59937338961412401 0.71326787146842596 -0.19227128178759489
-0.67894981566379853 0.62488714019547453 -0.18993273883248074
-0.75005907558648977 0.53045915070736394 -0.18824973629648056
-0.81487291333989598 0.43547758391486857 -0.099582102949226758
-0.81567110844973767 0.42453152253118098 -0.0086129753752297589
-0.80878546476275004 0.39832546610267183 0.080911765848199035
-0.73959841380157165 0.44832161141813254 0.18891196015836575
-0.67347915598899377 0.54061129725661994 0.20420080954743192
-0.59878014873279106 0.62838262637695008 0.21284168969102657
-0.4561976250394717 0.7064887977372889 -0.50363516279034704
-0.48113076264219301 0.75087695372043939 -0.40615723754514432
-0.50129025043852415 0.77940512774196913 -0.3007241263523821
-0.22285503899775017 0.98972858771682759 -0.25849745754274256
-0.20946283663941379 0.97241980021736385 -0.34063016400809065
-0.19250188272955548 0.94084024944727851 -0.41711350412341774
-0.22276093542871545 0.85274668958351585 -0.51453570032759188
-0.28302961723621234 0.7964345961956476 -0.54670896005034297
-0.35109441551544229 0.72618096161035872 -0.57423988822316918
-0.5070059428228757 0.55750851949875413 -0.58236404387289076
-0.58726722564393552 0.46508603752879241 -0.56165788204215961
-0.6602763629358902 0.36991031097557814 -0.5343322133146966
-0.75165777144833079 0.34212018244355225 -0.44102962682412317
-0.77634166839294982 0.38950899500862723 -0.36404945189787608
-0.79477180281927717 0.41879386724172551 -0.27955514676504922
-0.29786365203156295 0.3776391671711623 -0.7452912199192987
-0.34755854974154765 0.47515571104826559 -0.71105795282355588
-0.39037671131017637 0.56609508459497571 -0.6585982763371363
-0.14006864926160878 0.82617238345654043 -0.54526774550027701
-0.10093316740620639 0.74685513839465711 -0.59223760449799556
-0.054494784668073004 0.65928570389334662 -0.62442396098253106
-0.55926514943061234 -0.013815971888713863 -0.64244861542953524
-0.62367373235989931 0.085241674209709073 -0.60959638749355705
-0.6772384498279993 0.18481454283618426 -0.56463695734952157
-0.0052945063757919852 0.7935315676957897 0.35879436561206735
0.0022018105222457729 0.78834713399320711 0.40392304227379894
0.0064745132954846518 0.79038385552587842 0.44499503652071137
0.098319508504595809 0.81672445457154197 0.40316226491625295
0.092764888626600595 0.81569156364331885 0.36529428045128665
0.085917591338737331 0.82048331221530812 0.32429228686095879
0.052734604953606601 0.83275711143680509 0.2952071659760982
0.030104983571443533 0.82846073024581157 0.30048318026710286
0.0075235682202379195 0.82038724946813302 0.30284987322293677
-0.76704116329907068 -0.18167358408766354 0.32704712921824353
-0.77151122786124771 -0.22428256667383861 0.32570464438205748
-0.77190640375260799 -0.26825048010794994 0.32171676646074632
-0.7557968603525469 -0.33229845488791021 0.35337045917207677
-0.75262398847055045 -0.34492851236061428 0.39563448951125313
-0.75517269309316737 -0.35514593875383271 0.4347052129241562
-0.75132218036294929 -0.18890941189275967 0.47416303202473609
-0.74665023604323388 -0.17999371294193534 0.43122922330577973
-0.74840180638096077 -0.16350393465287461 0.38429500433235875
-0.065212731394817869 0.91511971769219835 0.13179683550094801
-0.050140620918855516 0.875588943280595 0.19528818501528411
-0.033025166249198712 0.83835297073305348 0.25463188288764282
0.067505512201391005 0.85575117221983676 0.23274604550925559
0.057287879867758074 0.88396425450191662 0.18214862696566669
0.048118524864257939 0.91356584846346234 0.12861953397831671
0.012033221083340706 0.94936445852538398 0.075255787702246391
-0.016175485446086935 0.95330236761836318 0.069999062186513861
-0.045176809331482826 0.95330707841531792 0.064180483034488311
-0.87819365953029971 -0.036491615187613569 0.074714360744768893
-0.88005364370994577 -0.10269286503597019 0.083376639963496757
-0.87666032716711517 -0.16905307370466804 0.091644665538671344
-0.84164507044036585 -0.25540427792797438 0.15034489942820617
-0.81402693422665484 -0.27606049220320195 0.20615626463867587
-0.78757715713191223 -0.29713451249110934 0.2587036216543499
-0.78340564857771744 -0.098211002847703455 0.2758680183610247
-0.81404751113594187 -0.053022420302375473 0.21323710864883205
-0.84580575024354276 -0.007606456882148116 0.14535802663562114
-0.079283594349015329 1.0048123754576439 -0.14056570841413629
-0.082132987933807966 0.99527420641947462 -0.07182511332967989
-0.081318471181923924 0.97762326730305604 -0.0029615950260821755
0.036423931846136348 0.96043135200399332 0.015101921612250102
0.034582508071741014 0.97388222831753968 -0.043555468178881451
0.03558279272070175 0.9810283744682442 -0.10276353316390718
0.012423985615925393 0.99716356470466438 -0.17174644302854913
-0.014531744003081437 1.0043960511637944 -0.18637803324786972
-0.042732169263361985 1.0066185740284221 -0.20044886882866653
-0.89914717243145681 -0.0049637448763695247 -0.20901880261836636
-0.90272191502469723 -0.077067144884110483 -0.19097654120828977
-0.89944066358074903 -0.14781788538951268 -0.17221592557611931
-0.89124501095804776 -0.21324916365700108 -0.095490837412455676
-0.89011524519496543 -0.21497897781621633 -0.032035034445847987
-0.88181683097825647 -0.22330201364560232 0.030609069121366073
-0.88995346591761437 0.058655931194350419 -0.00028065464099258364
-0.89799116874456297 0.073620040816949839 -0.074600119595560788
-0.89828464538355168 0.077383667894860064 -0.14828591022138715
-0.036513574910502999 0.96708795828006311 -0.39187746540238555
-0.052305504646865897 0.99047609376540713 -0.33667597760047441
-0.064345032135063818 1.003109878736737 -0.27467778514161445
0.047561164156091129 0.97774144353257242 -0.2207503972359337
0.057317606408299859 0.9675716326065511 -0.27485027656338756
0.066989168601376159 0.95145977534571591 -0.32040172235858089
0.060960716712258334 0.93839714182511269 -0.37148792151915044
0.040473042883233834 0.93874730763375425 -0.39649521522132414
0.014524467157769338 0.93526295790896707 -0.41952442617933228
-0.81043488144385034 -0.136231535516671 -0.435563149468428
-0.81598877761217758 -0.19738659621513843 -0.40996904922832744
-0.81745697852983468 -0.24713123309205054 -0.38239302789180352
-0.83544291018879391 -0.26791625735210278 -0.32752656299565341
-0.85714155678528403 -0.25073627510164576 -0.2791193385879942
-0.87421665720459829 -0.23298136461604146 -0.22155404397819867
-0.88040583749427503 0.055148129019140235 -0.28990853722041532
-0.86245372288425126 0.02805526792063695 -0.3541201374700913
-0.8370543099306319 -0.012029580931924411 -0.41033742570258802
0.095488155136539854 0.91112136879647343 -0.36028197813202389
0.12595354806574144 0.87378822732928785 -0.36998106993846758
0.16119566057534862 0.82847769167058205 -0.37712142986343045
0.19054230098131009 0.7417911603397318 -0.41834333223116671
0.17273338878034106 0.71513622371241814 -0.45237327001377725
0.15107050019301416 0.69192383402939295 -0.48476806238932113
0.085562615704547262 0.74747680903186509 -0.51170799896693397
0.046302994945526699 0.81783359217929852 -0.49779324200694397
0.011960378256658855 0.87996993555462888 -0.47333582720678402
-0.75769450613959421 -0.13506320081265599 -0.49135027055079927
-0.70220606772167349 -0.20930400573832109 -0.51695094187551227
-0.63779422541912267 -0.28079422286619393 -0.53465327808336749
-0.57996575050918264 -0.38783191122669103 -0.51367373584348508
-0.59496620252195542 -0.42910287963818683 -0.48040914906801158
-0.61341439825342259 -0.46568509357701338 -0.44463250162360124
-0.69866346501638055 -0.43842456665223994 -0.39299749208946544
-0.7486861364889662 -0.38127485719111665 -0.38172695060620487
-0.78966178765036588 -0.32436685492409811 -0.36982940533318143
0.099821509864341129 0.65280514404680279 -0.54473554970114257
0.070048900410598414 0.63202279544794537 -0.57410208454188849
0.035746927600324163 0.60484395496685606 -0.6053555667280266
-0.12520349145344101 0.91467583016268428 -0.46869963324275021
-0.085250995188574485 0.92493256810960567 -0.45811851621025124
-0.049015578911158375 0.92882408204322786 -0.44940673601607806
-0.79522849950168883 0.010213973389335607 -0.46973428269591766
-0.78228648318585536 0.093032064872272002 -0.47988159606717495
-0.75865431622472113 0.1815201658954817 -0.4913469186531465
-0.51903184005060388 -0.17794380821213229 -0.63077360599425747
-0.5404785218412308 -0.24075359474784164 -0.60187124682262727
-0.5552046397556385 -0.29472777838042563 -0.57366235411814692
-0.18483755305985161 1.0084440249567588 -0.18176401422384059
-0.14336506809944471 1.0116633978622511 -0.19401364071975635
-0.1066243153491655 1.0098997723571506 -0.2046015162096797
-0.88428061571196281 0.15338423334453122 -0.21914303695871773
-0.87075622975229772 0.24214079061484872 -0.21046971275953918
-0.84660122937911531 0.33597389916536446 -0.19927533184741231
-0.18862123111829909 0.93491660023641732 0.13423387659048913
-0.14655590760525072 0.94466629859352125 0.1053262091807885
-0.10955112007297418 0.94903928645554902 0.080613905778846195
-0.86590328800171901 0.1045800832213164 0.087387171730024082
-0.85279135401655148 0.18283498111893692 0.11119322008903154
-0.82965152321609847 0.26663421403730858 0.13956381043859345
-0.22410738640110317 0.86511648816897457 0.23717478355081312
-0.20437210425560803 0.80978349832378616 0.30510205633447596
-0.18166483125360089 0.75830063271173831 0.36474342084336264
-0.11522783899637923 0.75306046539439109 0.38278908602972894
-0.077293783605343336 0.77789108027582765 0.35216995907455528
-0.044897468197185653 0.79572247660552087 0.32665828598354318
-0.75017753412144239 -0.08686429791736261 0.34983381063030894
-0.73540624450975633 -0.029974873753592757 0.37480546737407572
-0.71220543972507722 0.034413070700386239 0.40439452343602511
-0.70302528497245198 0.16163035106192636 0.38336570900382272
-0.73468512853969048 0.22742001423064728 0.3208342023259303
-0.76651857478390661 0.29522848888229092 0.24818596008308447
-0.14503863575557285 0.69671112393601708 0.45713009255968906
-0.13690935323292042 0.69040007888886512 0.49208733632642643
-0.13578356443116735 0.69638912457748514 0.52234670534645478
-0.67051992716149456 0.050468493665675407 0.54263210492827563
-0.66311159056263536 0.05299675849129093 0.51188457287159927
-0.66485219769741166 0.071213614484987087 0.4770012791975442
-0.50132913637052834 0.64693063629532865 0.30504742511385041
-0.47551289492920723 0.57556965643055058 0.38927920683690909
-0.44476797385110245 0.50094393324431108 0.46787472571472666
-0.33924738922659448 0.52971357008939934 0.51099249764946109
-0.27474495101338403 0.60742270962472267 0.47887968034158668
-0.21410844729551148 0.66991889021559592 0.4471955072821987
-0.62909358545756078 0.18720779251985586 0.46435481271253165
-0.56815781260991927 0.26971938924266681 0.49164035628063596
-0.49707022938275225 0.34859282881952636 0.51786384675078789
-0.18752947492049965 0.65403815090602935 0.56296518524177364
-0.22697368342812951 0.59007403173299711 0.57938952040874181
-0.2631479709271044 0.52239918139125319 0.59916487127500906
-0.51245761129519607 0.22381088884771305 0.60437130900599367
-0.57126632268340427 0.18031098534778289 0.58860206263497528
-0.62954234614446547 0.12907005259419346 0.57784088382926413
-0.34709825998579791 0.44077813253386644 0.57105724023868376
-0.31549391111733094 0.44566745149081166 0.58748418760103283
-0.2976449100145977 0.44675359292389416 0.60382687985395966
-0.44877723473032827 0.26372296160371267 0.60766229762886859
-0.44488465461663851 0.29021012937575685 0.59200805222081376
-0.43538505047261267 0.33611544948392114 0.57491140236055394
-0.38229637111003034 0.37430783123460598 0.58658658332280389
-0.36465545205413374 0.345658413266003 0.60499324766387286
-0.35055273225788519 0.32402590444516566 0.62042867987012151
0.17598158894691052 0.80620827652662852 0.16956327787145309
0.14020769356326168 0.82190475291179821 0.20875489982609263
0.10701921854405083 0.83009692448496342 0.24846161857196147
-0.7540229072156891 -0.37169552883021106 0.27633909482369168
-0.73171456328098483 -0.42850558341005485 0.23472795435080185
-0.6983806465016833 -0.48215835056560641 0.19081140956811593
0.20644814397601063 0.79812581232347446 0.092211272822722457
0.19886723504716675 0.81497305717062041 0.050864899790662221
0.19186097250099876 0.83011048966969847 0.010425416824418665
0.14486678011290199 0.88055170645375691 -0.0042993312229104852
0.10724456397953319 0.90608874051864108 0.02772128693028808
0.072600309517221406 0.92589553890868448 0.05508149464390133
-0.8449250639644752 -0.30789814951522532 0.075463612205175945
-0.81372344414723885 -0.37766736863912387 0.047261686993847807
-0.7723344695361527 -0.44323939422456338 0.011452007098935901
-0.70385259476362838 -0.50978801348070624 0.020300610905017891
-0.68848020600732029 -0.51724957647871816 0.062237700593960277
-0.67118256882177052 -0.5242589287693149 0.10488822243315266
0.17060906676431209 0.86757743788393205 -0.076232859504010708
0.16363835576129282 0.87792127494676109 -0.11284745054504519
0.16260775613853107 0.88147167278585004 -0.15146179373637914
0.13561695103912541 0.90073376209535416 -0.18293856753381732
0.10229421515824755 0.92822339100516471 -0.17059003274976314
0.069775820622870688 0.95718612416177251 -0.16258411394443817
-0.85783806270778251 -0.29153783269353939 -0.15738606368745867
-0.82150843119282579 -0.36003520466292915 -0.16507711419638538
-0.78321044849592769 -0.4203354969837001 -0.17872836883391985
-0.75589217981306134 -0.46623991386695041 -0.14569724378107152
-0.75453951238602912 -0.46976759697323178 -0.10460580632403671
-0.74399603037001727 -0.4814195878462737 -0.066958533249822594
0.16657203213164506 0.87681806831481701 -0.24436600798478736
0.17301601898914987 0.86047389272031016 -0.29104318409575125
0.18486658043349324 0.83074434264761332 -0.33612366662860271
-0.69489246180352271 -0.48336818050577168 -0.35054953027154001
-0.72691762005913263 -0.47249845900284138 -0.29901989384826599
-0.74550284417610813 -0.46684593103296557 -0.24691040654763796
0.36148330849143318 0.15396778540114386 0.18664182262782569
0.37647678571529775 0.09284244224123217 0.17800785438263755
0.39030602553441895 0.033070224969943496 0.18080540950162849
0.37277561515442514 0.073770591853637546 -0.17466117371337342
0.36948927128154008 0.13006481149462079 -0.16306228421150859
0.36449556820844897 0.18370200682428095 -0.1535563920756462
0.36631689561112091 0.23011153277636298 -0.064622718594492312
0.36507799769127214 0.23003459402693549 0.019539906160921383
0.35841119886832673 0.23114436420482898 0.10765578729041581
-0.093122129868418058 -0.47709217160569217 0.075732607705572885
-0.09436074768120728 -0.49010266429881222 -0.017662723559314308
-0.099147197470867088 -0.49781338668915964 -0.10639421853473108
-0.065211242453089291 -0.48362066884706501 -0.19983456524697241
-0.017085997692238397 -0.4676230099348051 -0.20920489257768748
0.03274249695015008 -0.44924845463327179 -0.21936712103315648
0.10711166793945748 -0.40620435808585498 0.15558412438226243
0.045666256868233557 -0.42240363511667844 0.15030569767687663
-0.016788196926544319 -0.43700129500623408 0.15893700270180577
0.3816964356907584 0.43995333814606785 -0.062499900666407981
0.3745345312368078 0.46451991452744545 -0.0091747604775735958
0.36430293897052546 0.49963888617637098 0.045918389384404623
0.3515525831312073 0.46487328750095092 0.13645900491834784
0.3499225689629214 0.38929609246798202 0.1589595129233401
0.34682786964561751 0.31242339636312044 0.18103293863853986
0.36251907434575126 0.28675588917337946 -0.13746925128879983
0.36794006659721112 0.33614625630320427 -0.13024775326595117
0.3766581845484841 0.38289406282830307 -0.12376232833708922
-0.23305109234999599 -0.57847857578683781 -0.16653929627531827
-0.19585543403065298 -0.54937402439982064 -0.174380238046143
-0.15507559673031934 -0.52315166355287879 -0.18256399604301787
-0.16909993595616313 -0.49847590339917103 0.15460927302983496
-0.2380744350385352 -0.5383795001833489 0.13332027591420115
-0.30535055008815193 -0.5752996546308462 0.1133707989114896
-0.33248413780357011 -0.60875496854412781 0.018984373066223359
-0.29965308171642246 -0.60708038420948629 -0.042053928694885112
-0.27777187464063668 -0.60639621074052474 -0.099892609262609788
0.30413385414198435 0.27727048586502923 0.41714440644675888
0.31618184656190362 0.27126329416437711 0.35618523303926475
0.32986663034535557 0.25618002548366992 0.28885349616644795
-0.12253506970031824 -0.44997802068457338 0.26900432520202866
-0.14242871859580636 -0.44134341264001842 0.34083304579332285
-0.15367301658136218 -0.43024438962801925 0.40556828396773126
0.29194796653051258 0.21171309783429271 0.47424981284540291
0.29222227137160961 0.16153639852714852 0.48068843962231522
0.29324617507253803 0.11753511920333493 0.49129657301052809
0.34598817122481162 0.079634752894514715 0.38766678315553138
0.34212703962217472 0.12276704877314426 0.34104643208960095
0.34231532964931555 0.16947229284456 0.28436856561416635
-0.035297647897515882 -0.4190881320560309 0.26346163411677725
0.0098801919408840755 -0.3930118895812269 0.32392048685781294
0.052780401183795567 -0.3737148375651298 0.37423096404840983
-0.00636729356407717 -0.34163686683041172 0.48172041406840904
-0.049018583325353304 -0.36209487728789913 0.46975488331236059
-0.097129997363247011 -0.38580967565478286 0.46352589635700969
0.24080696684133041 0.6979718361558922 -0.38677966434875355
0.2756734631317912 0.62482639097700066 -0.37882239836221343
0.30897296535141949 0.55755291181334732 -0.36020412198090934
0.31781922982323207 0.47227796955396362 -0.35318196275473479
0.29931225272672224 0.43858064673650166 -0.37813050768058698
0.28267217380411402 0.39839640171841406 -0.40589164772253605
0.23279753059078989 0.42994977029604553 -0.47369259091272253
0.19950450021327804 0.51071152674753906 -0.49539961187953541
0.16430467292043582 0.5918837401999999 -0.5096436456186102
-0.49383453482881079 -0.38988958556959386 -0.54614656080240787
-0.41933018164269287 -0.42471031714254082 -0.53846365619711589
-0.34466760920906436 -0.44973335019905725 -0.52135968732777505
-0.29946718710629638 -0.49779019036432115 -0.45622382562238162
-0.32526433750867689 -0.5283764225493377 -0.4279219287703544
-0.34544138669278857 -0.56040859871521587 -0.40237540166505159
-0.41967715176242337 -0.58000976906534341 -0.40688332057212095
-0.48766220103215596 -0.55988512190797501 -0.42054994999934214
-0.56072350869446841 -0.53325559817446844 -0.42058247672973259
0.23839218387513661 0.33025506750518563 -0.49047117616917424
0.21443527135362284 0.30753720836287557 -0.52596407561872782
0.19102582457945827 0.27181467750570398 -0.55564197460096221
-0.23420282782317225 -0.3658793745169342 -0.59745138060474279
-0.25574819879669408 -0.40163861684874291 -0.57111255706553887
-0.26498255780671887 -0.43379064879514884 -0.53840364089866144
0.36023746132658774 0.46064099372109046 -0.28803309469816707
0.37592394812123597 0.43487073483622463 -0.23640624600576388
0.38565460100138615 0.42336408804433723 -0.17919191522990641
0.34857544869539447 0.25077686956289247 -0.22328059927964095
0.32918678397995527 0.27401100852419735 -0.29789752141555148
0.30355951735726561 0.30417565281216974 -0.36868519049569892
-0.20996925079780737 -0.48664069004840083 -0.42059981207930264
-0.16818044368282947 -0.49559772176313155 -0.34918071062479772
-0.13479009550365706 -0.50014634981330364 -0.27237394112394853
-0.26763488791230372 -0.60775036432703722 -0.22360839803651267
-0.28461902088860935 -0.60463782942549082 -0.28333770968436323
-0.3158964327000946 -0.6006986927342961 -0.33660711574696478
0.29328580682940975 0.14669511344915365 -0.44161611844871951
0.29186233922777316 0.20545674388789092 -0.43401608476466125
0.28236862688005782 0.26677409083519144 -0.43437223241051903
-0.19490331825679452 -0.46195210235935402 -0.48635786978478723
-0.14187379182847504 -0.45481081560649628 -0.48614829479286747
-0.0935776664727066 -0.43964095245007084 -0.4920087078220603
0.2199384706211196 1.0812181162680421 -0.31232094205075533
0.21414342899257366 1.0905514578937205 -0.31741920773880672
0.21097840127288237 1.098143185130295 -0.32895940363929066
0.20015373227871214 1.0649457205526551 -0.32274207764666674
0.19192862936404209 1.0289793512635741 -0.29981855003768354
0.18634155015023302 0.99492456829372444 -0.27945215597011686
0.18606458305209261 0.96480905240816828 -0.24551366572635747
0.19165913422304826 0.96431028340766622 -0.23629023357407153
0.19947035005503388 0.96208456787450247 -0.23379856265351862
0.21042514602806772 0.98509017587673853 -0.25207810978024714
0.21389251555957745 1.0122228510058235 -0.27006167922481872
0.21959469886625449 1.0407771046591585 -0.29056416238273064
-0.86617501332035918 -0.58844932606377798 -0.28772412124963243
-0.84425138655105592 -0.57359333438878934 -0.2671172294272508
-0.82234132763716061 -0.56295091932903851 -0.24919843080481296
-0.80731124257616216 -0.53932606308595155 -0.23111645247980572
-0.81248334449127169 -0.52507176628231322 -0.23408874736246377
-0.81475140860174422 -0.51403986537096147 -0.24450109484587568
-0.83990458347637431 -0.51668979315230068 -0.2803879158303304
-0.8671706824510772 -0.53086431659722444 -0.30097925510345735
-0.89477878965803836 -0.5503519576477649 -0.32422200674805746
-0.91969790292007136 -0.57696799656756959 -0.32878050277631288
-0.91209423578576931 -0.58370967928822193 -0.31581934564208614
-0.90117897198982511 -0.59457016926312178 -0.30987287153999921
0.25916279001733744 1.2144850096345017 -0.41882701337734751
0.24061542041859862 1.1812131441108376 -0.39760490626279221
0.22455889463898759 1.1428546401403279 -0.37307513595636976
0.23881625452123911 1.104087632370548 -0.33721096734324307
0.25240582740467765 1.1359700611096279 -0.36091602887418528
0.26846478142905084 1.1636484361673927 -0.3821769154522654
0.28169471725245487 1.1998696122298782 -0.40088863188414559
0.2785926742207967 1.2153940960636898 -0.40742698849417547
0.2780304504709834 1.2290467961900411 -0.41863116358232011
-0.99529091556984373 -0.72858507288155017 -0.41306858325919471
-0.98349135501161333 -0.72865048297209523 -0.40120566149940773
-0.96828213229971816 -0.73245339578842139 -0.3944331242886423
-0.94507495379866113 -0.70042350136475595 -0.37784407960806488
-0.93061144162468001 -0.66503066087951646 -0.35784241402494055
-0.91073074524156283 -0.63409203478394138 -0.3346265774967474
-0.95044201771045689 -0.60667780295759965 -0.37508652501780437
-0.97509610891636955 -0.64356871972990914 -0.3988655982998508
-0.99334758066741502 -0.68579554286278932 -0.41792465428624914
0.36154416160252101 1.2439139943679511 -0.44193404375927958
0.33186352349937054 1.253964931995954 -0.44443089601736152
0.30471035325619189 1.2524174031349926 -0.44253323098588093
0.30830953900413594 1.1937897450224488 -0.40916929708534622
0.33193649354526533 1.1935151903872634 -0.41392985331226284
0.35751698058613135 1.1833797087979689 -0.41437384338222349
0.38419927335896653 1.1794638933435093 -0.41303104281369207
0.38558452735859827 1.1956505487407385 -0.41769276468350891
0.38866522076887522 1.2103726051068155 -0.42569008628922056
-0.90957654003676447 -0.92218596069617931 -0.4158038017190584
-0.89974807965619708 -0.91289558498444268 -0.40882729336920853
-0.88774594148523478 -0.90532004092076579 -0.40568253451409264
-0.90735221765526086 -0.86346103324981938 -0.40573226814886842
-0.93159207842706704 -0.8230838641083309 -0.40446375917984234
-0.94655086243792586 -0.78103275467641353 -0.40079940316143681
-0.99786723736985383 -0.78397527158009672 -0.43360156216609358
-0.98153403469315093 -0.83621972795802324 -0.43218455275189571
-0.95385210873775472 -0.88663993794893914 -0.42903236429790814
0.49084579713812682 1.0887391932033703 -0.41375554349500931
0.46003218243377542 1.1426546031784375 -0.4239885280666178
0.42677569870432897 1.1876903230199862 -0.4313323730235965
0.41256461810731837 1.1338093403195582 -0.40751105188117909
0.43997341803209866 1.0959575785009104 -0.40074753206061331
0.46498490108500179 1.0516641233211026 -0.39068267970236059
0.49190082270982161 1.0092666091912088 -0.37636806897510522
0.499636796403093 1.0161307701682656 -0.38007210088665611
0.50801590820525511 1.022701512575543 -0.38771735516188555
-0.7014760598582177 -1.0124849312298068 -0.41272607216422452
-0.70020255843681678 -0.99953770425316968 -0.40376631334729907
-0.69870202895354128 -0.98709651406200649 -0.39934849361787572
-0.74420597811613709 -0.9707403060833717 -0.40545493556570023
-0.79096726146900131 -0.95538392254376014 -0.40753127849377035
-0.83529460570711334 -0.93139894162885439 -0.40727599903771483
-0.86899639223018033 -0.97108800351682278 -0.42719707562974163
-0.81595471780691042 -1.000404508747796 -0.42875843450293383
-0.75955482092723103 -1.0187603544764416 -0.42930745794374059
0.54454725147490546 0.83134417444489417 -0.32614598041787346
0.54292630731533897 0.89713360160043587 -0.3552317741158979
0.53370548434467069 0.96351678896169823 -0.37975791332748843
0.4990256858961144 0.95171809225639725 -0.35689064630468992
0.50603452101301194 0.89965040726882273 -0.33266801147662672
0.50692780267696103 0.84809775902009044 -0.30413789981860173
0.51108464764557393 0.79051024011062232 -0.26801433186039803
0.52086233947095928 0.78251055398591629 -0.26975557415570606
0.53057866712558521 0.77496796431170023 -0.27760192128060468
-0.50213596672691985 -0.92887334980362524 -0.32693882008538155
-0.51108242741142518 -0.92104215205646334 -0.31543251459347044
