# XYZ point cloud file
-0.063125065443771167 0.5180135829020529 0.71869757938087142
-0.057797588276824907 0.50232532089425475 0.73175887534492023
-0.024269952729068844 0.51583908173597026 0.72195609785619963
-0.027344736440923834 0.55206104464477135 0.69081043354653593
-0.068915796800071094 0.53612975160450393 0.7031376182791913
-0.51479629963734452 -0.018130955944286598 0.73823576990979278
-0.52486421413540718 -0.048491255562967295 0.73430732245888786
-0.50401578339529629 -0.026446501482285445 0.7519449779404157
-0.5013046615091985 0.0093094028304551713 0.74253935671067062
-0.52698792229765901 -0.0084520585675000315 0.72192166398219859
-0.53833051329245629 -0.042856592347822797 0.71752735963937786
-0.51297492182258475 -0.053291347739711781 0.74843369468873711
-0.49198121231424885 -0.0021494926124172586 0.75579028644860635
-0.51182000937619332 0.022602748555100804 0.72674101955353532
-0.057418613299000665 0.60400230141663336 0.63513672169660751
-0.054987974608516899 0.58592239280926028 0.65731563120197567
-0.030385096389317967 0.60967197995018063 0.62789057321821273
-0.059505763894551089 0.62157451634751004 0.61170700044810467
-0.083556669693285901 0.59001177357434653 0.6438213184125714
-0.079327210520999003 0.57287636092934346 0.66538839340176104
-0.029687450770095269 0.59131473715459426 0.65049213035515008
-0.030845414443180896 0.62753110605364271 0.60409492122574315
-0.087357079403760141 0.60665372031164622 0.62095851621573139
-0.56200410583174176 0.019887855799468279 0.65977803050255979
-0.57713817898060249 -0.026170316307415897 0.65429991587199465
-0.5510474097029745 0.011018583370399349 0.68237504022678896
-0.54187188678711551 0.061329608080420039 0.66594052727723563
-0.57251569580913975 0.028365663524668072 0.63583739139198103
-0.58881046517658442 -0.021175812561532226 0.63012739592211631
-0.56497826373860205 -0.031408711553658208 0.67718316122025746
-0.53248904278216713 0.049228066466521225 0.68814441238620683
-0.55086089320889675 0.07291318708766531 0.64235270762595142
0.050453271511271991 0.57826802506918928 0.6170480688755271
0.046327264843830651 0.56270865155875605 0.63971237215006749
0.075811105847914284 0.55462223347276574 0.61743981609047616
0.054425808210390558 0.59342313609973874 0.593412077161942
0.023977584559768061 0.59611620228240347 0.6187013611567167
0.021420087729019599 0.57910938907556186 0.64153432588241976
0.070138545338649383 0.54084647010086406 0.63979106440789213
0.081201448941445431 0.56806625235286168 0.59418067483637982
0.026516131177557245 0.61267343482209569 0.59482219926697288
-0.58442233914256625 -0.17068574887426707 0.64477146998060775
-0.57357832047416202 -0.21340760855203489 0.64386734142791768
-0.57159843550960754 -0.16448190043853855 0.66771128512029776
-0.5887372146910228 -0.12372583442734802 0.64672259746234939
-0.59663957340630724 -0.17667600670160083 0.62074811985510037
-0.58503180517406905 -0.2225560036669027 0.62001922668267184
-0.56151494388571832 -0.20389450478806093 0.66668425188566793
-0.57562005024241469 -0.1212232003220764 0.66975435845854303
-0.60128006713827253 -0.12616956553258524 0.62253988426780671
0.032342058363808546 0.51284364329622512 0.69890863739435849
0.028128426562558984 0.49833827216890236 0.71400989500818168
0.050397219932163617 0.49678377456318917 0.69851610217904181
0.037100354607588537 0.52938991540429936 0.68109287473432678
0.013306630231257666 0.52472029135408915 0.70063944499190711
0.010987296450568174 0.50896576473683131 0.71558109764260358
0.044345480330392428 0.48395128410178279 0.71361065419866243
0.057184245889497998 0.51140266399672774 0.68077344841692433
0.015987224033120473 0.54273687018370576 0.68294642406457928
-0.52880373663532421 -0.14361588420536703 0.72663480714795226
-0.52107370114058216 -0.17195739207181127 0.72567209157797041
-0.51602071719263232 -0.13730543009820667 0.74153743964666896
-0.53212468065109375 -0.11264719629730013 0.72840381339294469
-0.54322902419744934 -0.15070025154088246 0.70904547775186622
-0.53473073680052563 -0.18277235900558542 0.70800426494715429
-0.50894226912032448 -0.16235914136488577 0.74066038492812725
-0.51919487245342877 -0.1099549248949177 0.74313647772074054
-0.54674887087666679 -0.11560601232939138 0.71097905285817786
0.022434439428477893 0.47799308344169067 0.73968688674615946
0.023304748884285464 0.48139774990148376 0.73395812186610376
0.0079854336027977979 0.48705023130905351 0.74104362211037378
0.021584458436865628 0.4746860266441808 0.74437635244811329
0.03601374892500564 0.46570192313478798 0.73938165686477708
0.037354891933842005 0.46884960389976127 0.73361059841619447
0.0084111263173280992 0.49072652894647839 0.73530971030622316
0.0075954402705180613 0.4832579926058323 0.74581855653837303
0.034590983028449429 0.4625828136919099 0.74416200496830953
-0.49764382673691188 -0.12808494292660955 0.76730982304431539
-0.50071989748564394 -0.10571954216013774 0.7687327162299491
-0.50082640589399996 -0.12971686938328775 0.76148506065528876
-0.49126316890591548 -0.14850667356276548 0.76657563503567738
-0.49454697715981832 -0.1265281535731454 0.77195067638381554
-0.49740380863333455 -0.10497074146155272 0.77342318051143533
-0.50393783303871476 -0.10653957017469018 0.76290105318957213
-0.49440826385702485 -0.15094987746520638 0.76070186915977223
-0.48814749005083313 -0.14603544822757719 0.77134213276921004
-0.036616262040944481 0.48935898637781594 0.75076338480594362
-0.03738241664798081 0.49275911497041625 0.74506956633067212
-0.050332250250403554 0.48153238218666594 0.7554598380050277
-0.035843707617682297 0.48603349645343086 0.75540724678793225
-0.021969655334574067 0.49298869437338622 0.7466868249713503
-0.022343076310272991 0.49665739160055478 0.74096752608778127
-0.05152039676995801 0.48471682752874734 0.74975804071717711
-0.049043736592654374 0.47830601284594326 0.76010951407155147
-0.021612978528604998 0.48919808343699522 0.75145224848021108
-0.48887419541493404 -0.036641879719040926 0.77665420892438375
-0.47880516698946685 -0.016472309156204235 0.78011890430330366
-0.49139917125878618 -0.035358398090848286 0.77078447496413105
-0.49618950910275084 -0.058960678443444714 0.7735003318837248
-0.48635495765165415 -0.037870475312324459 0.78133556122838099
-0.47652238896587629 -0.018513835513625287 0.78487243310450783
-0.48103470081461031 -0.014534690536798789 0.77421341709002034
-0.49906290384487351 -0.058320486475149425 0.76763762501084098
-0.49317342840251976 -0.059543587029645684 0.77822725934774795
-0.080806112718177836 0.43790496726410821 0.77029719919336914
-0.083022698095346126 0.43968123594707359 0.76488637497896761
-0.086033788126967714 0.41831511644564029 0.77467469279518753
-0.078664405896940792 0.43612939181156918 0.77454926999369356
-0.072871888625150927 0.45530551901860383 0.76549487846770603
-0.074783924017586489 0.45768197490182644 0.75992964903107385
-0.088588715554013042 0.41952354420695914 0.76941341371580751
-0.083464708665625498 0.41704600393516117 0.77876104734904006
-0.070931031340905504 0.45281274363176999 0.76996037586604249
-0.43823277019442197 0.022881457299091912 0.7905912467047469
-0.42278804370825585 0.027310677190989729 0.79365704069566689
-0.43924054029344317 0.02603557475835161 0.78489391422737986
-0.4529704439408424 0.013893868999419468 0.78723077522272122
-0.43718178181715461 0.019845142198322563 0.7951545634985977
-0.42216793462821744 0.02379314904361185 0.79811687911184048
-0.42336521035556829 0.030775842540114562 0.78808355190065305
-0.45444532193653542 0.016761555430627961 0.78140384763711923
-0.45138249250860563 0.010990926202595785 0.79194693739752919
-0.083327918529766842 0.35411418682259022 0.78343266180722049
-0.085920949031398131 0.3535050162271397 0.77851304135303323
-0.076046163789835752 0.33420735439743376 0.78484518998371744
-0.080959369999820563 0.35454247269329875 0.78721029267408626
-0.087429820089082178 0.37549036708013483 0.78131559054250932
-0.090187455715995846 0.37551581310893689 0.77630412955244887
-0.078470543954561434 0.33294844932559076 0.77999753131686944
-0.073786751425151342 0.33539763607386586 0.78857114524468264
-0.084733737727645808 0.37525603214595038 0.78516977293672774
-0.37636563568569015 0.014184397246935709 0.7993567849845582
-0.36256301713433059 0.0021553658529089859 0.8002618394237424
-0.37584311961323569 0.01709108909053958 0.79408799522485607
-0.39139006010514699 0.022688039232297341 0.79806163039409705
-0.37676756026456459 0.011471768178751285 0.80350423639578317
-0.36348428702196212 -0.00025956612696526049 0.80435064478428897
-0.36164111517683462 0.0046654030240660949 0.79504742156189101
-0.39122418157553107 0.026025091747717388 0.79270885253706602
-0.39142516332533228 0.01933789545531428 0.80231262045232743
-0.038625794271038183 0.29195583497044164 0.78597522429985833
-0.039913752266264479 0.28931085439761561 0.78124518221325312
-0.022618500548095 0.2852560874101211 0.78520300378993291
-0.037543938466796822 0.29429485008068113 0.78966863822145283
-0.05324022602709233 0.30253281211782579 0.7860945568742892
-0.055010165252832977 0.30025105207309322 0.78133946291087897
-0.023428177305358622 0.28225489089361555 0.78047313369400229
-0.021995177257915444 0.28808571294811186 0.78891064833774527
-0.051595350862562617 0.30463831526774499 0.7897863912856562
-0.33399055322404059 -0.048664441947135928 0.80135340566305002
-0.33008110250451073 -0.06860455832993223 0.80083432716778136
-0.33218487740330338 -0.047844458135188339 0.79623188348425877
-0.3409149844187509 -0.029858446408078332 0.80131041170083295
-0.33566690335109128 -0.049424366734694081 0.80529990786624017
-0.3321578163412704 -0.068822776220834547 0.80479031427997549
-0.328005396979685 -0.068375371854184519 0.79569850951469778
-0.33934804437772748 -0.028397556124584444 0.79617298007439929
-0.34245021309767298 -0.031337259921278227 0.80529316103120863
0.026688649749659898 0.28825121289975153 0.77774933435046556
0.027301920815684388 0.28557779291282959 0.77280030979549386
0.041217845410098874 0.29674040811346042 0.77383895327310315
0.026073976825405243 0.29058105325114802 0.78168598735267159
0.010746436302350837 0.28345413860227964 0.7810717765646924
0.010885014019558659 0.28044658972303232 0.77622951073117319
0.042328876539075244 0.2943828570165547 0.76877420392058271
0.040018960087968569 0.29887495052345214 0.77790822059295195
0.01057359592908913 0.28626428758724409 0.78489956239551084
-0.33746028489377777 -0.12903376028102892 0.79477693528608695
-0.34642629658822632 -0.14731516744891782 0.79145801881688138
-0.33571399922329426 -0.13049643862131299 0.7894345195086454
-0.33175033573613821 -0.10940553483452814 0.79754302822389445
-0.33910320431005969 -0.1278277196193553 0.79896098593195397
-0.34787711855228975 -0.14542333272427233 0.79579722780143092
-0.34497483183358968 -0.14938100864463311 0.78601267943239783
-0.32969682739250361 -0.11029390155972174 0.79229189155461777
-0.33382273953126806 -0.1087306539205003 0.80161776336750457
0.071036834122642833 0.34080503053088484 0.75990708088808789
0.073084626139744202 0.33985303686990254 0.75469874257774094
0.074984636423317097 0.35955098363647653 0.75517108743046091
0.069034635476912465 0.34148984639844926 0.76406254075817603
0.063851829117789194 0.32356599581008144 0.76475394960497267
0.065678514336287019 0.32206809840204753 0.75956788577442014
0.077284848832612996 0.35913491196409464 0.74990576866468972
0.072571593855087269 0.35970351710744908 0.75943188326886535
0.061990336126154455 0.32491550156852078 0.76890787253370707
-0.38959702260168316 -0.18852625171545345 0.7799000015159252
-0.40712533837557574 -0.19565709891848099 0.77627517992178996
-0.38945000382551598 -0.1918459205538211 0.77436904480459434
-0.37306492715437112 -0.17765749652970314 0.78380535848312238
-0.38969796145265212 -0.18554208210547929 0.78437192838217262
-0.40669247978084444 -0.19208980190183322 0.78085061307133286
-0.40748059368150913 -0.1993535788870322 0.77071260467075664
-0.37241207330126902 -0.18064711113556137 0.77826866383001692
-0.37378105181225152 -0.17492148653507916 0.78827929908304206
0.067251414392182962 0.41689737192681431 0.74384510163822037
0.069416891745818443 0.4183704273733021 0.73834646505759682
0.058883872577090601 0.43459877131762059 0.7415267384495503
0.065093005927517211 0.41540021653585163 0.7482619973190574
0.072941115837481085 0.39821256495295981 0.74696305307834399
0.075299068548477122 0.39899775349909278 0.74155902203580393
0.060874714673476715 0.43678001204851236 0.73587706294818478
0.056832764705650574 0.43234042794697192 0.7461636575802495
0.070448974884879556 0.39734622830872746 0.75133644879118
-0.45684056889470015 -0.19093016155279985 0.76837012332144905
-0.47047390523860511 -0.18051765866002445 0.76708560291763295
-0.45882593269014715 -0.19463330769512666 0.76266272951800396
-0.44143838640101163 -0.19701301731613319 0.77039721924892257
-0.45493961047600529 -0.18745243718731247 0.77299239785814455
-0.4679287792820972 -0.1771285741989741 0.77185168020236539
-0.47302017564216503 -0.18399896651876935 0.76126637603445291
-0.44286211649606999 -0.20092082707283154 0.76474958751375199
-0.44005260552290704 -0.19317574190314529 0.77503471219380149
0.044686083636847451 0.40499277091740765 0.76333118031805114
0.043297778875131643 0.39369242924352466 0.76710136750729108
0.053078920627526616 0.40900811050847863 0.75844976886848325
0.036547635780866283 0.41186623639356906 0.76465336231628411
0.027422284518510143 0.39702061727043292 0.77218241827846157
0.056322311550026871 0.39412957358955714 0.76132338665875787
0.045651603608268143 0.42209886349492642 0.75739586219624044
-0.44193205785636547 -0.15865773672329581 0.78815991611808744
-0.44700155189035451 -0.1703382367078331 0.7834163652029722
-0.43197695462800545 -0.15623217950000523 0.79146484185849753
-0.44612573405995715 -0.14768639351147228 0.78969684279213537
-0.45671025149328548 -0.16072321994194516 0.78292767398578889
-0.43470525754538647 -0.17378389630532975 0.78556386318501126
-0.43173615122138265 -0.13471341042431045 0.79644125042653968
0.047100325070813964 0.35140495212729972 0.774817154835171
0.056231263618686356 0.3469941657227088 0.77181723115335288
0.044650150417324452 0.36299887985995793 0.77369575906388777
0.039170387926365846 0.34501352388010825 0.77886038228268406
0.04964401066374724 0.33426799265424079 0.77613351807974951
0.058012590794061181 0.36206304336378431 0.76827002019202384
0.028582691820969508 0.36100803509571799 0.77979774992532613
-0.39563151413977637 -0.15837288015487316 0.79645618804308249
-0.40551598315981874 -0.15611712303972963 0.79622205975981331
-0.3929304721701139 -0.16962686634386315 0.79307430440337479
-0.38883489237543167 -0.14767570857415691 0.79997287777154247
-0.40120557110980015 -0.13493515689479707 0.8019390377711324
-0.40668391706849749 -0.17336556974149731 0.79057138839964969
-0.38065164647304939 -0.16009374903159124 0.79649523565721925
0.016539733464796536 0.31519870455794496 0.78816043673336278
0.0067891583383259402 0.31816479708180456 0.79032767705427087
0.020610968569996446 0.3047793875491106 0.78713226040993911
0.02168504027800533 0.32429081818314132 0.78658938587083371
0.0083403984113255003 0.33704115637436943 0.78888450209162686
0.0078864849465307696 0.30269295346167269 0.78977910476392532
0.031176609227904439 0.31237565330873474 0.78410091084478717
-0.35958468221358864 -0.11703012490845888 0.80652457967314195
-0.35089652929660353 -0.12154049360113561 0.80502492069256704
-0.36091646104489361 -0.10483344432089448 0.80848827771866905
-0.36819210869164065 -0.12399041720854859 0.80570739294597926
-0.35883631053787823 -0.13516324038296335 0.80271603437207606
-0.34765241706124916 -0.10566847813342722 0.80715862695232232
-0.37735828106220115 -0.1074390796068212 0.80834216571262374
-0.02862555178460835 0.31857039093388678 0.79393233905316674
-0.034061050187997433 0.32876172567083817 0.79392738701938059
-0.032246778217576599 0.30838085595200304 0.79376731046403215
-0.019016934231589788 0.32014098982494082 0.79358470367734668
-0.02127566046118945 0.33965396107538259 0.7928197134573578
-0.042995539053331866 0.31774680067988603 0.79377323012856094
-0.019528371334142758 0.30452804987862581 0.79315316007407777
-0.35652554035962924 -0.059759947803165403 0.81105562905379447
-0.34763201492213947 -0.055337040098236145 0.81023354927266
-0.36409711912174592 -0.052492455342666611 0.81149848435261429
-0.35914040154512783 -0.072021287350485963 0.81102960730628437
-0.34600862111758279 -0.071444233043643224 0.809792717302944
-0.35387803699850706 -0.041344393056648276 0.8103776898658599
-0.37498201327264202 -0.06890403869124373 0.81143757688184648
-0.059805998441595509 0.36161854429168361 0.79173808243205812
-0.057749933089474403 0.37360795907376532 0.79071592757720666
-0.068467160121901349 0.35846579013797614 0.79140885435414798
-0.051921215169313362 0.35337572975337034 0.79262062499890229
-0.042070596505332514 0.36826959649746283 0.79112935781036819
-0.070595874901317579 0.3752147528158527 0.78972296423998456
-0.061765585809395285 0.34367183276210189 0.79255486493280403
-0.38573256443209081 -0.01623057413915624 0.81041715808251258
-0.38169475552472076 -0.0047109064856530325 0.80924632335020119
-0.39531316503591674 -0.017930160865933908 0.8103870302249967
-0.38080255026431775 -0.027604495753712932 0.81120273742838567
-0.37153881026442126 -0.015148236077212052 0.80987568767264406
-0.39393689896171957 4.5690249788621351e-05 0.8084669000183089
-0.39430783608873798 -0.039941819191335326 0.81128072584951028
-0.058987650115926771 0.41976512478155104 0.782784861403369
-0.051245511461345039 0.42519288426150137 0.78137199401410218
-0.067122929377227525 0.42638957109564468 0.78101627889727121
-0.057350825199192768 0.40688738808526836 0.78564731906416174
-0.041989638868210166 0.40655888308904364 0.7851302734309713
-0.060203475561590336 0.43893506066755317 0.7776163618467109
-0.069865319520608038 0.4104760573058075 0.78439933925036431
-0.42985357947266922 -0.010982372183392375 0.80467954562914334
-0.43270721179363747 0.0017878796720410817 0.80256019725497962
-0.43586476703938493 -0.021573060979245329 0.80394487253735125
-0.42060168414429966 -0.014916960295184856 0.80717455239077918
-0.42031000540917551 0.0035250378212481337 0.80507466205216849
-0.44379334802416226 -0.0066604639742043337 0.80013384411326882
-0.42398591678144659 -0.036920830258031168 0.80744826987473495
-0.028326271779184564 0.45557258726846478 0.769460011305934
-0.019305291504437383 0.45134404177372184 0.76935972226020199
-0.031470957991688975 0.46800217105408753 0.76526427974322653
-0.033676500254837372 0.44571025506679646 0.77377404953022966
-0.021577480803960603 0.4304172047344379 0.77658148403330962
-0.019663326863391672 0.46911231332337061 0.76248467486834492
-0.041718303070606533 0.46050339860860257 0.76942195653560752
-0.46512558954959493 -0.052179363241874999 0.79412648225781224
-0.47371867025433145 -0.046182385930455649 0.79045112428730135
-0.46436551521376712 -0.065990337399753907 0.7940534182529122
-0.45607545865851429 -0.04515755990682635 0.79781029920077851
-0.46505847962569469 -0.03152733201605018 0.7938157889808144
-0.47804788002432907 -0.064002445350838544 0.78815318275311652
-0.44746567917558511 -0.064260649414221549 0.80026348514144408
0.013634165797543396 0.44766710043674485 0.76121291582444295
0.018790380022758235 0.43629328122738065 0.7635181458880127
0.016928817147234154 0.45852587318709204 0.75573453308393734
0.0047675981045702809 0.44679755089269246 0.76461684225185556
0.0068086452613544957 0.42553742849865062 0.77105182639481518
0.026925979474107242 0.44772383932109455 0.75600667132339527
0.0053573571081380056 0.46410720507610193 0.75754306511933844
-0.47033068295199731 -0.11496622154638336 0.78701972678096777
-0.47999282166363089 -0.11957337107238081 0.78224891385847473
-0.46237498805347799 -0.12268411178059646 0.78898913124389392
-0.46729137208656568 -0.10191860204251935 0.78995517326512932
-0.48130527526857492 -0.10210655827670867 0.78388810601988146
-0.47378604424870829 -0.1344463102075289 0.78231203571056129
-0.45068128058113133 -0.10558870182524038 0.79549591993091884
0.82960051255125666 -0.41206117447909346 0.58782573650551395
0.84680399413382834 -0.39183645358970348 0.58563583833970423
0.8243249213243129 -0.40733867124521628 0.60104083025977317
0.80927022596831022 -0.43264411473710285 0.58909199877300189
0.83120443868779414 -0.41707289145047355 0.57313600221442318
0.84874906737523603 -0.39617329885934627 0.57033443841182763
0.84077823496898429 -0.38807532565628439 0.59953373842716928
0.80478419227903797 -0.42708061526978769 0.60188668981707849
0.81055132765606053 -0.43814197410906996 0.57477669785665153
0.72981789918963935 -0.49178256538280268 0.58496331894240283
0.72904861031311285 -0.48369663000540974 0.59846290460517615
0.69989955197805553 -0.50952204899284381 0.5815839346650673
0.7289525002630286 -0.49858821863989533 0.57003673555559775
0.75882767560848463 -0.47287100716986219 0.58760323532943382
0.75651612858025219 -0.46569791368826124 0.60054018456481284
0.70102507925690727 -0.50035843987617201 0.59591112121563539
0.6975736926909557 -0.51703793153652278 0.56590804755713409
0.75898741535072944 -0.47916772990755535 0.57317311856514808
0.88089233303022474 -0.338178079657527 0.57747566357932634
0.8854102806971631 -0.32251345106143425 0.5757940114584712
0.8718838479897395 -0.33842447365930495 0.59450156260608722
0.87259954504619452 -0.35474555664625196 0.5800033109872782
0.88480929892216542 -0.33869068657734602 0.55924328876223672
0.89005204239000646 -0.32156360160445696 0.5563667583850771
0.87514822870949049 -0.32409299935977715 0.59402535659794165
0.86473714868233942 -0.35353042833306625 0.59586153689935006
0.8757295704707353 -0.35677343838159936 0.56289260824639742
0.61620217423440415 -0.55241419121795721 0.57085358983316858
0.62509395219512531 -0.5385928746990839 0.58876362298256435
0.59093277905841846 -0.56193292253987615 0.56853631362388679
0.60632873034547985 -0.56386560752712933 0.55173379074391082
0.64257436816266988 -0.54022423338743542 0.57411754468087706
0.64869252891491591 -0.52815287553513168 0.59071061706291639
0.60228259583760724 -0.54635006043739054 0.58778102865726778
0.57829911708975579 -0.57489619147414839 0.54807751176791486
0.63560616323768704 -0.55012446697052009 0.55629350105759912
0.87106049579235001 -0.27774199921776138 0.5799359228634704
0.8559102444164457 -0.2625845143277718 0.58434834319724471
0.85681666389701094 -0.28109080766034888 0.60124431732347317
0.88087915345207746 -0.29259695621173554 0.57689495703643434
0.87642778249870545 -0.27453277012934407 0.5572348432104639
0.86067398274732887 -0.25892051753504763 0.56093356783403348
0.84105453794359475 -0.26630434977069745 0.60623130098422395
0.86783395324318979 -0.29567412142905625 0.5973497983430085
0.88634668707745168 -0.28980668002387355 0.55515032287437593
0.51788353327029713 -0.57086511465265732 0.57150380609803086
0.53178897727079932 -0.55125289465405614 0.59408412874554095
0.49244249334413071 -0.56722358444019794 0.57574806342695828
0.50123571527413913 -0.58628311975435743 0.54757273191866185
0.54230232509060805 -0.57129066658285221 0.56872763390063508
0.55607735272758929 -0.55270312615866091 0.59038000054722417
0.50651568614399789 -0.54700884836488228 0.59896890820939763
0.47523372666401986 -0.58262875882450538 0.55108299738012434
0.52629464076670684 -0.58632702803766501 0.54579014933167525
0.77548011801625871 -0.21269298497411238 0.60374698149226713
0.73572913234312987 -0.19383597524765944 0.61125096193803952
0.76511598659226476 -0.22058860375312622 0.6251095738246204
0.80848621638148166 -0.23029559805549193 0.59652714765549364
0.7745344875816178 -0.2052246781639937 0.58017168441871592
0.73262223704862706 -0.1847024120270131 0.58797605552506216
0.72793044105917382 -0.20370705512739035 0.63206451388735418
0.79567765895085141 -0.23629492946315717 0.61838496457893521
0.80992310693065006 -0.22449181718096289 0.57271651415703273
0.40258693529435541 -0.53794527315041607 0.59488544069936911
0.42199447060739459 -0.51898453285458701 0.61759338563857646
0.36567544589339085 -0.52223213721107931 0.60257338198696697
0.38036854284368871 -0.5513464278001764 0.57020787565523312
0.43553939336513103 -0.55069835217488339 0.58768486749701854
0.45236288385575141 -0.53088953694586383 0.61092479366101626
0.38768897803946367 -0.50420686035220497 0.62467685479690127
0.34142693975014904 -0.53478078303373366 0.57828827062239929
0.41552341514507951 -0.5649894386782971 0.56268493971091171
0.57702944431300418 -0.12888013060874692 0.63247214044580913
0.51964118379949475 -0.1073224533562333 0.63843830756084019
0.5720941540373532 -0.1424176731487643 0.65330447655097146
0.63472114964947912 -0.15138420057733215 0.62581836634116561
0.5733867866148783 -0.11720474108911649 0.60876782290357845
0.51743605036120721 -0.095692603677815902 0.61413740545629381
0.51417731370702291 -0.12111328515608988 0.65984819700690256
0.62980065006043939 -0.16420970538418211 0.64628750978583049
0.63017834981268939 -0.14005348837732223 0.60254813451334233
0.22925702689335314 -0.45787835319787762 0.62609656743280251
0.25416978987069205 -0.44082324492169822 0.64805550726301497
0.18288852773987996 -0.43293966866236211 0.63305679005448523
0.20437987614562969 -0.46996755705368887 0.60147567930170354
0.27749629152396538 -0.48177343100930053 0.61844463905644131
0.30245048680001863 -0.46476356623067006 0.64010062398844392
0.20704206746079779 -0.41570403928058458 0.65551267760089571
0.1594291006124624 -0.44544750169998604 0.60784343034264099
0.25181172045460243 -0.49362181685599371 0.59425417557931004
0.19101123544265119 0.11594571217380689 0.66565286161052084
0.20811108832337499 0.11328239813626667 0.6355066833086318
0.20933386789343378 0.16243344691064443 0.65089376787843056
0.17003567982728729 0.12165030752061978 0.69421401128353155
0.17547766382906582 0.073732940347913278 0.67824806592912301
0.19392543763814407 0.072751271876620505 0.64505724316032076
0.22532661189919145 0.15895577115556608 0.62369663558314814
0.19029199230557459 0.16878910772494227 0.67622517956691564
0.15085779711594594 0.076363868550027525 0.71147805541024178
-0.17033665900471928 -0.28398152878624838 0.66719452041304805
-0.21951552463646284 -0.3164216475813757 0.65279758360831774
-0.1678782693020433 -0.30415956962252338 0.63527790072667223
-0.12496784901713953 -0.25603724702930408 0.67973547882833074
-0.17584474038869513 -0.26074315981265944 0.69737344781657873
-0.22586463014374503 -0.29549833464688979 0.67998343231849123
-0.21590311906528181 -0.33502932750045022 0.6236827250979875
-0.12463166482546861 -0.27823587423141727 0.64489885072553577
-0.12698849421757408 -0.22805558718800423 0.71439615887296082
0.24841847912509074 0.3077158205910151 0.61312955785039325
0.26176305473539307 0.30316789453283016 0.59233231138937192
0.25277612875620714 0.3561681335511967 0.60247021964580227
0.23213457952556871 0.31243238407504459 0.63257524412771504
0.23974393551642015 0.25937935121984945 0.62398627938777151
0.25386650666215083 0.25504002991338515 0.60160356919517044
0.26551080701645713 0.35192873771015626 0.58255062794371604
0.23711548191211684 0.35984144888388492 0.62103730512278466
0.222686437528409 0.26473569018768373 0.64498751159603929
-0.36944051081299079 -0.40119872079116337 0.618459476885453
-0.41772870546745033 -0.42022660428438385 0.60982769228746525
-0.3643830311037024 -0.41665190075026853 0.59550309724075312
-0.32026675735716914 -0.37738366790045974 0.62771459793581208
-0.37409070906246988 -0.3824162191447692 0.64007064311862116
-0.42126790658683144 -0.40147429178144178 0.63064343463174977
-0.41296735287893549 -0.43536109721336558 0.58758663870169903
-0.31545194281636513 -0.39361921762254026 0.60326508038936133
-0.32563116746264242 -0.35817340771517148 0.65081622353743729
0.24112426100493578 0.50359354113783028 0.5632803891249627
0.25310290933994484 0.50533748663966982 0.54080447141432986
0.22923383850213686 0.55122019035595149 0.5522708075206535
0.22666914885260869 0.50000651371669469 0.58481696915893
0.24904617534534257 0.4545005367646231 0.57697904446678461
0.26121820410700458 0.4534618625420041 0.55605257050128731
0.24076165596614185 0.55606392113300096 0.52830305239615027
0.21549109064543703 0.5442871361220829 0.57541443376820034
0.23417633124381676 0.45398558567503133 0.59677446907649934
-0.55633563623761173 -0.4452417270002052 0.57807857138558827
-0.59830220255818189 -0.43974253724046197 0.57025491581842491
-0.55709670485579577 -0.46283734959679823 0.55274528319742799
-0.5116355079076389 -0.44296457845760551 0.58904386025694588
-0.55291303706817851 -0.42396006827506477 0.60204061026020739
-0.59170187932208229 -0.41779049200271989 0.59564419917236222
-0.60197889148043582 -0.45826574516681096 0.5435399364387794
-0.50983942167629914 -0.45934806340211459 0.56535586151003336
-0.51110514731999035 -0.42276878085779457 0.61127930643916129
0.17363294085901293 0.67648574183640042 0.55789800407507562
0.18125620854791569 0.68988239853916056 0.53515596431269641
0.1536783788146221 0.70838898059429556 0.57002607710900932
0.16459448322532144 0.65996774575353889 0.57900117947151086
0.1941529470860841 0.63863630306955432 0.54934095155179508
0.20337630515367144 0.64945547442610108 0.52519322491987674
0.15975014238366736 0.72395852350179823 0.54890563850544227
0.14638438330607118 0.68934385199204096 0.58895891701584269
0.18327222521116671 0.62509409647032421 0.5723132340885182
-0.69742460257832528 -0.3657389014659983 0.58615069068101056
-0.71708577178971811 -0.32719295531845827 0.60089030712518454
-0.70931350102478619 -0.38020449008764101 0.5619527685580481
-0.67018699833061657 -0.3994636881677866 0.57436909586704754
-0.68206455988914971 -0.34932369397387558 0.60820512188913201
-0.70014694380848863 -0.31501224626167312 0.62035736664543739
-0.73052297097876906 -0.33799929646376792 0.57874514758685436
-0.67974344359274386 -0.4166443100624454 0.54825970496104137
-0.65728942058468043 -0.37975431118036029 0.59878143977252218
0.10155169367552186 0.74938551696325351 0.60775753744399941
0.10328037941574619 0.76681458797344138 0.58810640226880784
0.081823696547467906 0.74764504199135862 0.61954666944514569
0.09892189520833683 0.7284435822890829 0.62374427540555688
0.11870888960580706 0.74508169696680671 0.59585448578555456
0.12185693577349865 0.76272246736070559 0.57640379963423349
0.082346363882841889 0.76444565002986353 0.59935751341950949
0.080523704605701019 0.72752346352843567 0.63572243822518981
0.1145713365517953 0.72377055426106673 0.61206553354967141
-0.72601469629545368 -0.21739691277501827 0.64258866992887942
-0.7157186806962712 -0.17985600731490337 0.65524690505976135
-0.73870362732227401 -0.21685210173641661 0.622093901322609
-0.73071206032571956 -0.25223433649325594 0.62977087522888686
-0.71041567403067551 -0.21764305473238044 0.65888116998981694
-0.70155781897831204 -0.18304928477928167 0.67189760782934771
-0.72729281082672781 -0.17666104586601 0.63399415698080741
-0.7443552444252628 -0.25506824356921876 0.6096000809811204
-0.71386679913992457 -0.24884637415071409 0.64619849364822368
-0.0044528719325791499 0.73310535439740365 0.65761159835812233
-0.004332006462509419 0.74918420813713782 0.63583929036054165
-0.038576602841281726 0.73041756933474589 0.67027968823323203
-0.0045298353889760001 0.71356797107576964 0.67477516896923984
0.028431711704427709 0.73749848303454191 0.64450485788218304
0.028182938193890283 0.75340536048591089 0.6231683964122201
-0.038052600541366388 0.74706732408359966 0.64810596313779278
-0.03870747473302294 0.70998874327833028 0.68773720831053531
0.02838235454828153 0.71833764822326707 0.66136916765399567
-0.66251266263445974 -0.018795271173862815 0.69385364088631452
-0.64117883102530193 0.047478709177986356 0.70467751527257505
-0.67294554022287278 -0.01310399434783116 0.67066378206646604
-0.68290012546999623 -0.081011660389266993 0.68140240965841903
-0.65042871515925138 -0.026666135664029034 0.71179539757354959
-0.6291303751198194 0.038225309118700868 0.72280112571546029
-0.65187526280039942 0.053455245657635542 0.68127997047411393
-0.69325316352858146 -0.075451838459748954 0.65862907007914329
-0.67059373019960455 -0.087780211730883906 0.69903867349105386
-0.12876181946060505 0.73801192741709443 0.69882080337298236
-0.12956656983744419 0.75849887437667773 0.67564742137251921
-0.15290710531586815 0.7396932216605242 0.70580919913047824
-0.12680647332357942 0.7124901859953956 0.71699113191932584
-0.10180584748715571 0.73385419915376615 0.69100649534877201
-0.1016935703742694 0.75284543502689538 0.66808834039136489
-0.15487941961646912 0.76145743381509667 0.68254890302536397
-0.14962478567288451 0.71258617290713078 0.72398260184597252
-0.10096075543599436 0.71024174277031649 0.70901302580368597
-0.58425816779196516 0.23645785606348441 0.72488106484511405
-0.56670090874952228 0.28806623614917193 0.72884668715453715
-0.59452863469347239 0.24986947198948994 0.70098501677379987
-0.60181116810641755 0.17785314531814089 0.71995617271844869
-0.57344832095503984 0.21668557309677022 0.7435429427878848
-0.55701940977754938 0.26359576985924199 0.74776154732325306
-0.57608499364544796 0.30542433705500927 0.70469060352386848
-0.6125880780034878 0.18762843213229402 0.69629866482176439
-0.59024197780139254 0.16263592887316036 0.7383747456266474
-0.21284261355447254 0.69898213462950554 0.72716655841887867
-0.21891542759230331 0.71967169586045887 0.7049385385258824
-0.22856209402593475 0.66605379833025635 0.73492597519439329
-0.20497061070592082 0.67329689963188821 0.74411523037523386
-0.19475637117091904 0.72209875624163888 0.71970263267373769
-0.19943708527525272 0.74410049106093679 0.69693482465682299
-0.23591411379921801 0.6847574897786981 0.71334174250322313
-0.21922932218308988 0.64297190000683246 0.75117831354843068
-0.18845312378082557 0.69473557353974058 0.73724679249821135
-0.50642608296642955 0.38131504276458905 0.74181767465028514
-0.48385618519590157 0.38849009626923681 0.74722783942573967
-0.51169060144530132 0.4060402715558889 0.71802367882180729
-0.52797832714823922 0.3618766659104099 0.73691475774660642
-0.50159401059314934 0.34856676836650463 0.76033280449130958
-0.48054718254119622 0.35572058410197926 0.76512825970063547
-0.48782387033765096 0.4134698057352954 0.72404598649526708
-0.53470711288127504 0.38525492869839351 0.71273078007313595
-0.52143957388350115 0.33052185485342878 0.755830387936125
-0.25457607029105023 0.51577210383283667 0.75786070398146155
-0.26378512237181173 0.52729975005694929 0.73827193554123127
-0.25679171338299822 0.46065887894315966 0.76331793908622414
-0.24307161727043103 0.50291031490549698 0.7720321476850649
-0.24970430180069703 0.57164084931608161 0.75083555300698812
-0.25869202840887939 0.58544470343222732 0.73061978352742951
-0.26591241498346441 0.47043125446779199 0.74428126808428852
-0.2453870707447714 0.45056088916907394 0.77697261330864098
-0.23846442312352556 0.55538659118954281 0.7656358597273436
-0.40963681237161942 0.34203928453211074 0.76388916995257938
-0.3834244871944863 0.31735834804746887 0.76804903838412653
-0.41192091831584787 0.36226155379888514 0.74310182368944133
-0.4354670698765617 0.36581331052194421 0.75868668951269536
-0.40863699541924192 0.31624898670821672 0.77943778614942349
-0.38257394055153426 0.29459718554105618 0.78287407601740355
-0.38577859793532676 0.33536587621756458 0.74804034704186995
-0.43793881342989294 0.38824954977146353 0.7370809408871275
-0.43406687117286458 0.33691436205344394 0.77502354791918293
-0.26499224325467696 0.3358882479249935 0.76928417578791919
-0.27338187504615385 0.34557925110811805 0.75150289643160262
-0.27215906629228237 0.30938587113001459 0.7695322835591889
-0.25419485968917055 0.32631627736213187 0.78204687019299968
-0.26047315554236694 0.3693305426202047 0.76864025948012316
-0.26910136647438843 0.3780234618649333 0.75054051574910741
-0.28025113768962218 0.32131042884357353 0.75184726946490033
-0.26149324963588305 0.29485604304418889 0.78256605457823447
-0.2495373756303505 0.36150097222041383 0.78151903425659075
-0.31477114275498219 0.27865656847575432 0.77125085841061436
-0.29706952105038464 0.2807000957119612 0.77050635676163015
-0.31897236249488059 0.29326390813325431 0.75312514656234475
-0.33507450090092039 0.28382245121997474 0.7715506016563598
-0.31186017971980151 0.25987849623790549 0.78453865069708328
-0.29081498401437567 0.26103126609759431 0.78374204984936169
-0.30289316813641776 0.29527963338365737 0.75267444520252891
-0.33827792122783551 0.29892315428854677 0.75290977595719699
-0.33368053798150754 0.26480744721207472 0.78519708906422414
-0.20490969837732109 0.4694247199951358 0.77110213624753499
-0.19227495448277176 0.46146113133836186 0.76225303609763895
-0.20012769422565535 0.50623656384353954 0.76573555460663068
-0.21768473065644667 0.47898592361935255 0.77781044044880776
-0.2080184511849914 0.43120135317321434 0.77555203986529886
-0.19581699829255927 0.4284558561357692 0.76673931303764498
-0.18705127853432124 0.49282964988829292 0.75703239855775495
-0.21320116984088955 0.52155647225073754 0.77225202743407317
-0.22041180913207614 0.43538678085703925 0.78225344188317036
-0.41254917852507322 0.23189384773223609 0.78247527769362391
-0.43430795707342673 0.23946741539852079 0.77904618606531262
-0.41473757911499742 0.20615793827316409 0.77462825600373275
-0.39007700865700357 0.22210284983072515 0.78526410722749729
-0.4104324048270469 0.2593564125100869 0.78797784690468831
-0.43386828200476479 0.27154955048862461 0.78447043350748968
-0.43455955843466487 0.20962949177380369 0.77116300309612873
-0.39430551753505405 0.19998766410595759 0.77756541847531357
-0.38620223096090767 0.24548090155143798 0.79072000649866947
-0.17365047708567416 0.5880406538286006 0.74879299151875367
-0.16138318944481256 0.56335962326071209 0.74098330154896752
-0.16093687447742844 0.60437934250146785 0.74334160352851075
-0.18524535501259609 0.61573736912714738 0.75418149066911733
-0.18449390783999609 0.56652199254114066 0.75429850412811206
-0.17157955312014317 0.5443852519818424 0.74616885333295846
-0.14951451035564034 0.57831707457492199 0.73587903084140516
-0.17150422738771742 0.63364442276024624 0.74834083395045692
-0.19695687764510761 0.59135857066180775 0.76008624189696317
-0.48946650836726269 0.23133252380995156 0.76778454248941141
-0.50477017389409973 0.21616272649907275 0.7640147652374556
-0.48511958076503503 0.19506897534005585 0.76014155479263756
-0.47287005554682704 0.24024791731024769 0.77154327423429958
-0.49345173089172545 0.27072112435485179 0.77266099384836151
-0.51008244568782413 0.25484270158357225 0.76872873910218464
-0.49925039362582058 0.18050764805531588 0.7565271272271854
-0.4698606940857073 0.20467320142549278 0.76378314617069432
-0.47544896678402093 0.27884119212510017 0.77661157764284416
-0.11072075137436133 0.62879849747461825 0.72575623913670073
-0.088757226606840156 0.63296879098531378 0.71823274536573622
-0.11789458759963267 0.65585751371480216 0.72970948247338763
-0.12975592133101799 0.6236811588060045 0.73212816129181579
-0.10244486705716582 0.60446117543390809 0.71965785843235386
-0.081909251012223239 0.61031433667292589 0.71264304827160485
-0.094559791840503671 0.65797856429555801 0.72185857358259975
-0.13812697917893946 0.65239247949545542 0.73641318945973833
-0.12030685393144691 0.59800386911674319 0.72552467801930787
-0.54594951786094148 0.13412357945380504 0.7517638597003149
-0.5542070348601067 0.16344851899343882 0.75622268125693592
-0.56030850314628977 0.094864097675827042 0.74630709031496245
-0.53803637369350765 0.10643976095128105 0.74503728000400438
-0.53247727147701496 0.16746089993270624 0.75624211732036128
-0.5399322032520999 0.20088776858702262 0.76075226882804303
-0.56929661669072584 0.1194332836191081 0.75073068138517351
-0.55178148492069834 0.07142754379738514 0.73983984800825464
-0.52520433807433653 0.13624720429180193 0.7492292441732129
-0.0039732993292158625 0.65186170363046803 0.68542849440580289
0.025354773902341199 0.65857683148461565 0.6729657003173326
-0.0043678616535436365 0.67168731976993479 0.68795056908054653
-0.034366485497592469 0.64445802752186743 0.69778434651997001
-0.0033268159938477648 0.63352448488324187 0.68116535008000323
0.023880259671858139 0.64080880347908509 0.66929177126513872
0.026776133420990611 0.67771515892335554 0.67490142885414528
-0.036702531854607479 0.66559786142082578 0.70072903498874251
-0.031437525620318763 0.6250194567707954 0.69308423274898168
-0.61416761382263663 -0.053995490774068955 0.71971804434057418
-0.62578738825865932 -0.045078617228228646 0.7238305428895524
-0.63169907585159502 -0.1046960266812712 0.70789455275755664
-0.60302876033510122 -0.061956582200790422 0.7137967016062019
-0.59506564630705938 -0.0012107187663540908 0.73041779180345934
-0.60568886858472837 0.012821640481148922 0.73477480570740017
-0.64443993184932324 -0.10023287226207944 0.71141108226100469
-0.61942741735355233 -0.10800149664823711 0.70258213831330085
-0.58495336445292612 -0.014446777003644995 0.7242385387735415
0.087360804532393477 0.66199342164301 0.6423426647780679
0.10075246475071364 0.65471221647470224 0.63495997507544555
0.091630521448245794 0.68348554641450721 0.64048294813495454
0.071402655958794581 0.66464215195499454 0.65109031679075891
0.082977626554938455 0.64204378212560642 0.64270838855832224
0.096271444236150749 0.63376698907170614 0.63731260122026523
0.10531433099010878 0.6772607241450519 0.63116137856259602
0.075186012804994595 0.68483874334020145 0.6508792524781799
0.06737893086907909 0.64587758551832009 0.64970014467001613
-0.65886003126571047 -0.21345193788975947 0.67533922890258991
-0.67593088441975913 -0.21584283998742854 0.67454123470894434
-0.65821831140924592 -0.23814968849345314 0.66710488176536042
-0.64263019098385943 -0.21014714934273548 0.67469668317484288
-0.65477068584084064 -0.18481612500344002 0.68495626199532778
-0.67031121616683031 -0.18584054035206099 0.68596953288116991
-0.67658721880831529 -0.24180675179657979 0.66424841759519548
-0.64087569295379265 -0.23400827963059367 0.66860059110134662
-0.63988272086856846 -0.18260124460701405 0.68235335059309943
0.14083149731560951 0.60090103817776896 0.62115249271678774
0.15455140723945804 0.57336175507608322 0.62041387958832317
0.14765335569542493 0.62115759597575804 0.61075444032445958
0.126841095762668 0.62404798171142939 0.62413552137215556
0.13468190154206261 0.58167077145952828 0.62940837094028934
0.1471264108307655 0.55575176710016438 0.63020961793057317
0.16283877254531176 0.5916489745089627 0.60817055504603257
0.13251410117673368 0.64597022633399392 0.61591350158959512
0.12164812700647976 0.60346248418694404 0.63056126330902629
-0.62775132040748893 -0.30921394321674311 0.64995030560021183
-0.64609739188535209 -0.32026173850417139 0.64005159557851332
-0.60795030017230989 -0.32981646794139763 0.64733950150397268
-0.61041897356492547 -0.29946390726088573 0.65772617921779952
-0.64272755417676963 -0.28581885307657584 0.65435796436732563
-0.66180930994139708 -0.29382595294673902 0.6468190576634969
-0.6251195063770445 -0.34385928622769968 0.63540313501189472
-0.59154947797723589 -0.31752673769550288 0.65678748947283339
-0.62479302312280915 -0.27851624602623859 0.66016917095633687
0.18511581553529477 0.46899436582567977 0.63447152959742725
0.19002188472863213 0.42973143271685005 0.64315384855585433
0.19782958212292501 0.48239566559734787 0.6207262818532775
0.17736513332994464 0.50672797067881881 0.62729021754056546
0.17348982916443556 0.45527711431083367 0.64609210545875628
0.17730878409529005 0.41749847629397852 0.65446968933194327
0.20379383207782675 0.44141842804631048 0.63004357279156409
0.18876982881868121 0.52159315652455995 0.61333938357952578
0.16704921405807127 0.49185175969065736 0.6388074519987188
-0.52117470446088254 -0.36028439244984534 0.65411497509335303
-0.53467479062813061 -0.3800571981117396 0.64024234753712461
-0.48550016769281967 -0.35893283858188429 0.6606044270230762
-0.50748163230731214 -0.34234363635076492 0.66568731643155665
-0.55413774062552834 -0.35603219397519426 0.64939932210808271
-0.56882174850000444 -0.37455068363480637 0.63546661790505743
-0.497516369439305 -0.37933590060459554 0.64716098781717735
-0.47306848952052749 -0.34017428507253655 0.67205280940060819
-0.539563199233003 -0.33949879711975706 0.66075604978811775
0.18341456814209423 0.3127903878004995 0.67349634263758107
0.17227916135644961 0.27531273116648053 0.68546235424276203
0.19865526362814778 0.31519610518887109 0.6628538956165464
0.18968794823099566 0.35105252687792643 0.66271714276509197
0.16942896562548171 0.30987737858183528 0.68235574465351867
0.15810769248781953 0.27723148143300091 0.69289941649604003
0.18791807142091077 0.27309146895457015 0.67588921248104272
0.20463642514474034 0.35736338024347825 0.65121756134194442
0.17585662281721626 0.34409895892180498 0.67263496140640244
-0.37270573452488054 -0.32388835069206673 0.68567898557591933
-0.37564230988233294 -0.34245983491112353 0.67382906970304957
-0.33502195840034488 -0.30183414044245416 0.69642535308452791
-0.36941032730693313 -0.30693862459578281 0.69549185404521907
-0.41053523911176915 -0.34064707755063506 0.67644535896189373
-0.41742892075979832 -0.36033816757335435 0.66403356398897051
-0.33311660092670303 -0.31913985892845276 0.68539104538059714
-0.33674912957217207 -0.286346003687179 0.70508100262760021
-0.40315235405474703 -0.32246517553909049 0.68703192619744335
0.10660398366197432 0.17009378500939937 0.73055688333578805
0.077298718766631636 0.14106462930346908 0.74491509310726522
0.12613507925588352 0.14966491453221775 0.72702641002362878
0.1333302399289662 0.20314005016424713 0.71468883698527641
0.090048911863590986 0.18999600998910304 0.73095822303174662
0.060245564862916989 0.16779866686974693 0.74257641591461354
0.09901311615342423 0.11123789082724406 0.74535019315765272
0.15104089378265906 0.18987430771209179 0.70840946968781005
0.11774478980828862 0.21658043567633245 0.71779610382881698
-0.22755030309689839 -0.20447760796732078 0.73859627056773025
-0.20544761217926455 -0.21955230612021326 0.73323749714023734
-0.19816781460773236 -0.16698810448279966 0.75171789624956453
-0.24871983749568005 -0.19212157019598242 0.74082687211479481
-0.26136044678504722 -0.2410258700644532 0.72376438540628296
-0.24738159359645695 -0.25659116292894057 0.71570379173387355
-0.16525364440857593 -0.1813987827470448 0.75039675607062062
-0.22668047685546577 -0.15565838355606049 0.75121861926741307
-0.27548187531612678 -0.22785411185832916 0.72857127156308987
-0.015336061919425825 0.1042813217269275 0.75804677710036561
-0.021368583559491672 0.13904993488298012 0.75581967603386824
-0.04439306547101407 0.10553057376993247 0.75571526385861532
-0.0065761442034908413 0.066694455553947596 0.75968780447941908
0.015234052643641638 0.10794335081146644 0.75865156516938503
0.0035010794149297197 0.14216553708374086 0.7550192488859393
-0.044232426933785707 0.14102357483995864 0.75504710628113747
-0.043984409413295733 0.065417297068703972 0.75576124421676871
0.031671686757295259 0.069750721880087574 0.76180145022954626
-0.16645856968330208 -0.066077573401155665 0.7619315446171897
-0.1700952071058599 -0.036909280813990253 0.75881341910365352
-0.2008528901723361 -0.064602914887419649 0.76104607068064434
-0.16758399400020063 -0.097156165044118503 0.76334601271343461
-0.12795399479558478 -0.069079776300685181 0.76293874462574918
-0.13112385661535075 -0.03274841756895408 0.75792706151602607
-0.20375181843181811 -0.040647131579469864 0.75970366159226943
-0.2027469287965189 -0.091093733802384058 0.76111362308096009
-0.12658572151021974 -0.10598142501580499 0.76572288040831848
-0.21146822685025213 0.3266400976333646 0.7808508702410939
-0.21119583168948464 0.35902454488010882 0.78041011069676003
-0.22668887266778204 0.32134361978293441 0.78696433329194893
-0.21021697921288651 0.29617039714760779 0.78028797198111466
-0.1968070780068798 0.33355006667632575 0.77307425865087831
-0.19819466792067741 0.36362696350422996 0.77221655058893113
-0.22430419080320574 0.35614390224305981 0.7865869404104866
-0.22932291593744769 0.28752482518956735 0.78691309213985994
-0.19319343304806424 0.30539324593308381 0.77285802552589589
-0.32640725896349698 0.19358658776305948 0.7870097895452326
