# XYZ point cloud file
0.53267835232836802 -0.33192869492591814 0.60145972300994099
0.52892174127655478 -0.33246187208968103 0.60162680674294045
0.54905071473010603 -0.33816477381561993 0.60377966977369901
0.5644756879662296 -0.34187212920571008 0.60699220771113893
0.57794519849079062 -0.34506759721038782 0.60962087829465705
0.4653402056278173 -0.31941321638344333 0.59420434974050895
0.4852365143187849 -0.32371015894705457 0.59611401850125834
0.50816553022711819 -0.3287197279396239 0.59813717648873865
0.54067167641393388 -0.33615771630163183 0.59784985736312724
0.55676865316163493 -0.33906783259641582 0.59399053980594907
0.57660918197951982 -0.34210411593960854 0.58952832127016652
0.6167827798494252 -0.35370524086915567 0.59998524192917646
0.6032791073130741 -0.35148769347849629 0.60468368568174036
0.59422890862853572 -0.34951377380849968 0.60859904590007474
0.46622528145910858 -0.31938137517366827 0.58988417664562842
0.48745026032721928 -0.32304820158204772 0.58684247757455665
0.51228484002220309 -0.3268234680670119 0.58322383373699971
-0.13754111367251154 0.20592312858813422 0.73981243858499113
-0.14258669428751025 0.20151506738282743 0.73938712737604284
-0.14952037822440367 0.19607586353879558 0.73891502353388372
-0.12085482466622333 0.1371582460643157 0.73744946561229341
-0.11600006510027683 0.14647522644193023 0.73823701623524229
-0.1128219813421385 0.15264808884889991 0.7391078780927165
-0.11792795908042875 0.16823276437063006 0.73944554729235357
-0.12422832807245499 0.18062842471687723 0.73961650950540747
-0.12948170320533325 0.19442048291509284 0.73963810578627509
-0.30796076783268722 0.087141253768658444 0.75981850468915813
-0.31105614764956124 0.073434729937304155 0.75964503804281769
-0.31440256114718279 0.060348183442335168 0.75950971792021793
-0.31535481544887478 0.04688517888982302 0.75847230183168168
-0.31136073163495981 0.045433004523017573 0.75612938449262135
-0.30511194083091686 0.043332562396263263 0.75317310076972532
-0.29009660516331914 0.10798348156697912 0.75478549181021215
-0.29665016170568892 0.10483528764784977 0.75722769356782837
-0.30142062278365511 0.10285960929989368 0.75918099640661652
-0.14241473581233066 0.2837071264390878 0.73437713252696923
-0.14782455550304752 0.28261646898198567 0.73459600987642393
-0.15459255687707518 0.28156334039940911 0.73541673991377365
-0.1367055649202733 0.22647626818635702 0.73861927618408885
-0.13850361811094025 0.24468364799776499 0.73742310189920168
-0.13896171697347715 0.26416370612088169 0.73578475923339504
-0.29567258953632747 0.14737208406107638 0.75843275470776916
-0.29887689918042426 0.13181928033369039 0.759146480734044
-0.30197088476054823 0.11643850889425322 0.7596401631665568
-0.27515039105791828 0.18389421701989206 0.75411108321627029
-0.28227764942559253 0.17488415679364966 0.75532495252985132
-0.28795889340744507 0.16807543393392743 0.75683253076968526
-0.12453368938639042 0.37586585453784926 0.72151464464471449
-0.1275881366689342 0.38119920070320368 0.72155090572257219
-0.13108265962677512 0.38690797568308244 0.72271451303952716
-0.13573740471792695 0.30632249614362306 0.73125040581576606
-0.13214785997913614 0.32830047579614985 0.72836085473957723
-0.12741748033263578 0.35012065071881704 0.7250482773471747
-0.28229423746973525 0.20474114472572391 0.75439585038091206
-0.28552029363830056 0.19207969279678361 0.75552500370196363
-0.28893348539348995 0.177917898501887 0.75658071201004518
-0.25910479898072225 0.25093517599877391 0.75013461269455117
-0.26673550473120211 0.23732252917856766 0.75068631449865642
-0.27362472998377996 0.22545828550070857 0.75215526474871375
-0.063399590268391481 0.10174064610515554 0.72998140781985388
-0.063478395895604667 0.1129474827456427 0.73085991245747461
-0.062873229677712139 0.1200797464926544 0.73239605246986095
-0.079015925158831379 0.13132558133320793 0.7368421355878354
-0.092076650873278876 0.13874449067268957 0.73854961789577267
-0.10228537129060777 0.1473420473749214 0.73915802028626132
-0.32230438042273946 0.03600248597025657 0.75994740395846705
-0.32778004136066574 0.023931088406956569 0.76021217291126231
-0.33538393358178054 0.010876218742691846 0.75988661127819057
-0.34366091915315877 -0.0062558488357467024 0.75631959243323443
-0.34057673236646346 -0.0099566501406389563 0.7532079125805744
-0.33590448131146067 -0.015747295953136398 0.75023963416430561
0.049835731634338298 0.093478553649855689 0.6955728963155785
0.043157219564957217 0.10259509180435367 0.69864754373736293
0.037948009838532304 0.11055381600104042 0.70130320648908917
0.010349353069460498 0.1152418722921007 0.71192295727064359
-0.015147216832983812 0.11627048797105388 0.72037002359953561
-0.040085288886266834 0.11978341358957834 0.72774444591127629
-0.36034606080431164 -0.02125792498382717 0.75538198963424286
-0.37724663767933242 -0.03932898877734825 0.75098286650157764
-0.3952701443504667 -0.056492701264168499 0.74576490441635634
-0.41319012403676858 -0.076632580170169051 0.73725471756070871
-0.41365019390067026 -0.0833670179664594 0.73269193222301965
-0.41439746478652273 -0.091330314103456711 0.72739300203377955
0.10793207866948284 0.15371306907205584 0.65322434991819822
0.098386223907800385 0.15799514115126279 0.65919778430828391
0.090575774752462923 0.16313235701094708 0.66371590125158164
0.07659274156405349 0.14962087943091085 0.67654959843515261
0.066256804006084025 0.13481586411183244 0.68564015538490874
0.052199402592387312 0.12409179424530836 0.69435715162867506
-0.42858500271068811 -0.081862952084090779 0.73564949119571121
-0.44235189924138396 -0.08926205102646434 0.73139244321870489
-0.45424370739456332 -0.094039877973703501 0.72737810964017235
-0.46756004002622387 -0.1033335657873069 0.71938205474488193
-0.47171016600702576 -0.11124715524980489 0.71360780303018601
-0.47718957238477699 -0.12045449930493879 0.70655881007419818
0.11366917355412021 0.27284911326908778 0.60442995027766511
0.10532742288710573 0.27061857586061433 0.61249999650037434
0.09786560555645174 0.27006463582413476 0.61890029157198789
0.093166373792180401 0.24353850150220935 0.6331884211809653
0.092526274059192559 0.2165616816418896 0.64426789530460304
0.089415657460897968 0.19110828544626512 0.65573573950287312
-0.4722705992574201 -0.098086931643646569 0.71882332978863328
-0.47746750261929094 -0.097588874287267702 0.714487023062925
-0.47929445713672836 -0.094864686152206446 0.71082899101257624
-0.48213258398615766 -0.096059592409590611 0.70519168963861745
-0.48708436071000438 -0.10360034695843434 0.70040307871809571
-0.49249562037416617 -0.11195897994769854 0.69447927696773881
0.08021157740010576 0.38276688411303561 0.58647695358101082
0.074336698397643897 0.37487000195484343 0.59491363469067515
0.068738881281809494 0.36918366091825461 0.60237279439169189
0.071939365069339178 0.34398422648404559 0.60937444778141003
0.079724827205208904 0.32111281336415765 0.61202804258705257
0.086402568494734933 0.29662386074823188 0.61661398640487786
-0.47239479356670988 -0.08083750026446368 0.70738016778114066
-0.46466731667500194 -0.069635224561790832 0.70752056527901175
-0.4551997661899656 -0.056508673649370955 0.70830635943839226
-0.44731510411266329 -0.047126528033945903 0.70653545609648472
-0.44982809037428062 -0.05264720905761977 0.70236946293016533
-0.45197174152217001 -0.058091562918459516 0.69809462291829671
0.034678530071176272 0.45400187957606519 0.60207429743199903
0.031348183131054697 0.4436979629031419 0.60831338378342714
0.028052844637183494 0.43495134184464357 0.61483709638037709
0.037157341393175614 0.41551324581489246 0.61289118858317515
0.047147280666171465 0.4009526828525356 0.60901934288317783
0.055758067227992925 0.38408296708029144 0.60772691782322319
-0.43403107696738386 -0.027629366601829464 0.71027148913353333
-0.42273455575112773 -0.011796183719468445 0.71183159180030486
-0.41052690409993575 0.0062411400572064402 0.71472460153516248
-0.39657073398792075 0.026250555035787659 0.71672693271652221
-0.39570533995936996 0.024991089277810907 0.71295539984678591
-0.39441807443755028 0.024274686223315189 0.71034347777399898
-0.030311090068673385 0.49100300285236753 0.65238347281081488
-0.031790847183256865 0.47611494354972517 0.65824780932222637
-0.033491000063785803 0.46454919020389496 0.66478337496890383
-0.021089034007733209 0.45073928428358512 0.65878572814878655
-0.0055408233141194252 0.44471328466851556 0.64532939464033223
0.010338744272571088 0.43717984564119283 0.63174555308760283
-0.38193816051178087 0.052853220690815883 0.72717342433078169
-0.36606473874182743 0.080408821079412718 0.73555937269242655
-0.3502678372762611 0.10814078039212771 0.743108183512458
-0.33168251227465229 0.13783202729543564 0.74366200554052764
-0.32651933872770678 0.14329485046317392 0.73784993916169661
-0.31953276254564811 0.15167445458523332 0.73326439341846772
-0.066071758318345442 0.50569394642699983 0.67659392604935054
-0.067185519260419602 0.48801901048954499 0.67901138646579895
-0.068137237408860463 0.47486570403896211 0.68254355099821673
-0.062295191272775385 0.46521533012233918 0.68349424969530226
-0.054901646927667747 0.46352540258360375 0.68102565971818763
-0.046023681321516907 0.46019742241045325 0.67698172583826732
-0.32201502749515454 0.15640818019920855 0.74957026541189009
-0.3103506424447704 0.17537796275969608 0.74841164857941056
-0.30041484167562449 0.19127511049642254 0.74615430573350672
-0.28645448976571442 0.21291540881861826 0.74102927780118844
-0.27870647964510131 0.22449654985232925 0.73768017736611569
-0.26830011942970255 0.24079616828493489 0.73583739112691404
-0.095000233030238856 0.47267221170550888 0.69867061276704234
-0.09502129290545569 0.45793153439675471 0.69931717246558733
-0.094887985305445621 0.4466263405835118 0.70126657154620453
-0.087988777119567763 0.44838023945267724 0.69817655828398273
-0.0815616909273984 0.45642046072386511 0.69338572885490279
-0.075229343623189004 0.46188276718569332 0.68913824572271487
-0.2860588741959329 0.21476728418466151 0.74373656686811351
-0.28155001277183866 0.22257224132921327 0.74447647909273584
-0.27855975033303526 0.22777574241758725 0.74592255835391086
-0.27040664507783019 0.24108735349198285 0.74513580241813404
-0.26230798411691136 0.25469697341940689 0.74257335366700339
-0.25211066025941298 0.27259425833894957 0.74143347420429873
-0.1153065634230539 0.39076707919368525 0.71722733960177099
-0.1084677438067112 0.40860504639751771 0.71279463250707575
-0.10149307974382138 0.4243566190996384 0.70808955640901683
-0.27615058541606863 0.23059923003177585 0.74916166015957408
-0.27640098710712468 0.22818299974886469 0.75057979477706471
-0.2775436758830645 0.22309734541306625 0.75192153433888897
-0.092551877398922899 0.4179905135403017 0.70255332948245464
-0.093359580211761273 0.42373814488897654 0.70349359726289418
-0.094064943427368597 0.43019622577347461 0.70381486416096717
-0.11900973631459788 0.36737112256106808 0.71975123602806956
-0.11637522564934333 0.3642839250237444 0.71715061853219009
-0.11380924668606607 0.36167975072985548 0.71387708069377531
-0.10654783387404709 0.37500180903279445 0.70816853900911347
-0.10172529122854779 0.38922539183714888 0.70618433956575277
-0.096778931365741228 0.40181874001152762 0.70400848741811739
-0.29245847475522169 0.19974789009934124 0.74611852877080942
-0.2924154673441306 0.19716830729566204 0.74553597142939054
-0.29297437584194452 0.19274275593787227 0.74483228803752599
-0.29113437343518034 0.19285090904114077 0.74765151936839214
-0.2879656948827698 0.19940413924205647 0.75050242351846208
-0.28419771141788708 0.20674772387056928 0.75249518419229489
-0.282038425551979 0.22143697043358057 0.74858038699483664
-0.28629082391021221 0.21368579692993417 0.7484043904480826
-0.28992181950262563 0.20675820172615311 0.74748792641138184
-0.068997513850281855 0.44332993353479822 0.68685154489628086
-0.06916910209747229 0.44947228750898627 0.68745254380653265
-0.069159018429469032 0.4564889578300122 0.68722793623863154
-0.086335106728276489 0.42143919362894744 0.69777121288451127
-0.080754599439995189 0.42845583151049782 0.69375795824238917
-0.074898223660177621 0.43380942910724385 0.68965698264913655
-0.3012407433619686 0.18835166718307028 0.74297593631327974
-0.29749034630834004 0.19446732952680756 0.74414943017991053
-0.29486038216123123 0.19846913968509927 0.74538925129140043
-0.29686139779438436 0.19712286821591363 0.74534115723865035
-0.30049993118690788 0.19092771676772302 0.74512037749910576
-0.30351644248203113 0.18540970242170451 0.74397487448441879
-0.036205659437910764 0.44030151702341325 0.66978978419987012
-0.036149879305166666 0.44417433706979836 0.67169092265786468
-0.035800276223765914 0.44913630463997611 0.67203544536474791
-0.062183298314923308 0.44004782401127263 0.68270306878242693
-0.054881180604689828 0.44084698934912292 0.67920526603403353
-0.046367796805498962 0.43986209350898164 0.67434263717647447
-0.32953398939670397 0.14254274856379867 0.74291417599230503
-0.32019273561136674 0.15788593682291197 0.7434003248122858
-0.31247359852561907 0.17026794824727531 0.7428615935385654
-0.33774476984025092 0.130970164782094 0.74931292777611525
-0.33923111992580646 0.1282906689829415 0.74773769371851895
-0.34010908403636808 0.12591113180648827 0.74443641802593774
0.019226708706427953 0.41191928588816107 0.62350233710135239
0.020852917796835513 0.41644545791445653 0.62387182596309465
0.022753910471357663 0.42157429716344663 0.62298682461672605
-0.023556729670719534 0.4321422833826376 0.65654865751403335
-0.0096217596601881894 0.42555314458609406 0.6444036872609793
0.0045646562187906525 0.41736522535092124 0.63246144627512102
-0.38244104094533204 0.050867930571090847 0.71791021759112006
-0.36803290221188645 0.075825790993201192 0.72640026618478082
-0.35380174329262903 0.10077781651764717 0.73433722276573565
-0.39715496462533362 0.028082562524833321 0.71971521381321324
-0.39696861829940056 0.028261881394571198 0.71773253097162915
-0.39657807631172592 0.028161098649037264 0.71440248747978519
0.05327269587884409 0.3567945390850964 0.61331581585139006
0.056249391808249616 0.35908094869824225 0.61299198477577299
0.059662623586198116 0.36175502520934844 0.61146734886606424
0.028384496183379238 0.39653300089638766 0.61631172026501968
0.037040804185782594 0.38395239724672048 0.61315865232368871
0.04421589315821528 0.36998160315979467 0.61231315068363745
-0.42759241943328674 -0.020275172236390748 0.70187331590399094
-0.41831100133486721 -0.0067935224984008169 0.70301011618275489
-0.4079103474046859 0.008990001804961345 0.70565694552174207
-0.44240111411564076 -0.038628112093608058 0.70958419126463035
-0.44021402942745946 -0.03599358538486519 0.70794422769667165
-0.43812664481426133 -0.033990506323219316 0.70506743284532813
0.074468994978734493 0.27596855124271458 0.62828486139817752
0.07963085206895526 0.27384658710954479 0.62780573795363814
0.085150080487566449 0.2720291688631058 0.62638128212478517
0.056528185592771063 0.33810488909924885 0.61458562819881291
0.061955711797471391 0.32000200759116382 0.61739952099200579
0.066413657044152252 0.30011740132735643 0.62185485039882504
-0.45721225910178465 -0.063120302541566087 0.70279892583823234
-0.45124865426580629 -0.054054491318429765 0.70184090411771027
-0.44407075657768091 -0.04367077950273357 0.70151843346192067
-0.47329366741442458 -0.08384917334295805 0.70930157723788057
-0.46923785734689138 -0.079018836569858752 0.70865824948027711
-0.46532477651298176 -0.074681148134825293 0.70693110571168116
0.068356173982444091 0.18129802148233298 0.66753488936869942
0.073095281166952741 0.17737344535504351 0.66825370035646969
0.078255674893118687 0.17312533743140568 0.66811085276419924
0.070822159007335461 0.2541037534784607 0.63686671844778697
0.070358677540959924 0.22948168908490341 0.64664017607975399
0.068064308083263469 0.20596260565845026 0.65670939310873511
-0.45937949333386063 -0.081668172307740816 0.7159085856150309
-0.46276478095023998 -0.079843070293396323 0.71155679040237096
-0.46344317020356218 -0.07615224379563923 0.70767970962443005
-0.46126282250382911 -0.091718475913253661 0.72475517966437764
-0.45855356509712664 -0.087754533289350567 0.72433852073153115
-0.45601769670534686 -0.084527253589781637 0.72265994699933511
0.023930870535921578 0.13452433063789337 0.70066564407994569
0.026842262572661646 0.1293329810632009 0.70236628451169381
0.030066605949136349 0.12373658175089197 0.70326754570288408
0.057662805670750661 0.1681253186177547 0.67503397145665023
0.048853421905733274 0.15501316550069655 0.68309272082837147
0.036858160643658433 0.14553299514005236 0.69083932502211542
-0.42532552536459134 -0.069101467769883573 0.73231404366614505
-0.43649948674501804 -0.07572688396249716 0.72831014428499685
-0.44590821220099164 -0.079787590042617262 0.72438296177312722
-0.41271744203826799 -0.067078732024893784 0.74137840186295101
-0.41256933925618755 -0.063983840128400526 0.74072328848116697
-0.41244481260567722 -0.061571020708422575 0.73893993543421477
-0.060576147853249829 0.13889073573139776 0.72815604811510326
-0.060980027037155438 0.13437226443731909 0.73093738462570101
-0.061454287644733263 0.12977134215568098 0.73283202593535535
0.0015563058549874498 0.13680197330414012 0.70638908497390851
-0.019933069869180198 0.13684732919236708 0.71377677110617732
-0.041162158113086988 0.13917638771004515 0.7201255350689939
-0.36670530682679381 -0.015136041375377829 0.74900104405746593
-0.38165909029306677 -0.031225076916102434 0.74546866581525162
-0.39729602362106808 -0.046438362230404762 0.74114442432477468
-0.34808429687169173 -0.0022358034346909861 0.75855508661460824
-0.35006049745038537 -0.0010327774622926889 0.75706553643569308
-0.35191534186743612 -0.00016855394797588019 0.75448419387267496
-0.10523592260703829 0.17002471971925082 0.73168902945955949
-0.10689131295188936 0.16580011392201333 0.7351731216097539
-0.1086576308187075 0.16152787254812195 0.73781949651300671
-0.075293197183709637 0.14912817135605083 0.72752101368902
-0.087138782290442585 0.15627865475638414 0.72853925099356065
-0.096373953355533892 0.16469945413921527 0.72844855910606476
-0.33076032087723739 0.038345953944275202 0.75084809851424783
-0.33629987880308887 0.026792871459487611 0.75179472155254778
-0.3437375190854195 0.01433051880518188 0.75209529907158323
-0.32054898414730282 0.048556433369906893 0.75879297739380114
-0.32271370685213752 0.048999464541187976 0.7565926609878959
-0.32468276100978111 0.049265333364667541 0.75340231177020911
-0.13433347931103157 0.28572824524367735 0.73159782570892329
-0.13114023551482523 0.28664665693515623 0.72837963208324474
-0.12829069753380251 0.28755272128752929 0.72442725010771536
-0.1233872424099518 0.30653373491777591 0.71797478798232461
-0.12001931484794426 0.32464930927869995 0.71546392599558484
-0.11586269903741186 0.34239469385977528 0.71280729092304984
-0.2953872581351773 0.17923931195458076 0.74446198849407441
-0.29708406272347787 0.170395733358498 0.74493251126371618
-0.29911324866008937 0.16019230911525351 0.74557591481775454
-0.2999405593990454 0.15166135244536871 0.75023550952550444
-0.29805989077188721 0.15486653458030863 0.75379167131208646
-0.29562334176229044 0.15851201137996007 0.75638483188796979
-0.13019472403810139 0.21315112427049021 0.73717552863808411
-0.12704562362237004 0.21643302847468915 0.73367607104495391
-0.1240963421377117 0.21960779529571406 0.72927724088968571
-0.12388893479740926 0.23778541164999489 0.72361205912169879
-0.12567581101938163 0.25387747660569637 0.72273813745116033
-0.12632097010157439 0.27083827610657685 0.72162400823926909
-0.30450460288879011 0.13586393551780951 0.7465304116300846
-0.30775728145281933 0.12238639284456232 0.74671713043311438
-0.31108470308841252 0.10879592453058651 0.74684195267299014
-0.31238525685821328 0.097141747590041572 0.75159668372970856
-0.31030595083700874 0.098624254161600922 0.75559704725455124
-0.30789102754570052 0.100065390377301 0.75851814460209432
-0.10948843422046739 0.18475001836902605 0.72695380421783895
-0.11422998057669842 0.19629194234277803 0.72610713805493443
-0.11807994397480348 0.20893729295431163 0.72524396706769689
-0.31715873259014149 0.083339365715307867 0.74737885379737534
-0.31998156945680689 0.071705239527961595 0.74793741195222285
-0.32301620205287529 0.060475233831312813 0.74870401219072935
-0.16633008271535665 0.35793854924870994 0.62751716357185039
-0.17068691721263995 0.35795802147133671 0.65146364377370602
-0.17459750022292808 0.35975253041913557 0.6760706849093685
-0.12338912874779484 0.46540325625521306 0.66061546512281044
-0.11696156711220773 0.46504201650491006 0.63374172484785518
-0.10863852570563104 0.46705585439495345 0.60637972598617917
-0.12193603515502316 0.42822644606406768 0.59224147306264374
-0.13961815196113747 0.3964161034493987 0.60064636547850725
-0.15173320998911688 0.37620955596912919 0.60419005245509183
-0.16721541680290963 0.35585423291482843 0.60639619254823973
-0.17227310398380147 0.35245880422566955 0.6052451445493654
-0.1746953792135495 0.35388659687376456 0.5999354201868945
-0.17133750542505388 0.37251346910122196 0.61721051426957274
-0.16938829862438842 0.38562788071699661 0.64368261758889478
-0.16973771891113709 0.39495373393520739 0.67023383200461684
-0.018561748826297686 0.70085376961946322 0.61072761477068838
-0.015296264534360393 0.69491201577437711 0.58364423982893499
-0.015110719178422327 0.68393385997588085 0.56240103585302226
-0.029726827304767944 0.63924720023580028 0.55301050643096161
-0.049128763091836225 0.59049410622082821 0.55998482399871108
-0.070939799010279803 0.53577030048632457 0.56889378697292248
-0.16156848492188569 0.38278371898703956 0.58661076303736692
-0.14104121960306792 0.41667923283897634 0.58253244671029325
-0.11981587800099858 0.44970268505100641 0.58016634738889739
-0.094400084727808808 0.49506848045083496 0.59259913966592581
-0.085667875580778263 0.51782043951861478 0.6135582616651547
-0.082659867001493526 0.53256703789386961 0.64092359869840276
0.025602990047707275 0.79590379741179751 0.5649688465998608
0.028408394336071119 0.78672902946503109 0.53854477987601701
0.026533434524053767 0.76878909086078617 0.52019675162579837
0.018067510317494095 0.74041295571536936 0.51323598610932741
0.0090847840595811302 0.72189414888466308 0.5211011378201702
-0.0039995257649987348 0.69636018307223813 0.53540602552527972
-0.10038433218531839 0.47109767755124032 0.57109338820167288
-0.098943027943711126 0.46308513788503491 0.56433209191525169
-0.1022557224745686 0.44907253904988753 0.56478500888162753
-0.096746285845247471 0.45344688516262854 0.58129869553452629
-0.086105332019640102 0.47429727594723947 0.60274565000375002
-0.080738533391692346 0.4901769606769335 0.63151749742866858
0.020522231006091518 0.70189749175129679 0.53767182134865177
0.026056641951368142 0.69593723260824625 0.51180193632595827
0.028297785843452106 0.68244803264288034 0.48974314418868037
0.017200262411808165 0.68437510575939053 0.49100420027989244
0.017483143561918268 0.71140238691468305 0.49862214692777052
0.020162295119988682 0.73496606204566062 0.50512057891608908
-0.12573417538707266 0.40223647971885157 0.56565994934511821
-0.15329185266176837 0.35378048921704019 0.56222310720866187
-0.18577504461217398 0.29725117020602676 0.55805892960297765
-0.21999424669046497 0.23493044699423971 0.5762730927032047
-0.21535107332363768 0.24648361161833532 0.60771442198753434
-0.21200554480670153 0.25869297545380787 0.6395373933552051
0.07386292511642889 0.61393665876526904 0.48358426070369021
0.080426417226965974 0.61632784469079338 0.45802408045705256
0.086787650741258382 0.61648363216359181 0.43144284307730008
0.076813306889911281 0.6289270860725984 0.41701781497201917
0.060099480688549534 0.64126891904985639 0.43326447731128148
0.043073724009129677 0.65196796164014081 0.45170084419083789
-0.2595891190143238 0.16009028356069521 0.5382314636779153
-0.29179091488612818 0.10122636225352277 0.5309549294800977
-0.32129625222027158 0.049011505523918864 0.52395338617654463
-0.34666899641134052 0.014075205305225325 0.5585858113825708
-0.34541979468411843 0.024239475504058028 0.59564422038488285
-0.34499346440720924 0.033296917660572189 0.62963661580739494
0.1425539108874041 0.53315603585563087 0.42978052768915731
0.14647607624695258 0.53921861431972817 0.40886622723911614
0.14937257732981024 0.5445187502314015 0.38753771412149707
0.13628803199076378 0.57667164422589234 0.37232572152756749
0.12213415604238476 0.59423450081990681 0.38121039831585168
0.10794761808834608 0.6064881713650121 0.3913167614579951
-0.36981025095039288 -0.033749221982946498 0.51504643253145677
-0.39092007933863693 -0.067802351080061829 0.51233260702327854
-0.41328061676126548 -0.10170177393594182 0.50770401504594531
-0.44147236421029401 -0.13238737063882011 0.53654775343597194
-0.4430173082976514 -0.12595688940373817 0.57151077850433118
-0.44398718305876406 -0.11880014843718412 0.60306191140364085
0.22827427504257525 0.3271224911187911 0.43829683814854903
0.22597964865913411 0.33547252165601593 0.42438701891768638
0.2220338406038147 0.34770582433817898 0.40692294243479132
0.20573120399816025 0.41877100516132493 0.36485473356553388
0.18844875582122933 0.46889845742698699 0.35747145411103265
0.16963808143984105 0.51373514615210203 0.35833189401838528
-0.46995328807618497 -0.18026738606345249 0.48236703500306
-0.50192321419426755 -0.22144089048905791 0.46321370791008576
-0.53127633905120142 -0.25697860058536981 0.44567944697805029
-0.55809215807389378 -0.27193272525687373 0.47460154929846787
-0.56144993570355606 -0.26460117020960405 0.50552248426216995
-0.56333137793561416 -0.25757884704094813 0.53127709151934255
0.23292591265750628 0.12298989167244256 0.55463592387467031
0.22571539480129932 0.13058827728246403 0.54355837442978316
0.2175750545757249 0.14134002870495577 0.52844929518052552
0.22103994900191015 0.20281472089642927 0.47537923483979228
0.22593165634636758 0.25553331785147204 0.44147799474386673
0.22544201547228848 0.31034066810663297 0.40907275054110315
-0.56966264401998101 -0.29658948002874697 0.43409573356302111
-0.57606435170898607 -0.30064587458145065 0.44226931792954538
-0.574190770308181 -0.29778616475357644 0.45641215342404617
-0.56011724068369695 -0.27316409178656187 0.51325600723318843
-0.55868282755047183 -0.2622742115500778 0.54261822771159096
-0.55841182418322077 -0.25426756328503664 0.56546699135524747
0.162781800651143 -0.0062828512763033473 0.63280989898089146
0.15625211260421068 -0.0027531574506349799 0.6254664899218918
0.14635943797696349 -0.00024940051545518926 0.61821684529264598
0.15988345789836611 0.033898165468295272 0.58667177816032723
0.1809168011436193 0.071248148006217704 0.5623439945383506
0.19812594290363572 0.11078387575686 0.53631594227451806
-0.54862624342536259 -0.28093794945866857 0.49123788547521663
-0.52613578590844412 -0.26923301705267644 0.51018327223363347
-0.49661078257104485 -0.25545008514079282 0.53149803858676226
-0.45820584200195302 -0.23082024263912548 0.5761956220559048
-0.4567510953646492 -0.2255090145994616 0.59131669715537161
-0.45341783172665995 -0.21984699946903175 0.60565033295782555
0.13164277752800269 -0.30717771936524563 0.64343394681683463
0.10611184736335266 -0.31202749116835227 0.63506367466060176
0.079440505903755287 -0.31542488964408388 0.62598598676945727
0.015456920266236907 -0.31064222247961859 0.61372607054656303
-0.014438988726751756 -0.30579018242717271 0.60925190448480038
-0.039661261120476077 -0.30276514927251408 0.60347383980181846
-0.027921598482458343 -0.29488624416466624 0.60784175700617116
0.00068734056255470577 -0.28551337375006058 0.61717653111452009
0.025768663845410433 -0.27357325904617635 0.62487799173704595
0.067888323383662907 -0.26745678833717679 0.63767908880409419
0.091603202486109314 -0.27716345676131837 0.64317066464087969
0.1207734374215268 -0.28851419586837923 0.64762519419806353
-0.11065378569021922 -0.3076594575752758 0.5806711651998695
-0.14745010309507567 -0.30596141783640518 0.57333500801485027
-0.18002363230008944 -0.30579460717445173 0.56371993111402574
-0.17774197969383554 -0.3093350421955976 0.55895814139476485
-0.14072197015953769 -0.30883778919235572 0.56993947443328974
-0.10048798883256405 -0.30619751513100324 0.58325767911073179
0.021456686251429158 -0.31700156135203739 0.60757121256090052
-0.0093038797751550106 -0.3155951774466057 0.59912787850163696
-0.040152510225657689 -0.31336541089836967 0.59152779502621211
0.34329752022294979 -0.35460125079310623 0.64220440074820129
0.31956990707172217 -0.35235152311422979 0.63210092040559296
0.29392730942859924 -0.34896629094663689 0.62148624190247137
0.20245446356202512 -0.33928631303951984 0.61449874702729268
0.14518026353914149 -0.33262635889162162 0.6168587123322693
0.094621783129288151 -0.32492290203484897 0.61762779567982573
0.19929959751665161 -0.31517493793815299 0.65271148529757728
0.24907560658685268 -0.32936108027022737 0.65344671251118047
0.30493582257911322 -0.34308943249959922 0.65307288921067386
0.069028687184724991 -0.31998103410114309 0.57757043528038388
0.019022826225661316 -0.31800429603613312 0.58253857411794652
-0.027289144441254187 -0.31459485359107009 0.58523547336727777
0.23362528561089535 -0.33877178831537957 0.60031689804732213
0.1987828917495178 -0.33257051464542053 0.59029596161959397
0.16167278961630771 -0.32622940170499271 0.58060925059775048
0.60658278114306485 -0.38506077139244699 0.62026297534940866
0.58632396578108681 -0.3756470041452753 0.60830172978895458
0.56169332594927956 -0.36526955548112205 0.59627137087477067
0.46974459589875295 -0.35240147664855259 0.59212088282865682
0.40248805833851753 -0.35045514386131615 0.59943388997319147
0.33325772583286684 -0.34794981699308947 0.60573959445502457
0.43096784591291382 -0.36734041555359775 0.64858323118605199
0.4975477314509047 -0.37747545803625537 0.64418710601455409
0.56287677207735598 -0.38622488587441128 0.63848615732980551
0.29914141272535932 -0.31151840790665175 0.54778464037851737
0.24059854743663589 -0.31517885188416939 0.55582171146732673
0.18095445757036499 -0.31826316282669631 0.5637475794351241
0.4935606698566084 -0.34235919750382715 0.57320992804002113
0.45029735869756582 -0.3305611571646232 0.56225533897175239
0.40308710237798007 -0.31902861504776725 0.5513820923528181
0.67760621663592913 -0.39902201197424403 0.62487793955035187
0.72320907880753849 -0.40313854276130234 0.61776701963845948
0.76025774953569103 -0.4059402963789942 0.61078456755644073
0.65801548888078054 -0.35824795367327278 0.56653570019064947
0.62508956041433539 -0.35696483455422245 0.57147727971521611
0.58296496315319501 -0.35556511976062999 0.57751202805432911
0.4735528353964269 -0.30286109388903126 0.52729067183335143
0.4404896585266318 -0.30344399673741429 0.53010497492859354
0.40061739364118987 -0.30518388289050247 0.53445596312044508
0.7054178379387257 -0.41659637699355678 0.65911406093712888
0.74969059061296939 -0.42307100493754013 0.65344170209847352
0.79133135152156697 -0.42767567592159828 0.64497032392024156
0.63993148748087458 -0.40100368589213597 0.64280237714054778
0.65344872057551262 -0.40666232674222957 0.65197768574974457
0.66369076945315575 -0.40971758882637199 0.65839625597681106
0.22121433439468552 -0.28220444300691527 0.51186530662504914
0.25747682183556808 -0.28866397742548222 0.51881518784292169
0.30327057094497833 -0.29753617093049733 0.52895258943529466
0.28419031682997264 -0.26547723555572267 0.49951001035913301
0.24760197715105114 -0.2682328216982377 0.50033028652630129
0.21774308429779143 -0.27340656701910504 0.50399854403001143
0.55721214688479082 -0.37251910906074936 0.6741807823864443
0.62883268481042132 -0.38464897932999498 0.66947802531894052
0.69924652727645542 -0.39710072783370665 0.66087699554031065
0.64144987945306831 -0.40473243976684747 0.66617896848606328
0.5989138346325884 -0.39429082832823381 0.67050855496701711
0.54838228748470508 -0.38003196979133835 0.67330983780661935
0.068508761410146946 -0.29046723228840832 0.52619588789811189
0.11583995543271719 -0.2850155113080155 0.51700496914470051
0.16238507756072229 -0.28071995744062672 0.51112917049405571
0.12713495280367137 -0.26864743260632973 0.52082899936050175
0.079009432880741137 -0.27693734887145038 0.5253637849026207
0.041629474709761194 -0.28649089581871556 0.53084387164975233
0.35632241271607645 -0.29486188364698185 0.67507546479596048
0.43112035507582691 -0.30779114592718915 0.67497313580514273
0.50604596156027171 -0.32281089686464193 0.67101118797291548
0.43999090072924929 -0.34521523955328881 0.67528326859418275
0.38740930464805245 -0.32620135677097117 0.67489996084579129
0.33744134190326358 -0.3065891411983197 0.67377033020495869
-0.10240583722904395 -0.29976070793487253 0.56589645472482086
-0.063845526293943244 -0.300340388372907 0.55729549109456933
-0.022251891488068498 -0.29888596617565666 0.54744888404003778
-0.049026389300419027 -0.27834566216595058 0.5732725592748098
-0.090400563640248066 -0.28527324773539497 0.5737035176893146
-0.12125196614230038 -0.29190209260977817 0.57345810816315712
0.44807701869066285 -0.35869439488422072 0.67198042314126205
0.41428850242600213 -0.35694737834766865 0.6668273835105607
0.38827123642377037 -0.35640829373776062 0.65988043635612748
0.18061012688492228 -0.29470682477073695 0.65704909767088537
0.20832216679781634 -0.28890414794990416 0.66252169403152106
0.24362966821321574 -0.28557904969401582 0.66751923562759252
-0.13657865211901488 -0.30149801239153962 0.57298799704504866
-0.12239039343152314 -0.30488691408454294 0.57509406259598972
-0.099056928530368626 -0.30787793883601333 0.57919744281898122
0.083342570751876899 -0.31430760606991415 0.56138663308570091
0.049260875732634712 -0.30869372381781579 0.55210705042444363
0.026801884536225451 -0.30266109496948568 0.54383427736149148
0.070787676067847194 -0.24517846687470923 0.6380905164408075
0.09408247666751457 -0.23181764701895125 0.64497094857830994
0.1207834950572737 -0.2214148610178257 0.65234630177533415
0.18052369847579675 -0.23125411991164557 0.66335928407131917
0.21248317971579977 -0.24869834344417674 0.66665757661525138
0.24938746065419304 -0.26738372852237235 0.66959016444695685
-0.16988364204973871 -0.29357490182833379 0.57756024959701158
-0.19804871041531014 -0.28881929478583035 0.58059888036422169
-0.22172440649576552 -0.28345880266731438 0.58232750288506985
-0.24289406733881336 -0.28543460893265205 0.57090614059377742
-0.23894903478107032 -0.29379655372745206 0.56033504445821869
-0.22769794015089317 -0.30150991243669534 0.55367481976463573
0.195409525740875 -0.21606383170928289 0.66710126850595497
0.24177253431607237 -0.2212471913983487 0.67260677465512586
0.28707293290950942 -0.22928152945315872 0.67602832553460068
-0.19870249286007002 -0.26349922980587248 0.61483581185244596
-0.21868827172048455 -0.26781981368653396 0.60535212525733151
-0.23258460288299254 -0.27236188689726748 0.59483741835392845
0.15528750847089512 -0.16899849254426624 0.67413294313220895
0.13240548716658918 -0.16551036187441559 0.66709614543045426
0.10781816203387562 -0.16223935056916972 0.6579972422255933
0.082211507989041976 -0.1409978095917217 0.64647903555717701
0.079198896293551257 -0.12856261903138111 0.64861021442594247
0.074462417111275769 -0.11900546209369622 0.65096844357814376
0.070393349140233319 -0.12284587318212292 0.66014412895387586
0.078474352652425416 -0.12918541253069904 0.66669714698124238
0.088638963038071061 -0.13233589139019863 0.67336438887811845
-0.26783766894301175 -0.2098178116553866 0.64226216628014221
-0.27888555252660652 -0.21355218976896828 0.63104717431931601
-0.29339254199023568 -0.21627195422693335 0.6201345132302194
-0.31610147827306401 -0.22728735324436644 0.60101562471742209
-0.31527463466956585 -0.23628919100192181 0.59300906349082716
-0.31141635432541426 -0.24605181583779512 0.58475271784376126
-0.27929356449107612 -0.24680149729579881 0.60157439799178647
-0.26417778852049967 -0.24070250137774352 0.61825881378520986
-0.25068379327639256 -0.23591278130184912 0.63169128930465668
0.13126313538589729 -0.2025230385124499 0.6567920843597177
0.11264431460856406 -0.19039584787343844 0.65361874211475968
0.096730261335411072 -0.17750141253435614 0.64997128342044519
-0.28044148233317578 -0.26261521604464377 0.58138856982887521
-0.26661868912207343 -0.26737356317646399 0.58338080241747647
-0.25433478476009741 -0.27246329577023842 0.58374966553558671
0.059505875899116045 -0.085557441889356545 0.65871261279223337
0.06047603617275632 -0.088677651242147659 0.66387182176741799
0.06311116149390994 -0.089917274272015124 0.67060611812741033
0.059731949076160973 -0.10540987897223797 0.65494401747909858
0.054141905411005276 -0.098836018877195286 0.65595634504401179
0.05549372108381645 -0.090054328845791565 0.65593936267639474
-0.32149759091696506 -0.20196912699710468 0.61945312045913781
-0.31325891378118742 -0.20533467951847317 0.61826831678241501
-0.31246153196914239 -0.2113650085962091 0.6143027305903237
-0.30673350662741461 -0.18922986258348962 0.64479633207357789
-0.31492245679122055 -0.19464067698394527 0.63347297517933843
-0.32378367857509538 -0.19837401148643385 0.62483391701863322
0.0701451661586181 -0.0704867174724495 0.65130634516885255
0.087082318252193147 -0.052991882436823623 0.64371809915674305
0.10877020669696114 -0.032315005374520034 0.63191832811044168
-0.41440134915235527 -0.22019875144221435 0.58620514013161884
-0.38001062216822401 -0.2094638556289361 0.60245027782308291
-0.35077024276831947 -0.2033654305770638 0.6131872016418658
-0.49472439742373542 -0.4745285544804636 -0.036172173578504996
-0.48804160316740397 -0.43232609934566701 -0.093272916512173509
-0.46901287894529409 -0.36739624858003861 -0.15215143341265858
-0.38921925583880901 -0.18622018986297206 -0.16754542931822858
-0.33934507374458267 -0.098712129507718682 -0.11590631534582574
-0.28928257048912842 -0.019176046592277007 -0.067377673831767737
-0.27493788160127597 -0.048293901197848932 0.036709092776419538
-0.29177830867794308 -0.11748230436615525 0.092130900731263843
-0.29474356031973414 -0.164312673273868 0.14534246413158058
-0.33900670000464483 -0.27596083253118486 0.17293351496839282
-0.39317702898371421 -0.35549271338115207 0.13120379759251399
-0.44524156389605363 -0.4315279398114571 0.078656312856134392
-0.5264710892704505 -0.54878532725230444 -0.029108218453464119
-0.55404639855285032 -0.58470171458324693 -0.073559048107151526
-0.57492382733461289 -0.60798697119202605 -0.11053684237303152
-0.59076747990444689 -0.62006463619907914 -0.190139866934528
-0.58524113587988325 -0.60577204552228592 -0.23322433719134583
-0.57329194701725195 -0.57805083082605524 -0.27613757600523758
-0.53272366161691398 -0.48952935018394372 -0.30918971389787409
-0.50638543530033431 -0.43017689458619701 -0.28760572291524156
-0.47404964882816936 -0.35788526676054055 -0.25687489202728742
-0.42126131980736226 -0.48233075477046561 0.219351767095044
-0.45410748933444589 -0.50059615612077701 0.14991095601711013
-0.47726405669707628 -0.50636214714320449 0.084167737454215796
-0.27449777133014086 -0.22742417501290957 0.25500768727319922
-0.25408828244504678 -0.24964693243834968 0.31114100604502681
-0.22631512609249871 -0.26343277595380687 0.36621225755906917
-0.23602318564074576 -0.32138514788274852 0.40097394448039037
-0.28423453694147049 -0.37182495560773776 0.37181140029024906
-0.33276155484809822 -0.41679105776431036 0.33409636626692141
-0.41943498043699279 -0.48009429073276366 0.2503045099238328
-0.45540013354217912 -0.49782759852566838 0.21188750722807725
-0.48665393378873345 -0.50887461458739303 0.17797570287493425
-0.54384990898040675 -0.55537164646487902 0.066194887664037694
-0.56686561173092276 -0.58784330308567112 -0.011204499957207403
-0.58217490928886217 -0.61044452339892907 -0.081000923316153717
-0.21338344140691889 -0.34995334489038044 0.49145077757138367
-0.26932850719826584 -0.38092806593821638 0.43441326414264658
-0.32627294513119232 -0.417278280100013 0.36599885445246638
-0.14972581864837808 -0.26404268187981561 0.46907005146295333
-0.10480249634584293 -0.25558281074566258 0.51465263582144427
-0.059471905458639451 -0.24623797001491843 0.55465457691687714
-0.051379116723579532 -0.270978353631806 0.57938753019677325
-0.087119339013868036 -0.29527158219570704 0.56702144540864197
-0.12428611096755215 -0.31361157968061493 0.55194249490831293
-0.20813136393821541 -0.33753742508207818 0.51261406438971591
-0.25262368211097819 -0.34450230408825266 0.49092279768577285
-0.29484377381650706 -0.34731716542134627 0.47228681335148082
-0.38396796514658948 -0.38179322924906312 0.3921077822440191
-0.43094140523443203 -0.42394567041004594 0.31650191768715263
-0.47473450227205216 -0.4696761147606292 0.23392843699015575
-0.080399023448213036 -0.30236728135725865 0.58872104097359745
-0.10126237868204235 -0.30590656725995879 0.57775078486414877
-0.1279793790542012 -0.31352301462694943 0.56081288402152207
0.0047499584844743481 -0.24563089185878573 0.60765350894627179
0.019149882931022599 -0.25004904605489298 0.61779406300612738
0.033171154197844555 -0.25427587119942152 0.62523007729900559
-0.23029453820727319 -0.30970366068083566 0.54151846211926191
-0.25402400636702804 -0.31486253739848014 0.52665307412262585
-0.2846432626412323 -0.32435253058973168 0.50391108893694891
0.024627034366122125 -0.21158307306527946 0.60918207955653791
0.047897862358869503 -0.19262079741949178 0.62197903932121701
0.066157987702234244 -0.17486071884237742 0.63273581308418336
-0.31113064189207629 -0.27794133826964051 0.54770052614061626
-0.31718894725556623 -0.29725998313067015 0.5222866605456824
-0.32551947983871621 -0.31822746042196925 0.49429945616414628
0.22229449951260483 0.45615866964644636 0.25421016614633363
0.22046314433860248 0.42113011549088308 0.30183741218598303
0.21891889338559611 0.39027727531255474 0.34572197200949528
0.20968181848517009 0.16774298615776351 0.48039640397213557
0.20890517624853766 0.18196301713861307 0.44932418926358153
0.20604398831422621 0.19569712080040103 0.41748076103391352
0.21696721990860057 0.28893134395429021 0.33434770001323599
0.22531764408148325 0.36356244522906644 0.2842609593264136
0.22736220547333419 0.43321481597134381 0.23922102635651754
-0.57507183059423239 -0.40292563620383715 0.17983343546142372
-0.59732928330982205 -0.42461644948043054 0.18116320415703679
-0.61205739839936335 -0.43730396509388503 0.1884218332131411
-0.60194572474324515 -0.39660944278417221 0.27910622105793248
-0.58723113599400989 -0.35426969274915487 0.35394925566956026
-0.57426377899005843 -0.31815682604536843 0.41979657726802699
-0.55295024681650284 -0.30138019773518243 0.3808355150538052
-0.55168695775447718 -0.32425769209469779 0.31843980595836463
-0.54995324074016994 -0.3481979238105759 0.25286385695644409
-0.38319644865888236 -0.15038035782276715 -0.29230969184426581
-0.31380769054104674 0.00096527384121536386 -0.37715213138986403
-0.22947115068844193 0.16974058160635952 -0.46702056340199949
-0.083406873428370165 0.45573324680827842 -0.52753993120737963
-0.039545625318202493 0.54434501526646795 -0.48857888991754983
-0.0037424260688121436 0.60864251491274013 -0.44275444255082963
-0.057985884888166694 0.48562093900584147 -0.29229036175804435
-0.13217129320559318 0.32319104805718801 -0.19215548445375585
-0.19488154197926377 0.1737519654390125 -0.10227476150725501
-0.5241017042120375 -0.47471986991080706 -0.37640784142177797
-0.48269601719030764 -0.39387470527815682 -0.43323452335665635
-0.42774935477587217 -0.29118918946990235 -0.48847440517771279
-0.30767107252633386 -0.052202777573637782 -0.55156743553197529
-0.25092784427190118 0.077842519917652231 -0.56149644265819809
-0.1918553595459791 0.21396993459439262 -0.56381509406014718
0.29236505394332024 1.0026585470425706 -0.31392493783197661
0.26540469331160188 0.97192243813809442 -0.19804199144202439
0.22608732668806675 0.92457226720831809 -0.078674409056318062
0.19442609735344396 0.92337625586661431 0.032025451927550463
0.2071551761132564 0.9705581271339192 0.018610890640271549
0.21426719246695125 1.0005506377601727 0.0016579970270793609
0.26101272494378347 1.0820062957148071 -0.12343855066171017
0.29723541660326225 1.1339885369858822 -0.22606939937482018
0.32545136082169268 1.1716171750778968 -0.32420742351935861
0.35018600007509426 1.1835799067189285 -0.4203500381801053
0.34681684149509628 1.1494936617611886 -0.42534718503569557
0.33289403446567167 1.0938540823353777 -0.42756087704921253
0.27010423045079901 0.92581673255050601 -0.411730026149427
0.22304351525495347 0.82103164476393942 -0.39402805702541244
0.16805505461228476 0.70814975639491551 -0.37457674553293074
0.1046438698119494 0.59117515445338586 -0.26582300066858888
0.090050144312288971 0.57585044691843423 -0.16783181291646088
0.062774845087500752 0.54422788345086737 -0.06563382681868557
0.068796584179203535 0.59460125536388975 0.046689698491626075
0.11105610332248039 0.69147892183748172 0.049617456973615859
0.1466989523773452 0.78120653351086977 0.047799121271651757
0.26852612845011326 0.9629863720668479 -0.67539569214098094
0.29818321603821896 1.0027733559592855 -0.61213310985565084
0.31014781031221084 1.019577614086369 -0.52596893583235449
0.35725753386577441 1.2107803305370988 -0.49799121494544352
0.35762944337104674 1.2088638307874309 -0.5655284471231985
0.34322210369759842 1.1855661275456102 -0.61175796603782473
0.30634522046198498 1.1126532115259473 -0.66095465893746486
0.28995386342485929 1.0649974518905858 -0.68781845096599881
0.26055461850060579 0.99168597366341094 -0.70572327210241514
0.1679541539760816 0.78087447294135526 -0.69542102127863004
0.11014800676557046 0.65622193670400808 -0.66796626020279604
0.048043655918155181 0.5277615276432519 -0.63328635778908371
0.041313667018687994 0.48916835595952346 -0.56493086906573087
0.079243273862058983 0.54657576660502905 -0.51151736879126553
0.10033693968503088 0.57874937604809285 -0.44091717306999989
-0.035545052223834972 0.51187735115725053 -0.62842813249170515
0.060929698829314205 0.66405268398116535 -0.68280736735743908
0.14789596444858821 0.79377290943854351 -0.71150691661310628
0.25750178501554188 1.0513773006876708 -0.61439151967676509
0.18789986158923178 0.93902240282641447 -0.56593654595775522
0.10779537584966148 0.80308233517406169 -0.49008744685547612
-0.27468386627725838 -0.021420519900380741 -0.57454803823271039
-0.18370620315246367 0.1311539192492972 -0.59902430582293498
-0.094243492737519308 0.27680241052729748 -0.60795694734073802
0.11260112873948724 0.65023567161121054 0.29280181651960113
0.10509812908709248 0.62934243657247046 0.335841742519845
0.098854672715827263 0.61966440314913251 0.37178828913179451
0.15384727789717889 0.55971393851540752 0.33852707361036138
0.15631748437494242 0.57369693180320458 0.30827763169550249
0.15965522671598764 0.59511055068649732 0.27235834487952637
0.15245535725424109 0.64716560283851488 0.23501501586791651
0.14258696515350255 0.66404470194497467 0.23568779350745661
0.13333225157461337 0.67715653469669168 0.23554264201835107
-0.33455015245938768 -0.03615689624791707 0.31218084039463889
-0.3575202213506945 -0.07223551125625538 0.31740296297180848
-0.38197862844345409 -0.10974754729251512 0.32016509851888131
-0.42200251581133763 -0.15308878302659124 0.36534261609976859
-0.43030163980071201 -0.14979575219996377 0.41329030487850815
-0.43568527001035573 -0.14457716367983409 0.45753102741950702
-0.34666643998593805 -0.005182404123677431 0.47422972615725278
-0.34186686934086596 -0.010344997768797048 0.4259182542572626
-0.33076870846730833 -0.0086040626753713934 0.3722528137484149
0.18767829326908414 0.89031842586610943 0.0079583898318507096
0.16083080628350999 0.81519841033885099 0.094152080989847065
0.13891662304353325 0.74461263099597041 0.17261799375504872
0.17278856452810976 0.67083682004139011 0.1760645070921445
0.18381508538687896 0.72324595717853102 0.11537903025643725
0.19728215813162198 0.77876560622174162 0.049480695971785948
0.21090174053883715 0.87090551312627151 -0.033930051256863436
0.21205563050669562 0.90553916125907907 -0.052987548472018808
0.21433339875929924 0.93551661935588371 -0.070571325192501533
-0.21162211126317887 0.0680057415647084 0.0080889710133602577
-0.25243625197873709 0.0020694229053159763 0.028781034123580795
-0.29355368655673564 -0.062363978018373345 0.049092350280679042
