# XYZ point cloud file
-0.13766288757324219 0.53153419494628906 0.71176052093505859
-0.15060329437255859 0.53675556182861328 0.71230602264404297
-0.16805458068847656 0.50602054595947266 0.71615219116210938
-0.14394950866699219 0.5005340576171875 0.71719169616699219
-0.12828636169433594 0.52775382995605469 0.71347141265869141
-0.45375823974609375 0.084082603454589844 0.66749095916748047
-0.44225025177001953 0.095890998840332031 0.67310619354248047
-0.46234893798828125 0.09487152099609375 0.66510677337646484
-0.46378231048583984 0.070535659790039062 0.66313362121582031
-0.447540283203125 0.075823783874511719 0.67154216766357422
-0.43671894073486328 0.086834907531738281 0.67659282684326172
-0.44993305206298828 0.10727882385253906 0.67094326019287109
-0.47298049926757812 0.080541610717773438 0.65976047515869141
-0.45714664459228516 0.062932014465332031 0.66747760772705078
-0.16461849212646484 0.45089530944824219 0.72152519226074219
-0.17774391174316406 0.44970703125 0.72202587127685547
-0.16375064849853516 0.43188762664794922 0.72318553924560547
-0.15364551544189453 0.45197200775146484 0.72273731231689453
-0.16326141357421875 0.46934890747070312 0.71964740753173828
-0.17675304412841797 0.469818115234375 0.72030353546142578
-0.17633533477783203 0.42904281616210938 0.72380447387695312
-0.15277290344238281 0.43445110321044922 0.72406578063964844
-0.15223789215087891 0.46914863586425781 0.72095870971679688
-0.39686298370361328 0.12303543090820312 0.69191551208496094
-0.37866973876953125 0.12858390808105469 0.69786167144775391
-0.40004539489746094 0.13551712036132812 0.69139480590820312
-0.41380596160888672 0.11542320251464844 0.68540477752685547
-0.39422893524169922 0.11241245269775391 0.69379329681396484
-0.37747383117675781 0.11760997772216797 0.69944477081298828
-0.38014030456542969 0.14128398895263672 0.69792556762695312
-0.41864776611328125 0.12772560119628906 0.68440151214599609
-0.40995693206787109 0.10525226593017578 0.68809318542480469
-0.13035011291503906 0.45429134368896484 0.72087574005126953
-0.13678741455078125 0.45383548736572266 0.72292613983154297
-0.12929153442382812 0.43940258026123047 0.72088050842285156
-0.1246337890625 0.45468044281005859 0.71794319152832031
-0.12949657440185547 0.46870994567871094 0.72083759307861328
-0.1358489990234375 0.46901321411132812 0.72224712371826172
-0.13577079772949219 0.43801021575927734 0.7232666015625
-0.12354373931884766 0.44056892395019531 0.71729564666748047
-0.12410259246826172 0.4683074951171875 0.71832752227783203
-0.38916110992431641 0.089514732360839844 0.69445705413818359
-0.37477016448974609 0.093485832214355469 0.69766330718994141
-0.39057636260986328 0.095916748046875 0.69570732116699219
-0.40237712860107422 0.084012985229492188 0.69088172912597656
-0.38769912719726562 0.08380889892578125 0.69221401214599609
-0.37422466278076172 0.08748626708984375 0.69470310211181641
-0.37546443939208984 0.10023784637451172 0.69996356964111328
-0.4046173095703125 0.089925765991210938 0.69148635864257812
-0.400299072265625 0.078815460205078125 0.68936061859130859
-0.11757564544677734 0.50757312774658203 0.71668910980224609
-0.12299156188964844 0.50980091094970703 0.71738719940185547
-0.1233062744140625 0.49539279937744141 0.71855545043945312
-0.11279773712158203 0.50539016723632812 0.71518516540527344
-0.11006736755371094 0.51945114135742188 0.71516227722167969
-0.11504650115966797 0.52206230163574219 0.71599102020263672
-0.12904739379882812 0.49700164794921875 0.71925735473632812
-0.11823177337646484 0.49364948272705078 0.71710300445556641
-0.10565280914306641 0.51692295074462891 0.71368598937988281
-0.43500995635986328 0.059533119201660156 0.67837142944335938
-0.42537498474121094 0.069086074829101562 0.682708740234375
-0.43872833251953125 0.063942909240722656 0.677337646484375
-0.44377040863037109 0.048435211181640625 0.67461776733398438
-0.4314422607421875 0.0557403564453125 0.67828273773193359
-0.42218112945556641 0.064877510070800781 0.68241691589355469
-0.42869281768798828 0.073955535888671875 0.68211746215820312
-0.44770622253417969 0.052369117736816406 0.673858642578125
-0.44011783599853516 0.045093536376953125 0.67446422576904297
-0.075501441955566406 0.5555419921875 0.71555233001708984
-0.078607559204101562 0.55872440338134766 0.7171630859375
-0.089264869689941406 0.54317760467529297 0.71521282196044922
-0.073082923889160156 0.55251502990722656 0.71273994445800781
-0.059630393981933594 0.56850433349609375 0.71453857421875
-0.061795234680175781 0.57194995880126953 0.71626949310302734
-0.093031883239746094 0.54621982574462891 0.71653652191162109
-0.086014747619628906 0.54030227661132812 0.71283340454101562
-0.057828903198242188 0.56524658203125 0.71092796325683594
-0.46648883819580078 0.0038881301879882812 0.67149543762207031
-0.45931529998779297 0.020904541015625 0.67151355743408203
-0.47048854827880859 0.0058231353759765625 0.67135047912597656
-0.47379684448242188 -0.015730857849121094 0.66993045806884766
-0.46315383911132812 0.0023851394653320312 0.66984367370605469
-0.45567989349365234 0.0186920166015625 0.67071914672851562
-0.46335411071777344 0.023598670959472656 0.67114734649658203
-0.47758674621582031 -0.014562606811523438 0.67007732391357422
-0.47034740447998047 -0.016401290893554688 0.66768836975097656
0.0030565261840820312 0.61099338531494141 0.6881256103515625
0.0031156539916992188 0.61675262451171875 0.69036483764648438
-0.019632339477539062 0.59686183929443359 0.70050716400146484
0.0028095245361328125 0.60551071166992188 0.68435382843017578
0.025422096252441406 0.62317562103271484 0.67524433135986328
0.026132583618164062 0.62981796264648438 0.67752838134765625
-0.020352363586425781 0.60158824920654297 0.70264625549316406
-0.019372940063476562 0.59234237670898438 0.69639492034912109
0.024638175964355469 0.61674690246582031 0.67120647430419922
-0.49549961090087891 -0.090891838073730469 0.64706802368164062
-0.48865413665771484 -0.06394195556640625 0.65714550018310547
-0.50064182281494141 -0.092612266540527344 0.64735698699951172
-0.50069618225097656 -0.11715602874755859 0.63699913024902344
-0.49071502685546875 -0.089139938354492188 0.64494037628173828
-0.48458099365234375 -0.063014030456542969 0.65486240386962891
-0.49313545227050781 -0.064657211303710938 0.65782833099365234
-0.50649261474609375 -0.11979293823242188 0.63720130920410156
-0.49523353576660156 -0.11457252502441406 0.63483047485351562
0.078580856323242188 0.63555240631103516 0.64912128448486328
0.081030845642089844 0.64328193664550781 0.65123081207275391
0.063607215881347656 0.63583087921142578 0.65502643585205078
0.076374053955078125 0.62802219390869141 0.64581680297851562
0.091940879821777344 0.63161563873291016 0.64480781555175781
0.094855308532714844 0.63923931121826172 0.64651012420654297
0.065468788146972656 0.64365577697753906 0.65722465515136719
0.0618438720703125 0.62831687927246094 0.65157318115234375
0.08927154541015625 0.62438392639160156 0.64178943634033203
-0.49812507629394531 -0.17425441741943359 0.62551307678222656
-0.50230121612548828 -0.15929317474365234 0.62541770935058594
-0.50441551208496094 -0.17878532409667969 0.62571525573730469
-0.49116802215576172 -0.18644618988037109 0.62795639038085938
-0.49208450317382812 -0.17013740539550781 0.62374401092529297
-0.49621677398681641 -0.15555572509765625 0.62372684478759766
-0.50874423980712891 -0.16332435607910156 0.62550544738769531
-0.49713993072509766 -0.19142627716064453 0.62842273712158203
-0.48546218872070312 -0.18187141418457031 0.62617397308349609
0.1283111572265625 0.60414600372314453 0.63522911071777344
0.13324928283691406 0.61010837554931641 0.63574028015136719
0.11672592163085938 0.61585140228271484 0.63789939880371094
0.12355327606201172 0.59860610961914062 0.63313007354736328
0.13881683349609375 0.58942413330078125 0.63371467590332031
0.14428997039794922 0.59446811676025391 0.63368701934814453
0.12089252471923828 0.62248897552490234 0.63891315460205078
0.11255836486816406 0.60965633392333984 0.63554096221923828
0.13340568542480469 0.58463573455810547 0.63207149505615234
-0.45687389373779297 -0.21440887451171875 0.64358806610107422
-0.47048187255859375 -0.20636081695556641 0.63734817504882812
-0.46074485778808594 -0.22100830078125 0.64444160461425781
-0.44048213958740234 -0.22022819519042969 0.65082073211669922
-0.45314979553222656 -0.20838356018066406 0.64121532440185547
-0.46601581573486328 -0.20082378387451172 0.63505268096923828
-0.47523307800292969 -0.21245479583740234 0.63824558258056641
-0.44364070892333984 -0.22708320617675781 0.65236663818359375
-0.43789100646972656 -0.21383762359619141 0.64832305908203125
0.15861797332763672 0.52398204803466797 0.64093399047851562
0.16446113586425781 0.52617168426513672 0.64094734191894531
0.15408706665039062 0.54883003234863281 0.63657569885253906
0.15287685394287109 0.52150630950927734 0.6398773193359375
0.16054630279541016 0.49815177917480469 0.64685344696044922
0.16618537902832031 0.49945735931396484 0.64681148529052734
0.16029071807861328 0.55207252502441406 0.63630104064941406
0.14836597442626953 0.54558658599853516 0.63547706604003906
0.15510654449462891 0.49646186828613281 0.64534378051757812
-0.37370967864990234 -0.21728134155273438 0.68397617340087891
-0.39837169647216797 -0.22180080413818359 0.67164134979248047
-0.37412452697753906 -0.22372245788574219 0.68593215942382812
-0.34847068786621094 -0.21019268035888672 0.69620895385742188
-0.37330245971679688 -0.21151351928710938 0.68067264556884766
-0.39721488952636719 -0.21545791625976562 0.66851520538330078
-0.39960479736328125 -0.22863960266113281 0.67338275909423828
-0.34803485870361328 -0.21596336364746094 0.69850540161132812
-0.34881019592285156 -0.20496368408203125 0.69259166717529297
0.15210342407226562 0.42748641967773438 0.66626548767089844
0.15686988830566406 0.42595958709716797 0.66666984558105469
0.15765762329101562 0.44934844970703125 0.65976905822753906
0.14754009246826172 0.42835903167724609 0.66392326354980469
0.14300537109375 0.40683650970458984 0.67339229583740234
0.14756584167480469 0.40454578399658203 0.67421436309814453
0.16276741027832031 0.44876194000244141 0.65993309020996094
0.1528167724609375 0.44930934906005859 0.6577606201171875
0.13882541656494141 0.40857887268066406 0.67096138000488281
-0.28297996520996094 -0.17627239227294922 0.72421455383300781
-0.30241012573242188 -0.18966484069824219 0.71667385101318359
-0.27997207641601562 -0.18027019500732422 0.72692394256591797
-0.26545047760009766 -0.15980815887451172 0.73043060302734375
-0.28546524047851562 -0.17287731170654297 0.71992969512939453
-0.30424022674560547 -0.18570518493652344 0.71259307861328125
-0.30024623870849609 -0.19424152374267578 0.71928882598876953
-0.26172447204589844 -0.1631622314453125 0.73318958282470703
-0.26867008209228516 -0.15704631805419922 0.72595500946044922
0.091344833374023438 0.34998416900634766 0.70040130615234375
0.093889236450195312 0.34608268737792969 0.70217990875244141
0.11192512512207031 0.36783313751220703 0.69101905822753906
0.088865280151367188 0.35334587097167969 0.69680404663085938
0.069789886474609375 0.33449077606201172 0.70870113372802734
0.071554183959960938 0.33037471771240234 0.71099472045898438
0.11526203155517578 0.36426544189453125 0.69235610961914062
0.10876941680908203 0.37082290649414062 0.68790054321289062
0.067965507507324219 0.33829307556152344 0.70461368560791016
-0.22416400909423828 -0.087757110595703125 0.74328994750976562
-0.23586177825927734 -0.11469745635986328 0.73980426788330078
-0.21938133239746094 -0.088504791259765625 0.74634933471679688
-0.21506500244140625 -0.061054229736328125 0.7454833984375
-0.22872161865234375 -0.087447166442871094 0.73861885070800781
-0.24010944366455078 -0.11349868774414062 0.73540401458740234
-0.23135566711425781 -0.11648273468017578 0.74283695220947266
-0.21015739440917969 -0.060893058776855469 0.74859619140625
-0.21970653533935547 -0.061536788940429688 0.74074268341064453
0.017024040222167969 0.31020545959472656 0.71952629089355469
0.01755523681640625 0.3055267333984375 0.72286701202392578
0.0320281982421875 0.31452751159667969 0.71858596801757812
0.016246795654296875 0.31430530548095703 0.71455764770507812
0.0037450790405273438 0.30878162384033203 0.71922492980957031
0.00409698486328125 0.30423069000244141 0.72280311584472656
0.032788276672363281 0.30993843078613281 0.72161102294921875
0.031200408935546875 0.31856441497802734 0.71379852294921875
0.00323486328125 0.31299304962158203 0.71418190002441406
-0.20718288421630859 -0.0017309188842773438 0.74182415008544922
-0.20655918121337891 -0.017291069030761719 0.74448966979980469
-0.20217037200927734 -7.05718994140625e-05 0.74547672271728516
-0.2100830078125 0.011191368103027344 0.73846721649169922
-0.21190071105957031 -0.0033245086669921875 0.73669624328613281
-0.21143341064453125 -0.01876068115234375 0.73953342437744141
-0.20162773132324219 -0.015938758850097656 0.74775123596191406
-0.20519733428955078 0.012980461120605469 0.74223804473876953
-0.21498298645019531 0.009258270263671875 0.73313522338867188
-0.11581611633300781 0.39480209350585938 0.72081756591796875
-0.12090301513671875 0.39181137084960938 0.7244873046875
-0.10811328887939453 0.38088607788085938 0.72110271453857422
-0.11158847808837891 0.39721298217773438 0.71606254577636719
-0.12197971343994141 0.40939903259277344 0.72066974639892578
-0.12782096862792969 0.40681552886962891 0.72411537170410156
-0.11250400543212891 0.37740421295166016 0.72467327117919922
-0.10463809967041016 0.38354969024658203 0.71617603302001953
-0.11703395843505859 0.41156101226806641 0.71615505218505859
-0.32853603363037109 0.095778465270996094 0.70842075347900391
-0.31299972534179688 0.093237876892089844 0.71210193634033203
-0.32716464996337891 0.10181713104248047 0.71209812164306641
-0.34422492980957031 0.096703529357910156 0.70481300354003906
-0.32985782623291016 0.090479850769042969 0.70377922058105469
-0.31482982635498047 0.088402748107910156 0.70731639862060547
-0.31092929840087891 0.098817825317382812 0.71586132049560547
-0.34355926513671875 0.10331249237060547 0.70811748504638672
-0.34496879577636719 0.09095001220703125 0.70058250427246094
-0.078029632568359375 0.34589481353759766 0.72064113616943359
-0.080748558044433594 0.34154129028320312 0.72497653961181641
-0.066527366638183594 0.33669662475585938 0.72036552429199219
-0.075928688049316406 0.34958076477050781 0.71494674682617188
-0.089099884033203125 0.35624408721923828 0.72084331512451172
-0.092164993286132812 0.35226154327392578 0.72507095336914062
-0.068897247314453125 0.3320465087890625 0.72492408752441406
-0.064867019653320312 0.34068489074707031 0.71441555023193359
-0.086589813232421875 0.35962867736816406 0.71550941467285156
-0.27065277099609375 0.076329231262207031 0.72091293334960938
-0.25849819183349609 0.068338394165039062 0.72349071502685547
-0.26699542999267578 0.08081817626953125 0.72559738159179688
-0.28382778167724609 0.083283424377441406 0.71839809417724609
-0.27407169342041016 0.072300910949707031 0.71516513824462891
-0.26229381561279297 0.06447601318359375 0.71728134155273438
-0.25436782836914062 0.072649002075195312 0.72800445556640625
-0.28063869476318359 0.088158607482910156 0.72261524200439453
-0.28665447235107422 0.079236984252929688 0.71299552917480469
-0.032001495361328125 0.31646728515625 0.71909618377685547
-0.032744407653808594 0.3116912841796875 0.723236083984375
-0.020414352416992188 0.31234359741210938 0.71877384185791016
-0.031468391418457031 0.32085132598876953 0.71325397491455078
-0.043381690979003906 0.32199668884277344 0.71946239471435547
-0.044773101806640625 0.31706142425537109 0.72383594512939453
-0.020733833312988281 0.30758762359619141 0.72278022766113281
-0.020331382751464844 0.31663894653320312 0.71322822570800781
-0.042258262634277344 0.32636737823486328 0.71349048614501953
-0.22865486145019531 0.042050361633300781 0.72990226745605469
-0.22123336791992188 0.032520294189453125 0.73216629028320312
-0.22384834289550781 0.045136451721191406 0.73426723480224609
-0.2373809814453125 0.051220893859863281 0.72782135009765625
-0.23321056365966797 0.039114952087402344 0.72390842437744141
-0.22593498229980469 0.029918670654296875 0.72636032104492188
-0.21631526947021484 0.035013198852539062 0.73646450042724609
-0.23274612426757812 0.0548248291015625 0.73240375518798828
-0.24186897277832031 0.047728538513183594 0.72146034240722656
-0.27634906768798828 0.33059024810791016 0.61747074127197266
-0.27948951721191406 0.32946109771728516 0.64585113525390625
-0.27729225158691406 0.35740470886230469 0.61846160888671875
-0.27319717407226562 0.33267879486083984 0.59022808074951172
-0.28020286560058594 0.30894756317138672 0.61565589904785156
-0.2819671630859375 0.30892372131347656 0.64437770843505859
-0.28259944915771484 0.35456752777099609 0.64724159240722656
-0.27025890350341797 0.36282920837402344 0.59082603454589844
-0.27929019927978516 0.30963230133056641 0.58888721466064453
-0.3209381103515625 0.26741600036621094 0.60950279235839844
-0.34551239013671875 0.26041984558105469 0.60514736175537109
-0.32068061828613281 0.27096271514892578 0.63865089416503906
-0.30225753784179688 0.27770614624023438 0.61237144470214844
-0.32176399230957031 0.26385688781738281 0.58196163177490234
-0.34803199768066406 0.25238132476806641 0.57576179504394531
-0.34470558166503906 0.26627540588378906 0.63471031188964844
-0.30239391326904297 0.27978515625 0.64078998565673828
-0.30255699157714844 0.27653312683105469 0.58486175537109375
-0.31405162811279297 0.46376609802246094 0.62093544006347656
-0.32321071624755859 0.45837020874023438 0.64835453033447266
-0.32878398895263672 0.50226020812988281 0.6216278076171875
-0.29970073699951172 0.47460651397705078 0.59655284881591797
-0.29772663116455078 0.42524528503417969 0.62012481689453125
-0.30627346038818359 0.41980648040771484 0.64828872680664062
-0.33847332000732422 0.49821758270263672 0.64815998077392578
-0.31400489807128906 0.50934123992919922 0.59949207305908203
-0.28445911407470703 0.43643569946289062 0.59345626831054688
-0.45318317413330078 0.26510143280029297 0.58084392547607422
-0.49254226684570312 0.26817131042480469 0.56989479064941406
-0.45275592803955078 0.273529052734375 0.61022758483886719
-0.41339778900146484 0.26047325134277344 0.59066200256347656
-0.45719814300537109 0.24989891052246094 0.55236244201660156
-0.49261188507080078 0.25404930114746094 0.54462814331054688
-0.4938507080078125 0.27605247497558594 0.59801673889160156
-0.41220378875732422 0.26900672912597656 0.62060546875
-0.41827487945556641 0.24579334259033203 0.56012821197509766
-0.32768821716308594 0.60695457458496094 0.62210559844970703
-0.33857250213623047 0.60670661926269531 0.64936065673828125
-0.31036758422851562 0.63529682159423828 0.62260723114013672
-0.31133174896240234 0.60401630401611328 0.59879207611083984
-0.33726787567138672 0.57486057281494141 0.62209510803222656
-0.34783267974853516 0.57368373870849609 0.64855480194091797
-0.32065963745117188 0.63588523864746094 0.64934825897216797
-0.29576492309570312 0.63067054748535156 0.60003662109375
-0.32116127014160156 0.5739898681640625 0.60005474090576172
-0.58590316772460938 0.2369537353515625 0.53069877624511719
-0.60580539703369141 0.21175289154052734 0.51882839202880859
-0.59190845489501953 0.24355792999267578 0.55750083923339844
-0.56016731262207031 0.25539016723632812 0.54431056976318359
-0.57579517364501953 0.22519874572753906 0.50858306884765625
-0.59489727020263672 0.20212364196777344 0.49884796142578125
-0.61239528656005859 0.21754550933837891 0.54473781585693359
-0.56510066986083984 0.26230049133300781 0.57109451293945312
-0.55230808258056641 0.24298191070556641 0.52213668823242188
-0.21418857574462891 0.69227981567382812 0.61611080169677734
-0.22097015380859375 0.69654941558837891 0.64359951019287109
-0.17152023315429688 0.70682048797607422 0.61016178131103516
-0.20900630950927734 0.67953300476074219 0.59125518798828125
-0.252716064453125 0.67718219757080078 0.62012672424316406
-0.26076126098632812 0.6800689697265625 0.64703559875488281
-0.17725563049316406 0.71211147308349609 0.6387176513671875
-0.16762638092041016 0.69246196746826172 0.58282852172851562
-0.24460411071777344 0.66743183135986328 0.59758472442626953
-0.62823009490966797 0.10096836090087891 0.49292850494384766
-0.62897300720214844 0.054470062255859375 0.48612785339355469
-0.63636016845703125 0.10310077667236328 0.51816463470458984
-0.62594890594482422 0.14320564270019531 0.50034523010253906
-0.61322975158691406 0.10235786437988281 0.47414493560791016
-0.61303806304931641 0.057353019714355469 0.46506404876708984
-0.63724994659423828 0.05600738525390625 0.51166820526123047
-0.63351917266845703 0.1465911865234375 0.52518749237060547
-0.61272907257080078 0.14088153839111328 0.48279571533203125
-0.036822319030761719 0.76482200622558594 0.58283138275146484
-0.040151596069335938 0.76976776123046875 0.61334419250488281
0.0046453475952148438 0.78657341003417969 0.57215118408203125
-0.033411026000976562 0.75607681274414062 0.55010414123535156
-0.080963134765625 0.74298286437988281 0.59335422515869141
-0.085257530212402344 0.748260498046875 0.62325191497802734
0.002582550048828125 0.79186344146728516 0.60309982299804688
0.0069637298583984375 0.77820587158203125 0.53861808776855469
-0.077483177185058594 0.73141670227050781 0.56174945831298828
-0.64404869079589844 -0.097196578979492188 0.46083545684814453
-0.65280818939208984 -0.14550495147705078 0.45215320587158203
-0.6502227783203125 -0.096385002136230469 0.48886680603027344
-0.63628864288330078 -0.046337127685546875 0.46999168395996094
-0.63447952270507812 -0.097054481506347656 0.43245887756347656
-0.64416027069091797 -0.1449127197265625 0.42257404327392578
-0.6586151123046875 -0.14543914794921875 0.48050594329833984
-0.64345169067382812 -0.045276641845703125 0.49721813201904297
-0.62380695343017578 -0.04489898681640625 0.44380664825439453
0.10431289672851562 0.84057903289794922 0.5429534912109375
0.10504531860351562 0.84742259979248047 0.57303237915039062
0.13255023956298828 0.84599876403808594 0.529022216796875
0.10273933410644531 0.82974147796630859 0.50979900360107422
0.0748291015625 0.82647228240966797 0.5532073974609375
0.074805259704589844 0.83304023742675781 0.58362579345703125
0.13394641876220703 0.85301971435546875 0.55836391448974609
0.13000965118408203 0.83471965789794922 0.49688243865966797
0.074320793151855469 0.81632041931152344 0.51937484741210938
-0.67680263519287109 -0.26359367370605469 0.43333339691162109
-0.6763153076171875 -0.29625511169433594 0.42996311187744141
-0.68253231048583984 -0.26586437225341797 0.46098995208740234
-0.67089653015136719 -0.22859096527099609 0.43815898895263672
-0.66791343688964844 -0.25965785980224609 0.40414810180664062
-0.66754913330078125 -0.29148674011230469 0.40128803253173828
-0.68174552917480469 -0.29865360260009766 0.45706272125244141
-0.67676639556884766 -0.2303314208984375 0.46625995635986328
-0.66200160980224609 -0.22562408447265625 0.40839385986328125
0.22475147247314453 0.78224277496337891 0.447509765625
0.22750282287597656 0.7885589599609375 0.47341442108154297
0.25366020202636719 0.73826694488525391 0.41730117797851562
0.21996307373046875 0.77400493621826172 0.41805076599121094
0.19334220886230469 0.81698894500732422 0.47972011566162109
0.19549179077148438 0.82366180419921875 0.50702190399169922
0.25672245025634766 0.74417018890380859 0.442474365234375
0.24832916259765625 0.731719970703125 0.38821983337402344
0.18905925750732422 0.80718135833740234 0.44958305358886719
-0.61055850982666016 -0.38973617553710938 0.42952537536621094
-0.57012271881103516 -0.41436672210693359 0.43581867218017578
-0.61388492584228516 -0.39162635803222656 0.45496273040771484
-0.64347457885742188 -0.36006546020507812 0.427459716796875
-0.60620307922363281 -0.38527297973632812 0.40011978149414062
-0.56803512573242188 -0.41077232360839844 0.40537643432617188
-0.57237339019775391 -0.41563796997070312 0.46129894256591797
-0.64770603179931641 -0.362335205078125 0.45348262786865234
-0.63706874847412109 -0.35502052307128906 0.39885425567626953
0.30039024353027344 0.57996273040771484 0.38487148284912109
0.30462551116943359 0.58572483062744141 0.41139793395996094
0.30319976806640625 0.52513313293457031 0.39137935638427734
0.29503250122070312 0.57574081420898438 0.35289764404296875
0.29210186004638672 0.63473415374755859 0.38485527038574219
0.29603672027587891 0.64041423797607422 0.4105377197265625
0.30773353576660156 0.53090476989746094 0.41854095458984375
0.29806327819824219 0.52073001861572266 0.35792446136474609
0.2864837646484375 0.6302947998046875 0.35443019866943359
-0.42873191833496094 -0.432373046875 0.48810386657714844
-0.38052272796630859 -0.42217445373535156 0.51081943511962891
-0.42821216583251953 -0.43154811859130859 0.51617050170898438
-0.4772186279296875 -0.43592071533203125 0.46616268157958984
-0.4317779541015625 -0.43372344970703125 0.45316791534423828
-0.38460540771484375 -0.42518901824951172 0.47514724731445312
-0.37934589385986328 -0.42056941986083984 0.53969764709472656
-0.47753620147705078 -0.43585777282714844 0.49293899536132812
-0.47899627685546875 -0.43543529510498047 0.43238162994384766
0.29040050506591797 0.37261772155761719 0.41947650909423828
0.29445171356201172 0.376983642578125 0.44475841522216797
0.28031539916992188 0.32505416870117188 0.43034553527832031
0.28532886505126953 0.36756134033203125 0.38857364654541016
0.29763889312744141 0.42123985290527344 0.40994548797607422
0.30198097229003906 0.42628383636474609 0.43656158447265625
0.28398895263671875 0.32906913757324219 0.45361995697021484
0.27504444122314453 0.31877994537353516 0.40349388122558594
0.29254913330078125 0.4165802001953125 0.37675666809082031
-0.24910354614257812 -0.37061023712158203 0.55698585510253906
-0.20852565765380859 -0.34776687622070312 0.56449127197265625
-0.24596118927001953 -0.36741065979003906 0.58372402191162109
-0.29046916961669922 -0.39042758941650391 0.54631710052490234
-0.25337696075439453 -0.37514686584472656 0.52458381652832031
-0.21140766143798828 -0.35088062286376953 0.53576374053955078
-0.20543479919433594 -0.34433174133300781 0.58900070190429688
-0.28790569305419922 -0.38763236999511719 0.57451629638671875
-0.29541587829589844 -0.39519023895263672 0.51150035858154297
0.28795337677001953 -0.25904178619384766 0.33474636077880859
0.27374935150146484 -0.28951168060302734 0.34409427642822266
0.27397060394287109 -0.24523162841796875 0.31684970855712891
0.30000972747802734 -0.2268218994140625 0.32861423492431641
0.30550861358642578 -0.27710914611816406 0.35024356842041016
0.29156112670898438 -0.30572986602783203 0.35852146148681641
0.25927162170410156 -0.27789020538330078 0.32760047912597656
0.28587913513183594 -0.21124649047851562 0.30999755859375
0.31754779815673828 -0.24646949768066406 0.34499931335449219
0.21399021148681641 -0.35864639282226562 0.37935066223144531
0.19451141357421875 -0.35255718231201172 0.36292171478271484
0.23624324798583984 -0.33998680114746094 0.36679363250732422
0.23636627197265625 -0.36974906921386719 0.39411735534667969
0.19135379791259766 -0.37312602996826172 0.39369583129882812
0.17013931274414062 -0.36749649047851562 0.37678337097167969
0.21881008148193359 -0.33242893218994141 0.35122394561767578
0.25672531127929688 -0.35245513916015625 0.38065814971923828
0.21550846099853516 -0.38377285003662109 0.40938377380371094
0.38303184509277344 -0.35488033294677734 0.38036346435546875
0.36980152130126953 -0.38154315948486328 0.38898944854736328
0.35338592529296875 -0.32593154907226562 0.37287139892578125
0.39526462554931641 -0.32581806182861328 0.37308979034423828
0.4151763916015625 -0.38385009765625 0.38782215118408203
0.40188312530517578 -0.41064167022705078 0.39790630340576172
0.33985710144042969 -0.35270118713378906 0.38034439086914062
0.36563205718994141 -0.29698657989501953 0.36686229705810547
0.42717742919921875 -0.35479259490966797 0.37860965728759766
0.31952095031738281 -0.43931388854980469 0.42957592010498047
0.28962421417236328 -0.41091346740722656 0.41879463195800781
0.3380126953125 -0.42365169525146484 0.4136810302734375
0.35061264038085938 -0.46916961669921875 0.44098758697509766
0.29985237121582031 -0.45284271240234375 0.44666481018066406
0.27017688751220703 -0.42440891265869141 0.43557548522949219
0.30808734893798828 -0.39524173736572266 0.40338993072509766
0.36957931518554688 -0.45320510864257812 0.424591064453125
0.33035469055175781 -0.48316478729248047 0.45847225189208984
0.51224803924560547 -0.45199489593505859 0.42495918273925781
0.49847698211669922 -0.47824287414550781 0.44193267822265625
0.48091983795166016 -0.43390941619873047 0.40959644317626953
0.52448844909667969 -0.42431831359863281 0.40757656097412109
0.54069995880126953 -0.46443748474121094 0.44281673431396484
0.52662467956542969 -0.49017906188964844 0.46184062957763672
0.46741008758544922 -0.46051883697509766 0.42424964904785156
0.49311637878417969 -0.40534305572509766 0.39520931243896484
0.55349063873291016 -0.43770503997802734 0.42266464233398438
0.44309711456298828 -0.54257774353027344 0.49230480194091797
0.41341018676757812 -0.52252483367919922 0.47229862213134766
0.46390247344970703 -0.52352237701416016 0.4757080078125
0.46988010406494141 -0.55704784393310547 0.51460075378417969
0.42061901092529297 -0.56055927276611328 0.50833988189697266
0.39156055450439453 -0.53883552551269531 0.48884391784667969
0.43375682830810547 -0.50484371185302734 0.45558929443359375
0.49117565155029297 -0.53646087646484375 0.49794864654541016
0.44687271118164062 -0.57675647735595703 0.53028297424316406
0.59861850738525391 -0.46288013458251953 0.50376701354980469
0.60864639282226562 -0.45264816284179688 0.52456951141357422
0.58312129974365234 -0.48793888092041016 0.52724647521972656
0.58434867858886719 -0.46935367584228516 0.48275375366210938
0.61265373229980469 -0.4378662109375 0.47929477691650391
0.62316989898681641 -0.42792797088623047 0.50018501281738281
0.59257411956787109 -0.47771263122558594 0.5481109619140625
0.5693511962890625 -0.49457836151123047 0.50513362884521484
0.59794712066650391 -0.44399356842041016 0.45893573760986328
0.52304172515869141 -0.56114959716796875 0.58535194396972656
0.54507827758789062 -0.53722763061523438 0.56800460815429688
0.53209495544433594 -0.55208778381347656 0.60753154754638672
0.49971103668212891 -0.58467006683349609 0.60089302062988281
0.51015090942382812 -0.56598472595214844 0.56188392639160156
0.53207492828369141 -0.54285335540771484 0.54496860504150391
0.55404567718505859 -0.52762794494628906 0.58979606628417969
0.50913429260253906 -0.57604789733886719 0.62348651885986328
0.48676109313964844 -0.58853816986083984 0.57728481292724609
0.64768791198730469 -0.36589622497558594 0.40710735321044922
0.658599853515625 -0.35813808441162109 0.42891502380371094
0.63779258728027344 -0.38912391662597656 0.42982006072998047
0.63224887847900391 -0.37007331848144531 0.38875007629394531
0.65384674072265625 -0.34348106384277344 0.38831806182861328
0.665283203125 -0.33638477325439453 0.41012954711914062
0.64857101440429688 -0.380615234375 0.45123767852783203
0.62244319915771484 -0.39386844635009766 0.41026020050048828
0.63825416564941406 -0.34786891937255859 0.37271022796630859
0.42887783050537109 -0.65059566497802734 0.63868236541748047
0.45208454132080078 -0.63064765930175781 0.62770175933837891
0.44028377532958984 -0.64193630218505859 0.66156005859375
0.40667343139648438 -0.665252685546875 0.64711856842041016
0.41530036926269531 -0.65267658233642578 0.61526679992675781
0.43830299377441406 -0.63352298736572266 0.60401153564453125
0.46277618408203125 -0.62200927734375 0.650543212890625
0.41865825653076172 -0.6573333740234375 0.67025470733642578
0.39469623565673828 -0.66525936126708984 0.62426948547363281
0.63491535186767578 -0.27961158752441406 0.36319351196289062
0.65450382232666016 -0.27452850341796875 0.38478946685791016
0.64781379699707031 -0.30089569091796875 0.36612892150878906
0.61236476898193359 -0.28688907623291016 0.34845733642578125
0.61673736572265625 -0.25681877136230469 0.36478519439697266
0.64047431945800781 -0.25286388397216797 0.38654899597167969
0.66360282897949219 -0.29510498046875 0.38769149780273438
0.62883186340332031 -0.3074188232421875 0.35260009765625
0.59011459350585938 -0.26371097564697266 0.34970664978027344
0.34403705596923828 -0.66001129150390625 0.65018081665039062
0.36468696594238281 -0.67039299011230469 0.65274238586425781
0.35990715026855469 -0.65935516357421875 0.68024921417236328
0.32271575927734375 -0.64220333099365234 0.64576816558837891
0.33232688903808594 -0.65372180938720703 0.62010002136230469
0.35425281524658203 -0.66634368896484375 0.62662792205810547
0.37869071960449219 -0.66645431518554688 0.67949104309082031
0.34055900573730469 -0.64545059204101562 0.67933845520019531
0.30932998657226562 -0.63240623474121094 0.61208629608154297
0.5411224365234375 -0.17630577087402344 0.38751506805419922
0.57363605499267578 -0.17434406280517578 0.41107082366943359
0.56889915466308594 -0.20502471923828125 0.37795543670654297
0.50573444366455078 -0.18191432952880859 0.36961078643798828
0.51126194000244141 -0.1468048095703125 0.39760208129882812
0.54465866088867188 -0.14456367492675781 0.42230129241943359
0.59962749481201172 -0.20274162292480469 0.40050697326660156
0.53542041778564453 -0.21057319641113281 0.36129474639892578
0.47562408447265625 -0.15293407440185547 0.37804126739501953
0.25071334838867188 -0.56028461456298828 0.63002109527587891
0.27627182006835938 -0.59090137481689453 0.635467529296875
0.27212715148925781 -0.57239532470703125 0.67141819000244141
0.22418785095214844 -0.52795982360839844 0.62443447113037109
0.23378372192382812 -0.5427093505859375 0.58855438232421875
0.25977039337158203 -0.57486343383789062 0.59606170654296875
0.29695701599121094 -0.60102558135986328 0.67462825775146484
0.24544334411621094 -0.54100227355957031 0.66682147979736328
0.20740222930908203 -0.50978279113769531 0.5816192626953125
0.43203926086425781 -0.23685359954833984 0.35509872436523438
0.463897705078125 -0.26539325714111328 0.35345554351806641
0.41849517822265625 -0.26536464691162109 0.35993289947509766
0.40181827545166016 -0.20846748352050781 0.35566234588623047
0.44957160949707031 -0.21204757690429688 0.35372543334960938
0.48128223419189453 -0.24060821533203125 0.34988307952880859
0.4503936767578125 -0.29402923583984375 0.36086082458496094
0.38857555389404297 -0.23677730560302734 0.3578643798828125
0.41925144195556641 -0.18389129638671875 0.35741710662841797
0.24065780639648438 -0.49175167083740234 0.49986934661865234
0.258575439453125 -0.47821331024169922 0.48106098175048828
0.26859855651855469 -0.52444553375244141 0.51066398620605469
0.22835159301757812 -0.50660991668701172 0.52232456207275391
0.21293544769287109 -0.46073341369628906 0.48941230773925781
0.23004627227783203 -0.44838142395019531 0.46993446350097656
0.28744220733642578 -0.50998497009277344 0.49237537384033203
0.25556182861328125 -0.53979396820068359 0.53268623352050781
0.20143318176269531 -0.47455215454101562 0.51293277740478516
0.56017589569091797 -0.34081268310546875 0.35616874694824219
0.57398605346679688 -0.31726455688476562 0.34578418731689453
0.58818531036376953 -0.35789299011230469 0.36314582824707031
0.54790782928466797 -0.36751937866210938 0.37209415435791016
0.52918815612792969 -0.31865978240966797 0.35302925109863281
0.54500579833984375 -0.29439735412597656 0.34440708160400391
0.59834671020507812 -0.33526611328125 0.35159969329833984
0.57698726654052734 -0.38344287872314453 0.38129425048828125
0.51626300811767578 -0.34645843505859375 0.36584186553955078
0.35204982757568359 -0.61382198333740234 0.55425930023193359
0.37676525115966797 -0.63422584533691406 0.57230091094970703
0.33598709106445312 -0.6294097900390625 0.57160758972167969
0.3249969482421875 -0.58743762969970703 0.53752708435058594
0.37338447570800781 -0.59636592864990234 0.53872776031494141
0.39887523651123047 -0.61633491516113281 0.55864524841308594
0.35988140106201172 -0.64732742309570312 0.58630943298339844
0.31012058258056641 -0.60350608825683594 0.55737972259521484
0.34559535980224609 -0.5709381103515625 0.520782470703125
0.32954597473144531 -0.13376140594482422 0.34188652038574219
0.34298419952392578 -0.10802650451660156 0.35688495635986328
0.35027885437011719 -0.15604972839355469 0.34923934936523438
0.31949329376220703 -0.16291618347167969 0.33192348480224609
0.31219100952148438 -0.11445236206054688 0.33297348022460938
0.32345390319824219 -0.087799072265625 0.35354995727539062
0.36557102203369141 -0.13109970092773438 0.35920238494873047
0.33866596221923828 -0.18474102020263672 0.34407424926757812
0.30359077453613281 -0.14452838897705078 0.31762981414794922
0.13637351989746094 -0.39414787292480469 0.45541477203369141
0.16041374206542969 -0.41136646270751953 0.46739959716796875
0.12706279754638672 -0.39901542663574219 0.48457813262939453
0.11480236053466797 -0.38097667694091797 0.4435882568359375
0.15112876892089844 -0.38972759246826172 0.43104839324951172
0.17597866058349609 -0.40351390838623047 0.44536876678466797
0.15041065216064453 -0.42014598846435547 0.49411964416503906
0.10595607757568359 -0.38125419616699219 0.47540664672851562
0.12884521484375 -0.38051223754882812 0.41640090942382812
0.41818046569824219 -0.061615943908691406 0.42461109161376953
0.44636726379394531 -0.055921554565429688 0.45339679718017578
0.449188232421875 -0.088541030883789062 0.41672515869140625
0.38850688934326172 -0.071688652038574219 0.39884185791015625
0.38877964019775391 -0.037331581115722656 0.43171787261962891
0.41350650787353516 -0.030257225036621094 0.46165275573730469
0.48012733459472656 -0.084421157836914062 0.44422435760498047
0.4163970947265625 -0.097067832946777344 0.39286899566650391
0.36270809173583984 -0.048991203308105469 0.40383625030517578
0.1424560546875 -0.4313812255859375 0.60324954986572266
0.16931819915771484 -0.46258163452148438 0.61075210571289062
0.15887737274169922 -0.44087791442871094 0.64599132537841797
0.11775779724121094 -0.40202236175537109 0.59586238861083984
0.1302642822265625 -0.4185028076171875 0.55982017517089844
0.15506935119628906 -0.44701385498046875 0.56710243225097656
0.18797683715820312 -0.47423076629638672 0.65400314331054688
0.13158416748046875 -0.40904521942138672 0.63720130920410156
0.10788440704345703 -0.39241218566894531 0.55304527282714844
0.25984954833984375 0.050022125244140625 0.46850681304931641
0.27129364013671875 0.041301727294921875 0.46177768707275391
0.25247097015380859 0.051771163940429688 0.44174861907958984
0.24922561645507812 0.05777740478515625 0.47501182556152344
0.26711273193359375 0.053135871887207031 0.49507999420166016
0.28015804290771484 0.046152114868164062 0.49073600769042969
0.26199626922607422 0.038739204406738281 0.43031501770019531
0.24324417114257812 0.061722755432128906 0.45194530487060547
0.25525665283203125 0.059804916381835938 0.49981403350830078
0.025966644287109375 -0.26844501495361328 0.56929683685302734
0.013976097106933594 -0.27331161499023438 0.54135227203369141
0.033763885498046875 -0.28193378448486328 0.56787490844726562
0.034120559692382812 -0.2640228271484375 0.59705448150634766
0.019190788269042969 -0.25585460662841797 0.57114124298095703
0.00714111328125 -0.26049995422363281 0.54766082763671875
0.022916793823242188 -0.28684902191162109 0.53414249420166016
0.041887283325195312 -0.27776050567626953 0.59867000579833984
0.027026176452636719 -0.2511749267578125 0.59671211242675781
0.31765651702880859 0.011843681335449219 0.44756317138671875
0.33817100524902344 -0.00077915191650390625 0.44314193725585938
0.30192375183105469 -0.0016727447509765625 0.41538524627685547
0.29979515075683594 0.022368431091308594 0.45135498046875
0.33268260955810547 0.020891189575195312 0.47864246368408203
0.35601139068603516 0.0082120895385742188 0.47423076629638672
0.3194122314453125 -0.014667510986328125 0.41210365295410156
0.28622341156005859 0.0112762451171875 0.41729640960693359
0.31243801116943359 0.03066253662109375 0.48287391662597656
0.064621925354003906 -0.33089447021484375 0.57584285736083984
0.059055328369140625 -0.33089160919189453 0.53633880615234375
0.078680992126464844 -0.35158920288085938 0.58165359497070312
0.072936058044433594 -0.33063030242919922 0.61283397674560547
0.052832603454589844 -0.31267833709716797 0.57130622863769531
0.045897483825683594 -0.31532382965087891 0.53155136108398438
0.0726165771484375 -0.34859466552734375 0.54132938385009766
0.088237762451171875 -0.35352706909179688 0.62023162841796875
0.060738563537597656 -0.31061267852783203 0.60662364959716797
0.21980190277099609 0.080091476440429688 0.49259281158447266
0.22189617156982422 0.081482887268066406 0.51477146148681641
0.22846221923828125 0.071252822875976562 0.48789882659912109
0.21752738952636719 0.084187507629394531 0.47572135925292969
0.21492385864257812 0.094235420227050781 0.49462413787841797
0.21586132049560547 0.095560073852539062 0.51651191711425781
0.23195075988769531 0.072525978088378906 0.51037216186523438
0.22480964660644531 0.07578277587890625 0.4696807861328125
0.21418285369873047 0.097994804382324219 0.47878837585449219
-0.000873565673828125 -0.22151851654052734 0.57644557952880859
0.0070562362670898438 -0.23113250732421875 0.57483386993408203
0.0049791336059570312 -0.21485137939453125 0.59806537628173828
-0.013234138488769531 -0.21796607971191406 0.5778961181640625
-0.00994873046875 -0.22694492340087891 0.56029415130615234
-0.0032072067260742188 -0.23591423034667969 0.55707836151123047
0.013706207275390625 -0.22535800933837891 0.59743595123291016
-0.0077028274536132812 -0.21032333374023438 0.5989227294921875
-0.021288871765136719 -0.22427845001220703 0.56313610076904297
0.23638629913330078 0.18645000457763672 0.47238063812255859
0.22356128692626953 0.14746570587158203 0.48462295532226562
0.23311996459960938 0.18289947509765625 0.45795059204101562
0.25186252593994141 0.23079490661621094 0.45777702331542969
0.23788833618164062 0.189208984375 0.49227046966552734
0.22419643402099609 0.14931297302246094 0.50495052337646484
0.22219467163085938 0.14720630645751953 0.47037506103515625
0.24739170074462891 0.22484588623046875 0.44017410278320312
0.25424480438232422 0.23416328430175781 0.47801685333251953
-0.091281890869140625 -0.26313018798828125 0.57726573944091797
-0.093070030212402344 -0.26493549346923828 0.56125640869140625
-0.058360099792480469 -0.23909282684326172 0.57867431640625
-0.087917327880859375 -0.25781154632568359 0.59719371795654297
-0.12880420684814453 -0.29198551177978516 0.57439517974853516
-0.12962245941162109 -0.29313373565673828 0.55472183227539062
-0.062407493591308594 -0.24320697784423828 0.56442165374755859
-0.054362297058105469 -0.23220348358154297 0.59842586517333984
-0.12567806243896484 -0.28762626647949219 0.59513664245605469
0.011395454406738281 -0.087543487548828125 -0.59989547729492188
-0.011461257934570312 -0.028644561767578125 -0.63439750671386719
0.049510955810546875 -0.025865554809570312 -0.58402729034423828
0.034002304077148438 -0.13450527191162109 -0.55776214599609375
-0.030760765075683594 -0.15160274505615234 -0.60926246643066406
-0.055206298828125 -0.091043472290039062 -0.64722347259521484
0.028948783874511719 0.029988288879394531 -0.614501953125
0.070439338684082031 -0.069184303283691406 -0.54594993591308594
-0.0069704055786132812 -0.20048618316650391 -0.56361484527587891
-0.15909099578857422 -0.32355403900146484 -0.55869483947753906
-0.19690990447998047 -0.36700439453125 -0.52565097808837891
-0.18511295318603516 -0.26983928680419922 -0.60148143768310547
-0.11774158477783203 -0.27219486236572266 -0.58802700042724609
-0.13471508026123047 -0.36745357513427734 -0.51000690460205078
-0.17386245727539062 -0.40640735626220703 -0.47807788848876953
-0.22251415252685547 -0.31909847259521484 -0.56709098815917969
-0.1439208984375 -0.21421146392822266 -0.63048076629638672
-0.093194961547851562 -0.31933212280273438 -0.53899574279785156
0.10204124450683594 -0.23059558868408203 -0.37915706634521484
0.079266548156738281 -0.20498561859130859 -0.44770717620849609
0.13362407684326172 -0.16235160827636719 -0.37646007537841797
0.12477588653564453 -0.24868869781494141 -0.30125713348388672
0.065534591674804688 -0.29635238647460938 -0.37702751159667969
0.040968894958496094 -0.27205944061279297 -0.44788837432861328
0.11267852783203125 -0.13589954376220703 -0.44219017028808594
0.15430831909179688 -0.18233966827392578 -0.3011474609375
0.090519905090332031 -0.31220531463623047 -0.29677009582519531
-0.055852890014648438 -0.44699573516845703 -0.31814956665039062
-0.09622955322265625 -0.47745704650878906 -0.28989887237548828
-0.084044456481933594 -0.42917251586914062 -0.38996124267578125
-0.014707565307617188 -0.40643119812011719 -0.34552574157714844
-0.026530265808105469 -0.45543289184570312 -0.23822212219238281
-0.066147804260253906 -0.48395442962646484 -0.21116924285888672
-0.12454509735107422 -0.46189785003662109 -0.36057472229003906
-0.042160987854003906 -0.38609123229980469 -0.41833019256591797
0.013601303100585938 -0.41726016998291016 -0.264404296875
0.19121646881103516 -0.25223636627197266 -0.017583847045898438
0.16993141174316406 -0.25843429565429688 -0.11690235137939453
0.21229362487792969 -0.19518089294433594 -0.026047706604003906
0.21035289764404297 -0.24280071258544922 0.076124191284179688
0.16548538208007812 -0.30498504638671875 -0.0062532424926757812
0.14120769500732422 -0.31507682800292969 -0.10739040374755859
0.19399642944335938 -0.19820022583007812 -0.12314128875732422
0.22907924652099609 -0.18828868865966797 0.068605422973632812
0.18742752075195312 -0.29194831848144531 0.088664054870605469
0.065952301025390625 -0.42245864868164062 0.043313026428222656
0.027659416198730469 -0.44622516632080078 0.061687469482421875
0.035424232482910156 -0.44147777557373047 -0.053983688354492188
0.10211086273193359 -0.39094352722167969 0.025126457214355469
0.094073295593261719 -0.40065574645996094 0.13470172882080078
0.05706024169921875 -0.42208671569824219 0.15327739715576172
-0.0033407211303710938 -0.46698188781738281 -0.032965660095214844
0.073093414306640625 -0.40776634216308594 -0.075057029724121094
0.12873172760009766 -0.37143611907958984 0.11844730377197266
0.24643516540527344 -0.22824668884277344 0.25034999847412109
0.23760128021240234 -0.22931003570556641 0.211761474609375
0.25917339324951172 -0.18756008148193359 0.24357414245605469
0.25427436828613281 -0.23020267486572266 0.27715969085693359
0.22936534881591797 -0.26697158813476562 0.26332378387451172
0.21908187866210938 -0.27120113372802734 0.22460651397705078
0.25219821929931641 -0.18335723876953125 0.20571231842041016
0.26629066467285156 -0.19231033325195312 0.26969337463378906
0.23831081390380859 -0.26675605773925781 0.28982830047607422
0.15166854858398438 -0.35630321502685547 0.30166339874267578
0.12273406982421875 -0.37235450744628906 0.31675815582275391
0.13696384429931641 -0.36572074890136719 0.26534652709960938
0.18093585968017578 -0.33245086669921875 0.289886474609375
0.16461658477783203 -0.35148334503173828 0.32641983032226562
0.13722896575927734 -0.36693286895751953 0.34039402008056641
0.10478687286376953 -0.3828887939453125 0.28280448913574219
0.16793346405029297 -0.34045124053955078 0.25216007232666016
0.19235801696777344 -0.32876110076904297 0.31527423858642578
0.27692222595214844 -0.075887680053710938 0.30419731140136719
0.286102294921875 -0.086739540100097656 0.31446075439453125
0.27318286895751953 -0.10991477966308594 0.27092552185058594
0.26955032348632812 -0.063244819641113281 0.29029560089111328
0.28112506866455078 -0.045649528503417969 0.34215927124023438
0.29278087615966797 -0.057857513427734375 0.34661102294921875
0.28088665008544922 -0.11934185028076172 0.28849887847900391
0.26727485656738281 -0.098482131958007812 0.24641132354736328
0.27114105224609375 -0.031415939331054688 0.33566188812255859
0.067363739013671875 -0.35999965667724609 0.41010761260986328
0.079419136047363281 -0.37265110015869141 0.37126255035400391
0.081303596496582031 -0.36406803131103516 0.42134761810302734
0.059978485107421875 -0.34568500518798828 0.45219802856445312
0.051640510559082031 -0.35922145843505859 0.39667701721191406
0.061289787292480469 -0.37798213958740234 0.34963607788085938
0.094196319580078125 -0.37185001373291016 0.38740253448486328
