# XYZ point cloud file
0.38570499420166016 0.63673877716064453 -0.332977294921875
0.39494514465332031 0.61773777008056641 -0.3330078125
0.39880657196044922 0.62785911560058594 -0.35479736328125
0.39137363433837891 0.64685630798339844 -0.35614013671875
-0.45774078369140625 -0.76872062683105469 -0.203887939453125
-0.45103836059570312 -0.77170848846435547 -0.198486328125
-0.45400333404541016 -0.76199054718017578 -0.19256591796875
-0.46647930145263672 -0.76616954803466797 -0.2099609375
-0.46240520477294922 -0.7735748291015625 -0.213623046875
-0.45510768890380859 -0.77601814270019531 -0.20654296875
-0.44730186462402344 -0.76464462280273438 -0.18585205078125
-0.46229267120361328 -0.75735664367675781 -0.1968994140625
-0.47126007080078125 -0.77094173431396484 -0.2176513671875
0.41686344146728516 0.6348724365234375 -0.3302001953125
0.41699409484863281 0.63045024871826172 -0.316741943359375
0.42766952514648438 0.65211009979248047 -0.33062744140625
0.41620826721191406 0.63973712921142578 -0.34197998046875
0.40813922882080078 0.62383937835693359 -0.33575439453125
0.40773868560791016 0.61881160736083984 -0.322418212890625
0.42853832244873047 0.64706897735595703 -0.31597900390625
0.42556381225585938 0.65715217590332031 -0.3409423828125
0.40849018096923828 0.62835884094238281 -0.344390869140625
-0.45413875579833984 -0.79652976989746094 -0.17047119140625
-0.46422290802001953 -0.813262939453125 -0.164764404296875
-0.4498443603515625 -0.79315185546875 -0.155426025390625
-0.44900035858154297 -0.78402996063232422 -0.179840087890625
-0.45916175842285156 -0.79837417602539062 -0.183135986328125
-0.47009468078613281 -0.81340599060058594 -0.18011474609375
-0.45921611785888672 -0.81165695190429688 -0.1500244140625
-0.44413089752197266 -0.78028964996337891 -0.16656494140625
-0.45337581634521484 -0.78694248199462891 -0.1910400390625
0.25885009765625 1.0190973281860352 -0.2984619140625
0.25188446044921875 1.0207529067993164 -0.281890869140625
0.25458145141601562 0.9933624267578125 -0.288238525390625
0.26653480529785156 1.0192813873291016 -0.3111572265625
0.2652587890625 1.0467309951782227 -0.310638427734375
0.25704193115234375 1.048823356628418 -0.294525146484375
0.24764633178710938 0.99482631683349609 -0.27154541015625
0.26202774047851562 0.99275112152099609 -0.302276611328125
0.27220726013183594 1.046351432800293 -0.3228759765625
-0.75875282287597656 -0.65891551971435547 -0.393707275390625
-0.74161052703857422 -0.65018844604492188 -0.373291015625
-0.76179790496826172 -0.65133762359619141 -0.38409423828125
-0.77583885192871094 -0.67016983032226562 -0.41650390625
-0.75660037994384766 -0.66795825958251953 -0.402374267578125
-0.73949718475341797 -0.6593170166015625 -0.3828125
-0.74429702758789062 -0.64207649230957031 -0.3624267578125
-0.77905750274658203 -0.66269397735595703 -0.40655517578125
-0.77374076843261719 -0.67894363403320312 -0.425384521484375
0.30095291137695312 1.1385812759399414 -0.3507080078125
0.29378318786621094 1.1412572860717773 -0.33599853515625
0.28557968139648438 1.1072502136230469 -0.336639404296875
0.30645370483398438 1.1357049942016602 -0.36151123046875
0.31871604919433594 1.1645727157592773 -0.364654541015625
0.31279373168945312 1.1677665710449219 -0.351959228515625
0.27880668640136719 1.1104574203491211 -0.32135009765625
0.29231643676757812 1.1053972244262695 -0.34844970703125
0.32362556457519531 1.1599407196044922 -0.374542236328125
-0.83138751983642578 -0.73032760620117188 -0.481353759765625
-0.81328105926513672 -0.70648956298828125 -0.46112060546875
-0.83491802215576172 -0.72324657440185547 -0.47454833984375
-0.84560585021972656 -0.75759410858154297 -0.498199462890625
-0.82779693603515625 -0.73606204986572266 -0.4884033203125
-0.80988216400146484 -0.71301841735839844 -0.468658447265625
-0.81669235229492188 -0.69806766510009766 -0.452301025390625
-0.85014057159423828 -0.75037574768066406 -0.490936279296875
-0.84101009368896484 -0.76318264007568359 -0.50164794921875
0.38626480102539062 1.1885004043579102 -0.40673828125
0.38157272338867188 1.1919727325439453 -0.394378662109375
0.3618011474609375 1.19049072265625 -0.3931884765625
0.38867568969726562 1.1828203201293945 -0.414794921875
0.41062355041503906 1.1764039993286133 -0.42144775390625
0.40711784362792969 1.1798381805419922 -0.411346435546875
0.35683250427246094 1.194911003112793 -0.380340576171875
0.36493110656738281 1.1847467422485352 -0.4012451171875
0.41229438781738281 1.1712779998779297 -0.427825927734375
-0.85270404815673828 -0.85496997833251953 -0.50152587890625
-0.85760307312011719 -0.82083892822265625 -0.508880615234375
-0.85690212249755859 -0.84978294372558594 -0.495452880859375
-0.84207439422607422 -0.88854312896728516 -0.4896240234375
-0.84840965270996094 -0.85723876953125 -0.504058837890625
-0.85228347778320312 -0.82412052154541016 -0.5103759765625
-0.86232471466064453 -0.81539821624755859 -0.501861572265625
-0.84506416320800781 -0.88393115997314453 -0.483978271484375
-0.83767223358154297 -0.88990306854248047 -0.49224853515625
0.4766082763671875 1.0880231857299805 -0.46795654296875
0.47462272644042969 1.0890407562255859 -0.459075927734375
0.45649337768554688 1.1252021789550781 -0.4525146484375
0.47474288940429688 1.0854091644287109 -0.471893310546875
0.49094772338867188 1.0452423095703125 -0.4791259765625
0.491241455078125 1.0452785491943359 -0.47265625
0.45409774780273438 1.1268720626831055 -0.44287109375
0.45627403259277344 1.1212263107299805 -0.457855224609375
0.48901176452636719 1.0443668365478516 -0.483428955078125
-0.77444553375244141 -0.96970844268798828 -0.434356689453125
-0.80197906494140625 -0.94722461700439453 -0.455963134765625
-0.77519416809082031 -0.96838951110839844 -0.426788330078125
-0.74361515045166016 -0.9865264892578125 -0.41204833984375
-0.77277088165283203 -0.96734237670898438 -0.43701171875
-0.79959011077880859 -0.94590663909912109 -0.458892822265625
-0.80323886871337891 -0.94396209716796875 -0.448883056640625
-0.74349403381347656 -0.98557472229003906 -0.40338134765625
-0.74315738677978516 -0.98361492156982422 -0.416107177734375
0.5057830810546875 0.90305137634277344 -0.4788818359375
0.50727272033691406 0.90072536468505859 -0.469818115234375
0.50691986083984375 0.95101737976074219 -0.486724853515625
0.50087738037109375 0.90436172485351562 -0.483428955078125
0.49996757507324219 0.85485076904296875 -0.464569091796875
0.50206375122070312 0.85338878631591797 -0.455230712890625
0.50699043273925781 0.95012760162353516 -0.47796630859375
0.50260543823242188 0.95227146148681641 -0.489715576171875
0.49555206298828125 0.85790157318115234 -0.47039794921875
-0.642364501953125 -0.98363113403320312 -0.334686279296875
-0.67624759674072266 -0.99351310729980469 -0.361236572265625
-0.63931655883789062 -0.98385429382324219 -0.324005126953125
-0.60830116271972656 -0.96660709381103516 -0.307037353515625
-0.64423465728759766 -0.97813796997070312 -0.344207763671875
-0.67821693420410156 -0.98801422119140625 -0.36907958984375
-0.67454242706298828 -0.99316501617431641 -0.353363037109375
-0.60529613494873047 -0.96641635894775391 -0.294281005859375
-0.61146926879882812 -0.96154880523681641 -0.317352294921875
0.46686172485351562 0.73293781280517578 -0.38385009765625
0.46938705444335938 0.72960948944091797 -0.3720703125
0.48043060302734375 0.77010536193847656 -0.41534423828125
0.46402740478515625 0.73894405364990234 -0.3931884765625
0.45312690734863281 0.70210742950439453 -0.356231689453125
0.45496559143066406 0.69782733917236328 -0.343719482421875
0.48258399963378906 0.76603317260742188 -0.404632568359375
0.47616767883300781 0.7748565673828125 -0.42218017578125
0.45021820068359375 0.70692634582519531 -0.36627197265625
-0.52109622955322266 -0.88887405395507812 -0.21221923828125
-0.54727649688720703 -0.91777515411376953 -0.244842529296875
-0.51630878448486328 -0.88850307464599609 -0.197265625
-0.49764728546142578 -0.86040401458740234 -0.185333251953125
-0.52601432800292969 -0.88718032836914062 -0.225982666015625
-0.55229759216308594 -0.91431808471679688 -0.256591796875
-0.54302215576171875 -0.91768836975097656 -0.2293701171875
-0.49271774291992188 -0.85992145538330078 -0.1705322265625
-0.50313472747802734 -0.85919094085693359 -0.2001953125
0.37083816528320312 0.72019290924072266 -0.35992431640625
0.36896038055419922 0.70093536376953125 -0.3583984375
0.38354110717773438 0.71431159973144531 -0.3634033203125
0.3730316162109375 0.74349594116210938 -0.361480712890625
0.35789871215820312 0.72466754913330078 -0.355743408203125
0.3556060791015625 0.70509624481201172 -0.352203369140625
0.37995624542236328 0.69456672668457031 -0.361236572265625
0.38582611083984375 0.73688983917236328 -0.36639404296875
0.35969734191894531 0.74675846099853516 -0.35638427734375
-0.52836704254150391 -0.759246826171875 -0.25860595703125
-0.52186965942382812 -0.77361202239990234 -0.2525634765625
-0.51467227935791016 -0.75243282318115234 -0.25146484375
-0.53315448760986328 -0.74196624755859375 -0.264923095703125
-0.54424381256103516 -0.76579189300537109 -0.266143798828125
-0.53820037841796875 -0.78134250640869141 -0.25982666015625
-0.50759506225585938 -0.76639080047607422 -0.24468994140625
-0.51978302001953125 -0.73548793792724609 -0.257110595703125
-0.54860210418701172 -0.74840259552001953 -0.272247314453125
0.37276649475097656 0.82017993927001953 -0.36669921875
0.37372970581054688 0.79341506958007812 -0.364532470703125
0.38745498657226562 0.8149566650390625 -0.37384033203125
0.37066459655761719 0.8459014892578125 -0.368804931640625
0.35790824890136719 0.82059669494628906 -0.359130859375
0.3597869873046875 0.79568004608154297 -0.357696533203125
0.38756179809570312 0.78842544555664062 -0.37164306640625
0.38598060607910156 0.84129810333251953 -0.377288818359375
0.35551071166992188 0.84764385223388672 -0.359649658203125
-0.5996551513671875 -0.77956962585449219 -0.297027587890625
-0.59364604949951172 -0.79866123199462891 -0.29388427734375
-0.580657958984375 -0.77728462219238281 -0.285186767578125
-0.60305976867675781 -0.760467529296875 -0.300628662109375
-0.61860752105712891 -0.78227043151855469 -0.309600830078125
-0.61275672912597656 -0.80195140838623047 -0.3067626953125
-0.57469940185546875 -0.7940216064453125 -0.2801513671875
-0.58428955078125 -0.75754737854003906 -0.29010009765625
-0.62201499938964844 -0.76214885711669922 -0.312408447265625
0.36188125610351562 0.92155647277832031 -0.368865966796875
0.365203857421875 0.89763450622558594 -0.370147705078125
0.37968826293945312 0.92042064666748047 -0.38177490234375
0.35950660705566406 0.9455413818359375 -0.369140625
0.34711265563964844 0.92296504974365234 -0.36004638671875
0.35047531127929688 0.89805698394775391 -0.3597412109375
0.38134002685546875 0.89377689361572266 -0.381622314453125
0.37704086303710938 0.94583415985107422 -0.380523681640625
0.34470367431640625 0.94647026062011719 -0.359619140625
-0.673858642578125 -0.78471469879150391 -0.349090576171875
-0.67035484313964844 -0.80724430084228516 -0.347381591796875
-0.65554237365722656 -0.78377056121826172 -0.335906982421875
-0.67633438110351562 -0.76357460021972656 -0.349029541015625
-0.69079780578613281 -0.78599357604980469 -0.35955810546875
-0.68815135955810547 -0.8089141845703125 -0.35906982421875
-0.65147304534912109 -0.8064117431640625 -0.33428955078125
-0.65875625610351562 -0.76319789886474609 -0.3382568359375
-0.69330215454101562 -0.76459026336669922 -0.361541748046875
0.36097526550292969 1.0134363174438477 -0.367156982421875
0.35904693603515625 0.99106597900390625 -0.367706298828125
0.37600135803222656 1.0140628814697266 -0.378570556640625
0.36347198486328125 1.0357370376586914 -0.370361328125
0.34580230712890625 1.0141525268554688 -0.3607177734375
0.34420967102050781 0.99204826354980469 -0.35833740234375
0.3748016357421875 0.99191379547119141 -0.380401611328125
0.37788009643554688 1.0350112915039062 -0.379547119140625
0.34876060485839844 1.0387258529663086 -0.362518310546875
-0.73737716674804688 -0.79653072357177734 -0.38848876953125
-0.73517704010009766 -0.81866645812988281 -0.38922119140625
-0.72266960144042969 -0.79071140289306641 -0.38018798828125
-0.74074172973632812 -0.77700901031494141 -0.39300537109375
-0.75272464752197266 -0.80338668823242188 -0.40093994140625
-0.75079917907714844 -0.82258510589599609 -0.40045166015625
-0.72004032135009766 -0.81395435333251953 -0.379425048828125
-0.72479915618896484 -0.77091312408447266 -0.383209228515625
-0.75679683685302734 -0.78311061859130859 -0.406402587890625
0.30030059814453125 1.0191764831542969 -0.340057373046875
0.28713035583496094 1.0185155868530273 -0.331787109375
0.29809379577636719 0.99447250366210938 -0.3345947265625
0.3158721923828125 1.018524169921875 -0.346649169921875
0.30484962463378906 1.0437126159667969 -0.346893310546875
0.29120826721191406 1.0442781448364258 -0.34100341796875
0.28340721130371094 0.99283599853515625 -0.32611083984375
0.31338119506835938 0.99464702606201172 -0.34356689453125
0.31909561157226562 1.0426654815673828 -0.351837158203125
-0.75023841857910156 -0.71427345275878906 -0.407989501953125
-0.73369026184082031 -0.70757007598876953 -0.39215087890625
-0.752410888671875 -0.69611549377441406 -0.410186767578125
-0.76650810241699219 -0.72309398651123047 -0.423858642578125
-0.74797248840332031 -0.73523330688476562 -0.403350830078125
-0.73206615447998047 -0.72852420806884766 -0.390167236328125
-0.7358551025390625 -0.68743419647216797 -0.392059326171875
-0.76935482025146484 -0.70584487915039062 -0.4287109375
-0.76430892944335938 -0.74283695220947266 -0.418487548828125
0.29836654663085938 0.92075347900390625 -0.327545166015625
0.30089187622070312 0.89697837829589844 -0.32720947265625
0.31505584716796875 0.92230033874511719 -0.3389892578125
0.29773330688476562 0.94558906555175781 -0.328887939453125
0.28275299072265625 0.919769287109375 -0.314910888671875
0.28526115417480469 0.89527130126953125 -0.31402587890625
0.31790542602539062 0.89720821380615234 -0.339447021484375
0.31378555297851562 0.94669628143310547 -0.34014892578125
0.28183555603027344 0.94384670257568359 -0.316192626953125
-0.68301773071289062 -0.69766139984130859 -0.350067138671875
-0.68079948425292969 -0.71988964080810547 -0.35125732421875
-0.66527938842773438 -0.69637870788574219 -0.33831787109375
-0.68481826782226562 -0.67643642425537109 -0.347076416015625
-0.70030593872070312 -0.69907188415527344 -0.36224365234375
-0.69838523864746094 -0.72132205963134766 -0.363616943359375
-0.66382122039794922 -0.71880245208740234 -0.339630126953125
-0.6676177978515625 -0.67471981048583984 -0.334930419921875
-0.70208263397216797 -0.67866420745849609 -0.36029052734375
0.30974388122558594 0.82287883758544922 -0.33074951171875
0.29436111450195312 0.82330703735351562 -0.321441650390625
0.31245040893554688 0.79727649688720703 -0.333709716796875
0.32600021362304688 0.82210350036621094 -0.3408203125
0.30691146850585938 0.84741020202636719 -0.329193115234375
0.29159355163574219 0.84743499755859375 -0.31756591796875
0.2983856201171875 0.79777622222900391 -0.32330322265625
0.32827377319335938 0.79730606079101562 -0.34271240234375
0.32371711730957031 0.84769821166992188 -0.34039306640625
-0.61143875122070312 -0.69492053985595703 -0.30633544921875
-0.59268760681152344 -0.69375801086425781 -0.298248291015625
-0.61429786682128906 -0.67496109008789062 -0.305694580078125
-0.63003635406494141 -0.69569587707519531 -0.317047119140625
-0.60890007019042969 -0.71780872344970703 -0.304840087890625
-0.58976078033447266 -0.71594333648681641 -0.295440673828125
-0.59546947479248047 -0.67574501037597656 -0.297760009765625
-0.63246250152587891 -0.67497062683105469 -0.314971923828125
-0.62728977203369141 -0.71899318695068359 -0.316009521484375
0.31741714477539062 0.72282981872558594 -0.339141845703125
0.33042144775390625 0.72455024719238281 -0.344696044921875
0.31660079956054688 0.74682903289794922 -0.337646484375
0.3065032958984375 0.72060489654541016 -0.33221435546875
0.31794834136962891 0.70255470275878906 -0.33990478515625
0.32946586608886719 0.70452880859375 -0.3438720703125
0.33029556274414062 0.74758148193359375 -0.344390869140625
0.30415725708007812 0.74548530578613281 -0.33123779296875
0.30771255493164062 0.70062255859375 -0.333831787109375
-0.53879261016845703 -0.68646240234375 -0.27532958984375
-0.55562400817871094 -0.68999958038330078 -0.2828369140625
-0.53763961791992188 -0.70530223846435547 -0.273193359375
-0.52361869812011719 -0.68346595764160156 -0.268585205078125
-0.53880882263183594 -0.67128753662109375 -0.277313232421875
-0.55724143981933594 -0.67307662963867188 -0.282867431640625
-0.55380916595458984 -0.70910549163818359 -0.279815673828125
-0.52398586273193359 -0.69994258880615234 -0.26568603515625
-0.52420425415039062 -0.66979503631591797 -0.270294189453125
0.40630817413330078 0.67380428314208984 -0.36279296875
0.4108123779296875 0.6592559814453125 -0.358489990234375
0.41281509399414062 0.69607639312744141 -0.3642578125
0.40088844299316406 0.68967151641845703 -0.365386962890625
0.40156650543212891 0.65686511993408203 -0.36346435546875
0.40471172332763672 0.64476776123046875 -0.3587646484375
0.41821861267089844 0.67974472045898438 -0.35784912109375
0.40516281127929688 0.71342658996582031 -0.367645263671875
0.39653778076171875 0.67054939270019531 -0.36553955078125
-0.48815155029296875 -0.79556179046630859 -0.22216796875
-0.50235939025878906 -0.80799102783203125 -0.22369384765625
-0.4757537841796875 -0.79800510406494141 -0.209228515625
-0.47644329071044922 -0.78655338287353516 -0.22015380859375
-0.50064563751220703 -0.7928009033203125 -0.2342529296875
-0.51634883880615234 -0.80291080474853516 -0.238525390625
-0.48888492584228516 -0.8112640380859375 -0.209259033203125
-0.46658611297607422 -0.78754138946533203 -0.210662841796875
-0.48756694793701172 -0.78343772888183594 -0.230194091796875
0.43221092224121094 0.77628135681152344 -0.3948974609375
0.43875503540039062 0.80816078186035156 -0.412506103515625
0.41685676574707031 0.79349231719970703 -0.3897705078125
0.4259033203125 0.74796485900878906 -0.37921142578125
0.44622611999511719 0.76080322265625 -0.39862060546875
0.45495033264160156 0.79355049133300781 -0.421630859375
0.42025184631347656 0.82148838043212891 -0.401031494140625
0.41416549682617188 0.76482677459716797 -0.378021240234375
0.43642807006835938 0.730072021484375 -0.379425048828125
-0.55976200103759766 -0.85377311706542969 -0.265106201171875
-0.57366371154785156 -0.8361358642578125 -0.2764892578125
-0.58217239379882812 -0.86993694305419922 -0.287139892578125
-0.54565238952636719 -0.86878490447998047 -0.253265380859375
-0.53895092010498047 -0.83791637420654297 -0.245361328125
-0.55309867858886719 -0.82438278198242188 -0.25958251953125
-0.59455680847167969 -0.846710205078125 -0.29541015625
-0.56954383850097656 -0.89007854461669922 -0.2789306640625
-0.52399158477783203 -0.84735965728759766 -0.23065185546875
0.44904899597167969 0.91222095489501953 -0.4443359375
0.44884681701660156 0.94964981079101562 -0.44671630859375
0.42352867126464844 0.91483688354492188 -0.419342041015625
0.44699668884277344 0.87586307525634766 -0.43756103515625
0.47191619873046875 0.90995883941650391 -0.464935302734375
0.47363853454589844 0.95092010498046875 -0.469146728515625
0.42267227172851562 0.94675254821777344 -0.421112060546875
0.42325973510742188 0.88355159759521484 -0.416778564453125
0.46890640258789062 0.86860084533691406 -0.455108642578125
-0.65655994415283203 -0.90552806854248047 -0.350799560546875
-0.66162872314453125 -0.86958885192871094 -0.346923828125
-0.68174839019775391 -0.91192817687988281 -0.3675537109375
-0.65181732177734375 -0.93918228149414062 -0.350921630859375
-0.63053417205810547 -0.89617919921875 -0.3306884765625
-0.63866233825683594 -0.86410903930664062 -0.331695556640625
-0.6833648681640625 -0.87423324584960938 -0.362945556640625
-0.68064117431640625 -0.94697761535644531 -0.3714599609375
-0.62327957153320312 -0.92641448974609375 -0.329132080078125
0.43470573425292969 1.0476827621459961 -0.434173583984375
0.42515945434570312 1.0747013092041016 -0.427459716796875
0.41380882263183594 1.0320949554443359 -0.412322998046875
0.44229698181152344 1.0172128677368164 -0.4407958984375
0.45348930358886719 1.0647697448730469 -0.454833984375
0.44029426574707031 1.0954866409301758 -0.443084716796875
0.4086151123046875 1.0548849105834961 -0.40924072265625
0.41784286499023438 1.0057182312011719 -0.41583251953125
0.46401596069335938 1.0297460556030273 -0.463470458984375
-0.75191402435302734 -0.90590667724609375 -0.415069580078125
-0.743133544921875 -0.87442493438720703 -0.401397705078125
-0.77102184295654297 -0.89533329010009766 -0.429290771484375
-0.76053619384765625 -0.93503189086914062 -0.42755126953125
-0.73003768920898438 -0.91196727752685547 -0.400299072265625
-0.7244720458984375 -0.8758087158203125 -0.38995361328125
-0.75944423675537109 -0.87026023864746094 -0.41461181640625
-0.78308677673339844 -0.91976451873779297 -0.44464111328125
-0.73615932464599609 -0.94480419158935547 -0.4091796875
0.38052940368652344 1.1199398040771484 -0.39898681640625
0.36258888244628906 1.1257228851318359 -0.389495849609375
0.37350845336914062 1.0910663604736328 -0.3868408203125
0.39763832092285156 1.1112604141235352 -0.40887451171875
0.385406494140625 1.1481809616088867 -0.410736083984375
0.36575698852539062 1.1517782211303711 -0.398468017578125
0.35808372497558594 1.0950260162353516 -0.378753662109375
0.38876914978027344 1.08477783203125 -0.395751953125
0.4056243896484375 1.1377906799316406 -0.421722412109375
-0.80764675140380859 -0.83701419830322266 -0.461456298828125
-0.78847599029541016 -0.82445907592773438 -0.43914794921875
-0.81290340423583984 -0.81349468231201172 -0.469268798828125
-0.82560539245605469 -0.84844970703125 -0.48419189453125
-0.79927921295166016 -0.86067104339599609 -0.452056884765625
-0.78303241729736328 -0.84461593627929688 -0.4329833984375
-0.79364585876464844 -0.80315589904785156 -0.44580078125
-0.83048915863037109 -0.82082939147949219 -0.49169921875
-0.81586647033691406 -0.87537956237792969 -0.47344970703125
0.3207550048828125 1.1132640838623047 -0.367889404296875
0.31524276733398438 1.0944538116455078 -0.361572265625
0.33070945739746094 1.1199617385864258 -0.375213623046875
0.31616401672363281 1.1220645904541016 -0.370361328125
0.30617332458496094 1.0980300903320312 -0.359649658203125
0.32802200317382812 1.0952072143554688 -0.365997314453125
0.32989120483398438 1.1391496658325195 -0.37939453125
-0.80955123901367188 -0.75252246856689453 -0.47283935546875
-0.81395721435546875 -0.7672271728515625 -0.47418212890625
-0.79899501800537109 -0.74325084686279297 -0.46044921875
-0.81653118133544922 -0.74753761291503906 -0.482177734375
-0.82647800445556641 -0.76917934417724609 -0.490264892578125
-0.79825019836425781 -0.76127338409423828 -0.45574951171875
-0.80226230621337891 -0.73034286499023438 -0.466094970703125
0.50405693054199219 0.6125946044921875 -0.412353515625
0.51133155822753906 0.60924434661865234 -0.380523681640625
0.48091316223144531 0.56063652038574219 -0.37713623046875
0.48642158508300781 0.63209438323974609 -0.4385986328125
0.52551078796386719 0.67137050628662109 -0.4501953125
0.531646728515625 0.66790199279785156 -0.420654296875
0.48737335205078125 0.55694293975830078 -0.3427734375
0.46226310729980469 0.58129119873046875 -0.404388427734375
0.50713729858398438 0.69137668609619141 -0.47314453125
-0.42711257934570312 -0.91587448120117188 -0.179229736328125
-0.38959217071533203 -0.86668968200683594 -0.15130615234375
-0.41919040679931641 -0.91687297821044922 -0.141448974609375
-0.47096061706542969 -0.96195793151855469 -0.213897705078125
-0.44776535034179688 -0.90036582946777344 -0.225372314453125
-0.4124603271484375 -0.85340118408203125 -0.1995849609375
-0.38117694854736328 -0.867645263671875 -0.1119384765625
-0.46305370330810547 -0.96364879608154297 -0.178253173828125
-0.48997688293457031 -0.9460906982421875 -0.25848388671875
0.56549263000488281 0.89050865173339844 -0.521331787109375
0.56898689270019531 0.88336944580078125 -0.497589111328125
0.5565948486328125 0.81266975402832031 -0.50848388671875
0.55109977722167969 0.90903663635253906 -0.535797119140625
0.56757545471191406 0.96998405456542969 -0.523193359375
0.56884765625 0.96133136749267578 -0.501495361328125
0.56214332580566406 0.80670928955078125 -0.483245849609375
0.54020118713378906 0.83108425140380859 -0.5247802734375
0.55476760864257812 0.98622417449951172 -0.536407470703125
-0.62657642364501953 -1.0672845840454102 -0.320648193359375
-0.57181262969970703 -1.0401325225830078 -0.28631591796875
-0.61934280395507812 -1.0669841766357422 -0.290863037109375
-0.68222236633300781 -1.0831766128540039 -0.3531494140625
-0.64309120178222656 -1.0515985488891602 -0.356781005859375
-0.58886337280273438 -1.0240659713745117 -0.326629638671875
-0.5647125244140625 -1.0406045913696289 -0.2548828125
-0.67461109161376953 -1.081477165222168 -0.32763671875
-0.69719314575195312 -1.0695734024047852 -0.38604736328125
0.51732635498046875 1.1868915557861328 -0.466064453125
0.51406669616699219 1.1805887222290039 -0.4483642578125
0.54317665100097656 1.11968994140625 -0.493560791015625
0.51378059387207031 1.1939029693603516 -0.479949951171875
0.48467063903808594 1.2434110641479492 -0.43646240234375
0.47972488403320312 1.2387886047363281 -0.4180908203125
0.54128074645996094 1.1127262115478516 -0.4757080078125
0.53597259521484375 1.132502555847168 -0.506317138671875
0.48481941223144531 1.244049072265625 -0.452545166015625
-0.83755588531494141 -1.0423727035522461 -0.450347900390625
-0.78969192504882812 -1.0706634521484375 -0.4180908203125
-0.8330535888671875 -1.0367517471313477 -0.43170166015625
-0.87976932525634766 -1.0031814575195312 -0.48138427734375
-0.84280776977539062 -1.0393409729003906 -0.471954345703125
-0.79859542846679688 -1.0636529922485352 -0.444122314453125
-0.78399658203125 -1.0662746429443359 -0.39630126953125
-0.87765789031982422 -0.99734973907470703 -0.464141845703125
-0.88018798828125 -1.0031747817993164 -0.4979248046875
0.36685371398925781 1.3385686874389648 -0.366302490234375
0.35836982727050781 1.3385248184204102 -0.342376708984375
0.4078369140625 1.3208580017089844 -0.384246826171875
0.37986183166503906 1.3303565979003906 -0.39215087890625
0.32744026184082031 1.3416042327880859 -0.349853515625
0.31744384765625 1.3422479629516602 -0.325347900390625
0.40030860900878906 1.3192062377929688 -0.3634033203125
0.41619491577148438 1.3143720626831055 -0.406097412109375
0.34452247619628906 1.3306407928466797 -0.38031005859375
-0.95725822448730469 -0.84520053863525391 -0.568603515625
-0.94045829772949219 -0.90153026580810547 -0.54132080078125
-0.95982265472412109 -0.83595371246337891 -0.550933837890625
-0.96311664581298828 -0.78890132904052734 -0.585052490234375
-0.94779872894287109 -0.86033058166503906 -0.579010009765625
-0.93356132507324219 -0.91092491149902344 -0.553955078125
-0.94174289703369141 -0.89282798767089844 -0.526824951171875
-0.96708583831787109 -0.77834415435791016 -0.56744384765625
-0.95185375213623047 -0.80872344970703125 -0.59521484375
0.23232650756835938 1.2567644119262695 -0.311553955078125
0.22147178649902344 1.2612695693969727 -0.27886962890625
0.25951385498046875 1.2982950210571289 -0.324493408203125
0.25539207458496094 1.2382440567016602 -0.35137939453125
0.21076202392578125 1.2088499069213867 -0.300933837890625
0.19903755187988281 1.2149820327758789 -0.265472412109375
0.24845123291015625 1.3012228012084961 -0.293853759765625
0.28095054626464844 1.281987190246582 -0.361602783203125
0.23297119140625 1.1878948211669922 -0.340972900390625
-0.92012786865234375 -0.64982891082763672 -0.561767578125
-0.94298553466796875 -0.68906879425048828 -0.58233642578125
-0.92808055877685547 -0.63952350616455078 -0.538330078125
-0.89233493804931641 -0.61472129821777344 -0.533599853515625
-0.90198516845703125 -0.67408370971679688 -0.574462890625
-0.92691612243652344 -0.71410369873046875 -0.594207763671875
-0.94986915588378906 -0.67897891998291016 -0.561279296875
-0.90105247497558594 -0.60531425476074219 -0.50982666015625
-0.87206268310546875 -0.63875293731689453 -0.549224853515625
0.16673088073730469 1.0629377365112305 -0.26483154296875
0.15880393981933594 1.0736818313598633 -0.229766845703125
0.177734375 1.1087722778320312 -0.27587890625
0.18565177917480469 1.0376482009887695 -0.30401611328125
0.15940666198730469 1.0198383331298828 -0.256622314453125
0.15285873413085938 1.030426025390625 -0.22137451171875
0.16867256164550781 1.1177978515625 -0.24053955078125
0.1982574462890625 1.0848770141601562 -0.31524658203125
0.1766510009765625 0.99220943450927734 -0.29351806640625
-0.8037567138671875 -0.54073715209960938 -0.439483642578125
-0.83209800720214844 -0.56030845642089844 -0.470489501953125
-0.81542778015136719 -0.53697299957275391 -0.414947509765625
-0.77575206756591797 -0.52629280090332031 -0.4127197265625
-0.78009891510009766 -0.55923366546630859 -0.45556640625
-0.80991840362548828 -0.58118915557861328 -0.486175537109375
-0.84290885925292969 -0.55413246154785156 -0.444610595703125
-0.78813266754150391 -0.52387905120849609 -0.38690185546875
-0.75160884857177734 -0.54198932647705078 -0.4288330078125
0.33716964721679688 0.83121109008789062 -0.4205322265625
0.35492324829101562 0.88488006591796875 -0.442840576171875
0.39970016479492188 0.7456817626953125 -0.443328857421875
0.31955909729003906 0.78270053863525391 -0.40081787109375
0.27367019653320312 0.91722869873046875 -0.38458251953125
0.29026603698730469 0.96884822845458984 -0.404022216796875
0.41909217834472656 0.80154132843017578 -0.4705810546875
0.37964820861816406 0.69713211059570312 -0.419464111328125
0.26005363464355469 0.86926078796386719 -0.369964599609375
-0.61178874969482422 -0.73265552520751953 -0.386627197265625
-0.54371547698974609 -0.80574893951416016 -0.3341064453125
-0.64830970764160156 -0.76741886138916016 -0.416351318359375
-0.68106937408447266 -0.65868091583251953 -0.4298095703125
-0.58014106750488281 -0.70010948181152344 -0.362823486328125
-0.51085090637207031 -0.76710128784179688 -0.309783935546875
-0.58139896392822266 -0.84591579437255859 -0.364654541015625
-0.71445751190185547 -0.68783950805664062 -0.459320068359375
-0.65064048767089844 -0.63212299346923828 -0.4024658203125
0.40820693969726562 1.0731143951416016 -0.484619140625
0.3461151123046875 1.1431255340576172 -0.441436767578125
0.42454910278320312 1.1334543228149414 -0.487091064453125
0.46990394592285156 1.0033073425292969 -0.517852783203125
0.39115142822265625 1.0082912445068359 -0.47662353515625
0.32641983032226562 1.0839929580688477 -0.4339599609375
0.36590766906738281 1.1967496871948242 -0.446990966796875
0.48085975646972656 1.0708742141723633 -0.518524169921875
0.45427513122558594 0.93251705169677734 -0.509674072265625
-0.77038002014160156 -0.87015628814697266 -0.502471923828125
-0.80947589874267578 -0.89943408966064453 -0.52294921875
-0.82439327239990234 -0.78765106201171875 -0.54473876953125
-0.72850322723388672 -0.83646678924560547 -0.477020263671875
-0.71677780151367188 -0.94961261749267578 -0.4521484375
-0.76159000396728516 -0.97414970397949219 -0.475677490234375
-0.85767459869384766 -0.82251262664794922 -0.56304931640625
-0.78746986389160156 -0.75312232971191406 -0.52008056640625
-0.6702728271484375 -0.91847038269042969 -0.42572021484375
0.45087814331054688 1.245518684387207 -0.47119140625
0.42741203308105469 1.2786006927490234 -0.45159912109375
0.47637557983398438 1.2283544540405273 -0.483612060546875
0.44655799865722656 1.2251443862915039 -0.480377197265625
0.40547752380371094 1.268315315246582 -0.4493408203125
0.45418167114257812 1.2672815322875977 -0.45880126953125
0.48611640930175781 1.184626579284668 -0.500518798828125
-0.88217830657958984 -0.94984340667724609 -0.546905517578125
-0.86919784545898438 -0.98697853088378906 -0.52581787109375
-0.90700149536132812 -0.92039680480957031 -0.5660400390625
-0.86836147308349609 -0.94179058074951172 -0.546630859375
-0.83835029602050781 -0.99580097198486328 -0.51104736328125
-0.89739227294921875 -0.95833301544189453 -0.543853759765625
-0.90151023864746094 -0.88711166381835938 -0.576751708984375
0.15661430358886719 0.90721321105957031 -0.258087158203125
0.151153564453125 0.88681697845458984 -0.259185791015625
0.15215110778808594 0.92442131042480469 -0.218841552734375
0.15676689147949219 0.93960666656494141 -0.253753662109375
0.16966438293457031 0.87707233428955078 -0.30206298828125
0.16224288940429688 0.85667133331298828 -0.31103515625
0.14795684814453125 0.90291595458984375 -0.21307373046875
0.15148162841796875 0.95498180389404297 -0.217620849609375
0.17108917236328125 0.91032028198242188 -0.294097900390625
-0.69938564300537109 -0.50702381134033203 -0.36102294921875
-0.71468925476074219 -0.5083160400390625 -0.329437255859375
-0.68654918670654297 -0.49777412414550781 -0.35443115234375
-0.67417812347412109 -0.51573848724365234 -0.386138916015625
-0.72150039672851562 -0.51189517974853516 -0.372894287109375
-0.73566532135009766 -0.51082801818847656 -0.34539794921875
-0.70147037506103516 -0.49988460540771484 -0.31622314453125
-0.66064834594726562 -0.50254631042480469 -0.389434814453125
-0.69697189331054688 -0.52229881286621094 -0.392578125
0.27059364318847656 0.67541408538818359 -0.396392822265625
0.22848415374755859 0.75763130187988281 -0.374481201171875
0.2872161865234375 0.70631122589111328 -0.386627197265625
0.31331253051757812 0.59543895721435547 -0.40533447265625
0.25272274017333984 0.65094280242919922 -0.4124755859375
0.21483993530273438 0.73325538635253906 -0.391632080078125
0.23783493041992188 0.79000091552734375 -0.363555908203125
0.33545970916748047 0.62277126312255859 -0.39813232421875
0.28958797454833984 0.57154655456542969 -0.4189453125
-0.51356697082519531 -0.61600685119628906 -0.356048583984375
-0.53100776672363281 -0.64186000823974609 -0.345916748046875
-0.57797908782958984 -0.57218265533447266 -0.385711669921875
-0.49895095825195312 -0.58772945404052734 -0.377899169921875
-0.44890880584716797 -0.65920543670654297 -0.315826416015625
-0.464111328125 -0.69372081756591797 -0.29998779296875
-0.59834575653076172 -0.59005832672119141 -0.381256103515625
-0.56271076202392578 -0.54946327209472656 -0.402191162109375
-0.43682098388671875 -0.62459087371826172 -0.339080810546875
0.39536285400390625 0.45280361175537109 -0.332366943359375
0.36625385284423828 0.42511558532714844 -0.33642578125
0.37717628479003906 0.47958946228027344 -0.368682861328125
0.42496585845947266 0.48230075836181641 -0.333953857421875
0.40643024444580078 0.44305133819580078 -0.2900390625
0.37967681884765625 0.41247367858886719 -0.287994384765625
0.34837532043457031 0.45591449737548828 -0.378509521484375
0.4070892333984375 0.50676631927490234 -0.36865234375
0.43365287780761719 0.47557544708251953 -0.296875
-0.32293701171875 -0.72641754150390625 -0.153778076171875
-0.35035037994384766 -0.71544933319091797 -0.20916748046875
-0.30877876281738281 -0.68440055847167969 -0.175628662109375
-0.30850124359130859 -0.72981071472167969 -0.104248046875
-0.33903408050537109 -0.77142429351806641 -0.139404296875
-0.36434078216552734 -0.76038455963134766 -0.19244384765625
-0.33954715728759766 -0.67371082305908203 -0.23455810546875
-0.29167652130126953 -0.68947982788085938 -0.11651611328125
-0.326751708984375 -0.77394580841064453 -0.094818115234375
0.0454254150390625 0.55504226684570312 0.6990966796875
0.035561561584472656 0.53933048248291016 0.719696044921875
0.027094841003417969 0.52612781524658203 0.7364501953125
0.040753364562988281 0.50395107269287109 0.74761962890625
0.057949066162109375 0.48929595947265625 0.74591064453125
0.071337699890136719 0.47355270385742188 0.746307373046875
0.092926025390625 0.45619583129882812 0.730499267578125
0.11002159118652344 0.45972537994384766 0.711761474609375
0.1290283203125 0.46451663970947266 0.689971923828125
0.1337890625 0.5002899169921875 0.665679931640625
0.11348438262939453 0.52885818481445312 0.666595458984375
0.086895942687988281 0.55270099639892578 0.670654296875
-0.46347808837890625 -0.35082530975341797 0.6695556640625
-0.42653274536132812 -0.35727882385253906 0.682464599609375
-0.388275146484375 -0.35595226287841797 0.693084716796875
-0.3560333251953125 -0.32989120483398438 0.72308349609375
-0.36190986633300781 -0.31389808654785156 0.739715576171875
-0.36780548095703125 -0.29791831970214844 0.75323486328125
-0.39638519287109375 -0.29227161407470703 0.757537841796875
-0.41975498199462891 -0.29390525817871094 0.7506103515625
-0.4442901611328125 -0.29097843170166016 0.742431640625
-0.47251319885253906 -0.293731689453125 0.7222900390625
-0.48140335083007812 -0.30725765228271484 0.704681396484375
-0.48967552185058594 -0.32236480712890625 0.683349609375
0.080785751342773438 0.61102867126464844 0.599334716796875
0.073093414306640625 0.59972953796386719 0.6259765625
0.064626693725585938 0.58597469329833984 0.6513671875
0.16381454467773438 0.47263622283935547 0.63922119140625
0.17897224426269531 0.4766082763671875 0.612152099609375
0.19272613525390625 0.47951126098632812 0.58367919921875
0.18858528137207031 0.52607059478759766 0.555419921875
0.16226387023925781 0.56476688385009766 0.5584716796875
0.12931060791015625 0.59783267974853516 0.5645751953125
-0.48367691040039062 -0.40662574768066406 0.569000244140625
-0.43534946441650391 -0.41585922241210938 0.58331298828125
-0.3863983154296875 -0.41621589660644531 0.59942626953125
-0.33987998962402344 -0.39283657073974609 0.6370849609375
-0.34355449676513672 -0.37810897827148438 0.662200927734375
-0.34616851806640625 -0.36349868774414062 0.68304443359375
-0.50681972503662109 -0.35242176055908203 0.63519287109375
-0.51453113555908203 -0.3648834228515625 0.60919189453125
-0.52177143096923828 -0.37700462341308594 0.581146240234375
0.15373992919921875 0.4348907470703125 0.66845703125
0.15301132202148438 0.40040779113769531 0.674530029296875
0.14478397369384766 0.36690330505371094 0.681671142578125
0.14488983154296875 0.32659721374511719 0.6651611328125
0.15688705444335938 0.31821250915527344 0.641387939453125
0.16835403442382812 0.31077003479003906 0.61541748046875
0.19959545135498047 0.34630203247070312 0.577423095703125
0.21089744567871094 0.39170265197753906 0.567291259765625
0.21354866027832031 0.43808364868164062 0.558563232421875
-0.29133129119873047 -0.38778114318847656 0.624664306640625
-0.24881172180175781 -0.36130619049072266 0.635498046875
-0.21149635314941406 -0.32734775543212891 0.644439697265625
-0.19252109527587891 -0.28042411804199219 0.673828125
-0.20429134368896484 -0.27260875701904297 0.696319580078125
-0.21701145172119141 -0.26535415649414062 0.71746826171875
-0.25442028045654297 -0.28697681427001953 0.7296142578125
-0.28233146667480469 -0.31248760223388672 0.72344970703125
-0.31455802917480469 -0.33380889892578125 0.715057373046875
0.083838462829589844 0.43216323852539062 0.74761962890625
0.08243560791015625 0.41000175476074219 0.751983642578125
0.077608108520507812 0.38811492919921875 0.75616455078125
0.079652786254882812 0.36132431030273438 0.7479248046875
0.094538688659667969 0.35277557373046875 0.73040771484375
0.11292648315429688 0.34402084350585938 0.710205078125
-0.24910354614257812 -0.24930381774902344 0.7509765625
-0.26715564727783203 -0.24097251892089844 0.764862060546875
-0.28322792053222656 -0.23224163055419922 0.775238037109375
-0.30979537963867188 -0.24587821960449219 0.78167724609375
-0.32824039459228516 -0.26266956329345703 0.775604248046875
-0.34872531890869141 -0.27772903442382812 0.77093505859375
0.053371429443359375 0.34950923919677734 0.765960693359375
0.035515785217285156 0.33348274230957031 0.771240234375
0.014909744262695312 0.32067394256591797 0.776763916015625
-0.0032758712768554688 0.29855060577392578 0.76947021484375
0.0018062591552734375 0.28332138061523438 0.755767822265625
0.0072221755981445312 0.26542091369628906 0.739959716796875
0.047926902770996094 0.26159286499023438 0.715728759765625
0.080354690551757812 0.28173351287841797 0.70697021484375
0.10762214660644531 0.30609798431396484 0.698028564453125
-0.21661949157714844 -0.22446823120117188 0.73980712890625
-0.20830821990966797 -0.19062137603759766 0.74237060546875
-0.2072296142578125 -0.15658187866210938 0.742645263671875
-0.23414516448974609 -0.12918281555175781 0.758209228515625
-0.25339412689208984 -0.13402175903320312 0.770721435546875
-0.27181720733642578 -0.13959217071533203 0.783294677734375
-0.28029060363769531 -0.16378593444824219 0.79254150390625
-0.28071498870849609 -0.18582248687744141 0.79205322265625
-0.28533935546875 -0.20665931701660156 0.790283203125
0.016421318054199219 0.23161792755126953 0.70184326171875
0.019989967346191406 0.21608543395996094 0.67999267578125
0.0224761962890625 0.20225620269775391 0.657745361328125
0.070871353149414062 0.2067413330078125 0.624267578125
0.11283683776855469 0.23161697387695312 0.612335205078125
0.14970207214355469 0.26453781127929688 0.60125732421875
-0.16074466705322266 -0.24431324005126953 0.654998779296875
-0.14913845062255859 -0.19795703887939453 0.656768798828125
-0.14710807800292969 -0.15066146850585938 0.657318115234375
-0.16828441619873047 -0.10993003845214844 0.68084716796875
-0.18192291259765625 -0.11388015747070312 0.703277587890625
-0.19699954986572266 -0.11790561676025391 0.723663330078125
-0.02535247802734375 0.24019622802734375 0.7269287109375
-0.064105033874511719 0.23920154571533203 0.730560302734375
-0.10167789459228516 0.24422645568847656 0.73297119140625
-0.14558029174804688 0.24106693267822266 0.7147216796875
-0.15384101867675781 0.22813701629638672 0.694366455078125
-0.16205883026123047 0.21539402008056641 0.67205810546875
-0.12314224243164062 0.1872100830078125 0.649627685546875
-0.074159622192382812 0.17772197723388672 0.64599609375
-0.024127006530761719 0.17881965637207031 0.641204833984375
-0.171905517578125 -0.063817977905273438 0.656829833984375
-0.19901084899902344 -0.02655029296875 0.655517578125
-0.23316860198974609 0.0054101943969726562 0.651458740234375
-0.28204727172851562 0.017548561096191406 0.66839599609375
-0.28939628601074219 0.0048723220825195312 0.6912841796875
-0.29781150817871094 -0.0082721710205078125 0.710174560546875
-0.27579402923583984 -0.041009902954101562 0.732940673828125
-0.24935531616210938 -0.064754486083984375 0.737396240234375
-0.2287445068359375 -0.092403411865234375 0.740386962890625
-0.031248092651367188 0.30636119842529297 0.78302001953125
-0.055421829223632812 0.30563259124755859 0.786834716796875
-0.079533576965332031 0.30790996551513672 0.788116455078125
-0.10953140258789062 0.30464458465576172 0.77899169921875
-0.11793136596679688 0.28976058959960938 0.765167236328125
-0.12759780883789062 0.27322864532470703 0.750152587890625
-0.31787014007568359 -0.040123939514160156 0.745635986328125
-0.32865810394287109 -0.0564117431640625 0.760528564453125
-0.33859443664550781 -0.0715179443359375 0.77294921875
-0.32525062561035156 -0.093379974365234375 0.785980224609375
-0.30719852447509766 -0.10816574096679688 0.7890625
-0.29386711120605469 -0.124603271484375 0.7916259765625
-0.12383270263671875 0.32581615447998047 0.7908935546875
-0.14270782470703125 0.34010791778564453 0.7918701171875
-0.15696239471435547 0.35790443420410156 0.793182373046875
-0.17961597442626953 0.37344837188720703 0.78302001953125
-0.195098876953125 0.36793994903564453 0.769866943359375
-0.2137908935546875 0.36172199249267578 0.754608154296875
-0.21755409240722656 0.32466316223144531 0.73760986328125
-0.19651222229003906 0.29708194732666016 0.736907958984375
-0.16890239715576172 0.27401638031005859 0.735595703125
-0.34320545196533203 -0.012030601501464844 0.724700927734375
-0.381103515625 -0.00658416748046875 0.718414306640625
-0.41988182067871094 -0.0071258544921875 0.71209716796875
-0.45400905609130859 -0.032812118530273438 0.7230224609375
-0.44962978363037109 -0.050535202026367188 0.739501953125
-0.44666576385498047 -0.066196441650390625 0.754119873046875
-0.41932392120361328 -0.073031425476074219 0.770660400390625
-0.39384269714355469 -0.072618484497070312 0.774566650390625
-0.36912345886230469 -0.075266838073730469 0.7791748046875
-0.24883937835693359 0.35128211975097656 0.7171630859375
-0.26406192779541016 0.34734821319580078 0.695526123046875
-0.27817821502685547 0.34407806396484375 0.672760009765625
-0.27260589599609375 0.29843997955322266 0.65087890625
-0.24560546875 0.26068305969238281 0.6514892578125
-0.20958518981933594 0.22868824005126953 0.6519775390625
-0.32039737701416016 0.047521591186523438 0.64105224609375
-0.3696746826171875 0.056208610534667969 0.6341552734375
-0.42075443267822266 0.056405067443847656 0.623992919921875
-0.46742439270019531 0.032167434692382812 0.637176513671875
-0.46432113647460938 0.017363548278808594 0.660125732421875
-0.46078205108642578 0.0019130706787109375 0.6846923828125
-0.23888206481933594 0.38891315460205078 0.736114501953125
-0.23806953430175781 0.42300605773925781 0.734954833984375
-0.2306365966796875 0.45767021179199219 0.73272705078125
-0.22903728485107422 0.49927616119384766 0.709381103515625
-0.24216175079345703 0.50654315948486328 0.687652587890625
-0.25399398803710938 0.51498508453369141 0.664520263671875
-0.28648567199707031 0.47968864440917969 0.6431884765625
-0.29819869995117188 0.43320655822753906 0.646697998046875
-0.30043125152587891 0.38726329803466797 0.647247314453125
-0.51644992828369141 0.029837608337402344 0.599578857421875
-0.55908584594726562 0.0038433074951171875 0.5848388671875
-0.59487819671630859 -0.028271675109863281 0.570068359375
-0.61258125305175781 -0.07520294189453125 0.58416748046875
-0.60072040557861328 -0.084478378295898438 0.61181640625
-0.58765029907226562 -0.092850685119628906 0.638397216796875
-0.55273246765136719 -0.072949409484863281 0.674041748046875
-0.52479648590087891 -0.04804229736328125 0.6842041015625
-0.49332523345947266 -0.029213905334472656 0.69482421875
-0.17191600799560547 0.3976898193359375 0.793792724609375
-0.17233085632324219 0.41962051391601562 0.79107666015625
-0.16695213317871094 0.44040107727050781 0.788970947265625
-0.1678314208984375 0.46645355224609375 0.77557373046875
-0.18231010437011719 0.47387409210205078 0.7618408203125
-0.19893550872802734 0.48101520538330078 0.746490478515625
-0.55886936187744141 -0.11125946044921875 0.68695068359375
-0.54288578033447266 -0.11987113952636719 0.707122802734375
-0.52934169769287109 -0.12700557708740234 0.72479248046875
-0.50477123260498047 -0.11446380615234375 0.745819091796875
-0.48761844635009766 -0.098660469055175781 0.751617431640625
-0.46698379516601562 -0.085978507995605469 0.758331298828125
-0.14285373687744141 0.48072719573974609 0.78363037109375
-0.12397193908691406 0.49672985076904297 0.77899169921875
-0.10309696197509766 0.51115894317626953 0.775146484375
-0.081541061401367188 0.53185653686523438 0.7576904296875
-0.085643768310546875 0.54622173309326172 0.74273681640625
-0.090361595153808594 0.56338596343994141 0.7259521484375
-0.13076591491699219 0.56609439849853516 0.713470458984375
-0.16326904296875 0.54522705078125 0.719635009765625
-0.19223213195800781 0.51976490020751953 0.725860595703125
-0.58936214447021484 -0.133880615234375 0.654449462890625
-0.59750938415527344 -0.16702556610107422 0.646331787109375
-0.59786224365234375 -0.20098018646240234 0.641876220703125
-0.57379627227783203 -0.23048973083496094 0.6656494140625
-0.556976318359375 -0.22593212127685547 0.689208984375
-0.5418548583984375 -0.22223949432373047 0.709442138671875
-0.53440761566162109 -0.19805812835693359 0.725921630859375
-0.53412914276123047 -0.17546463012695312 0.7288818359375
-0.52884674072265625 -0.15378379821777344 0.734344482421875
-0.098578453063964844 0.59693336486816406 0.6851806640625
-0.10151958465576172 0.61229801177978516 0.66265869140625
-0.10459423065185547 0.62796497344970703 0.6383056640625
-0.15468120574951172 0.62398052215576172 0.62353515625
-0.19809246063232422 0.59668922424316406 0.630035400390625
-0.23524093627929688 0.56252479553222656 0.635498046875
-0.64377021789550781 -0.10884857177734375 0.542388916015625
-0.65496635437011719 -0.15437126159667969 0.53363037109375
-0.65662670135498047 -0.20042705535888672 0.52593994140625
-0.63507938385009766 -0.2440032958984375 0.554595947265625
-0.62151145935058594 -0.24115180969238281 0.584136962890625
-0.60658550262451172 -0.23804187774658203 0.61248779296875
