# XYZ point cloud file
0.36229237353235222 0.049973751219297702 0.51624047384434801
0.33795880575583981 0.063345485983445915 0.4955770331179119
0.32958385099003262 0.058731490394417385 0.52834762014026015
0.35123335630792973 0.051020911397834601 0.54937240002335619
0.3694825569232818 0.047499142833438146 0.54611629271756668
0.35405107751648668 0.055377174709194898 0.48403358710429201
0.32327030793746792 0.068611036296353012 0.5058976991193922
0.33445182602650458 0.05435195375158397 0.55313519713956705
0.097565575258747206 -0.34356471953138845 0.51688218554756205
0.086296590062487244 -0.34232765912823071 0.48871292605430128
0.11041547360423731 -0.35538799540999699 0.51071646561470896
0.10362715615057638 -0.34610784825073382 0.54469303242737865
0.086118832822731584 -0.3324440438866878 0.52314816721174751
0.074152709298341613 -0.33244663610537928 0.49934836873994826
0.10148066724308791 -0.35220593464183581 0.47699333890963791
0.11596988740980052 -0.35929709776714525 0.54138125368591616
0.092199742506215099 -0.33391597162678277 0.54864715174197842
0.42888263449155994 0.033358706033049801 0.50542561453458168
0.45816299833952723 0.026012261944343473 0.50276593702446748
0.41557729732949866 0.027341115220301582 0.46936722859417124
0.4034920149917105 0.039413348508500867 0.50784826478261946
0.44231709963324528 0.034952684469585771 0.53943304894177047
0.47508352289085054 0.02781018186230777 0.5373598280176477
0.44115172007704828 0.018873121577011487 0.4671759094144079
0.39258695723500936 0.036551236835338452 0.47079726684187584
0.41422569572505896 0.039954049693166294 0.54131642693477744
0.15877552503369485 -0.40127556735142944 0.50031310528945649
0.1572622833699282 -0.38946311535932709 0.46297797309890854
0.18008956341848648 -0.42092381510261268 0.49796447451128723
0.16387536212347831 -0.41151452311764447 0.53518606784983769
0.14059487712977869 -0.38384854476464203 0.50250181308038933
0.13755899052299458 -0.37521657252429286 0.46406064753006593
0.17773876970651825 -0.40573349321221763 0.46103011487252976
0.18669791938785574 -0.43388933412427866 0.53351280491759367
0.14526824050867493 -0.39162538440550509 0.53681194357181572
0.2860951946221193 0.071390634666925079 0.54481049781127489
0.2865985335499126 0.066656748116021625 0.56643921905554162
0.29934416245337658 0.06511055958302614 0.53995424721493368
0.28377381779694733 0.080027211922952368 0.52880488088779254
0.27689204400707368 0.084616098150105623 0.54811634270818743
0.27587896163163772 0.079766819719219617 0.56928521984373459
0.30146517164522435 0.060397948582445737 0.56212957226502036
0.29544104617372291 0.074442539791333528 0.52262786368542091
0.27645466773992977 0.092916309463483282 0.53319684465239936
0.052943388173848582 -0.30192031272612407 0.54025876918329852
0.065265413080190626 -0.3101190758414214 0.53541152198735542
0.056995992532374196 -0.30011829425658232 0.56255447016093063
0.036178069583989725 -0.30045937414052126 0.54303036719253761
0.044083515911817361 -0.3043072294898379 0.52330433928488862
0.054962647580574675 -0.31163615816445245 0.51699007949012543
0.070182632410000334 -0.30950046190287672 0.5582664568932838
0.039515163730677649 -0.29745786849324585 0.56487440735425931
0.028569586102541233 -0.30419965754234846 0.52725337910721759
0.28527071471047871 0.18990630797415387 0.53911268813016555
0.27704849379399521 0.14399173910288399 0.54565002134800045
0.28302840642905136 0.18961467444682611 0.52416336214957893
0.2954262217103345 0.2423372807863482 0.52977745454458081
0.28505898516781114 0.18752119031391978 0.55879536666554852
0.27573474631261297 0.1404123750710522 0.56565656356294935
0.27649313271368392 0.14745124334540649 0.53172255629404219
0.29231236071005462 0.24012172280071642 0.51152452937559412
0.29624723139165066 0.24069626747621564 0.55004108733428447
-0.057529974570855735 -0.35918946260209239 0.53151347606407606
-0.057891228630767788 -0.3571249032043835 0.51598073170154057
-0.018894003559241312 -0.32947800343152034 0.53864778008648706
-0.056311364727979818 -0.3581532186746772 0.55185066063039523
-0.10117844539649878 -0.39408499303840872 0.52227479887757933
-0.10010054466839868 -0.39040447316628191 0.50337275646272239
-0.021988710712103732 -0.33070029642760912 0.52411342875967382
-0.017025692084857713 -0.32691833512157675 0.55932568606950195
-0.10023970043384756 -0.39428436504408371 0.54313748973138143
0.17564330952967611 0.015075393582687058 -0.59985657045276586
0.1343116415507648 0.052978050770034812 -0.63237048329950962
0.20938801839802501 0.085155048928354349 -0.57084503931624564
0.21261770624826881 -0.012868766322326919 -0.56086272137702253
0.13466252368776921 -0.058400370975509541 -0.62475711355807428
0.090441514590333894 -0.020658663136576383 -0.65806149190172381
0.17181119102907028 0.12238325830519037 -0.60134117628810224
0.24321689450315587 0.058707725048819714 -0.53340580298420259
0.17398830069584914 -0.086583650501264819 -0.58513123309861204
-0.01510245879918326 -0.25900543484868122 -0.62406908448773235
-0.064635107861412244 -0.31199918735497056 -0.60412932453082124
-0.062280168835556093 -0.22755265533698998 -0.65450412182754247
0.036757856606624451 -0.19815458309487333 -0.63755934274047954
0.025952854190049557 -0.28334064330549813 -0.58743633515129723
-0.025631411714079455 -0.33407868620158399 -0.56962867879550205
-0.1106252346221881 -0.28438288689707325 -0.6322435426184625
-0.010475756714362294 -0.16367169563925088 -0.66964316519948053
0.078331968979007183 -0.22430891423229193 -0.59925127675042433
0.30506622602491573 -0.068617927739179185 -0.39477542042892377
0.27698314659336898 -0.052812849266938633 -0.45915657154893652
0.32833012246159443 0.0020228674766795685 -0.37084744963650262
0.3299350925954454 -0.082119237257638145 -0.32008020578599949
0.27308153287800874 -0.13910266697201368 -0.41646476830174817
0.24270336950618843 -0.12529927151821285 -0.4820501077852748
0.30246797099224798 0.019466145806914081 -0.43392219032021107
0.35101196895608378 -0.013934192678603297 -0.29810946224857604
0.30035350481051415 -0.14995470109807352 -0.3399161506781001
0.13560227404612224 -0.3222768592456009 -0.42460407865712235
0.082400447966592294 -0.36876396245001686 -0.41112312202031065
0.10028938169749502 -0.31418592748858432 -0.48901904692582399
0.18665667875452652 -0.26776926641611065 -0.43241951476207685
0.16882862751744909 -0.32639402174025489 -0.34866965078163803
0.11674499326234189 -0.37148235874645419 -0.33664323409793528
0.046530170458214393 -0.36205068755489911 -0.47435134485805253
0.15247824126985243 -0.25798875368368701 -0.4979860709371835
0.21829633716814234 -0.27377347543373931 -0.35523269460405693
0.38331341590274448 -0.11272459374123978 -0.033306176046650204
0.36884955253239271 -0.10323169990868553 -0.13574846565616205
0.39664523740949464 -0.052897588143997698 -0.021597433108186292
0.39507153595688482 -0.12256398721921125 0.064652966201217632
0.36179499398613468 -0.17072949496990675 -0.043350742091147421
0.34458577145845481 -0.16461066945578806 -0.14930715625754987
0.38490282540022336 -0.040770982411350465 -0.1208258957246815
0.40598243809301904 -0.065253545574238236 0.076238725146137387
0.37606097455207066 -0.17729927267035062 0.056966714300851873
0.25142914354906587 -0.32087816045352135 -0.052968934768143461
0.20271922620233429 -0.36023231120456956 -0.048450675016539435
0.22698346161532679 -0.32442670081457126 -0.15887692264934605
0.29506682162586495 -0.27575682723923878 -0.053784418283725266
0.2725626592648589 -0.31762429788966928 0.048348695264435193
0.22503750012341417 -0.35444946323026594 0.054036378610837765
0.17724777997400176 -0.36610070133460859 -0.15220776300951488
0.27261495406388603 -0.27644777861998737 -0.16164664393006745
0.31423843425823694 -0.2755023338846152 0.048331324423027455
0.41808652546405978 -0.15148512290508886 0.24521006244276489
0.41152359305928243 -0.14242706495647939 0.20589094259449148
0.42535845047140119 -0.10771981270146047 0.25288036565835625
0.42567142543200975 -0.16007355866914197 0.27192980547959822
0.40376458184146724 -0.19633132959876254 0.2425302449926845
0.39612773856156558 -0.19037448915599109 0.20181201601190057
0.41938945227861524 -0.093762724419960586 0.21597687691914258
0.43287472850544795 -0.1189326359867775 0.27827821797101571
0.41205847375673788 -0.20263656124435103 0.2697467390743471
0.31751073820076758 -0.31272854709015152 0.23531521578966585
0.2804433057134581 -0.34062450929197752 0.24017855438251967
0.30478129442483848 -0.31352145487646599 0.19453705193007331
0.35227507114507972 -0.27873857949299308 0.23708342975564278
0.33010609371512301 -0.31319538943275904 0.26294383021237966
0.29541573959921363 -0.33968286316933494 0.26681369383376508
0.2635696040506017 -0.34424620165789266 0.20102764670376772
0.34188649632585433 -0.27715518918285209 0.19567489891745926
0.36308499211442902 -0.2809739671709186 0.26477396848055212
0.41336589207758512 -0.015739432625183181 0.34240717717911995
0.42682938135218418 -0.02741958228671848 0.35192232341202656
0.42078366252002652 -0.038972716454357847 0.30174803424824326
0.40219216134685176 -0.00088335985349274893 0.33026173642043588
0.40741806386865109 0.0027841182128032216 0.38652296538493758
0.42481616160111235 -0.008007877539961239 0.3903860828549468
0.43120031846156204 -0.051767399530911806 0.31809095943065335
0.41268452224896435 -0.021900696986954848 0.2794179979165734
0.39178259699372209 0.01657539741148728 0.38114977686763041
0.19151070971404494 -0.37463905589705293 0.33100083082298859
0.21543726433545052 -0.37069360016710351 0.28887822747296443
0.20937394427163447 -0.37875671485833684 0.34097227843277089
0.17307356106355609 -0.37641182347130697 0.37681812715483343
0.17211144470508666 -0.37355070009871061 0.3176749700899042
0.1952020997561672 -0.37363790588931334 0.2647478054824286
0.23304589438795209 -0.37147773431543896 0.30605992862363851
0.19183625075380295 -0.38455206667091679 0.38093300929525986
0.15269364446253331 -0.37072884556472241 0.37065078063081991
0.27556800895213707 0.66287922788025 0.24404263105041313
0.27140416647888821 0.64559769291796387 0.31104350724329333
0.29909261506611107 0.60500922590460759 0.25171904355594865
0.28032234598375716 0.68126118135259306 0.17502375868085229
0.24729379676162222 0.71358826334486714 0.24287865183908064
0.2469023331786826 0.69647413781311096 0.30691557901909583
0.29075983167542852 0.58945515035565554 0.32135530787660027
0.30968942817605716 0.62074866797515726 0.17736162660756793
0.24755975170750233 0.7325277495238034 0.17750651179424315
-0.48833006018023584 -0.57208478369600035 0.24862112049736385
-0.42439862050658617 -0.57342243569111973 0.25050135461763468
-0.47623853524097459 -0.55915256356815712 0.3174984523958051
-0.54998301584929399 -0.56032529514424834 0.25441378728886033
-0.50176411688163647 -0.58617264080690124 0.17720233321214462
-0.43284335134602525 -0.59332489415634693 0.17261143152364955
-0.41568720827519323 -0.55613324643910134 0.32279740276575097
-0.53615234284382884 -0.55247453643824618 0.31957197997002185
-0.56621170172737401 -0.56875154017501162 0.18762970847697247
-0.015360438097597573 0.25136495798617497 -0.70761767463114245
-0.070281240765903252 0.33947939213683154 -0.72173286148406834
0.036295379852160137 0.32059814974257339 -0.6713789927958782
0.037886607662012572 0.17148419150696315 -0.68595205415440241
-0.072679594784889279 0.1740164313785556 -0.73560427881664259
-0.13178330607370237 0.26124829088102142 -0.75039058255374469
-0.014898000843295511 0.40799924285145828 -0.68434932850931141
0.084799446653144539 0.24086643949630515 -0.65115508538454403
-0.014503800725689242 0.095612449950866263 -0.71323615668677087
-0.25306052272288504 -0.077256975836777375 -0.724038553300828
-0.30435572534175814 -0.15645967567782793 -0.69585491113523057
-0.32610031991373201 -0.006278521950375926 -0.73545154082694686
-0.19493747272437956 0.006566055146361105 -0.74376125747335786
-0.1823351087701115 -0.13764349592568781 -0.70463489435201287
-0.23138995424452302 -0.20798188906283177 -0.67834539310668518
-0.38089445937916144 -0.094026095199167936 -0.70523161295961789
-0.26349828089377336 0.085106192001556558 -0.75708429910148256
-0.12763077843537829 -0.061892911462140265 -0.7227041915389405
-0.41223573117702572 0.88078982635774339 0.021867117024389149
-0.40999152603987676 0.8550645112801365 0.11455257240397065
-0.34328048694773416 0.92551566776868244 0.015767880591377015
-0.40842290779267021 0.8928726869168655 -0.074271957052359561
-0.48809691744398309 0.82309629907749104 0.023959988708418312
-0.4854245437204816 0.79657359619788592 0.12084555298239286
-0.34112242347269817 0.90094816238869457 0.10336686461280253
-0.33985720625747673 0.93752484721579443 -0.074762158813340029
-0.48417426051126267 0.83502786907531723 -0.076740745131165689
-0.72442384702952101 0.58646075725541502 0.018475726396639747
-0.79166219260647974 0.49304795400310608 0.010635669887847587
-0.71814644559570784 0.55887503204696376 0.11535387057099156
-0.64830146453227266 0.67417941927528768 0.022290305236722929
-0.72274361596269721 0.59824612892648799 -0.081636791423749244
-0.79118704132097539 0.50460405987081858 -0.085164475104765547
-0.78392147914878052 0.46595388242249891 0.10385888715133285
-0.64351347312771701 0.64668254605659148 0.12142923169226805
-0.64549261571214434 0.68594764683059561 -0.080560334611850415
-0.3683849873959304 0.85797431678129676 -0.36921563755795761
-0.38616775828641225 0.88177142134750208 -0.2722154071687517
-0.30414074424475523 0.9087091335488775 -0.348896551799736
-0.34574162907009898 0.81958610251472286 -0.46015441125129986
-0.44018933254001325 0.79397036382988939 -0.38838526983504051
-0.45987263005941359 0.82059898860469782 -0.28559614103680087
-0.31998159543391624 0.92962189328021827 -0.25919805588117661
-0.28368862833912001 0.87353624968351107 -0.43318194021715328
-0.41532497262934065 0.75247857766786397 -0.48437627117827997
-0.67879288343739441 0.55060350971920036 -0.38602849096870018
-0.75043955823107944 0.45846273938973603 -0.37127502685153191
-0.69945874105505412 0.58067189159659205 -0.28659449491312428
-0.59930727541293316 0.63804756698367315 -0.39748282251321365
-0.65202735990873584 0.50372832691960223 -0.4779683772001353
-0.72428838173272059 0.41160605158677233 -0.45670075922452691
-0.77010348059202993 0.48789901313997475 -0.27859511260266734
-0.62056641905377719 0.66803202184294186 -0.29330223143915868
-0.57226074652729908 0.59207560929867564 -0.49407358297708592
-0.23528143603113549 0.61182513572640174 -0.66663527185252169
-0.28047482890883702 0.69410443547241152 -0.61172524687121266
-0.17695939964859919 0.67445844572816904 -0.62904374473715174
-0.18276890116139777 0.52312922735453893 -0.70424700814464192
-0.30086598705434286 0.53673464356805778 -0.69684455653139654
-0.34665857058755756 0.62134072372872162 -0.64143265169534658
-0.22168035875087644 0.75407846331048978 -0.57601251183790958
-0.1245689595002073 0.58819395822791209 -0.66596115238889819
-0.24800153918130929 0.44615502604993718 -0.73417659109513567
-0.52610663372989341 0.26165665517283454 -0.67861004032907957
-0.5938650227640232 0.16434672979613207 -0.64569041874242261
-0.57705681131169739 0.35516732048402089 -0.62624108079129659
-0.45029921695173547 0.35864344712340923 -0.70314797513145022
-0.46582735954837151 0.16613476597070798 -0.71497379782112991
-0.52960431982640088 0.068805482925746286 -0.6817386558948173
-0.64767091052795722 0.25973506688986436 -0.59543394599869037
-0.4988070850057631 0.44901471772896495 -0.64927683776135048
-0.39366376852493268 0.2645067407862387 -0.73958056005781136
0.035401280477724395 0.8192299450654601 0.38849710487287403
0.04108164995140795 0.82404828414434128 0.42775725350121174
0.057896970244712742 0.8257455350133529 0.3798449836583293
0.027138415934916171 0.82098756478547164 0.34576257640675623
0.012828651268377289 0.80756424704190333 0.394804187179012
0.017967398600501117 0.81188751826204086 0.43582277530547708
0.063852313504645819 0.83025692148397878 0.41790035266078718
0.049890788795371011 0.82751973081399144 0.33857085355628769
0.0045156930844396648 0.81003697900881999 0.3501098686441857
-0.75823943578564457 -0.2822853159855816 0.4189599729251765
-0.75664895341034422 -0.32189832981393995 0.41136148231385383
-0.76304141768612022 -0.29355587057222055 0.45976344677535086
-0.75435906898525218 -0.24282329148930093 0.42429078155637967
-0.76018741450860672 -0.26626885043644588 0.37466835133396659
-0.75909115248111991 -0.30709732778412047 0.36872355998408479
-0.76070992049257669 -0.33324422992068614 0.45074289737544349
-0.75907651790912345 -0.25332400177966075 0.46694328653389983
-0.75655968775851479 -0.22624215752179211 0.37796978076979526
-0.014959761829703044 0.88621231908768894 0.19195036671427568
0.00081538683107562626 0.85566128548410747 0.24763087583871446
0.012433836613966465 0.88885235274808738 0.19120051471024446
-0.029320435208759044 0.91874324442643984 0.13263518180562439
-0.042479697678664996 0.87985201998199947 0.19048180571899875
-0.024523295720316973 0.84737507343081386 0.2480562855149393
0.026247655271860015 0.86024030838807608 0.24439065937806026
-0.00021883286044932504 0.91924763655152675 0.13457942097976749
-0.058800392086395314 0.91440432251737658 0.12923829357799033
-0.82847383118296891 -0.1835486301164253 0.21462625021206216
-0.82506881740796878 -0.23817382945057242 0.21590165897831604
-0.79646350571532487 -0.21557285940116167 0.27285365206794321
-0.82753691255504025 -0.12998010502979063 0.21149288336156546
-0.86231575973939645 -0.15200489197417677 0.15204834474474094
-0.85752938171163073 -0.21267927825165134 0.15658515481728008
-0.79440206320819229 -0.26420622224102885 0.27125818326971363
-0.79441890348234878 -0.16824061188713202 0.27199811082926173
-0.86227260964355512 -0.091939961714937013 0.14635978841791975
-0.049741077603321582 0.98389241965503182 -0.056627391029079988
-0.047109893731090313 0.96980962332407628 0.0073475827285869322
-0.019525776330121314 0.98010240520345882 -0.046956090445863019
-0.048642144607351279 0.99100500292287275 -0.12062391943805562
-0.080815057338557539 0.98322687558275046 -0.066073491288822783
-0.078330961393087373 0.9684709242957712 -7.4827505985641807e-05
-0.016644120914089067 0.96694389352625909 0.014631873316286459
-0.018925562346577163 0.98666662451688247 -0.1088185888939881
-0.07928833218299558 0.99060321276523844 -0.13202344212614303
-0.92350227935679285 -0.093820665161684191 -0.05126359194415997
-0.91728899153282839 -0.1639276437783741 -0.03726287228665548
-0.91233632494098993 -0.1050861692142453 0.017898618354399876
-0.92330044882077544 -0.023054887909514488 -0.064806562528435308
-0.9265984468514068 -0.091112875485021672 -0.12040501102123802
-0.92062598360177716 -0.16143399397150882 -0.10401663304595177
-0.90609886926023631 -0.17381750615046831 0.029059760994769812
-0.91261167458679182 -0.036041606008127669 0.0068065604409968117
-0.92578458790978058 -0.019794397576805567 -0.13612672846475626
-0.022876510273264206 0.97460375821998846 -0.30424390315433092
-0.035327728631127542 0.98675271154774236 -0.24626183084621278
0.0050660371135429205 0.97051347353773476 -0.28709099179361131
-0.0062596052106485001 0.95395930672331541 -0.3550597326807039
-0.05246165528257718 0.97330805949411148 -0.32105830510695377
-0.065257345216018336 0.98619412962686526 -0.26118201082864978
-0.0064260944404157527 0.98198997271566402 -0.23107752413240457
0.018922670279775344 0.95187842088913044 -0.33482607325321156
-0.034968996278191611 0.95097443728696884 -0.37430673413658688
-0.89500500869436728 -0.13505464275253365 -0.31574132658164267
-0.88981461905109138 -0.20091390833558886 -0.29440639330902663
-0.91231239381295937 -0.11159721294774139 -0.25470653025257084
-0.89300717728136214 -0.065642707412046031 -0.33671924013640231
-0.86981217511835829 -0.16738964634236964 -0.3686247711994346
-0.86628063907730812 -0.22532506101807903 -0.34475008028365739
-0.90665560831881198 -0.18073087132538324 -0.23499274342078125
-0.9106134155998733 -0.040625770909579195 -0.27400121325118376
-0.86722233014330463 -0.1018878539049326 -0.39158234852871532
0.081756564260097253 0.83171795457244224 -0.44534314965840682
0.12242631321978603 0.77378064350896469 -0.45599603048590831
0.056656664763567566 0.81596769308739492 -0.47466843109689227
0.045638841818578024 0.88211768342577801 -0.42597852382566037
0.10040962998658998 0.84806715196128368 -0.41200014240540028
0.14058366809800082 0.79702432273243029 -0.42135040750985864
0.098770996432762992 0.75308877083952019 -0.48742484880475323
0.019180563389890048 0.87159778907068097 -0.45192402609826887
0.065611389931174102 0.89073648705613673 -0.39672321940476607
-0.73733086576945839 -0.32320622081173989 -0.46201302597752036
-0.72863833818896762 -0.27357083569094076 -0.49341306916539462
-0.6744806413261526 -0.37951542462214327 -0.47654935564139977
-0.74754386100660364 -0.36303264518712131 -0.42606981287567813
-0.79142363149785111 -0.26456843564388932 -0.44100399731081219
-0.78545897992668112 -0.20980341396912694 -0.46953248203583087
-0.66310193571429132 -0.33425642867734817 -0.50968986442711595
-0.68904190510593155 -0.41784240372087855 -0.43934997509030094
-0.79616302630834079 -0.30778383860165359 -0.40891218239351201
-0.04170661522994501 0.77506698097214177 -0.54150181308202772
-0.081283730158584699 0.75437465794539227 -0.56408963679906376
-0.08379770765311978 0.84309750425561836 -0.50343843108284858
-0.00588498810424265 0.78935490767785188 -0.52118238477909662
0.0071896121567533999 0.69990936297871298 -0.56718609756370597
-0.030519868685611851 0.67508270629767919 -0.59480367265352729
-0.12458570099273136 0.82669238663422129 -0.51986121297948085
-0.046475096739637012 0.85312455847147306 -0.48928071713308352
0.040720996460859249 0.7183671793283728 -0.54168094749557349
-0.70264891210764135 -0.08806506848636575 -0.56332941058054509
-0.7617368942605296 -0.0033397926902023478 -0.52606172209359836
-0.68218801095967185 -0.012809819774925124 -0.58555336466542363
-0.63292742277380531 -0.16972690457447492 -0.59090620582220188
-0.71390061955413397 -0.15559298646894226 -0.54262430368233527
-0.77278630362121237 -0.078135310990444573 -0.5108299270680714
-0.74052216573367557 0.078113990627510566 -0.54290084473824152
-0.61274673553819481 -0.10120951736582162 -0.61732735005013595
-0.645056499033974 -0.22981378349323633 -0.56563401936299007
-0.15811027061210625 0.96878981508013773 -0.33226494694285158
-0.20030757255554321 0.96182525592253687 -0.33009187203872647
-0.17104339216221676 0.98404509140154417 -0.26205212499205821
-0.1198412989566644 0.97016461924459119 -0.33492270594179985
-0.14063541213551134 0.94153515997569071 -0.39703720601004644
-0.18246596676106375 0.93233230999357986 -0.40068743340757518
-0.2136621042467346 0.97838873201628962 -0.25438524583625899
-0.13265710063367497 0.98448951682454799 -0.26920225841997647
-0.10242727450606637 0.94477056425120254 -0.39475532585735262
-0.86947714748406568 0.17675524304155066 -0.35659232359558657
-0.88742446951233322 0.20366952673149497 -0.28352071408866375
-0.84666435599364398 0.26879863496162093 -0.35571109082335828
-0.843808249962543 0.13431218070276296 -0.42243279059803163
-0.88131500684431274 0.08959018479754377 -0.35707995163752004
-0.89919021176456582 0.11586566820275768 -0.2885794572360143
-0.86483348563069584 0.29644154573038217 -0.27701084301660073
-0.8211190692370578 0.2243632768050432 -0.42735424095690933
-0.85549340513344019 0.049299807491928416 -0.41809321384440068
-0.18866160238376217 0.97875958415587028 -0.038326645294493034
-0.23244076386030121 0.9722271107564362 -0.016029931495067817
-0.18615938915214847 0.95984299129537698 0.035799202854682299
-0.14959761611079236 0.98042895932403007 -0.05765866019619903
-0.18644040915063886 0.98830520540330924 -0.11346143886003013
-0.22992632566944882 0.98287041060079461 -0.095655524568659001
-0.23001746279513879 0.95123558582806211 0.061946638013383737
-0.14710124426186977 0.96338329378152632 0.013188124069290819
-0.14757526031937518 0.98893360736447877 -0.12897048352665763
-0.90301404922271233 0.21390218017624996 -0.044261926560404063
-0.89313846922336282 0.1931586952174511 0.036490730429250329
-0.88140397598960085 0.30368845321222748 -0.022670976814711974
-0.90443605991054898 0.22151584136298785 -0.12543469130539453
-0.91419808450638662 0.12932591905591173 -0.062100591532606941
-0.90421653746332531 0.11150037154407033 0.015098680332799486
-0.87181171776683453 0.28015155795707347 0.062024000579852467
-0.88254154971967669 0.31309291556528884 -0.10844797574072174
-0.91578799697367508 0.13511910934388371 -0.1392250866854674
-0.1400695895951789 0.84683472724963238 0.23988665205654947
-0.181669862811636 0.82677932182790359 0.27212986674669581
-0.1164777563032966 0.8060225520339368 0.29820482057972342
-0.10386696294843478 0.86058457984260772 0.21262203819572312
-0.16158592384862525 0.89062130749151991 0.17613864591279071
-0.20439457577476627 0.87484216972061701 0.20740421437332301
-0.15663837354827415 0.78213781417405803 0.33024938119421776
-0.081878005017949063 0.82313003161160747 0.27132207321963842
-0.12392591207761217 0.90057757502958014 0.14945068839028153
-0.80545601038649739 0.050725667046354728 0.25877321111222873
-0.76972693076134302 -0.0047130673385975541 0.32043562738102471
-0.78457932643381811 0.12359264536732528 0.2904627331899543
-0.84213294792300486 0.10771875345418702 0.19000424335284016
-0.81730397502607754 -0.015077653464402152 0.23191613436251268
-0.78226105278727509 -0.065198393828611367 0.29400789376263647
-0.74862354307428625 0.063346097652266398 0.35168597784285915
-0.82126469540115155 0.18584637952683258 0.22078228462627525
-0.85347198232981425 0.03593346353400606 0.16389317680256843
-0.074023499425700301 0.75379516984762929 0.43985278126356375
-0.071923208221388979 0.75759577093264374 0.47823986188194745
-0.040824304866666772 0.7751575403846549 0.41891147898657621
-0.081327694144718521 0.75827835732718651 0.39765080788285623
-0.11187643791139101 0.72534771160328182 0.46460756790232249
-0.11124839944503684 0.73083612817572474 0.49972947308117721
-0.037482382121359015 0.77848451113444539 0.4598238780411168
-0.048519514635878558 0.77925039372537475 0.374182542112238
-0.11915786768541237 0.72992178685107834 0.42564547321410418
-0.72490072689128793 -0.095970168560548519 0.46657012936986098
-0.73837950941609076 -0.15143880553079203 0.44693977761940706
-0.72990729503863605 -0.1014733083841477 0.50646088851490112
-0.70351627439901154 -0.034048462614723496 0.48892757806697373
-0.72769998354341769 -0.080144770488556505 0.42312152680544113
-0.74127428139583529 -0.13525472029186059 0.40068154394367261
-0.74271232937226506 -0.15897856485137618 0.48946901651246244
-0.71026941719723125 -0.037097951133109319 0.52525896213976564
-0.70590913953126799 -0.018043731770403859 0.44928315208346348
-0.35489787038247922 0.69887259464969431 0.35919603145647283
-0.32465597439984606 0.64064071154729785 0.42417782060788278
-0.28881973311299758 0.75424517557519266 0.33428718800892776
-0.38117365429484473 0.75978343477497878 0.28488621085350863
-0.4263462468046475 0.63167231659941603 0.37870586753688418
-0.39340887199753016 0.5657707851510938 0.45148646826263361
-0.26067284878823815 0.70130649868114148 0.3948989966592662
-0.31372491795279012 0.81096988042868134 0.26439749628346298
-0.45442009341274847 0.69709055500683337 0.29912756700779397
-0.64332515566611637 0.38267013600192956 0.37103409692158928
-0.70352246280167074 0.29207852110535137 0.34969666990019688
-0.60946293879027014 0.31255175807705315 0.43740069564225559
-0.57416747662324497 0.47119681130874813 0.38513016420753576
-0.67609877355569914 0.45279465732693946 0.29382755274603478
-0.73800509993057695 0.36099443778825502 0.27584774053060679
-0.66904407862221316 0.22455888696242998 0.41248795519212389
-0.53939957915870096 0.39856767530249382 0.45834036584395887
-0.6056083722836223 0.54158258231462852 0.30407957761506355
-0.28007928997157094 0.62479050490971266 0.59396150775428147
-0.30400863752468155 0.57938612326312144 0.60801626962325628
-0.30194589411517159 0.64826034977637437 0.60104202063537659
-0.25766448461370128 0.6696227925961391 0.58651301996828531
-0.25945776024063916 0.60152169375589626 0.58756711755877822
-0.28896862348027241 0.54285732850999446 0.60440720977213225
-0.32042786583749727 0.61210084767669559 0.61267509296196199
-0.28373338247095647 0.6823882991319965 0.5958239235122309
-0.22930017635477373 0.65841906954437102 0.57639158901965626
-0.6177154419858355 0.21875954237006945 0.60516437288674974
-0.63523193840651704 0.25594559392947547 0.61332853866464809
-0.57861710338991035 0.24751913244321533 0.61561169070301158
-0.59903779841172389 0.1847988173283075 0.59759446051442922
-0.65746405910660899 0.1911212602985537 0.602279347211091
-0.66577677761249987 0.23425469842183366 0.61180786628631956
-0.60392574907245899 0.27675144332369017 0.62177222393163012
-0.54903723181662922 0.2217381221483905 0.61028997501239912
-0.64923476922133627 0.14520385158113935 0.59204080049932428
-0.25065600095348595 0.56594279391861302 0.54251623683131101
-0.24244927204752376 0.56977768162515297 0.56366772021953659
-0.20196702823755541 0.63088707221675255 0.51741372082898529
-0.26870623736527621 0.57241579930478848 0.5147772458893769
-0.295996497440981 0.49713561773690551 0.56586496934975816
-0.28178440623052436 0.50016290508943295 0.58443115083972907
-0.19865595727729213 0.63662389633681982 0.54330204257292314
-0.21391833038960684 0.63766387793761936 0.48545137411018624
-0.32327325657912809 0.4975036901147325 0.54347879553227418
-0.56643849740176178 0.17212883392265521 0.55375687805104512
-0.62268203363916097 0.10390741812587234 0.53336408720727335
-0.57118811412577397 0.15816405094218133 0.57354954781863166
-0.50838028319162731 0.23199569191664215 0.57311004718120717
-0.56883940032267732 0.20321604948699812 0.52734376424720963
-0.62601616560426798 0.12701513224511807 0.50261394537597304
-0.6292234220122781 0.096930695414719104 0.55849250790941118
-0.51242176886856061 0.210193513418655 0.59041188455924409
-0.50534690197549015 0.27367214494438397 0.55109724413812078
-0.34831518801706363 0.36148453947428982 0.60636553962848128
-0.33874113034912279 0.35144155443815617 0.61688260331326283
-0.34547476694512858 0.38739046156052082 0.59828133762545477
-0.361772685998341 0.34817359714566454 0.60346591452442677
-0.34963578917184535 0.3284254066498371 0.61782763384199235
-0.32869497486594534 0.38691876980011042 0.61194687363434408
-0.37084005177474921 0.3795075339829197 0.5877973658810598
-0.39981432051275423 0.29568310952938992 0.60822164622085051
-0.41999657780411503 0.29291305617504815 0.60107697375303548
-0.39237617475091113 0.28236258557412963 0.6185181751853488
-0.38899447772696849 0.31345088560466405 0.60466974965338105
-0.4122100095173673 0.32755139607014883 0.58980638160055809
-0.42055778230386176 0.26946827760957515 0.61439148876518068
-0.37420668961912273 0.29669282482669845 0.61873235857424369
0.14530745363190123 0.80609032177147522 0.30501308718573705
0.15059869261899461 0.80014529455801719 0.3531794709437861
0.18036377476137266 0.78508505578659626 0.27446799904716457
0.13903298519125018 0.8163290950181501 0.25455092261309131
0.11219385137352944 0.81948309293843846 0.33711316963207016
0.11797061034931566 0.81844302166373484 0.37962336182635603
0.18468207175275864 0.77414157445339771 0.32888528761553992
0.17534533161215182 0.79940938045889776 0.21807786804794871
0.10514388937532604 0.825666909065085 0.2919889016614885
-0.69687913330967088 -0.46008907294848234 0.33485674361739881
-0.65640506326920711 -0.50316020177697141 0.29980022684664354
-0.69023284082159719 -0.46590053502788531 0.38317103754733051
-0.72731623416709734 -0.41228977070713579 0.36913123183758434
-0.70835927839563029 -0.45371338495034519 0.28409336587811596
-0.67129181285224293 -0.50121153012424879 0.24310015106769378
-0.6455556768096562 -0.50512155574017092 0.35436082502520794
-0.72531519198143357 -0.42099945998013499 0.41212602843042467
-0.73486232359090886 -0.40225321522632052 0.32339823257009215
0.11085439815410769 0.87089423339620975 0.11421899329665086
0.15023799833106866 0.85240772564437317 0.075429138491982073
0.10082720017818581 0.89135765146560075 0.069815508921215574
0.074444592512005636 0.88182131901353822 0.15197122753669667
0.12140596135698445 0.8499109585968303 0.15860252134778463
0.15996517894274542 0.83411702400499887 0.11798672664800813
0.14112236410679713 0.86961068118561613 0.033172023579255416
0.06380706536640357 0.90604119184840859 0.10348144941773851
0.085736236715864278 0.85802885222211622 0.19913978390805731
-0.77139797132687704 -0.4211420367381542 0.14081437783613149
-0.79528262878021128 -0.40780101801219915 0.094699977341909936
-0.73272928827635075 -0.47968300757516102 0.097790544104567889
-0.74694371850464236 -0.43420172624961784 0.18653884398189602
-0.79856150141992632 -0.35849946181978187 0.17969801825986043
-0.82583170356428148 -0.34201284222069273 0.12924009113530754
-0.75344663703627468 -0.4694568172089395 0.054045907576055985
-0.7107592235839908 -0.4896278213627594 0.14153064986230901
-0.77171850287283039 -0.37501363521386843 0.22843537541564585
0.081293300711775984 0.92782795614003977 -0.070935326977342061
0.11798070848953168 0.90313473480118822 -0.093983928020541896
0.080867516125366912 0.9288117504973199 -0.12137017886162393
0.045220586179565148 0.95099087366762292 -0.052842853959553349
0.08532026858485664 0.9211271741624858 -0.022329205471665947
0.12385995295782926 0.8962912810225403 -0.050877966005335118
0.11730993399695788 0.90362342032075471 -0.13936047824048003
0.044983465216817065 0.9540482081432653 -0.10795275413623884
0.048632766593261545 0.94216647003255427 0.0010134427095151999
-0.83682535358485177 -0.37497342626663155 -0.054508522911185242
-0.8368189469209506 -0.37187374409678631 -0.10905193621203768
-0.79559765636126567 -0.43477830449535304 -0.079241420421857223
-0.82966249822545413 -0.38330920900656662 -0.0024226429727742804
-0.87365040602937327 -0.30689190138981925 -0.036847871328591353
-0.87495441674500851 -0.30418718579556892 -0.09638106540803637
-0.79584535036213833 -0.43118686239864856 -0.12818231725969875
-0.7867132978227378 -0.44520367026168417 -0.033576205284452598
-0.86528533783116046 -0.31487337100442936 0.020964238719263228
0.09979869622990245 0.90244394357563773 -0.27972995105510234
0.10777952755133846 0.88468466413306146 -0.32907953008781998
0.065533405592387073 0.93235864284031056 -0.27402075987142904
0.09108600577851389 0.91577627418723506 -0.2270951172995419
0.13356201397008016 0.87439994890518502 -0.28823783795599933
0.14376263271453071 0.85015755634332013 -0.33718343366844561
0.074023240784392375 0.91639016603756707 -0.32150218745410708
0.056034624174021719 0.94425882800329441 -0.22044444541413366
0.12577642926812427 0.88988972899632524 -0.23751888785557007
-0.80157408399972985 -0.39066335676151098 -0.28191679930503644
-0.84149835102869019 -0.33064855437649476 -0.27612921437362026
-0.78100933962522845 -0.39547246912512413 -0.33597391232199381
-0.76175633553402733 -0.44186207476736739 -0.29192998427597283
-0.81839959590013578 -0.38205054677927341 -0.22428064799580061
-0.85801795240889289 -0.31843355749783986 -0.21813973108611595
-0.82172373055869286 -0.33909941309078784 -0.32748226181021201
-0.73574279646019569 -0.44762448162874025 -0.34664729183624488
-0.77897625686917582 -0.43630005956920925 -0.2356853452328127
0.38892526993825283 0.12478170735127803 0.0021763023586012231
0.39765799029037407 0.066253793451707566 -0.0033817759853500551
0.38573909355553249 0.13516791177188847 -0.086205614593145574
0.37905846539644772 0.18368208926868301 0.0072324401442278585
0.3883918593550042 0.11545736241578441 0.089335968097781437
0.4008800086291866 0.05418505014659214 0.088324108847090299
0.39160649640782674 0.079000776128979489 -0.095273847883724061
0.37845482807928743 0.19022444343893752 -0.079294484306720037
0.37489335443256988 0.17810172775798794 0.095135472365535989
0.037518888423984098 -0.43969150749312402 -0.034649204293534908
0.019506426873317162 -0.44760482745661401 -0.12757528575944388
0.094662482836700867 -0.41845681883807129 -0.038563823322014024
0.051645596972164753 -0.42924750448797333 0.057026525377325221
-0.020195976861648646 -0.45994353829745416 -0.02980657400396014
-0.032879807809636397 -0.46697736219714114 -0.12079997984234003
0.072373902537362644 -0.42657226964655037 -0.13528242392718726
0.11349368079995137 -0.40903137488292574 0.058066176967282335
-0.011418283082615055 -0.448766359347746 0.062873188240955225
0.37391400591437307 0.36875662399254461 0.001526558395264388
0.36637810592385467 0.38607830819928179 0.074499656610303333
0.37115499156122356 0.30672451902690145 0.0075293528782638397
0.37681614905400274 0.35546407884726139 -0.069668224459443762
0.37750832963412106 0.42714257294043212 -0.0072028389084608513
0.36850761974727098 0.45489827851370146 0.057634500079518425
0.36389553809139485 0.31459544857999622 0.089472763931612853
0.37314593700742837 0.30088561020166238 -0.071014750355566703
0.38269789304439916 0.40692536537254265 -0.070346561765790572
-0.18860144371873888 -0.54651757040371463 -0.033791707513094904
-0.1344188329566971 -0.51331517648366609 -0.028732781032105859
-0.20294772924204363 -0.54513104126235623 0.044119691660224447
-0.23873328617262768 -0.57862612963076909 -0.040641610845448595
-0.18037357164015333 -0.54454543054625004 -0.10904168148153071
-0.1337156004802118 -0.51478553756434087 -0.11145075489301259
-0.13971501727261382 -0.50686531899938081 0.058215889749444916
-0.26320302946204688 -0.58120914716309224 0.029567071877828255
-0.22303426356777933 -0.57517185798318882 -0.10801390374718922
0.32621801738782485 0.41261161512106459 0.30029668610937854
0.31436133734475336 0.41125378685898784 0.36824314789837098
0.32490275137263569 0.34660197741891063 0.32243494905759729
0.34067195775275039 0.41003831763343124 0.22585676918139175
0.32417282643953849 0.47816511080659452 0.28072939308834632
0.31191627916798748 0.47127931925235855 0.3506169126254588
0.31299524526462119 0.34973243059298809 0.38895444788702083
0.33890333440431197 0.33660570584739902 0.24946595559824747
0.33992651311719135 0.48298765522502052 0.20353951663891756
-0.24006406346631604 -0.5126750179435875 0.28782050656936864
-0.18108204617695378 -0.47873901846214806 0.30796790237364458
-0.24478333573761013 -0.49847355969520413 0.36003853695110233
-0.29962815762458117 -0.5421994346421819 0.2712136598579995
-0.23125165028200634 -0.52725443736684041 0.20771021262005052
-0.1658709750620444 -0.48890655748937029 0.22953645111410736
-0.18974845658222383 -0.46695762325427914 0.37868517764255927
-0.29985201059815525 -0.52472791643801031 0.34507711475488168
-0.29656444344727451 -0.56199742458075108 0.18868947417822746
0.32323953505356595 0.16529922955028953 0.40852262849910881
0.31107634553280938 0.17178200570758984 0.44446893114862807
0.32621812789250981 0.11784779615474683 0.43904407862994743
0.3364779080824909 0.1524178464289101 0.36985058035535356
0.3220909845770894 0.22085560992738884 0.37737628193534034
0.31002703718691782 0.22749019741086007 0.42732196943191658
0.31337965643748045 0.12444335999519351 0.46403982782773134
0.34025293906277754 0.10563874973288367 0.41167407036996639
0.3354514789760823 0.20613943683952507 0.32290052887481835
-0.014742254156698387 -0.38303392126468472 0.39434858214346824
0.030567041032106168 -0.36083990716791181 0.42716986190732875
-0.027029189619581562 -0.37516991659175392 0.43170173654516408
-0.066823384090223925 -0.41126520897160779 0.36197693661640917
0.0037193512842281784 -0.3886841541716004 0.3540973016476161
0.048725119526300986 -0.36729048191951397 0.39891519864862346
0.01791900658826151 -0.35283379172533325 0.45300964792875908
-0.079105810531963527 -0.40275891531820118 0.41432346859876312
-0.0468754129276161 -0.41683492881095896 0.30478276365040391
0.37628115118232053 0.084569415177656815 0.27766569708189648
0.38328269302163953 0.053849080947282246 0.29588420205214749
0.38061053347917095 0.093684965248370222 0.2345698540854011
0.36506304485785379 0.10679761623791562 0.30129888919853087
0.36981652677975485 0.070107075181418788 0.34195576358029145
0.39374430395774329 0.045779618071631223 0.24026289786584032
0.36557944438165002 0.14063920542855435 0.24622286159697993
0.082200400724565359 -0.39389664449596395 0.25752352526319067
0.074721175115589844 -0.40392144117425688 0.21120922702440348
0.11339363573011974 -0.38469222366652001 0.27810329616910678
0.057742677135054876 -0.39356528912291666 0.28221349078049007
0.025730667068675661 -0.41319263799737427 0.22297661566715155
0.12416810872330375 -0.39179054601222618 0.21903666163000213
0.093715321202200386 -0.37864996541508522 0.3264424401363768
0.28374094752255985 0.14924604226115612 0.50367020930915762
0.281133956231991 0.16602032454696403 0.5073860714251488
0.28162005800311407 0.12334064671052269 0.50938584205264981
0.28978089369732829 0.1603181606047166 0.49347085304430394
0.28897991046661975 0.19800584007185718 0.49274702845556462
0.27722984225970926 0.13438553733143555 0.51601177704965417
0.2903183184186573 0.12309468624452968 0.49942955743821571
-0.019977499060216175 -0.33880204791196711 0.49423684836889548
0.0029973513590961787 -0.32411698565599112 0.50092910649711353
-0.036781481064300348 -0.34453157656289402 0.49809823853136148
-0.027278177958232508 -0.34985481864426848 0.48314196310292679
0.0074889155333073276 -0.33180635419736038 0.49025925043207064
-0.0093821710862416197 -0.3254575345818107 0.50771164353646814
-0.062554533296838688 -0.3675843047362124 0.48250410589753701
0.24023210995586464 0.57004647830196298 -0.44239729637640579
0.25886965941446172 0.59968489927227631 -0.41352187694916598
0.27340821596273646 0.50419625578298244 -0.42082310713848714
0.21979741042013257 0.54012407273802721 -0.47258258382612173
0.2038648674623087 0.64009353162480465 -0.45450894845300716
0.22214024517508557 0.66941425988956427 -0.42288853965013118
0.29253066300646502 0.53572310032857851 -0.39377399625602716
0.254363786564896 0.46894448343863049 -0.45035087404226259
0.18253272125481734 0.61302328943479378 -0.48597552506113306
-0.45750499030818892 -0.48814457730091088 -0.483453470218562
-0.38683783063511568 -0.50485004906895048 -0.46638433891523778
-0.47353334314540829 -0.52228534385160652 -0.4537565289728982
-0.53136687836159258 -0.4633032851985861 -0.48891694448210199
-0.44127281323238465 -0.45219229979958553 -0.51417625004841128
-0.36660021028090561 -0.47093437188578058 -0.4965868107341942
-0.40369184840727534 -0.53843539706687138 -0.43860237792300483
-0.54815352771675596 -0.49909484167689844 -0.45595055427736275
-0.5167802871991185 -0.42471845960275334 -0.52115604693908835
0.14718541215486391 0.4580074688586977 -0.56629993584628346
0.10508409838944677 0.5385766426472014 -0.57728131334120047
0.17368425932077969 0.48571674664852171 -0.53472846079748937
0.18451825393608234 0.38258736866420562 -0.55064544271304516
0.11693344193404775 0.42351246992734937 -0.59847314561180065
0.07219910316759548 0.50660106294618257 -0.60945976991489026
0.13344707464730421 0.56436000542420106 -0.54687024737386647
0.21024534874512724 0.40944713050024983 -0.51660265538437011
0.15705866055087103 0.34690824010183485 -0.58221342035619106
-0.39759311926796537 -0.33430604547785614 -0.6055272643403844
-0.41278128052670837 -0.3764704154841424 -0.57559187823659874
-0.47604615682718965 -0.29424994205717026 -0.61147596510521707
-0.3761967811389364 -0.28558470853565376 -0.6347708268529173
-0.32400334539058173 -0.36358820952734283 -0.59299245565158665
-0.33653232730796812 -0.4013587860545238 -0.5610938047403673
-0.49108678941313899 -0.34148609732660629 -0.58219856856607732
-0.45508022015519511 -0.23918958577057481 -0.64113644693686478
-0.30275085236931343 -0.32095670497842843 -0.62143348947473109
0.34921431966041583 0.37605612584157111 -0.27789705993586455
0.36461380296642099 0.35756197497823083 -0.21071754090427097
0.33927946372105389 0.33451988650379549 -0.2937509047871929
0.3283920620183447 0.40571075679202018 -0.33820016307997802
0.36359661657205122 0.41395798452960242 -0.26162715955299243
0.37612031004477076 0.39928395179530951 -0.19897644471778264
0.35742039539353065 0.31325004076653884 -0.22207416899443855
0.31491863268116638 0.36474949641162535 -0.36044777664898109
0.34548380525745781 0.44132120823436516 -0.31722302953220449
-0.22810905913677315 -0.52934279668305662 -0.32504438057516727
-0.19734096837268256 -0.50205567047329114 -0.34222311779509096
-0.19855498778029368 -0.53497115130485962 -0.25597917414315208
-0.25370489069802971 -0.56041023347542751 -0.30748549182924712
-0.26991836571824801 -0.52319313309284687 -0.38623077231698355
-0.24217199770174358 -0.49363185053345893 -0.40942876422368979
-0.16351882234788295 -0.50822694371671884 -0.26873491662169946
-0.22931459141795685 -0.5655385031689335 -0.24273241127213563
-0.29162459610271751 -0.55544435362656119 -0.36426946911858615
0.34318719542165654 0.18714008094658519 -0.32369190606192477
0.34579759571778168 0.1308441892050064 -0.33420584337830372
0.3207281704279632 0.20705666407233247 -0.38805131932127113
0.3379578628810731 0.23999233044782065 -0.315795552637955
0.36270439080674377 0.16675343483228189 -0.25130006058707344
0.36566121494237014 0.1115777350100724 -0.26280186976344133
0.32333787795653146 0.14951124492007328 -0.39675387116143535
0.31307829461308034 0.26412807600207033 -0.38416145062743445
0.35794981575811069 0.2181394988429004 -0.24177090273641766
-0.070900386097950907 -0.44964550428981331 -0.37534045880702549
-0.10726748785457474 -0.4436156362768241 -0.44021025119076995
-0.021847661832487875 -0.43145036640183765 -0.38467839251124425
-0.035366981626314686 -0.45257366215777362 -0.3006987066609621
-0.11790555439647088 -0.46414269869258462 -0.36700729797118203
-0.15883251432305889 -0.45597668837192651 -0.43597283789734842
-0.057208594765473464 -0.4260604907459955 -0.4475671750043424
0.013375480081877056 -0.43348830633942181 -0.31105141492238753
-0.081491425564071518 -0.46874643897295099 -0.29082002739322288
0.25719518285434351 0.23060249087377116 -0.5097936309522817
0.24252397527813385 0.26509997685904019 -0.52084274789482365
0.27612133577039022 0.22915353186557663 -0.48427429497869046
0.25103545643321423 0.19747840115888959 -0.52364715375112114
0.22365420692991078 0.23160207241873998 -0.54619682110707402
0.2637935316138742 0.281302428979055 -0.48761956634458947
0.27604506070866597 0.17876963161433557 -0.49184488024841366
-0.17075113572301315 -0.40275437215810783 -0.55552165209707471
-0.15959363554634054 -0.4197879039527147 -0.53234195321383337
-0.2065763488457284 -0.39854824913505393 -0.56572958717187438
-0.14590590050670782 -0.38701539350888547 -0.56729271484100008
-0.11656850185660694 -0.40341037520895662 -0.5382169250945199
-0.20889138963376519 -0.42367895896767838 -0.53537947896258009
-0.18622954003545433 -0.36934095571813441 -0.58811890391532007
0.18226009737542603 1.0258488556593928 -0.27405300520627929
0.17707682674319813 1.0289425753313177 -0.28421481245924562
0.17884728802605854 0.9949680538970338 -0.25554450268018991
0.19002753486480084 1.0209581598332291 -0.2705749437023508
0.18815294103785662 1.0586519182974525 -0.29510670956816609
0.18362580035029941 1.0637036743572956 -0.30583168611417211
0.17312078525494945 0.99625607218126189 -0.26511930484277624
0.18702733068100419 0.99188215460766682 -0.25266913057434515
0.19541901419089969 1.0517737437393953 -0.2910322460133834
-0.8703115055265469 -0.55747386078123329 -0.26965695294827241
-0.84433940820853159 -0.54503896802765839 -0.25074491603893945
-0.87591104556396626 -0.54795391109585045 -0.28138772015557523
-0.89652127885979427 -0.57455547632316328 -0.29129374908760708
-0.86170920588327604 -0.57031667165713862 -0.26527832402849638
-0.83721558932737494 -0.55866599198525724 -0.247100530968281
-0.84856753347797342 -0.53449732729048982 -0.26179000814239961
-0.90357386499869907 -0.56635824293897441 -0.30367111408073555
-0.88632129125460368 -0.58634799975666074 -0.28621043533923363
0.22307011134269639 1.1679282213169473 -0.36738503177838089
0.20842039771314891 1.1312990640911236 -0.34300759306666251
0.22864608363171857 1.1552173084265787 -0.36176372280036029
