# XYZ point cloud file
-0.65088006657799569 -0.69180729972313049 -0.38005693051871869
-0.64116459341223797 -0.67793686198831149 -0.35344179335277337
-0.62915375493864367 -0.65841259454491097 -0.3534669266326671
0.17609005227506572 0.091117936795376497 0.45895596547336348
0.18544896702663077 0.084224035073960146 0.47113376419658293
0.15669553370648437 0.060918689021457695 0.47635908415785666
0.1686767458503082 0.12415819546814688 0.42625301026863349
0.19563672907786364 0.13252115334686698 0.42934307611486977
0.20393790948261928 0.12474333400176518 0.44148470773663107
0.16678313951293111 0.054216743406215073 0.48917095115252751
0.14907177376274292 0.092954897198371578 0.4443689511770561
0.18882831137680769 0.16688313701520813 0.39560981033179532
-0.6830760110007098 -0.67593784035071902 -0.21954554314610597
-0.65637260714130863 -0.63819672147964845 -0.17174660461841551
-0.67022824979054163 -0.64905431770570732 -0.18434933452983993
-0.70915405395413045 -0.7173152892459782 -0.2711703076419294
-0.69180443471530628 -0.70202596919755411 -0.25482691979681915
-0.66645000686206424 -0.66556841144997403 -0.20939405670585565
-0.64277328397324052 -0.61041875092229936 -0.13535939398346652
-0.69708657829414133 -0.69157146094428157 -0.23729967366805171
-0.71664719691348089 -0.7417116349441607 -0.30402847194188798
0.259769087219416 0.330822258888821 0.25484700241490055
0.26308478803372415 0.31940416623778617 0.26824882653316884
0.23827685928438047 0.2529817427291367 0.32807066287347508
0.25638502153817511 0.36633214473492315 0.21975737188704736
0.27887717292476855 0.41770529321135152 0.16765961198581314
0.28055153378289505 0.40590767330866423 0.18135070017153154
0.24340692419034121 0.2425752118630809 0.3409899345845977
0.2336191906698398 0.28909189126960066 0.29277806743042278
0.27668655414632859 0.45101213023292186 0.13403525737918098
-0.75957275371598243 -0.81885044089676562 -0.3888658605620634
-0.74868999126608105 -0.79177060677046796 -0.35957077605745447
-0.74985754620706091 -0.79853571343574314 -0.3610290451037268
-0.76467962976882164 -0.83793853580716204 -0.40810754639355684
-0.7646962292632552 -0.83639688695339509 -0.41452808018256881
-0.7543537202423638 -0.81180542987825111 -0.38758449920958382
-0.73821220597271087 -0.76935276488364246 -0.32935216271887757
-0.75563672196789455 -0.81979150414478597 -0.38282693127935863
-0.76952496378271817 -0.85298189791720136 -0.43154103397462729
0.31218740589087163 0.70707628976973291 -0.14435064622011007
0.31116987158368786 0.69952448602231176 -0.1345271075904102
0.30521821540924488 0.60943149945207509 -0.036936865514844097
0.31219191911640265 0.72204858182306686 -0.16072216692623575
0.31601420861881147 0.79995552270861703 -0.24682553548710073
0.31478295846596105 0.79518402348885764 -0.24018456331571603
0.30471222511773211 0.59961548422440525 -0.024812976064369607
0.30479023889606705 0.63233836738785554 -0.061475320671098288
0.31605776199839708 0.80575291581268393 -0.25284816832862855
-0.74821312858498856 -0.83884285166389816 -0.42015052127823127
-0.75840247373052616 -0.8483560232963544 -0.42139069815540231
-0.74001320966939432 -0.82528343302562857 -0.4011261539567017
-0.73453953061280475 -0.820272610558619 -0.41737740150247937
-0.75399844002749572 -0.84915256874723888 -0.43859164204676437
-0.76361649521302177 -0.85948762923528266 -0.44122229980891459
-0.75015166538713962 -0.83380074589315378 -0.40071937011064662
-0.72618730288582545 -0.80704672516014719 -0.39947875552766954
-0.740975229555762 -0.83066338429249531 -0.43445831125979506
0.31849622077429274 1.0182376300695217 -0.47451206822279657
0.3169030632232655 1.0192055810976222 -0.47447627815336268
0.31846150108529425 0.95861952526839744 -0.41638716936695541
0.31874002658205719 1.0028998712625079 -0.45774325170086128
0.31762543424286055 1.0598517970283821 -0.50940626117007692
0.31612742466180321 1.0620164523761182 -0.51085827220673252
0.31695116453107841 0.95827996835015428 -0.41490324197275674
0.31871974203064773 0.94888239984884404 -0.40520827726510511
0.31733401010211271 1.0391530707669947 -0.48701104036554455
-0.68110278703785365 -0.7274541745655605 -0.42031900098146924
-0.70068813844723266 -0.76314983569016315 -0.41759857782180831
-0.66939230053944221 -0.70910887459952265 -0.40057828800060724
-0.65947541194798498 -0.68859062304335883 -0.42118762089414474
-0.69475020453867398 -0.75019457897262543 -0.43914348151082572
-0.71105122315519076 -0.77998603149453027 -0.43503463938911158
-0.69055000091771801 -0.74736945524701426 -0.39919427966330501
-0.64620573481719124 -0.66763750954302836 -0.4000079998217152
-0.67625441490006 -0.71717664686964289 -0.44107730184670424
0.30194685759907403 1.0504985605501767 -0.45827882091397099
0.30154955819065132 1.0555913164171038 -0.46352028125081235
0.30987283745260585 1.0749700888398537 -0.49836417776311981
0.29860994899200199 1.0184083319564516 -0.42434889015209354
0.29178117657138863 1.0123842667568146 -0.40603121368843853
0.29199949895447763 1.018444634531523 -0.41221990135236597
0.30898172789962758 1.0791429824205085 -0.50250162692960965
0.30766450711717885 1.0458065015530511 -0.46711768801122489
0.2872709624190441 0.97799371512543964 -0.37041286729640488
-0.5896912092289659 -0.57715389912434434 -0.3876711420638399
-0.61277729315906737 -0.61157865181039583 -0.40581172142518662
-0.5731230607625456 -0.5508365321126153 -0.3623907137086726
-0.56791451388765579 -0.54604097177465094 -0.36451102831163862
-0.6134548651010775 -0.61796365677243725 -0.41055176849976371
-0.63479410127475489 -0.64961602231044568 -0.4277455179588987
-0.59695674410767885 -0.58641481703700582 -0.38173716823574111
-0.55107503353498555 -0.5193773475542014 -0.33844935203169069
-0.59265242014094754 -0.58812497263272201 -0.387923762245447
0.25628326813020985 0.87217492712417199 -0.2424608190705424
0.25875657892524395 0.88147256757261427 -0.25073043798046157
0.26828249265072152 0.9197118736500306 -0.29460528173009726
0.24856592830982061 0.833677295880488 -0.20593879280654326
0.24431165952511474 0.82475188874471916 -0.1930223786966061
0.24762494737828272 0.83526289148609245 -0.20180548136496812
0.26996672104502661 0.92788087072634784 -0.30227986756867997
0.26153984596036461 0.88214985553959513 -0.25781756961879854
0.23568098286254352 0.78573754114878036 -0.1573196673122319
-0.5161914216678386 -0.47428983604372565 -0.28566305605990205
-0.53058584945576026 -0.49403242646704243 -0.31148017469174327
-0.50155055698660123 -0.45136023960128413 -0.26090573701261865
-0.50550690209063587 -0.46005229812776116 -0.2624170644784507
-0.53905064981813233 -0.51215489659824753 -0.30659734543552508
-0.55469008156207744 -0.53428887167940409 -0.33371793879157963
-0.51487144757821424 -0.46933319503069593 -0.28585381116162045
-0.49179678113427305 -0.43865747283762868 -0.23830910752474566
-0.52702940890155514 -0.49538133538060741 -0.2823836386495322
0.19051748276231747 0.46882165767947148 0.13025998679316642
0.20807234186383175 0.51752864563971368 0.087152131683507772
0.17418297649181641 0.31762975436524293 0.26112010709147482
0.17397532387893022 0.42706153756892817 0.16410077618433627
0.212328425778845 0.62350763027467371 -0.008879033641796763
0.22816181569583535 0.67293760144991277 -0.056400651221755194
0.19326270566167131 0.36457081770294508 0.22315614921279314
0.156196255417759 0.28012384493890508 0.28787566312361879
0.19719635516267378 0.57824632958986055 0.031796999420148353
-0.64741303584692267 -0.68383609008479318 -0.31623422620934249
-0.67603356529187664 -0.71480977614952335 -0.30435760671650991
-0.66757422818521361 -0.71606540377610961 -0.35293789330034198
-0.60989378524826143 -0.62959094528467707 -0.32159921370808897
-0.62855532934699709 -0.65428312697542612 -0.28345400124840348
-0.65472264985485562 -0.68204118409350156 -0.2669236652559035
-0.69777614403636823 -0.74999778256672278 -0.34571545219375555
-0.62848408102321329 -0.65835967127543571 -0.35406757516027687
-0.59359595143395971 -0.60438120251311223 -0.29284232684485945
0.26589216611934069 0.69343617657364842 -0.092732374031703646
0.27802952500143396 0.83333774018971551 -0.23267784814972003
0.28276533684398902 0.74959924600831296 -0.15898481390392272
0.25770031692748208 0.55341741482918283 0.042973143950110426
0.24675631833688499 0.63282533743532388 -0.026337728038770436
0.2618978783430494 0.78114026224842892 -0.17098884752912502
0.29194420204124805 0.87707444255831635 -0.28925375535712083
0.27698415913493002 0.62216434961733436 -0.032356773950987794
0.23607165152281051 0.48490635139072441 0.11299602914825568
-0.71739389853260416 -0.79678643987340458 -0.44265532221186366
-0.72787882620358579 -0.8131859921974689 -0.45870060758551245
-0.68192801390882363 -0.73957430858668038 -0.43787893560058588
-0.70372140602217603 -0.77473949231570327 -0.41921135447225666
-0.74506067946036292 -0.83285099116906935 -0.4419387313819203
-0.75237464021897327 -0.84695802399951958 -0.45753085303479324
-0.69638259997666352 -0.76077783990321246 -0.45428912132816679
-0.66557316504917408 -0.71514646813676297 -0.41495963048472362
-0.73349367593591552 -0.81154296862517095 -0.41786684084053016
0.31059888517506601 0.84883305078186122 -0.28866824477599407
0.3142388952024332 0.90818522623041686 -0.35378747068299132
0.31117008677881441 0.80348629785321946 -0.243825945199732
0.30587346330090093 0.83118372970085896 -0.26435305386370445
0.31022037244689044 0.91962997194501317 -0.35761076443875428
0.3152428893051169 0.86736847204981338 -0.31478826775690782
0.30387432885725907 0.74565395283811009 -0.17659770712726486
-0.73923782604733246 -0.82873427605357985 -0.46675104326066164
-0.74903419493361512 -0.8442787357284196 -0.46394811962599647
-0.72754254596525292 -0.80820965669350842 -0.46413702902771248
-0.73912142506008682 -0.82920773427845207 -0.47004507456531375
-0.75475648434849574 -0.85319216451107871 -0.46690106906559148
-0.7371152194544387 -0.82458052138305127 -0.45828927078069248
-0.71851990598124793 -0.79354582007183161 -0.46653171189379017
0.21062179329130717 0.69532009487371149 -0.069773664037791505
0.20394764158843409 0.67598224498895654 -0.053188403505643578
0.21690516895843948 0.70926174706469947 -0.078462057261803775
0.22070139641237077 0.7320580281103154 -0.10306567215131013
0.19883008886415132 0.6567434935796751 -0.040024956261972111
0.19071597911048166 0.63850942887424555 -0.02704198759849108
0.21079577560812629 0.68779585249333697 -0.058375766740848434
0.22601457664776506 0.74554269945092766 -0.11269488205234213
0.21012512626095048 0.69297404337259649 -0.070654377939738389
-0.49657066056453036 -0.4512436786930909 -0.22034645447939782
-0.48187484932300195 -0.42856067873684117 -0.19200479710468077
-0.49215044496445082 -0.44476049030435905 -0.21336855910365671
-0.51714998406776247 -0.48385859562987488 -0.24493155023702329
-0.49753005575639664 -0.45155461746539027 -0.22983163227729131
-0.48385584422884348 -0.43034586646158812 -0.20452786515537147
-0.47603051259281681 -0.42009600072387887 -0.17935671840018674
-0.51402234230415211 -0.47902826183172076 -0.24382778226863033
-0.5176681596846151 -0.48385873572283744 -0.2510749898645428
0.12633600025869318 0.34438163377240427 0.20918751525963897
0.15393517380563687 0.47329989612418377 0.1080276487483518
0.14226376331073914 0.36531558223015537 0.20317661271015552
0.10298879756399448 0.22023012599396963 0.30363280011634908
0.11011700307624414 0.32894485798101492 0.20730632004348193
0.14066465995453314 0.45567208676968518 0.11244866356438576
0.16805496350361715 0.5016121069520656 0.091564239195869757
0.12103745386082447 0.23315090104118441 0.30774973822935614
0.084305468150561627 0.2103092242959379 0.29360493413028843
-0.59664391056394028 -0.60794575292709463 -0.24513997544780919
-0.60299636169828552 -0.61623396753384418 -0.24724204642646841
-0.57131180943607762 -0.57054824583913177 -0.25865829730649326
-0.59216758977826944 -0.60274682663033019 -0.24982595142637498
-0.61364632211526693 -0.62836932087320085 -0.22118787043056543
-0.62294122721080658 -0.63848506417463979 -0.22460252898051802
-0.57475295037811325 -0.57555650789434998 -0.26062917081773174
-0.56832148833862361 -0.5662097536796582 -0.26360089548460008
-0.60695678932972352 -0.6223376890900828 -0.22485252027247515
0.091478438628769115 0.020255925661962881 0.46807418630112529
0.06788178857668456 0.012120264398641334 0.45446978284560169
0.085598616519254433 0.054595552793905489 0.43338385627602616
0.11450823702733784 0.02841843129144539 0.47861473526167186
0.10264904399276006 0.0084347163485523069 0.4883837912936686
0.080260484391418252 -0.0023161801582926023 0.47948892152036882
0.062691382104466786 0.048906612481379952 0.41698880689505025
0.10778794956872093 0.060998138071704289 0.44577116592495436
0.12524226597596555 0.01912860491126267 0.4953811647312274
-0.59854922597437832 -0.57972294758021803 -0.10061698490243831
-0.61247320817834794 -0.60882243356585786 -0.14572225982946119
-0.58718670734515843 -0.57381718252625247 -0.096148449789705381
-0.58248733171859857 -0.54908127742038015 -0.05846506849609634
-0.61307918443322551 -0.5901191737455902 -0.11169478553908219
-0.62574869536851652 -0.61879944847034363 -0.15397492996597784
-0.60254661206479565 -0.60364588686392961 -0.14502149256603847
-0.56890181412978191 -0.53997974870472776 -0.048235891936606379
-0.59814742820013822 -0.56095848155966088 -0.072591366329262108
0.082711821588081852 0.19091718406098557 0.51070164785166439
0.075490020806447913 0.18311242415055662 0.52549724167867806
0.06908208730754864 0.17664236429664326 0.53840099255519114
0.06745050543906371 0.15289725564023393 0.55831789282185573
0.069790506881756309 0.13483910117592335 0.56890612735606316
0.070805218294550498 0.11813399066882657 0.57991063914091079
0.076050593145638459 0.10037104744178815 0.58645101031763058
0.083710931859874979 0.096263371213254789 0.58130139577981454
0.092430295589584141 0.092010500710905441 0.57562825771118664
0.10176583111087392 0.11264277860217375 0.55103389226828359
0.099647084046819961 0.13992454870466464 0.53182371790449245
0.095600655338045945 0.16937904610066945 0.51273939471790841
-0.22827643858841171 0.01100818158925343 0.66346698536841098
-0.23150405731066079 0.00044955282813452513 0.66839166635352454
-0.23128696434017965 -0.007083121423869243 0.67309663387367191
-0.22040103665809338 -0.00045152207484799867 0.69127185290502569
-0.21369821060572045 0.01039959216445685 0.70304440862402551
-0.20800637196055868 0.019903055507290879 0.71280429612338647
-0.205944878505676 0.031707223907066706 0.71835315927361432
-0.20608895838418012 0.037890123467163361 0.71571032827271663
-0.20429746896840476 0.045833764948170042 0.71279016878757329
-0.20440454392249366 0.050192341332264023 0.70028254822224101
-0.20947970027392657 0.043088256101587952 0.68851855873006151
-0.21542454191110899 0.034519074923349491 0.67448414160825365
0.11084252908871722 0.23054366928534265 0.44626748106089176
0.10421426313174768 0.2197626773433019 0.46251299291281267
0.097339320371911411 0.20947404736251507 0.47873590658581922
0.10956850961731618 0.086884023933249566 0.56276495338123755
0.11711274941930976 0.086472712054923684 0.55576472204934912
0.1241088119445968 0.0868706226609951 0.54875394934616484
0.13157321175124909 0.12087852921761721 0.51579608311098335
0.12896579305549283 0.15858261260548767 0.48745984384211516
0.12388162406994331 0.19937673685694313 0.45835680417277436
-0.25703136946936406 -0.036861489885372856 0.58614631570379583
-0.26222048389385272 -0.048724293587870005 0.59314873702001858
-0.2623243942302631 -0.055909193933706081 0.60017174944704355
-0.2494759640572857 -0.046972720009177404 0.62627116041957676
-0.24201176118925499 -0.035048216512741592 0.64457476302122796
-0.23475887144645771 -0.023408992996288402 0.66177909340045371
-0.22793485010304956 0.014613053669015219 0.64034179322326779
-0.23412184900179001 0.0037729184688684025 0.62085208545980475
-0.24044520268988467 -0.0076427523854003532 0.60026490966938795
0.097874526138972254 0.06859474818513045 0.58646709033129918
0.091308195401678297 0.053135939516190667 0.60140426057604701
0.081858972249061093 0.042483545411411083 0.61390871049678442
0.074557713531469935 0.029828508750511129 0.62102890426149715
0.078462647247725725 0.024238768462887972 0.61747887714842919
0.081729818587382083 0.019454688954608224 0.61352022662592409
0.10192958377632552 0.023361254832273248 0.59905523883191858
0.11579420605796924 0.038402413331605434 0.58422609883151511
0.12547573334178036 0.059928992965986416 0.56508927283780341
-0.24709391648412848 -0.059544223824926412 0.61428928191297594
-0.23274573647153152 -0.057589373896869578 0.62134808364032734
-0.21529661577580608 -0.053793333698416212 0.62819782529754953
-0.19306049044040174 -0.03879579073052275 0.64921088629240442
-0.19041364771939642 -0.029522765561172171 0.66377893165271251
-0.18808367003598001 -0.020181873329085165 0.67757789987267891
-0.19901208054537062 -0.013694510695225759 0.6878578030206195
-0.21078737254640442 -0.014952735520355143 0.68484841348240089
-0.2205600685449112 -0.014424243543560422 0.68136582929846101
0.067711224133913631 0.090992567619315956 0.60164248241428453
0.063448076821260885 0.081346892052184483 0.61160204073073476
0.057622213151347204 0.074640671394518354 0.62046342619297956
0.05425509301857559 0.064507045936904595 0.62682222076855432
0.059097258674752726 0.055586314261729108 0.62610560928514047
0.06452758416859998 0.045868804959126264 0.62526749611279353
-0.18418112655225777 -0.00046973180039777684 0.70109935114648581
-0.18246877255578101 0.009502660133007601 0.71051638784438431
-0.18095487119247969 0.018521805329590579 0.71855811715060591
-0.18728053752590548 0.023754944982407045 0.72482917097933441
-0.19408143165845862 0.023406417032442062 0.72382891986939413
-0.19973967152887107 0.024553280014692369 0.72243148966387105
0.042518115365101847 0.070823187404321697 0.63381175832749825
0.034082597298911652 0.07364434081508997 0.63804983126886539
0.025706570877172666 0.079335024106467089 0.64059379709765185
0.017429829495347576 0.082721442278991142 0.64055873204097002
0.016487262772983999 0.075838607221970666 0.6401161090333507
0.015140412278628168 0.068227260896915887 0.63919774096385762
0.026859497427907997 0.048674857464005905 0.63753030143600364
0.041397864893022468 0.040387322126600456 0.63542059069869872
0.056101584809510996 0.036304954164691705 0.63086349101054129
-0.17267816947578324 -0.0052987505040412719 0.69143367386409382
-0.15968563018717749 0.002287095767887104 0.6913753854806246
-0.14765514792041606 0.012380399120790031 0.68974810444612356
-0.14103073936713731 0.03187757710182848 0.69647246729995027
-0.14490824259301996 0.038531288473287795 0.70556483738056741
-0.14822183182550605 0.044556723040397261 0.71368448862840861
-0.15723277271562955 0.041018230913608678 0.72314490946168908
-0.16444431979082466 0.034289553737328671 0.72465284038070754
-0.17206025739640601 0.029155325147060096 0.72535916096193986
0.01175362290161007 0.05495964898047212 0.63324113632291423
0.0097801855332435295 0.049801242452840011 0.62807394286508478
0.0075088703505952481 0.045024228554038204 0.62203694631870743
0.023073698166020451 0.026158526355970713 0.61855913133299412
0.043467791963129054 0.017022509343189718 0.61871675287894989
0.06448956248185389 0.013083654489474128 0.61586750102072507
-0.17621647828819995 -0.040157155150242652 0.63894489726090908
-0.1571454110895347 -0.029474597950566839 0.64150035568852015
-0.13977152834895817 -0.015592365562053345 0.64144594244922581
-0.12737593065947395 0.0074752719660277078 0.65075960650745079
-0.13022301147189766 0.013110514678273955 0.6631412339605296
-0.1334160982697172 0.018968384128273619 0.67514703248962205
0.0022856677294113281 0.07712915952462629 0.63384628633764439
-0.0062115953865987672 0.096740502736091916 0.62803937187529568
-0.011613672166147976 0.11935226083544515 0.61988375678075203
-0.017018140271861493 0.14456905737044368 0.60218606591879098
-0.019930487236522493 0.14458659613760083 0.59348495342177277
-0.022731569874869406 0.14443952960225703 0.58382230366224208
-0.025260606247441114 0.11135447666967413 0.58845312268601901
-0.019931673865133601 0.083077145721863976 0.60034705834112811
-0.009736048529710703 0.059311218702674529 0.60938459084075891
-0.11248088181267876 0.023441547650103423 0.63228101420903737
-0.10255740600425081 0.048621841346132233 0.62309737888591377
-0.094544397142196923 0.076858969457384019 0.61123482786605754
-0.093006009497881931 0.10534001985423447 0.61285826834441748
-0.09818648035111105 0.10369457410401339 0.62829476642036619
-0.10370294780262557 0.10211357108618624 0.64341766935723887
-0.11447759850373379 0.079121338696526822 0.66654369208189834
-0.12055940082624661 0.058954057885221789 0.6745007825490501
-0.12802244984640329 0.040797815791348002 0.68124149669454281
0.011047464274840782 0.098832686991684904 0.6399684247195756
0.0055158663935569729 0.11215162521473243 0.63679207392797244
0.0014870651386243439 0.12733516127635414 0.63195802585884309
-0.0030624119156736629 0.14451954436690917 0.62260885271193445
-0.0062586010635428541 0.14470760773233815 0.61927661238374743
-0.010008161478119615 0.14466628328395204 0.61507924823492921
-0.11617740408610477 0.098847690047189185 0.67161791628872569
-0.12257224090978863 0.097343901126942023 0.68414262638069223
-0.12821325345679013 0.096211141563998237 0.69519710419549208
-0.13576090740210356 0.082683049525529517 0.70896122706784892
-0.1398969433859536 0.070414980119042236 0.71342301554474652
-0.14486543392728454 0.059198866383089466 0.71744587476552724
-0.0016761021327604264 0.16179276512396068 0.61795284635992465
-0.00091935588786781763 0.18001005377002377 0.60908172011637429
0.0011624586522463454 0.19790328220340103 0.59920685138548047
0.0040872168501479567 0.22257068934315061 0.58133701819433936
0.003645943925890141 0.23281555729873871 0.57235923309555758
0.0034506195330091388 0.24442087379254052 0.56162171562614649
-0.0034114493652722122 0.22897349919312471 0.56654644342899863
-0.0091537223172164783 0.20030622633075434 0.5826744240946411
-0.01279952413305635 0.17180552605426702 0.59708050087191289
-0.10611584862447715 0.12214209148599053 0.64948524430650245
-0.10364936563398644 0.142829692935726 0.64154712195726349
-0.1022995681413307 0.1613123438689491 0.63450120544660082
-0.10994129648092738 0.16567365550915469 0.64755612928252093
-0.11723494124235745 0.15575559457695309 0.66448361222713848
-0.12356805068185442 0.14745517705749489 0.67891148276287971
-0.12798066752474646 0.13251592794940015 0.69313976810571942
-0.1286085202675499 0.12126412194546743 0.6964087944932813
-0.13011821798719947 0.10870411014955139 0.70019455403849706
0.0050074587685652455 0.2682074607314433 0.53485496875038807
0.0067449728989315005 0.27958488033271567 0.51922072372460981
0.008829368435657764 0.29067236940041852 0.5025912193802009
-0.001839229275501883 0.26119308542552977 0.51084337120210765
-0.012984519890465285 0.22022041099866108 0.53450316079581572
-0.02125075534195299 0.18062701578302376 0.55555557466803185
-0.082788066923380754 0.13802622275175591 0.58251297164980409
-0.078541197809147575 0.16777730989033668 0.56765857500617356
-0.075453330392160733 0.19434291819276828 0.55384981732664773
-0.080931600316321461 0.20563061284794615 0.56461926451087008
-0.087864159290128113 0.19597289421577779 0.58681058204422776
-0.094962254768793691 0.18625063673679898 0.60824934828512633
0.011985718315359828 0.28136918292156432 0.53099681187917191
0.020455973066444366 0.30253886885969306 0.51289214186900001
0.028789182482547471 0.3189341518497717 0.49566112724957279
0.041979917495172353 0.35100759034244911 0.45847911768780181
0.047819791363895137 0.37220178422972228 0.43560269656030304
0.054061143187449631 0.39326450735524232 0.411912800232896
0.049979770829313347 0.39681590145759826 0.40902089318307056
0.037851188143415274 0.37103167979993057 0.43336690724901583
0.024640766684434934 0.33868728656828662 0.45922104209426395
-0.075286258974932407 0.22886369268139273 0.53264829621422605
-0.079520773569829589 0.23371135914619445 0.52639788243717422
-0.087166575774767413 0.22961898833783834 0.52342413175686886
-0.10410662466683965 0.20836419210531676 0.54913434675129436
-0.10983038158918548 0.20007124405992882 0.57402497459074908
-0.1156866941487649 0.19136774513813182 0.59789709810316571
-0.11359265442828206 0.18921418500937603 0.61974068290493234
-0.10775446948835071 0.19058897102922501 0.62096281829673172
-0.10405289253470726 0.18615430173443448 0.62398240484027001
0.0084650630243949254 0.22918670594027946 0.5775798002630057
0.013178392086714369 0.2411841539210352 0.56658251154499517
0.018264492515994268 0.25014896727284175 0.55606570475337369
0.025673634450334687 0.26896041691814965 0.53459272623577414
0.028491616186723842 0.28676688358865143 0.51913995075608232
0.032157662902831535 0.30749371065736186 0.50080135764212041
-0.12786352296257392 0.17150378339062611 0.64094755645946311
-0.13360835290411327 0.16140854186298381 0.65916438257854315
-0.13846229973508029 0.15283881601999505 0.67455073844420221
-0.13673218044939869 0.15043050500791144 0.68634243882916257
-0.1326952381597587 0.15073357936528176 0.68688093351783142
-0.12991132246200368 0.14776830347410841 0.68828946727111928
0.028958172551892994 0.25718252702466227 0.53854170176784733
0.034371068961993309 0.25480444540361002 0.53247601483780604
0.039738131621096684 0.2485438632616821 0.52871375672822962
0.048475400010943873 0.25035421988747864 0.51426964035817146
0.052928311338551234 0.26619427192827483 0.4968793350253482
0.05818276195971081 0.28487412718848582 0.4763692587130044
0.05754706474294416 0.32073620576598616 0.45417823647890554
0.050957902069076522 0.33023082650076119 0.45899224035858799
0.04406112429650802 0.33323096443279998 0.46786943253100644
-0.13211049671895403 0.1689267025733322 0.62266228448445826
-0.14441101069840243 0.15134191748408843 0.62625766394739601
-0.15806096912722825 0.13049616204069436 0.63075491619547464
-0.17251130910361068 0.10794647355936049 0.65463231496833929
-0.17258316257994419 0.10752333050367013 0.67109818747621297
-0.17261996460163131 0.10691557992661682 0.68499179368630392
-0.16423143073024488 0.11933761333268911 0.69292501485188041
-0.15608132788119772 0.13073265678532831 0.69023949141500429
-0.14857299083286285 0.14010817431422184 0.68811391472849825
0.070174703879227654 0.32551728105800448 0.43046303425685917
0.07657185498150941 0.34612670113518051 0.4064530354369813
0.083135693758400714 0.36702759994826595 0.3819178984577758
0.083653580057327009 0.4089456983800136 0.35475169694964404
0.077066621539151087 0.42041219743468772 0.35958416378543001
0.06952357264314174 0.42228961800813691 0.37082684676316813
-0.11343455925756796 0.19505657734758808 0.52664202564495444
-0.13145216441545218 0.16687069036008872 0.5317312177947886
-0.15166029357097408 0.13415361437582418 0.53826498706639736
-0.17261131509123759 0.10217028400568817 0.56977042964963376
-0.17239058531650173 0.10471594223984326 0.59304466956551982
-0.1723459198627959 0.10664380731115664 0.61523303169033605
0.070526534655866766 0.28388688949593577 0.45816628357918487
0.077170977976583455 0.25836763586083011 0.46683702342155797
0.083839365886813719 0.22990317261901072 0.47928466949671833
0.10992089800079818 0.283749640979301 0.40439774985597587
0.10269972912882258 0.32358958455352271 0.38277873893294734
0.096008815176899034 0.35914942731775967 0.36658351712560089
-0.19446940460157836 0.064311517457851686 0.55443672650503384
-0.21470139209217229 0.031814997609226348 0.56309219173709613
-0.2325785242062974 0.0034565771721919436 0.57131950400212883
-0.21217949921122697 0.042132737278432919 0.65301399326943432
-0.20026351877486087 0.062311195524966778 0.64740899915266592
-0.18674917800332941 0.08457368228776907 0.64161470012290378
0.05015329071700822 0.224872788492541 0.52934395515134369
0.055132870676037865 0.20857133977650499 0.53369064906140107
0.05984129362906998 0.19053947800291049 0.54024677728236581
-0.19531101260380199 0.066927780572662687 0.70636305654890741
-0.18859942688999526 0.079614751037656251 0.70293017845138506
-0.18090938729909004 0.093053541096419723 0.69943271631832138
0.057055681455985191 0.16405701351815305 0.56405560555671119
0.058952535808389189 0.16606941174272694 0.55993086762721545
0.060981580601884994 0.16840241522395771 0.55527793315727081
0.042732427929706454 0.23176156423874794 0.53591088213109428
0.041121605195991784 0.22752798755673986 0.54155990192142234
0.039712814980155303 0.22336115747720409 0.54670743442212055
0.042804702234903527 0.20583333699437034 0.55405046144431003
0.047243113651778371 0.19284857732535943 0.55675107927819401
0.05100808208236593 0.1777117858552244 0.562220111525078
-0.19034566884802254 0.074774500106607578 0.7265252980170378
-0.18535473895932514 0.085023761277563503 0.72361461330283428
-0.17929612447279156 0.095818091282106832 0.72108703596638479
-0.17278267078496112 0.10762190546845174 0.71427527285906933
-0.17278867289013558 0.1074667882993543 0.70965995118358638
-0.17272244112115429 0.10692158098107529 0.70390076002578983
-0.19869694329164869 0.058847688654674268 0.71654247537627036
-0.19757580712780354 0.061053501474955363 0.72168455975567092
-0.19640894602583545 0.062953281876883205 0.72576012555573222
0.021932843945811603 0.24827949868241062 0.55441240020842031
0.020643949243823317 0.24388969908313729 0.55995003902679041
0.019640151535569333 0.23951959587582006 0.56476972871380537
0.023741872400950534 0.23403431413517761 0.56299505185813548
0.028584334054670396 0.23250370029436274 0.55717672780645655
0.033318249818922424 0.22628986849115884 0.55424260238495471
-0.16578517885628632 0.11749734891068286 0.71627056816614276
-0.15917785846363594 0.12694308605240701 0.71424907590811548
-0.15322831806054721 0.13397608054471422 0.71317345274861443
-0.14618025313919664 0.14236744281279012 0.70721275220245339
-0.14509461254610442 0.14361455656853683 0.70185568125679465
-0.14396787352221291 0.14446344688192991 0.69542487313569756
0.0040011951716896615 0.209879391037748 0.59417007047545622
0.0034317499931300621 0.20680195807364998 0.59852122574412636
0.0031397891244988735 0.20376252392561811 0.60202804950035027
0.0066672028454981686 0.21179013997889629 0.5957371236144362
0.010237832243903816 0.22213909605601256 0.5865445061017116
0.014386182039132875 0.22865788889419791 0.57817664263446522
-0.14333891522003395 0.14192687926777436 0.712126271550928
-0.13980511208606747 0.14227548712726046 0.71223101667779654
-0.13772645547864645 0.13898068075434611 0.71347535724807987
-0.13410000702460978 0.13652764733777056 0.71002591873646193
-0.13258404710380969 0.1379633817393946 0.70486925419577284
-0.13100689943122967 0.13909098163432065 0.69870397582517541
-0.00032006465647244076 0.14313112291379393 0.62890562093786428
-0.00038416849887253079 0.14219655331520631 0.63195210048408246
-0.00027510536094978166 0.14144612452397543 0.63421118828514622
-0.0003901805174411771 0.1560806946354476 0.62894781619205542
-0.00033575416709097361 0.17117258896477616 0.62186305907221939
0.0011786148573559169 0.18554254741870291 0.61383467263212577
-0.13579387590737463 0.12586288798379075 0.7168073433843376
-0.13585749361625449 0.11705273698804775 0.71879744927074496
-0.13718769231029188 0.10667955943524532 0.72166414120714606
-0.13725724420195493 0.096101858586151279 0.72100619995505877
-0.13605057869132681 0.095968766192963573 0.71670390459897826
-0.13477394702876602 0.095677129546218542 0.71138549461565415
0.017735498372942207 0.089784419563215367 0.64318155757118589
0.017378341341820619 0.09040910316543338 0.6453272322213377
0.017112974197368458 0.091237280967134238 0.64683895973322425
0.011296543980733473 0.10316285372010947 0.64621822874751977
0.0064263110253920397 0.11404285705458295 0.64416524412288467
0.0030084867061682813 0.12685153202305322 0.64032029096750831
-0.14187874760711883 0.085096620701650805 0.72833988933171545
-0.14514690095057578 0.075108318352648196 0.73171913235759645
-0.14950456829545311 0.066070567246835465 0.73505371061943947
-0.15339116336307287 0.055617597735251989 0.7350854260528874
-0.15267204252627728 0.054013476595345833 0.73137974084607693
-0.15193647550661032 0.052208374771944177 0.72664838167963364
0.048361651506499348 0.073661651926210658 0.63000237531948899
0.047002421275775558 0.074374955865377901 0.63223186250373598
0.045705436555764992 0.075345658766106549 0.63393617810915748
0.037307772862094496 0.078162689111485051 0.64000265261124589
0.030593605547785091 0.080316361535910041 0.64400971510175564
0.023758675094009904 0.085907321936222303 0.64615008699912879
-0.16000529449748943 0.050552303634357254 0.74013354624760552
-0.16575943906670501 0.044606274150191583 0.74157303320376888
-0.17185883638232852 0.04062210828279833 0.74237585032972842
-0.17861452444780904 0.034547710889113903 0.73962605008145088
-0.17887748521489563 0.032288195238031614 0.73584520223809058
-0.17917718948331002 0.029780616401403615 0.73111878991762458
0.066879692501342819 0.10418856092564743 0.59456063800844072
0.064813981487563455 0.10410244233161781 0.5974718563199799
0.0627872491588123 0.10432481407619743 0.59993189736533026
0.057870146668537556 0.095155078270019011 0.61141342932053044
0.054746156168787474 0.086538362183862683 0.62001089048701852
0.049800793615822805 0.081291262632107508 0.62774090018203799
-0.18425677324770959 0.036195532951152964 0.74205375595772338
-0.1897644442899652 0.035793746089126 0.74108068832026275
-0.1939991706354422 0.037437902676279222 0.73984338629149882
-0.19921873039604984 0.036891111424418144 0.73510126437601642
-0.2004489934549272 0.034396009188643828 0.7313450661325076
-0.20165292766822882 0.031643403532254477 0.72665478628535585
0.05753613881163587 0.14630198512249493 0.57635300815508472
0.059800464685907315 0.13167239139745779 0.58419519576317391
0.060374417891581794 0.11826922938219253 0.59303271942538238
-0.19888070672472186 0.044356060009825393 0.73625927309878758
-0.19919096282930446 0.049542981006541753 0.73404174825692481
-0.19748432443973701 0.056677503295535336 0.73184193040072865
0.04995916394039035 0.15867797956048346 0.57673574200757161
0.043932128319900107 0.15504727724836642 0.58640933754415547
0.036389106983442041 0.1511518456878016 0.59778778767968443
0.037618840336796328 0.12842824025609367 0.61075536973117606
0.046648046001098981 0.11813220469873631 0.60777228588617849
0.054109142133254073 0.11069911308082836 0.60492009198436358
-0.17811168063705771 0.077985884712542863 0.73999772355281879
-0.18509720675145361 0.073009580503758165 0.7368728201479402
-0.19053746860951148 0.068704481814940821 0.73322766126168393
-0.19284903617775395 0.046631943854295921 0.74115371274124708
-0.18687620270065283 0.055274106221660624 0.74327598286332375
-0.17917276349354827 0.066501020844650593 0.74413443844656779
0.031204620429929109 0.1167525737349433 0.62446994835884073
0.036130354081240851 0.099341344388885755 0.62990362895075158
0.040445092609307579 0.086705451301255509 0.63316458514886653
-0.17698854377987577 0.044161375533799174 0.74468752195247756
-0.17515380649041107 0.053111161605494561 0.74576690337792417
-0.1723962604615388 0.065010731590096849 0.74546207157823563
0.021281860584175527 0.12300715571975518 0.63020712917644728
0.019293828484631376 0.10960628665119931 0.63877500708157786
0.017944025287165585 0.099960165997677208 0.64418657311352012
-0.15671739580791372 0.061821146889729395 0.74029064022698909
-0.15954467862919725 0.067254320890934194 0.74195339999473209
-0.16280810875147661 0.074126260987580128 0.74285648673507332
0.014510562161741389 0.14322966908788726 0.62515390917568858
0.0082896731636217802 0.14188389655608435 0.63073732948329608
0.0037007338907672632 0.14118865073632092 0.63399368636507925
-0.14320121810268777 0.094539875654098271 0.72929015454205137
-0.1487586063986191 0.092561792160017808 0.73374154620341914
-0.15589714412524899 0.089800132991390114 0.73808345135151399
0.014569806122427087 0.16667909146834337 0.61253179360537535
0.0091377366980792823 0.18029995436763291 0.61045763676157838
0.0055878799195274442 0.19120571657434027 0.60791404107663505
-0.14093090504193939 0.12628107700067503 0.72143296331223095
-0.14708615148440757 0.11634586587875206 0.72814994139290956
-0.15489098854689676 0.10378299425034676 0.7348113442525932
0.020637077650308602 0.17925353741542049 0.59903880532105136
0.019092971830652242 0.20148982317578712 0.58805043602575902
0.018651212098968362 0.21939792665446933 0.57833983140772771
-0.15107886564959383 0.1312863306676636 0.71913463282475165
-0.15529392042177781 0.12015717684133198 0.72630742993737973
-0.16028569415190397 0.10601265097792634 0.73365970021372817
0.029432571006710109 0.17270220998848429 0.59258073752534468
0.032790674927696772 0.19091582302817489 0.57709275075148403
0.035702414831534759 0.20586918175811342 0.56381167858938186
-0.17222095871616941 0.10430297605291905 0.72389059605477257
-0.17142088087840016 0.10020385870090953 0.72956926170492853
-0.17004143458834173 0.09449384395854632 0.73548916030625344
0.36281799426669348 -0.25494657645023433 0.60782569915016937
0.39073452888777366 -0.27505798132471526 0.62220013429644583
0.41569256144140454 -0.29428596326021583 0.63673001485364056
0.44837633022589601 -0.30848378270651355 0.65142168777227472
0.45306990799087898 -0.30337359585297186 0.65117239098836821
0.4523799588169507 -0.29685266640448837 0.65033890211079282
0.42787889223564624 -0.27567572247587679 0.63940556037953522
0.4058736905316736 -0.26067209170021166 0.62924501487128204
0.38104415812111647 -0.24430072185896723 0.61886915949734966
0.35230565725001584 -0.22877201932888191 0.60489159068324927
0.34862728015836464 -0.2304921355577314 0.60113432282609702
0.34203256967170131 -0.23231523323996417 0.59747174087045973
0.32469383072384445 -0.20968937261642218 0.59920363385166464
0.29501899503357204 -0.19270562678146941 0.59058763098344169
0.26612286127596385 -0.17677447940268487 0.58310208631432392
0.22664139090132293 -0.15809995636112983 0.56813933731300414
0.21442465279014156 -0.15553677177515679 0.55993508915447299
0.20172408389484048 -0.1547573592161966 0.55233690259417489
0.22421227971502938 -0.17399919867522562 0.55619597451710989
0.26121558172877657 -0.19341246155464864 0.56796897531507984
0.29747374220580058 -0.21366235878563056 0.5805582921682122
0.45781630855623479 -0.32891542551194886 0.66496908176074543
0.47431923212804838 -0.34328206311980669 0.67793215732214795
0.48649263550843863 -0.35460230016105143 0.68951018581152734
0.50280472544402499 -0.35450487257456365 0.69452556266645749
0.50373223925213828 -0.34415418806304432 0.68882710186024809
0.49714936465483883 -0.33165670173237816 0.68273983215092837
0.48099304358061756 -0.31421444822371836 0.671058637295181
0.4735164324638696 -0.30818708402577299 0.66458178886323882
0.46198676248364751 -0.29968548020470787 0.6572333670194066
0.21572911277739762 -0.15028366636721047 0.57219093368914242
0.19480386480209555 -0.14007160800400975 0.56904674138844813
0.17589694787304061 -0.13168996480713246 0.56768691598135668
0.13581659587655509 -0.11576105229469813 0.55476648450668931
0.11228205318710061 -0.1084498308253069 0.54148744492337064
0.088277090426898991 -0.1038531834797134 0.52886216350104309
0.090027079502999929 -0.1119522677417526 0.52081140809326021
0.11971145726355253 -0.12421200220022743 0.5270471155440406
0.15251545947417461 -0.13899589037271332 0.53540768867780386
0.49415090212283647 -0.36490581709019088 0.7065033631460107
0.48896027880471166 -0.36346713057067648 0.71174861675778178
0.47805091605511929 -0.35810181672934349 0.71528106451781115
0.47915908791932837 -0.34523352080596281 0.71282014672737315
0.48197188957608295 -0.33591508066591091 0.70648045120973313
0.47275332858392471 -0.32281849868566148 0.69964921240465516
0.46728604258982009 -0.31290469748410776 0.6900430108378286
0.47683349667636976 -0.31664734469041167 0.68629266356054996
0.48259474150623721 -0.31834341355399842 0.68187542629731457
0.14182098549829392 -0.11994324373903842 0.57123555936940251
0.12613046734685918 -0.11637567266271165 0.57600695199813812
0.11135861551901906 -0.11418309617093214 0.58223293352749783
0.073263681213576431 -0.10312144037125437 0.57398489331249758
0.047875847304354444 -0.095841607172736043 0.55868656345209144
0.021796172813765946 -0.092906379847892073 0.54459563743329342
0.010059799941750117 -0.094052151731677358 0.52491104640618724
0.025548263697352969 -0.094275635870157082 0.51956840818638383
0.04320373709858194 -0.097000652526626596 0.51693550815996181
0.44013629427776418 -0.3369982530149136 0.7185565461997947
0.41393512752229161 -0.32215985237360389 0.71866347925996976
0.38367427423080386 -0.30514453125544705 0.71779336358081025
0.37096824551388485 -0.28780299136228393 0.71453584573056261
0.3783766970582943 -0.28450999074583838 0.71095832906325196
0.37498258508655835 -0.27769740673967358 0.70648756196219997
0.39441084382474262 -0.28169529313325248 0.69998651280306046
0.41911739103240553 -0.29224646994016346 0.6979340492679591
0.4387732670246669 -0.30071299604130941 0.6957179825643629
0.084520661504463815 -0.11324811738700713 0.59728129076309022
0.071314738462299243 -0.11415126074943771 0.6059409845187993
0.0568884195673829 -0.11569151458243132 0.61569448520001524
0.013815063158548122 -0.11074231698640946 0.61521684110636787
-0.013135191058294235 -0.10687644342644154 0.60292673567987798
-0.039520462861219713 -0.10731049399294801 0.59053495700458836
-0.048908230198329836 -0.10816945469997641 0.56653461271956695
-0.033794025713285838 -0.10327562576537963 0.5542520170993237
-0.019001192013121407 -0.099012235579585273 0.54273033004490312
0.3138549567872907 -0.26603787010083724 0.71289266188021738
0.27755091299672247 -0.24508156869593012 0.70870950902719088
0.24321477987053292 -0.22441053019742396 0.70354307481869238
0.22370011633212117 -0.20671925072423858 0.70147999886456303
0.2266555088830384 -0.2059468339124656 0.70354134271571134
0.22280132623653753 -0.20321256944881938 0.70472941822235757
0.24864390003114692 -0.21666686099722865 0.70569250977420728
0.28724323506099358 -0.23494696321562714 0.70511217213898547
0.32678108289227459 -0.25266504775270582 0.70378537267736574
0.021323748649409655 -0.11923734521738283 0.63890517099221533
0.0017327498016376924 -0.12011032664390686 0.65096102965415037
-0.016568643788243201 -0.11974201449641297 0.66169067473564036
-0.054927404548019157 -0.11584347979693288 0.65887072251359635
-0.077412701710398074 -0.11601909031795521 0.6451940344603635
-0.098460673507568791 -0.11912388742385449 0.62989649112999446
-0.10733387639575451 -0.12422766104180394 0.60796673950106461
-0.09488492933148801 -0.12173929172375964 0.6000220995579002
-0.080196842332500712 -0.11794562801138342 0.59015496728715799
0.055081291483880343 -0.070292382878832882 0.68511201124386467
0.067769720543140413 -0.078288987576987212 0.67352294323652684
0.075302801058980379 -0.084140674768514723 0.66344508388200918
0.089681960011844836 -0.079411672955520651 0.65033262243573242
0.10596665203420863 -0.069473156164125749 0.6438777231123276
0.12451522645553062 -0.057353592840939105 0.63513539504949446
0.13913166822652456 -0.039658502629723147 0.62714265527839874
0.13244574836357814 -0.03384120378563571 0.62974468209671075
0.1237205179114324 -0.026018944232100716 0.63177080671342578
0.095833888224156338 -0.029922351152234183 0.64977450876541187
0.075650442577572155 -0.040274176594812694 0.66589438299827153
0.054798937492365557 -0.048642166201186887 0.68161941933552406
-0.12763335920166904 -0.045220623386045822 0.70433165953528043
-0.15560967508232249 -0.045677440376114986 0.69236325804070198
-0.18252337675236693 -0.047927409555018397 0.68035940589147703
-0.2141146989438702 -0.062077775024460102 0.65462522405774992
-0.22176191832764205 -0.074074843652535138 0.63662166373031992
-0.22977540855028733 -0.086025751789036931 0.61712894504573246
-0.21219882255854131 -0.094604410691599861 0.60675042025058179
-0.18661365007689762 -0.093170543333214395 0.61578249870202306
-0.16319350605380764 -0.09311558007402676 0.62385374800216331
-0.13439630543512091 -0.084740571600028125 0.65023412912228951
-0.12268669967842386 -0.073531918905762272 0.67294032261943659
-0.11036417040941338 -0.061916661957667318 0.69558712127512479
0.15809054376363696 -0.024739111592348539 0.60973546122496414
0.17052563913261137 -0.0034719508973282132 0.59222155670514853
0.17999091765139535 0.022068826744143344 0.57039880151603706
0.18269658331287408 0.054249569586186652 0.54465921349355284
0.17549288231951052 0.058593554020796246 0.54504314319263525
0.16615917750262818 0.063957399793731273 0.54593308087241654
0.15039546932587217 0.041808825980879982 0.57314876129813941
0.14161796935565651 0.018833100947884152 0.59522617849094628
0.12951466006972984 -0.00071680466484047578 0.61501825959930878
-0.22967692950990418 -0.053892267846539776 0.66016433311037614
-0.24860789060818245 -0.056358059291373275 0.65287500910681651
-0.26416114825208015 -0.058338561718001225 0.6468609679501327
-0.28586225443432611 -0.071451013685127629 0.62730102463264137
-0.29481938530250579 -0.083899178228217242 0.61052894560893645
-0.30266828571390958 -0.096354573147578004 0.59170755229539607
-0.2948040200208748 -0.1040928882633142 0.5795413710282733
-0.2782796741907102 -0.10117284555651651 0.58567918474593972
-0.25917286814998874 -0.098902076773557446 0.59146668141986547
0.19048873749015693 0.090430613906332225 0.50980658958681913
0.19130986456893462 0.13383081073816172 0.47093128778350835
0.1886940978239037 0.18170707378629647 0.42847477903445297
0.17632268046513305 0.2250685987296136 0.39462558384603197
0.16793570400688129 0.21844749466883684 0.40619509121765729
0.15841908127655172 0.21162314328632847 0.41959214190391414
0.1545953973227748 0.16777600952221994 0.46265767187933848
0.15774516071573666 0.132271560678486 0.49217881917201955
0.15825433164052388 0.098801017328862928 0.52121852674880209
-0.28492960169855425 -0.060669086645971482 0.6352433353270901
-0.2899265414384401 -0.059972704548639788 0.6296738561977806
-0.29109864354599863 -0.056534776340236625 0.62574091477917149
-0.29916891146387803 -0.064538782363036895 0.60709333206496652
-0.31040804261223592 -0.081953335873064193 0.58570535974380045
-0.32084800339436137 -0.099572725168100451 0.56182984610520714
-0.33227714903146149 -0.12081380994772228 0.53960741022505943
-0.32911059031785472 -0.11916106586296926 0.5484071465521998
-0.32087935591578265 -0.11396965416002347 0.56018534652538632
0.17183024742129757 0.28189696844953405 0.34503641851745748
0.15908560843772443 0.32842748422008938 0.31144473743634782
0.14587413911464595 0.368873624496453 0.28703170735561789
0.12835451952779509 0.38379715120546665 0.29348957212325866
0.12301542431006862 0.36475319125018835 0.31665300062029145
0.11815349407109048 0.34504638672928423 0.34054066942817052
0.12287069628022619 0.30253588440255641 0.37224084055488493
0.13213378824463046 0.27330545916651661 0.38767067999308669
0.14115686802059044 0.23989221208771094 0.40873360472096687
-0.2816522461011759 -0.036552811087351644 0.62712295960505804
-0.27213731730937418 -0.019747256756365905 0.63241908501075539
-0.26104310415055443 -0.00020870136791084626 0.63936396677738649
-0.25365370477442961 0.014843048084759003 0.63838576106874356
-0.25795115707083854 0.007263143382681081 0.62501111052827696
-0.26210739572627612 -0.0020303086453441477 0.60709700104016262
-0.28452124152134362 -0.04415299001595252 0.57212017844084873
-0.30297947142380988 -0.07465818549877612 0.55726601289553379
-0.31865220545631212 -0.099486743935458311 0.5442853691189482
0.12427591904376478 0.42209281306552926 0.26963526661825243
0.11626594482405073 0.43587669738793566 0.27361810374289774
0.10892059134313639 0.44561009969615006 0.28235075161282408
0.095158970027125062 0.43503947409111121 0.31645546842474737
0.089471042897445119 0.4124889754421015 0.34064012604682681
0.085061433039684956 0.38976879190565672 0.36346590672408574
0.090989518937917457 0.3603365945724456 0.37216328989326142
0.098884704921855374 0.3519719059590809 0.36458306605466806
0.10638162083139793 0.34139824489801052 0.36117294136659206
-0.23917397829022416 0.03871956124158582 0.65450785144643486
