# XYZ point cloud file
0.5566558837890625 0.88815212249755859 -0.455169677734375
0.55493545532226562 0.96081256866455078 -0.4610595703125
0.53555488586425781 0.95501327514648438 -0.443084716796875
0.53365707397460938 0.82786369323730469 -0.4150390625
0.55203056335449219 0.81724834442138672 -0.43701171875
-0.6175994873046875 -1.0326824188232422 -0.254150390625
-0.61969566345214844 -1.0189800262451172 -0.2569580078125
-0.66798877716064453 -1.0440387725830078 -0.292327880859375
-0.61673831939697266 -1.0464563369750977 -0.259857177734375
-0.56837177276611328 -1.0103015899658203 -0.215545654296875
-0.57359504699707031 -0.99790668487548828 -0.21673583984375
-0.6670989990234375 -1.0293998718261719 -0.291473388671875
-0.66992473602294922 -1.0585527420043945 -0.298583984375
-0.56394577026367188 -1.02288818359375 -0.2197265625
0.500823974609375 0.64613914489746094 -0.31915283203125
0.51874542236328125 0.69994163513183594 -0.3590087890625
0.49444770812988281 0.662872314453125 -0.313720703125
0.4800872802734375 0.59894180297851562 -0.279754638671875
0.50611114501953125 0.63134670257568359 -0.33087158203125
0.52530097961425781 0.68799018859863281 -0.371978759765625
0.51115226745605469 0.71305084228515625 -0.352752685546875
0.47487068176269531 0.61897563934326172 -0.276580810546875
0.48494911193847656 0.58202838897705078 -0.29107666015625
-0.43846225738525391 -0.90060997009277344 -0.095458984375
-0.45072460174560547 -0.89406967163085938 -0.100982666015625
-0.47743034362792969 -0.94194221496582031 -0.135223388671875
-0.4269256591796875 -0.906158447265625 -0.100372314453125
-0.40313816070556641 -0.855712890625 -0.0648193359375
-0.41911411285400391 -0.85410594940185547 -0.070556640625
-0.48833370208740234 -0.93426609039306641 -0.137237548828125
-0.46908283233642578 -0.95091915130615234 -0.138427734375
-0.39071559906005859 -0.85978794097900391 -0.06939697265625
0.4769439697265625 0.70856475830078125 -0.3314208984375
0.49101829528808594 0.74993419647216797 -0.365264892578125
0.47286033630371094 0.71916866302490234 -0.343292236328125
0.4612274169921875 0.672637939453125 -0.3001708984375
0.48173141479492188 0.6950225830078125 -0.32135009765625
0.49653053283691406 0.73801612854003906 -0.356689453125
0.48667716979980469 0.75888824462890625 -0.377227783203125
0.458221435546875 0.68561744689941406 -0.31451416015625
0.46444129943847656 0.65608024597167969 -0.287322998046875
-0.49090862274169922 -0.88798618316650391 -0.144775390625
-0.50175666809082031 -0.88739585876464844 -0.1622314453125
-0.52155780792236328 -0.9193267822265625 -0.177764892578125
-0.47865676879882812 -0.88775634765625 -0.126190185546875
-0.46485519409179688 -0.85451221466064453 -0.116363525390625
-0.47682571411132812 -0.85632514953613281 -0.134185791015625
-0.53004264831542969 -0.91860389709472656 -0.197052001953125
-0.51122474670410156 -0.92271041870117188 -0.162261962890625
-0.45110893249511719 -0.8533172607421875 -0.09796142578125
0.51424980163574219 0.89686012268066406 -0.439300537109375
0.51234245300292969 0.95097827911376953 -0.44732666015625
0.50918960571289062 0.89967155456542969 -0.4478759765625
0.51095008850097656 0.84499835968017578 -0.42169189453125
0.52020072937011719 0.89451694488525391 -0.43267822265625
0.51860427856445312 0.9519500732421875 -0.442169189453125
0.5081329345703125 0.95162296295166016 -0.456390380859375
0.50563812255859375 0.84984016418457031 -0.43267822265625
0.51699066162109375 0.8383941650390625 -0.41546630859375
-0.63040542602539062 -0.98991966247558594 -0.285369873046875
-0.63393306732177734 -0.98522853851318359 -0.29766845703125
-0.66919612884521484 -0.99849510192871094 -0.31658935546875
-0.62609100341796875 -0.9962158203125 -0.27142333984375
-0.59121322631835938 -0.97236347198486328 -0.25079345703125
-0.59686470031738281 -0.96955204010009766 -0.265167236328125
-0.67046451568603516 -0.99428844451904297 -0.329498291015625
-0.66785907745361328 -1.0064620971679688 -0.30584716796875
-0.58606243133544922 -0.97872543334960938 -0.2373046875
0.47085380554199219 1.1052722930908203 -0.42431640625
0.44669532775878906 1.1472501754760742 -0.40618896484375
0.47003555297851562 1.097966194152832 -0.434906005859375
0.49067115783691406 1.057072639465332 -0.43988037109375
0.47345542907714844 1.1143646240234375 -0.41656494140625
0.44672393798828125 1.1591196060180664 -0.396636962890625
0.44795989990234375 1.1392221450805664 -0.417877197265625
0.48855209350585938 1.0521030426025391 -0.4488525390625
0.49458503723144531 1.0627574920654297 -0.432403564453125
-0.78332328796386719 -0.96684169769287109 -0.402313232421875
-0.77856922149658203 -0.96552658081054688 -0.409759521484375
-0.81659984588623047 -0.94077491760253906 -0.426605224609375
-0.78945732116699219 -0.97257614135742188 -0.39715576171875
-0.74669265747070312 -0.98705577850341797 -0.375457763671875
-0.74425125122070312 -0.98468875885009766 -0.38360595703125
-0.80999469757080078 -0.94009590148925781 -0.433197021484375
-0.82407951354980469 -0.94290256500244141 -0.42205810546875
-0.75028133392333984 -0.99303245544433594 -0.368896484375
0.360870361328125 1.2231779098510742 -0.34716796875
0.33220481872558594 1.2268714904785156 -0.33056640625
0.36748123168945312 1.2099428176879883 -0.363494873046875
0.38999557495117188 1.2079076766967773 -0.36688232421875
0.354766845703125 1.2390584945678711 -0.3341064453125
0.32413482666015625 1.2440185546875 -0.314422607421875
0.34004974365234375 1.2133960723876953 -0.34716796875
0.39531517028808594 1.1956462860107422 -0.381072998046875
0.38641357421875 1.2231779098510742 -0.352447509765625
-0.88038444519042969 -0.83141613006591797 -0.479644775390625
-0.87011909484863281 -0.83776950836181641 -0.4840087890625
-0.88757705688476562 -0.79303550720214844 -0.488128662109375
-0.89264774322509766 -0.82695293426513672 -0.479736328125
-0.86588001251220703 -0.87054443359375 -0.46697998046875
-0.85605335235595703 -0.87463855743408203 -0.46978759765625
-0.87627410888671875 -0.80116748809814453 -0.490386962890625
-0.90101909637451172 -0.78508377075195312 -0.48797607421875
-0.87753105163574219 -0.86814117431640625 -0.4644775390625
0.26205635070800781 1.1697854995727539 -0.2786865234375
0.24620437622070312 1.1362810134887695 -0.263336181640625
0.27385902404785156 1.1571559906005859 -0.2989501953125
0.28188705444335938 1.1994848251342773 -0.294708251953125
0.25015449523925781 1.1837968826293945 -0.261566162109375
0.23342132568359375 1.1477622985839844 -0.245269775390625
0.2578125 1.1248445510864258 -0.2847900390625
0.29272079467773438 1.1863546371459961 -0.315582275390625
0.27090263366699219 1.213740348815918 -0.27825927734375
-0.86048412322998047 -0.69161033630371094 -0.452301025390625
-0.850128173828125 -0.70412731170654297 -0.458404541015625
-0.84185695648193359 -0.66662883758544922 -0.427764892578125
-0.87389469146728516 -0.67965316772460938 -0.45135498046875
-0.87747669219970703 -0.72226333618164062 -0.47247314453125
-0.86511516571044922 -0.73342323303222656 -0.47686767578125
-0.83085060119628906 -0.67836952209472656 -0.4342041015625
-0.85390853881835938 -0.65352153778076172 -0.42608642578125
-0.89021873474121094 -0.71071434020996094 -0.472503662109375
0.2190093994140625 1.0388975143432617 -0.223541259765625
0.20586395263671875 1.0458841323852539 -0.205902099609375
0.2156829833984375 1.0090436935424805 -0.213409423828125
0.2308807373046875 1.0322780609130859 -0.243072509765625
0.22402763366699219 1.0692682266235352 -0.235260009765625
0.21166610717773438 1.0772809982299805 -0.2174072265625
0.20274543762207031 1.0155582427978516 -0.197296142578125
0.22798347473144531 1.0054216384887695 -0.23333740234375
0.23657798767089844 1.0610284805297852 -0.256134033203125
-0.78111743927001953 -0.61928367614746094 -0.351470947265625
-0.76213836669921875 -0.61065959930419922 -0.330657958984375
-0.78998470306396484 -0.60463523864746094 -0.344635009765625
-0.80041217803955078 -0.63055610656738281 -0.375946044921875
-0.77328395843505859 -0.63200187683105469 -0.3621826171875
-0.75537109375 -0.62430381774902344 -0.339569091796875
-0.76997184753417969 -0.59672737121582031 -0.3232421875
-0.81003665924072266 -0.61647224426269531 -0.369842529296875
-0.79153347015380859 -0.64305305480957031 -0.3843994140625
0.364166259765625 0.50084781646728516 -0.13824462890625
0.367218017578125 0.46916389465332031 -0.12542724609375
0.36971855163574219 0.47852993011474609 -0.173797607421875
0.3587493896484375 0.52450275421142578 -0.152984619140625
0.3569488525390625 0.53499317169189453 -0.10137939453125
0.36255455017089844 0.50854682922363281 -0.07489013671875
0.37005805969238281 0.44263458251953125 -0.17010498046875
0.36495018005371094 0.50914478302001953 -0.18231201171875
0.3497161865234375 0.55238246917724609 -0.12188720703125
-0.34432125091552734 -0.66856575012207031 0.005126953125
-0.33069992065429688 -0.67520713806152344 -0.0211181640625
-0.31822967529296875 -0.66166114807128906 0.024017333984375
-0.37083625793457031 -0.66397285461425781 0.03131103515625
-0.365936279296875 -0.67041492462158203 -0.014312744140625
-0.35534381866455078 -0.67941856384277344 -0.037841796875
-0.30170726776123047 -0.66501235961914062 -0.015167236328125
-0.3455657958984375 -0.65912723541259766 0.063873291015625
-0.38850688934326172 -0.66358757019042969 0.004058837890625
0.41229629516601562 0.49631214141845703 -0.224456787109375
0.41327476501464844 0.47000694274902344 -0.231781005859375
0.43465232849121094 0.52402973175048828 -0.233154296875
0.40989494323730469 0.52581214904785156 -0.22509765625
0.39195442199707031 0.47883892059326172 -0.214569091796875
0.39139556884765625 0.44557571411132812 -0.22369384765625
0.43666839599609375 0.50152301788330078 -0.24224853515625
0.43142127990722656 0.54976940155029297 -0.232666015625
0.38998985290527344 0.51121425628662109 -0.217041015625
-0.33671092987060547 -0.73880577087402344 -0.043548583984375
-0.352630615234375 -0.77387523651123047 -0.04144287109375
-0.31748867034912109 -0.73497200012207031 -0.04779052734375
-0.32773303985595703 -0.70828628540039062 -0.0465087890625
-0.35992813110351562 -0.74303627014160156 -0.050018310546875
-0.37291908264160156 -0.77634429931640625 -0.04620361328125
-0.33558845520019531 -0.77260112762451172 -0.044464111328125
-0.30330371856689453 -0.70118522644042969 -0.051300048828125
-0.35343074798583984 -0.71485805511474609 -0.055694580078125
0.28355026245117188 0.70942211151123047 -0.008087158203125
0.29161262512207031 0.69714164733886719 0.029296875
0.3173675537109375 0.64375972747802734 -0.035186767578125
0.27380752563476562 0.71711063385009766 -0.038421630859375
0.24207878112792969 0.77295303344726562 0.02337646484375
0.25118446350097656 0.75873279571533203 0.05938720703125
0.32551956176757812 0.62825489044189453 0.002349853515625
0.30892753601074219 0.65212249755859375 -0.065185546875
0.23238754272460938 0.78357505798339844 -0.007781982421875
-0.5236053466796875 -0.62366294860839844 0.036102294921875
-0.46203708648681641 -0.64278888702392578 0.046173095703125
-0.50949478149414062 -0.62576198577880859 0.08074951171875
-0.58714199066162109 -0.59615898132324219 0.023590087890625
-0.53339290618896484 -0.61807155609130859 -0.004486083984375
-0.47374725341796875 -0.6395416259765625 0.008544921875
-0.44467830657958984 -0.64292240142822266 0.091705322265625
-0.57184791564941406 -0.60219383239746094 0.069732666015625
-0.59848499298095703 -0.58977317810058594 -0.019439697265625
0.1680145263671875 0.93654823303222656 -0.16485595703125
0.17182540893554688 0.91046428680419922 -0.162078857421875
0.1798858642578125 0.93452739715576172 -0.1671142578125
0.16618919372558594 0.96567440032958984 -0.16571044921875
0.15866470336914062 0.93624210357666016 -0.169586181640625
0.15896415710449219 0.91327857971191406 -0.163116455078125
0.18364334106445312 0.90767383575439453 -0.168304443359375
0.17698478698730469 0.96391773223876953 -0.16717529296875
0.15746688842773438 0.9658660888671875 -0.172027587890625
-0.72210216522216797 -0.53925514221191406 -0.269866943359375
-0.71833229064941406 -0.55322837829589844 -0.2672119140625
-0.702880859375 -0.53864383697509766 -0.253692626953125
-0.72356796264648438 -0.52657222747802734 -0.280548095703125
-0.74388504028320312 -0.54176521301269531 -0.2882080078125
-0.74011898040771484 -0.55611324310302734 -0.282318115234375
-0.69829368591308594 -0.55306529998779297 -0.252227783203125
-0.70720291137695312 -0.52305793762207031 -0.263336181640625
-0.74511432647705078 -0.52951622009277344 -0.299285888671875
0.41142845153808594 0.59943485260009766 -0.2630615234375
0.42745780944824219 0.61687374114990234 -0.265411376953125
0.41351699829101562 0.61606597900390625 -0.281829833984375
0.39636611938476562 0.58809089660644531 -0.2662353515625
0.40884590148925781 0.57913112640380859 -0.246673583984375
0.42781257629394531 0.59884071350097656 -0.250091552734375
0.42780303955078125 0.63221931457519531 -0.28253173828125
0.40133094787597656 0.60462760925292969 -0.2862548828125
0.39106941223144531 0.56717967987060547 -0.245025634765625
-0.41960716247558594 -0.77018547058105469 -0.101959228515625
-0.43249988555908203 -0.78084850311279297 -0.120361328125
-0.42837142944335938 -0.79489040374755859 -0.094024658203125
-0.40285491943359375 -0.759552001953125 -0.079345703125
-0.41450786590576172 -0.7501678466796875 -0.111236572265625
-0.42790317535400391 -0.76373958587646484 -0.13226318359375
-0.442047119140625 -0.80259227752685547 -0.11529541015625
-0.41254138946533203 -0.78733539581298828 -0.076690673828125
-0.39841175079345703 -0.73521900177001953 -0.092010498046875
0.3645172119140625 0.594390869140625 -0.275238037109375
0.35600662231445312 0.60650730133056641 -0.27459716796875
0.35393142700195312 0.58064079284667969 -0.251739501953125
0.37308120727539062 0.58768177032470703 -0.274505615234375
0.37546539306640625 0.61017513275146484 -0.2967529296875
0.36889839172363281 0.62092685699462891 -0.296966552734375
0.34334754943847656 0.59437847137451172 -0.250946044921875
0.36399269104003906 0.5688018798828125 -0.249237060546875
0.38228416442871094 0.60260295867919922 -0.295074462890625
-0.42870616912841797 -0.71398639678955078 -0.143157958984375
-0.41824054718017578 -0.69393157958984375 -0.12335205078125
-0.4396820068359375 -0.70729637145996094 -0.151092529296875
-0.43899917602539062 -0.7349853515625 -0.16064453125
-0.42002105712890625 -0.72288799285888672 -0.134124755859375
-0.40662956237792969 -0.70348167419433594 -0.11376953125
-0.43165302276611328 -0.68459892272949219 -0.134552001953125
-0.44868278503417969 -0.72880172729492188 -0.1685791015625
-0.43211555480957031 -0.74082183837890625 -0.15380859375
0.33094596862792969 0.64638614654541016 -0.28607177734375
0.31803512573242188 0.64094161987304688 -0.2738037109375
0.33939743041992188 0.63377571105957031 -0.28094482421875
0.34301948547363281 0.65538978576660156 -0.298858642578125
0.32295989990234375 0.65648746490478516 -0.291656494140625
0.312103271484375 0.65336799621582031 -0.285430908203125
0.32438468933105469 0.62613677978515625 -0.26226806640625
0.35215568542480469 0.64457130432128906 -0.296478271484375
0.33422470092773438 0.66366291046142578 -0.301971435546875
-0.47520351409912109 -0.68527030944824219 -0.190399169921875
-0.46293354034423828 -0.69292640686035156 -0.174285888671875
-0.47284793853759766 -0.6650543212890625 -0.18511962890625
-0.4842987060546875 -0.67808437347412109 -0.205108642578125
-0.48032093048095703 -0.70335674285888672 -0.196929931640625
-0.47006893157958984 -0.71274948120117188 -0.185302734375
-0.45979690551757812 -0.67059230804443359 -0.165069580078125
-0.48418807983398438 -0.66292381286621094 -0.203125
-0.48785781860351562 -0.69397163391113281 -0.207733154296875
0.27889442443847656 0.69553661346435547 -0.24761962890625
0.26782035827636719 0.73033905029296875 -0.240997314453125
0.27660560607910156 0.69050407409667969 -0.226654052734375
0.29103469848632812 0.66561985015869141 -0.25506591796875
0.28138160705566406 0.70264053344726562 -0.26507568359375
0.27257156372070312 0.73389434814453125 -0.25860595703125
0.26173210144042969 0.72865867614746094 -0.219573974609375
0.29300689697265625 0.65529441833496094 -0.2353515625
0.29098892211914062 0.67578506469726562 -0.27032470703125
-0.52136039733886719 -0.62657260894775391 -0.199127197265625
-0.51680660247802734 -0.62228679656982422 -0.179046630859375
-0.54880332946777344 -0.62041664123535156 -0.211181640625
-0.52574348449707031 -0.63308334350585938 -0.219146728515625
-0.49646568298339844 -0.63641357421875 -0.19110107421875
-0.48662567138671875 -0.63461112976074219 -0.167938232421875
-0.5487518310546875 -0.61174964904785156 -0.192901611328125
-0.55056476593017578 -0.62840843200683594 -0.226806640625
-0.50463390350341797 -0.63895511627197266 -0.209320068359375
0.23979759216308594 0.82376480102539062 -0.222808837890625
0.22765731811523438 0.82532119750976562 -0.203765869140625
0.248260498046875 0.79514408111572266 -0.229248046875
0.25028419494628906 0.82367610931396484 -0.240478515625
0.2330169677734375 0.84948062896728516 -0.216278076171875
0.22052574157714844 0.85084342956542969 -0.198883056640625
0.23697090148925781 0.79689693450927734 -0.20953369140625
0.2578277587890625 0.79584884643554688 -0.246551513671875
0.24378776550292969 0.84934139251708984 -0.233489990234375
-0.62356662750244141 -0.60555458068847656 -0.24114990234375
-0.60079479217529297 -0.61027050018310547 -0.231658935546875
-0.62769794464111328 -0.59140682220458984 -0.227874755859375
-0.64374256134033203 -0.601898193359375 -0.24853515625
-0.62137508392333984 -0.6184539794921875 -0.252685546875
-0.59953880310058594 -0.62147235870361328 -0.24444580078125
-0.605010986328125 -0.59752845764160156 -0.218505859375
-0.64850234985351562 -0.58724403381347656 -0.2396240234375
-0.641632080078125 -0.61627292633056641 -0.259796142578125
0.21858787536621094 0.92825984954833984 -0.205810546875
0.20539474487304688 0.93076801300048828 -0.188934326171875
0.22211647033691406 0.90171337127685547 -0.208587646484375
0.22982406616210938 0.926544189453125 -0.224212646484375
0.21548080444335938 0.95447731018066406 -0.20623779296875
0.20281028747558594 0.95819377899169922 -0.188720703125
0.2085113525390625 0.90258979797363281 -0.19268798828125
0.23389053344726562 0.90090751647949219 -0.22491455078125
0.22748374938964844 0.95163154602050781 -0.223388671875
-0.70409297943115234 -0.59955596923828125 -0.27984619140625
-0.68408012390136719 -0.59845924377441406 -0.26873779296875
-0.70911121368408203 -0.58481884002685547 -0.27130126953125
-0.72376155853271484 -0.60155677795410156 -0.29425048828125
-0.69993877410888672 -0.61396312713623047 -0.2906494140625
-0.68097305297851562 -0.61308383941650391 -0.278564453125
-0.68845844268798828 -0.583343505859375 -0.2608642578125
-0.72967243194580078 -0.58725833892822266 -0.28558349609375
-0.71840095520019531 -0.61491584777832031 -0.303253173828125
0.18822479248046875 0.85521888732910156 -0.133880615234375
0.20021438598632812 0.83365821838378906 -0.122955322265625
0.20348739624023438 0.84062290191650391 -0.159576416015625
0.18068122863769531 0.87155437469482422 -0.145050048828125
0.16793632507324219 0.87510013580322266 -0.102935791015625
0.18029022216796875 0.85754108428955078 -0.083648681640625
0.21424484252929688 0.81569957733154297 -0.15704345703125
0.19493484497070312 0.86212825775146484 -0.163909912109375
0.16245651245117188 0.88413143157958984 -0.126861572265625
-0.66127777099609375 -0.55220699310302734 -0.192108154296875
-0.64597606658935547 -0.56568622589111328 -0.20477294921875
-0.64305973052978516 -0.56191062927246094 -0.16815185546875
-0.68197822570800781 -0.53348541259765625 -0.180877685546875
-0.67456340789794922 -0.54430198669433594 -0.214599609375
-0.66229629516601562 -0.55931568145751953 -0.22149658203125
-0.62550544738769531 -0.57465267181396484 -0.187347412109375
-0.66775417327880859 -0.54750823974609375 -0.147705078125
-0.68905448913574219 -0.52555656433105469 -0.213226318359375
0.26773452758789062 0.70372581481933594 -0.138336181640625
0.2661285400390625 0.71335220336914062 -0.102783203125
0.29274368286132812 0.65132999420166016 -0.152069091796875
0.27023506164550781 0.69419765472412109 -0.170562744140625
0.24061775207519531 0.75600624084472656 -0.124725341796875
0.2321929931640625 0.77394676208496094 -0.08349609375
0.29569053649902344 0.65488719940185547 -0.12188720703125
0.29335784912109375 0.6470947265625 -0.18280029296875
0.24859237670898438 0.74159526824951172 -0.1617431640625
-0.52748966217041016 -0.61104583740234375 -0.101654052734375
-0.48110866546630859 -0.62866401672363281 -0.08612060546875
-0.5343170166015625 -0.61098480224609375 -0.070892333984375
-0.57497024536132812 -0.59285736083984375 -0.122344970703125
-0.52064037322998047 -0.61363601684570312 -0.1302490234375
-0.4792327880859375 -0.62960433959960938 -0.113800048828125
-0.48225593566894531 -0.63092613220214844 -0.055755615234375
-0.59193325042724609 -0.58729171752929688 -0.091796875
-0.56185722351074219 -0.59812068939208984 -0.149017333984375
0.33820343017578125 0.56369876861572266 -0.18707275390625
0.3439178466796875 0.55419731140136719 -0.17840576171875
0.34084320068359375 0.56352901458740234 -0.204559326171875
0.3298187255859375 0.57786369323730469 -0.178863525390625
0.33477401733398438 0.57332706451416016 -0.159088134765625
0.35029983520507812 0.54872512817382812 -0.201416015625
0.32893943786621094 0.58150863647460938 -0.2025146484375
-0.40451812744140625 -0.66222763061523438 -0.068267822265625
-0.40482425689697266 -0.66657447814941406 -0.083404541015625
-0.39482593536376953 -0.66581630706787109 -0.0548095703125
-0.41617202758789062 -0.65443992614746094 -0.068572998046875
-0.42113685607910156 -0.65704536437988281 -0.09228515625
-0.39070796966552734 -0.67457294464111328 -0.070831298828125
-0.41006851196289062 -0.657012939453125 -0.046417236328125
0.25344657897949219 0.92316055297851562 -0.2728271484375
0.24686813354492188 0.92377662658691406 -0.258392333984375
0.2561798095703125 0.89846706390380859 -0.27301025390625
0.25970268249511719 0.92220592498779297 -0.287200927734375
0.25166511535644531 0.94655418395996094 -0.275634765625
0.24510765075683594 0.94832515716552734 -0.26007080078125
0.2506561279296875 0.89895057678222656 -0.256805419921875
0.26269149780273438 0.89801311492919922 -0.286865234375
0.25858879089355469 0.94671821594238281 -0.289459228515625
-0.69038677215576172 -0.64047050476074219 -0.3248291015625
-0.67251110076904297 -0.63941860198974609 -0.312469482421875
-0.69278907775878906 -0.63327884674072266 -0.313629150390625
-0.70805835723876953 -0.64287567138671875 -0.338531494140625
-0.68842506408691406 -0.64921760559082031 -0.3348388671875
-0.67095565795898438 -0.6473236083984375 -0.322357177734375
-0.67518997192382812 -0.63279819488525391 -0.30084228515625
-0.71038436889648438 -0.63529872894287109 -0.32757568359375
-0.70592212677001953 -0.65095043182373047 -0.349090576171875
0.2687530517578125 0.82677268981933594 -0.283843994140625
0.264251708984375 0.8252410888671875 -0.270233154296875
0.27408790588378906 0.80054950714111328 -0.289337158203125
0.27407073974609375 0.82560634613037109 -0.296844482421875
0.26431083679199219 0.84994220733642578 -0.278961181640625
0.25906753540039062 0.85042285919189453 -0.265350341796875
0.270050048828125 0.799713134765625 -0.277191162109375
0.2785797119140625 0.80132389068603516 -0.30120849609375
0.27020645141601562 0.85080718994140625 -0.292266845703125
-0.61878585815429688 -0.64284515380859375 -0.287139892578125
-0.59897708892822266 -0.64408016204833984 -0.279449462890625
-0.61951541900634766 -0.63660335540771484 -0.275543212890625
-0.63695716857910156 -0.64171600341796875 -0.294097900390625
-0.61775779724121094 -0.64975738525390625 -0.29571533203125
-0.59903621673583984 -0.65055656433105469 -0.28924560546875
-0.60000801086425781 -0.63918781280517578 -0.268768310546875
-0.63813304901123047 -0.63514041900634766 -0.282196044921875
-0.63573074340820312 -0.64948749542236328 -0.303314208984375
0.28754425048828125 0.71693515777587891 -0.306671142578125
0.284942626953125 0.71361351013183594 -0.29412841796875
0.29240989685058594 0.69367027282714844 -0.31048583984375
0.29038238525390625 0.71919822692871094 -0.31658935546875
0.28309059143066406 0.74487209320068359 -0.3006591796875
0.27965545654296875 0.74236488342285156 -0.287689208984375
0.29071998596191406 0.68909454345703125 -0.2987060546875
0.29506111145019531 0.69814395904541016 -0.319732666015625
0.28685379028320312 0.74562358856201172 -0.311981201171875
-0.53663444519042969 -0.64553928375244141 -0.259307861328125
-0.51893806457519531 -0.64729118347167969 -0.25390625
-0.53414535522460938 -0.64198875427246094 -0.247283935546875
-0.55747032165527344 -0.64531040191650391 -0.266021728515625
-0.53778362274169922 -0.65085792541503906 -0.268768310546875
-0.52183437347412109 -0.65261363983154297 -0.2625732421875
-0.51556491851806641 -0.64346599578857422 -0.242889404296875
-0.55572986602783203 -0.64009857177734375 -0.254486083984375
-0.55789375305175781 -0.65084934234619141 -0.27447509765625
0.31503105163574219 0.67456340789794922 -0.3209228515625
0.31517410278320312 0.66943359375 -0.3109130859375
0.32529830932617188 0.67861557006835938 -0.32427978515625
0.31529808044433594 0.68016433715820312 -0.329620361328125
0.30593681335449219 0.67295742034912109 -0.31866455078125
0.30627822875976562 0.66804885864257812 -0.30718994140625
0.32525634765625 0.67435455322265625 -0.315643310546875
0.32631111145019531 0.68435096740722656 -0.33172607421875
0.30753517150878906 0.6796722412109375 -0.3258056640625
-0.50084400177001953 -0.67397689819335938 -0.2432861328125
-0.50159931182861328 -0.68830966949462891 -0.240509033203125
-0.49738502502441406 -0.67273998260498047 -0.2305908203125
-0.50144767761230469 -0.66121673583984375 -0.24462890625
-0.50567245483398438 -0.67628765106201172 -0.252105712890625
-0.50619792938232422 -0.69153404235839844 -0.250518798828125
-0.49860382080078125 -0.68679332733154297 -0.230560302734375
-0.49709892272949219 -0.65973472595214844 -0.2332763671875
-0.50614738464355469 -0.66512012481689453 -0.254302978515625
0.36119842529296875 0.67592716217041016 -0.335968017578125
0.35787010192871094 0.67084884643554688 -0.324554443359375
0.37302780151367188 0.66757869720458984 -0.338653564453125
0.36412429809570312 0.68123912811279297 -0.34503173828125
0.34877204895019531 0.68068790435791016 -0.331298828125
0.34675216674804688 0.67639064788818359 -0.321685791015625
0.3690338134765625 0.6621856689453125 -0.325836181640625
0.37557792663574219 0.67339515686035156 -0.34893798828125
0.35064506530761719 0.68591213226318359 -0.341278076171875
-0.49360179901123047 -0.73671340942382812 -0.225860595703125
-0.48539257049560547 -0.74978733062744141 -0.219696044921875
-0.48983955383300781 -0.72951698303222656 -0.215789794921875
-0.49927043914794922 -0.72200870513916016 -0.230499267578125
-0.49734115600585938 -0.74112892150878906 -0.234588623046875
-0.49013233184814453 -0.75577163696289062 -0.229644775390625
-0.48149490356445312 -0.74312496185302734 -0.20928955078125
-0.49643135070800781 -0.71578598022460938 -0.22296142578125
-0.50322341918945312 -0.72549247741699219 -0.24078369140625
0.39278793334960938 0.63435935974121094 -0.34552001953125
0.38952827453613281 0.62906360626220703 -0.334197998046875
0.39587211608886719 0.62665176391601562 -0.345367431640625
0.39467620849609375 0.6394195556640625 -0.355377197265625
0.38824272155761719 0.64506816864013672 -0.34466552734375
0.38472366333007812 0.63996505737304688 -0.333038330078125
0.39346504211425781 0.62066555023193359 -0.33221435546875
0.39808464050292969 0.63154125213623047 -0.35369873046875
0.39121627807617188 0.65078258514404297 -0.35455322265625
-0.45720100402832031 -0.76888084411621094 -0.2042236328125
-0.45050239562988281 -0.77252578735351562 -0.19830322265625
-0.45332717895507812 -0.76178836822509766 -0.19329833984375
-0.4661865234375 -0.7653045654296875 -0.209259033203125
-0.46176624298095703 -0.77435874938964844 -0.213043212890625
-0.45537757873535156 -0.77671623229980469 -0.208038330078125
-0.44669342041015625 -0.76565265655517578 -0.186737060546875
-0.46181011199951172 -0.75916862487792969 -0.197479248046875
-0.47070121765136719 -0.771820068359375 -0.21795654296875
0.41636276245117188 0.6382904052734375 -0.329010009765625
0.41663932800292969 0.63390064239501953 -0.316497802734375
0.42699813842773438 0.6552581787109375 -0.32806396484375
0.41518402099609375 0.64384937286376953 -0.33941650390625
0.4075775146484375 0.62769126892089844 -0.33447265625
0.40659332275390625 0.62231636047363281 -0.321929931640625
0.42853164672851562 0.65034770965576172 -0.315521240234375
0.42458152770996094 0.66102409362792969 -0.339569091796875
0.40756797790527344 0.63306617736816406 -0.34393310546875
-0.45363616943359375 -0.79654312133789062 -0.170928955078125
-0.46403694152832031 -0.81295299530029297 -0.164886474609375
-0.44917392730712891 -0.79492950439453125 -0.156036376953125
-0.44833946228027344 -0.78420639038085938 -0.180419921875
-0.45930767059326172 -0.79853534698486328 -0.184326171875
-0.46941852569580078 -0.81429958343505859 -0.1798095703125
-0.45870018005371094 -0.81223297119140625 -0.14996337890625
-0.44394683837890625 -0.78050994873046875 -0.1671142578125
-0.45305442810058594 -0.78799247741699219 -0.19091796875
0.25701332092285156 1.0222387313842773 -0.29693603515625
0.25011253356933594 1.024169921875 -0.281219482421875
0.25308418273925781 0.99706268310546875 -0.28680419921875
0.26444816589355469 1.0224952697753906 -0.310211181640625
0.26219558715820312 1.0496635437011719 -0.309539794921875
0.25625991821289062 1.0517454147338867 -0.293975830078125
0.24616241455078125 0.99795913696289062 -0.270416259765625
0.26111221313476562 0.99657630920410156 -0.301605224609375
0.2701263427734375 1.049534797668457 -0.3223876953125
-0.75873184204101562 -0.66031742095947266 -0.39471435546875
-0.74205112457275391 -0.65190982818603516 -0.373443603515625
-0.76250648498535156 -0.65245437622070312 -0.38311767578125
-0.77593708038330078 -0.67236995697021484 -0.41583251953125
-0.75693130493164062 -0.66981887817382812 -0.4033203125
-0.73953819274902344 -0.66087818145751953 -0.382049560546875
-0.74510955810546875 -0.64424037933349609 -0.362640380859375
-0.77935314178466797 -0.66423892974853516 -0.407012939453125
-0.77422428131103516 -0.68046760559082031 -0.423797607421875
0.29925918579101562 1.1415500640869141 -0.34954833984375
0.29228019714355469 1.1444368362426758 -0.334381103515625
0.28396034240722656 1.1108417510986328 -0.335845947265625
0.30476760864257812 1.1389245986938477 -0.360198974609375
0.31700325012207031 1.1679391860961914 -0.36395263671875
0.31033515930175781 1.171504020690918 -0.35101318359375
0.27706718444824219 1.114018440246582 -0.320526123046875
0.28975486755371094 1.1090297698974609 -0.347686767578125
0.32141304016113281 1.1637506484985352 -0.374755859375
-0.83167648315429688 -0.7314300537109375 -0.482147216796875
-0.81359481811523438 -0.70775222778320312 -0.462005615234375
-0.83576679229736328 -0.72439479827880859 -0.47308349609375
-0.84583282470703125 -0.75883865356445312 -0.498504638671875
-0.82857704162597656 -0.73813629150390625 -0.487274169921875
-0.81053066253662109 -0.71512603759765625 -0.467742919921875
-0.81748390197753906 -0.70000362396240234 -0.453094482421875
-0.85110092163085938 -0.75233840942382812 -0.489959716796875
-0.84179401397705078 -0.76449775695800781 -0.50225830078125
0.38434791564941406 1.1921844482421875 -0.405609130859375
0.379669189453125 1.1956949234008789 -0.3948974609375
0.36031532287597656 1.1947097778320312 -0.391632080078125
0.38705635070800781 1.1856174468994141 -0.4134521484375
0.40959548950195312 1.180389404296875 -0.420196533203125
0.40578460693359375 1.18328857421875 -0.410797119140625
0.35435676574707031 1.1981287002563477 -0.37957763671875
0.36335182189941406 1.1883573532104492 -0.399017333984375
0.41077995300292969 1.1746110916137695 -0.427032470703125
-0.85356330871582031 -0.85656642913818359 -0.501495361328125
-0.85805511474609375 -0.82215023040771484 -0.50860595703125
-0.85744190216064453 -0.85145854949951172 -0.49566650390625
-0.84228706359863281 -0.89006423950195312 -0.49090576171875
-0.84840965270996094 -0.85965061187744141 -0.503509521484375
-0.85286712646484375 -0.8262939453125 -0.5101318359375
-0.86206245422363281 -0.81692028045654297 -0.5023193359375
-0.84547996520996094 -0.88525390625 -0.483489990234375
-0.83754825592041016 -0.89090728759765625 -0.492401123046875
0.47451210021972656 1.0918235778808594 -0.467681884765625
0.47314834594726562 1.0930414199829102 -0.45843505859375
0.45510482788085938 1.1296291351318359 -0.451446533203125
0.47309303283691406 1.0889110565185547 -0.470550537109375
0.49020767211914062 1.0502004623413086 -0.478302001953125
0.48949241638183594 1.0494565963745117 -0.47076416015625
0.45311546325683594 1.1311216354370117 -0.44281005859375
0.45449638366699219 1.1250295639038086 -0.457061767578125
0.48723793029785156 1.0483989715576172 -0.482208251953125
-0.77412605285644531 -0.97203636169433594 -0.43450927734375
-0.80214500427246094 -0.94974708557128906 -0.454864501953125
-0.77528476715087891 -0.96918392181396484 -0.4281005859375
-0.74358177185058594 -0.98786354064941406 -0.41229248046875
-0.77292823791503906 -0.96936893463134766 -0.4388427734375
-0.79972553253173828 -0.94850826263427734 -0.45849609375
-0.80344104766845703 -0.94551658630371094 -0.449127197265625
-0.74334144592285156 -0.98675632476806641 -0.405303955078125
-0.74291419982910156 -0.98428058624267578 -0.4168701171875
0.50410842895507812 0.90731430053710938 -0.479522705078125
0.50565719604492188 0.90590095520019531 -0.468902587890625
0.50523567199707031 0.95531082153320312 -0.48565673828125
0.50018882751464844 0.90930938720703125 -0.483551025390625
0.49948692321777344 0.85920524597167969 -0.46405029296875
0.50118637084960938 0.85748767852783203 -0.455963134765625
0.50625228881835938 0.95424747467041016 -0.47723388671875
0.50144767761230469 0.95624351501464844 -0.488739013671875
0.49492263793945312 0.86242961883544922 -0.469146728515625
-0.64149761199951172 -0.98442363739013672 -0.335906982421875
-0.67593574523925781 -0.99397563934326172 -0.361907958984375
-0.63909912109375 -0.98426151275634766 -0.3255615234375
-0.60796070098876953 -0.96744155883789062 -0.307769775390625
-0.64380264282226562 -0.97913742065429688 -0.343414306640625
-0.67789077758789062 -0.98901557922363281 -0.369049072265625
-0.67460060119628906 -0.99370765686035156 -0.352783203125
-0.60468482971191406 -0.96803379058837891 -0.29620361328125
-0.61141300201416016 -0.96316909790039062 -0.318328857421875
0.46645164489746094 0.73829841613769531 -0.38409423828125
0.46870803833007812 0.73391532897949219 -0.371826171875
0.47946929931640625 0.77386856079101562 -0.41583251953125
0.46202659606933594 0.74251365661621094 -0.392608642578125
0.4522705078125 0.70558452606201172 -0.35394287109375
0.45470237731933594 0.70099163055419922 -0.343231201171875
0.48157691955566406 0.77032279968261719 -0.402435302734375
0.47510719299316406 0.77909755706787109 -0.422515869140625
0.44939804077148438 0.71150398254394531 -0.366058349609375
-0.52041435241699219 -0.89002513885498047 -0.21258544921875
-0.546295166015625 -0.91861534118652344 -0.244354248046875
-0.51523303985595703 -0.89007568359375 -0.198577880859375
-0.49711418151855469 -0.86115741729736328 -0.186248779296875
-0.52533149719238281 -0.88792800903320312 -0.226104736328125
-0.55119609832763672 -0.91520309448242188 -0.25750732421875
-0.54223728179931641 -0.91928863525390625 -0.229644775390625
-0.49223804473876953 -0.86164093017578125 -0.171295166015625
-0.50360202789306641 -0.85989761352539062 -0.201324462890625
0.36987113952636719 0.72478103637695312 -0.360321044921875
0.36812973022460938 0.70546817779541016 -0.35772705078125
0.38228416442871094 0.71862411499023438 -0.364044189453125
0.372344970703125 0.7475433349609375 -0.361328125
0.35665702819824219 0.72779941558837891 -0.3555908203125
0.35536003112792969 0.70968341827392578 -0.35211181640625
0.38009071350097656 0.6986236572265625 -0.36041259765625
0.38430595397949219 0.74069690704345703 -0.365447998046875
0.35841560363769531 0.75019073486328125 -0.35552978515625
-0.52831077575683594 -0.75983428955078125 -0.258819580078125
-0.52157020568847656 -0.77488231658935547 -0.251922607421875
-0.51492786407470703 -0.75403881072998047 -0.251708984375
-0.53261566162109375 -0.74264049530029297 -0.264404296875
-0.54407596588134766 -0.76706695556640625 -0.266448974609375
-0.53772258758544922 -0.78200626373291016 -0.259429931640625
-0.50740432739257812 -0.76778221130371094 -0.245025634765625
-0.51985836029052734 -0.73572158813476562 -0.2579345703125
-0.54888057708740234 -0.74881839752197266 -0.271270751953125
0.37145423889160156 0.82369041442871094 -0.36602783203125
0.37237358093261719 0.79688167572021484 -0.364593505859375
0.38588905334472656 0.81870269775390625 -0.37347412109375
0.36965179443359375 0.84953022003173828 -0.36749267578125
0.35698509216308594 0.82456874847412109 -0.3587646484375
0.35823249816894531 0.79904365539550781 -0.357025146484375
0.38658523559570312 0.79184436798095703 -0.369903564453125
0.38461875915527344 0.84574985504150391 -0.378082275390625
0.35480499267578125 0.850860595703125 -0.3594970703125
-0.59899139404296875 -0.78134059906005859 -0.29840087890625
-0.59366321563720703 -0.80006790161132812 -0.2930908203125
-0.58028888702392578 -0.77734375 -0.2869873046875
-0.60272216796875 -0.76153087615966797 -0.301055908203125
-0.61795139312744141 -0.7831573486328125 -0.309417724609375
-0.61256980895996094 -0.80328845977783203 -0.30743408203125
-0.57442474365234375 -0.79532527923583984 -0.2799072265625
-0.58383464813232422 -0.75790977478027344 -0.289703369140625
-0.62225532531738281 -0.76329898834228516 -0.31317138671875
0.3605499267578125 0.92577457427978516 -0.368072509765625
0.36339187622070312 0.9012451171875 -0.369415283203125
0.37801933288574219 0.92389202117919922 -0.38031005859375
0.3585052490234375 0.94980239868164062 -0.3677978515625
0.34584426879882812 0.92583560943603516 -0.358001708984375
0.34871673583984375 0.902099609375 -0.358795166015625
0.38042640686035156 0.89848518371582031 -0.381195068359375
0.37569236755371094 0.94893169403076172 -0.38018798828125
0.34349632263183594 0.95027732849121094 -0.3585205078125
-0.67395591735839844 -0.78498744964599609 -0.3494873046875
-0.67089462280273438 -0.809326171875 -0.3482666015625
-0.65578651428222656 -0.78508090972900391 -0.337066650390625
-0.67654132843017578 -0.76494693756103516 -0.35040283203125
-0.69056510925292969 -0.78720951080322266 -0.360626220703125
-0.68776893615722656 -0.80976486206054688 -0.35821533203125
-0.65125083923339844 -0.80784034729003906 -0.33502197265625
-0.65932750701904297 -0.76447296142578125 -0.338897705078125
-0.69380378723144531 -0.76586341857910156 -0.361480712890625
0.35888099670410156 1.0158929824829102 -0.3665771484375
0.35762786865234375 0.99495792388916016 -0.367523193359375
0.37469291687011719 1.0174112319946289 -0.377349853515625
0.3614654541015625 1.0396633148193359 -0.36944580078125
0.34416770935058594 1.0178976058959961 -0.35888671875
0.342376708984375 0.99580001831054688 -0.3582763671875
0.37376022338867188 0.99495887756347656 -0.377685546875
0.37609672546386719 1.0397415161132812 -0.378448486328125
0.34745025634765625 1.0411968231201172 -0.36224365234375
-0.73737812042236328 -0.79803657531738281 -0.388916015625
-0.73575592041015625 -0.81975650787353516 -0.38739013671875
-0.72239780426025391 -0.79190921783447266 -0.380767822265625
-0.74106788635253906 -0.77725315093994141 -0.39373779296875
-0.75287151336669922 -0.80495929718017578 -0.402435302734375
-0.75036144256591797 -0.82520866394042969 -0.3997802734375
-0.72047710418701172 -0.81508350372314453 -0.378631591796875
-0.72540092468261719 -0.77175998687744141 -0.38232421875
-0.75694084167480469 -0.78582382202148438 -0.40625
0.29911994934082031 1.0217857360839844 -0.33984375
0.28502082824707031 1.022404670715332 -0.3311767578125
0.29651069641113281 0.99761581420898438 -0.334075927734375
0.31421089172363281 1.0219097137451172 -0.346466064453125
0.30267906188964844 1.0478725433349609 -0.345458984375
0.28966331481933594 1.0482282638549805 -0.340057373046875
0.28239822387695312 0.99734592437744141 -0.32501220703125
0.31219863891601562 0.99742889404296875 -0.34381103515625
0.31712150573730469 1.0466442108154297 -0.350982666015625
-0.75059127807617188 -0.71581459045410156 -0.407623291015625
-0.73409652709960938 -0.70939540863037109 -0.39276123046875
-0.7530975341796875 -0.69766426086425781 -0.409942626953125
-0.76672077178955078 -0.72447395324707031 -0.42413330078125
-0.74789142608642578 -0.73644161224365234 -0.403594970703125
-0.731475830078125 -0.73073768615722656 -0.3902587890625
-0.73640632629394531 -0.68912982940673828 -0.39190673828125
-0.76948642730712891 -0.70695400238037109 -0.42718505859375
-0.76450443267822266 -0.74444770812988281 -0.419219970703125
0.29706764221191406 0.92390251159667969 -0.32659912109375
0.29929733276367188 0.90015506744384766 -0.327239990234375
0.31356048583984375 0.92613124847412109 -0.339263916015625
0.29549980163574219 0.9484405517578125 -0.328033447265625
0.28170204162597656 0.92364215850830078 -0.315093994140625
0.28435325622558594 0.89847087860107422 -0.314239501953125
0.31656455993652344 0.90150833129882812 -0.33905029296875
0.31203079223632812 0.94962501525878906 -0.338775634765625
0.2801055908203125 0.94743156433105469 -0.31634521484375
-0.68289375305175781 -0.69913768768310547 -0.350799560546875
-0.68142223358154297 -0.72081565856933594 -0.35235595703125
-0.66608428955078125 -0.69729042053222656 -0.3389892578125
-0.68477249145507812 -0.67734527587890625 -0.347412109375
-0.70008468627929688 -0.69992446899414062 -0.363800048828125
-0.69827365875244141 -0.72243690490722656 -0.364349365234375
-0.66382122039794922 -0.72055625915527344 -0.33935546875
-0.66718292236328125 -0.67634773254394531 -0.335479736328125
-0.7024688720703125 -0.67955684661865234 -0.361846923828125
0.30865859985351562 0.82622909545898438 -0.330352783203125
0.29406929016113281 0.82633876800537109 -0.31903076171875
0.31108283996582031 0.80124473571777344 -0.332794189453125
0.32482337951660156 0.82618236541748047 -0.340606689453125
0.3054656982421875 0.85126113891601562 -0.328338623046875
0.29030799865722656 0.85156154632568359 -0.317108154296875
0.29731178283691406 0.80132961273193359 -0.3232421875
0.32679367065429688 0.80069637298583984 -0.340911865234375
0.32224082946777344 0.85121917724609375 -0.339202880859375
-0.61155128479003906 -0.69614410400390625 -0.305999755859375
-0.59296512603759766 -0.6949310302734375 -0.297088623046875
-0.61419868469238281 -0.67629432678222656 -0.305694580078125
-0.62960052490234375 -0.69585132598876953 -0.31658935546875
-0.60811328887939453 -0.71748638153076172 -0.304931640625
-0.59029960632324219 -0.71647739410400391 -0.2952880859375
-0.59601688385009766 -0.67711067199707031 -0.2982177734375
-0.63195610046386719 -0.67645645141601562 -0.314697265625
-0.62648868560791016 -0.71990585327148438 -0.315521240234375
0.31594085693359375 0.72593879699707031 -0.3392333984375
0.32941055297851562 0.72830486297607422 -0.344390869140625
0.31509017944335938 0.7503814697265625 -0.3369140625
0.30506134033203125 0.72378349304199219 -0.33282470703125
0.31644248962402344 0.70498085021972656 -0.337982177734375
0.32862663269042969 0.70860862731933594 -0.342681884765625
0.32930374145507812 0.75089073181152344 -0.34344482421875
0.30311012268066406 0.74838924407958984 -0.331451416015625
0.30668258666992188 0.70356655120849609 -0.33319091796875
-0.53841781616210938 -0.68747138977050781 -0.27703857421875
-0.55609416961669922 -0.69075584411621094 -0.2833251953125
-0.53812503814697266 -0.70543098449707031 -0.272613525390625
-0.52429676055908203 -0.68476486206054688 -0.26885986328125
-0.53896713256835938 -0.67235374450683594 -0.27752685546875
-0.55702590942382812 -0.67372417449951172 -0.28387451171875
-0.55413341522216797 -0.70954799652099609 -0.280731201171875
-0.52386951446533203 -0.70036125183105469 -0.266632080078125
-0.52437686920166016 -0.67051506042480469 -0.269989013671875
0.40622329711914062 0.6787567138671875 -0.362335205078125
0.4102783203125 0.66372776031494141 -0.35650634765625
0.41144371032714844 0.69962501525878906 -0.363525390625
0.40006637573242188 0.69427585601806641 -0.36553955078125
0.40068626403808594 0.66045379638671875 -0.361968994140625
0.4041290283203125 0.6479949951171875 -0.357025146484375
0.41745185852050781 0.68350887298583984 -0.357147216796875
0.40482330322265625 0.71702766418457031 -0.36688232421875
0.39600563049316406 0.67516803741455078 -0.36480712890625
-0.4878997802734375 -0.79667472839355469 -0.221893310546875
-0.50183296203613281 -0.80876731872558594 -0.225372314453125
-0.47518348693847656 -0.79823780059814453 -0.209320068359375
-0.47589397430419922 -0.78761196136474609 -0.222686767578125
-0.50006771087646484 -0.79327297210693359 -0.234283447265625
-0.51633262634277344 -0.80381298065185547 -0.239105224609375
-0.48816108703613281 -0.81240272521972656 -0.209716796875
-0.46648406982421875 -0.78856468200683594 -0.211456298828125
-0.48765945434570312 -0.78408622741699219 -0.229705810546875
0.43142509460449219 0.78022003173828125 -0.395233154296875
0.43750572204589844 0.81227874755859375 -0.410491943359375
0.41617584228515625 0.79709148406982422 -0.388336181640625
0.42472648620605469 0.75122451782226562 -0.380279541015625
0.4446868896484375 0.76418876647949219 -0.398590087890625
0.45427703857421875 0.79860877990722656 -0.420928955078125
0.41890525817871094 0.82597064971923828 -0.399658203125
0.412750244140625 0.76849079132080078 -0.378631591796875
0.43546295166015625 0.73406696319580078 -0.37786865234375
-0.558746337890625 -0.85524940490722656 -0.26708984375
-0.57276439666748047 -0.83756923675537109 -0.277435302734375
-0.58179092407226562 -0.87090492248535156 -0.288818359375
-0.54508495330810547 -0.86991119384765625 -0.25360107421875
-0.5386199951171875 -0.83795356750488281 -0.24609375
-0.55242824554443359 -0.82639026641845703 -0.25982666015625
-0.59427642822265625 -0.84846687316894531 -0.29583740234375
-0.56880092620849609 -0.89089488983154297 -0.27978515625
-0.52337837219238281 -0.84928417205810547 -0.231201171875
0.44771766662597656 0.91663742065429688 -0.443359375
0.4474639892578125 0.95301437377929688 -0.445556640625
0.42174911499023438 0.91898155212402344 -0.420379638671875
0.44589996337890625 0.88014507293701172 -0.43768310546875
0.47146797180175781 0.91383552551269531 -0.46429443359375
0.471588134765625 0.95584297180175781 -0.46820068359375
0.42103767395019531 0.95064640045166016 -0.4200439453125
0.42211532592773438 0.88744735717773438 -0.415313720703125
0.467803955078125 0.87358665466308594 -0.45501708984375
-0.65686511993408203 -0.90625381469726562 -0.35028076171875
-0.66168403625488281 -0.87092113494873047 -0.347900390625
-0.68140792846679688 -0.91335964202880859 -0.36883544921875
-0.65112876892089844 -0.94010639190673828 -0.35174560546875
-0.63079452514648438 -0.89720821380615234 -0.3309326171875
-0.63827896118164062 -0.86472415924072266 -0.331939697265625
-0.68347549438476562 -0.87516307830810547 -0.363739013671875
-0.68039417266845703 -0.94789600372314453 -0.371368408203125
-0.62235546112060547 -0.92735099792480469 -0.3292236328125
0.43341064453125 1.0521011352539062 -0.434173583984375
0.42350387573242188 1.0782575607299805 -0.426513671875
0.41260337829589844 1.0352678298950195 -0.412353515625
0.44115066528320312 1.0218191146850586 -0.43988037109375
0.45154762268066406 1.0691299438476562 -0.453277587890625
0.43909645080566406 1.0993108749389648 -0.443267822265625
0.40725898742675781 1.0591144561767578 -0.409149169921875
0.41639518737792969 1.0088710784912109 -0.416900634765625
0.46214675903320312 1.0343189239501953 -0.462890625
-0.75181102752685547 -0.90717792510986328 -0.4151611328125
-0.74304962158203125 -0.87552452087402344 -0.40228271484375
-0.77121543884277344 -0.89809513092041016 -0.429931640625
-0.76113510131835938 -0.93660068511962891 -0.429595947265625
-0.7304840087890625 -0.91373062133789062 -0.399749755859375
-0.72489166259765625 -0.87758636474609375 -0.389801025390625
-0.75952243804931641 -0.87193107604980469 -0.414581298828125
