# XYZ point cloud file
-0.57823753356933594 -0.56678867340087891 0.2506103515625
-0.59334182739257812 -0.57092761993408203 0.1856689453125
-0.15752410888671875 0.075196266174316406 -0.756256103515625
-0.21900272369384766 0.17403697967529297 -0.76739501953125
-0.2840118408203125 0.27426052093505859 -0.761505126953125
-0.29184532165527344 0.45637607574462891 -0.719512939453125
-0.23143386840820312 0.52885627746582031 -0.68572998046875
-0.17153835296630859 0.58719158172607422 -0.64617919921875
-0.06026458740234375 0.53323841094970703 -0.642578125
-0.010303497314453125 0.43152618408203125 -0.65765380859375
0.034173011779785156 0.33344078063964844 -0.660888671875
-0.313446044921875 -0.23714351654052734 -0.653594970703125
-0.377471923828125 -0.17384815216064453 -0.676422119140625
-0.44706153869628906 -0.10526371002197266 -0.688812255859375
-0.48891735076904297 0.064150810241699219 -0.7110595703125
-0.44989204406738281 0.16730594635009766 -0.73187255859375
-0.40373516082763672 0.27199172973632812 -0.743438720703125
-0.73553943634033203 0.59037399291992188 -0.018157958984375
-0.73656368255615234 0.55844593048095703 0.067352294921875
-0.725830078125 0.52094459533691406 0.147125244140625
-0.6434173583984375 0.56902694702148438 0.2513427734375
-0.5805511474609375 0.65491294860839844 0.267822265625
-0.51615238189697266 0.73220920562744141 0.27587890625
-0.47688102722167969 0.83355045318603516 0.211944580078125
-0.48878383636474609 0.86524581909179688 0.145233154296875
-0.48973464965820312 0.89206218719482422 0.075286865234375
-0.54435062408447266 0.85615062713623047 -0.013092041015625
-0.60669422149658203 0.78591728210449219 -0.0389404296875
-0.66742610931396484 0.70515727996826172 -0.072113037109375
-0.77760028839111328 0.52247428894042969 -0.138702392578125
-0.82365322113037109 0.4266510009765625 -0.169158935546875
-0.86074733734130859 0.333526611328125 -0.1981201171875
-0.89324951171875 0.22396945953369141 -0.151763916015625
-0.89377498626708984 0.19618129730224609 -0.07623291015625
-0.88319015502929688 0.16213130950927734 -0.00091552734375
-0.83660221099853516 0.20363998413085938 0.11572265625
-0.80091667175292969 0.29148101806640625 0.155792236328125
-0.75564384460449219 0.38370990753173828 0.193115234375
-0.6406097412109375 0.64530277252197266 -0.38739013671875
-0.67639541625976562 0.64683151245117188 -0.2935791015625
-0.70448970794677734 0.63724327087402344 -0.19970703125
-0.46675682067871094 0.92841148376464844 -0.07403564453125
-0.44326305389404297 0.93506622314453125 -0.153533935546875
-0.40978717803955078 0.92805576324462891 -0.23370361328125
-0.42331790924072266 0.85492038726806641 -0.3516845703125
-0.48105335235595703 0.79131221771240234 -0.39605712890625
-0.53889656066894531 0.71376609802246094 -0.43988037109375
-0.65085887908935547 0.52815532684326172 -0.498382568359375
-0.70139217376708984 0.42759990692138672 -0.506988525390625
-0.7427520751953125 0.32588481903076172 -0.510986328125
-0.81575584411621094 0.25623607635498047 -0.4456787109375
-0.84722900390625 0.26519870758056641 -0.375030517578125
-0.86994266510009766 0.26064872741699219 -0.302734375
-0.41678905487060547 0.45654010772705078 -0.69683837890625
-0.48142910003662109 0.52844142913818359 -0.63623046875
-0.54167556762695312 0.58647727966308594 -0.562530517578125
-0.30932998657226562 0.85982036590576172 -0.401824951171875
-0.24530029296875 0.79817008972167969 -0.481658935546875
-0.1795196533203125 0.72140121459960938 -0.5543212890625
-0.58941173553466797 0.043741226196289062 -0.66375732421875
-0.65750026702880859 0.11720466613769531 -0.62451171875
-0.71994304656982422 0.18062305450439453 -0.5721435546875
-0.08414459228515625 0.77900409698486328 0.414398193359375
-0.074154853820800781 0.77597618103027344 0.45916748046875
-0.07138824462890625 0.77944374084472656 0.50311279296875
0.058445930480957031 0.83211803436279297 0.454193115234375
0.052662849426269531 0.82796192169189453 0.413421630859375
0.043750762939453125 0.83058738708496094 0.373748779296875
-0.005702972412109375 0.83556365966796875 0.354156494140625
-0.037110328674316406 0.82539749145507812 0.361358642578125
-0.068218231201171875 0.81074714660644531 0.364227294921875
-0.74506187438964844 -0.30074787139892578 0.213836669921875
-0.74494361877441406 -0.33693408966064453 0.214599609375
-0.74199962615966797 -0.37333106994628906 0.214324951171875
-0.72337055206298828 -0.42722225189208984 0.258026123046875
-0.72187519073486328 -0.44024848937988281 0.303192138671875
-0.72522544860839844 -0.45335865020751953 0.34332275390625
-0.74067497253417969 -0.31812381744384766 0.364959716796875
-0.73269081115722656 -0.30498218536376953 0.3212890625
-0.73284912109375 -0.28723621368408203 0.273681640625
-0.19716548919677734 0.88918590545654297 0.240936279296875
-0.16342926025390625 0.85146427154541016 0.2847900390625
-0.12971305847167969 0.81807708740234375 0.327239990234375
0.014892578125 0.86293506622314453 0.295654296875
-0.0038852691650390625 0.89113616943359375 0.257720947265625
-0.022007942199707031 0.92325115203857422 0.21771240234375
-0.08623504638671875 0.95463848114013672 0.18902587890625
-0.13259792327880859 0.94944667816162109 0.19122314453125
-0.17808914184570312 0.93996334075927734 0.189453125
-0.85616016387939453 -0.17745590209960938 -0.05438232421875
-0.84940528869628906 -0.23233890533447266 -0.0479736328125
-0.84034061431884766 -0.28678607940673828 -0.037353515625
-0.80145740509033203 -0.35881710052490234 0.02947998046875
-0.77611160278320312 -0.37720775604248047 0.092376708984375
-0.75148677825927734 -0.39469051361083984 0.152862548828125
-0.76769065856933594 -0.23062419891357422 0.155914306640625
-0.79955101013183594 -0.19461441040039062 0.088714599609375
-0.83302879333496094 -0.15761280059814453 0.01904296875
-0.25275421142578125 0.99612808227539062 0.02630615234375
-0.25194168090820312 0.97875499725341797 0.086151123046875
-0.24377632141113281 0.95537662506103516 0.1417236328125
-0.049816131591796875 0.97506904602050781 0.128448486328125
-0.056242942810058594 0.99119281768798828 0.07958984375
-0.057745933532714844 1.0021438598632812 0.0244140625
-0.10154056549072266 1.0198707580566406 -0.0263671875
-0.1487579345703125 1.0231990814208984 -0.02911376953125
-0.19653224945068359 1.0179576873779297 -0.034393310546875
-0.87426662445068359 -0.10225963592529297 -0.313140869140625
-0.86767959594726562 -0.16468906402587891 -0.301788330078125
-0.85736274719238281 -0.22615623474121094 -0.2862548828125
-0.84412479400634766 -0.29349327087402344 -0.21392822265625
-0.84382915496826172 -0.30614852905273438 -0.154388427734375
-0.83784103393554688 -0.32251071929931641 -0.094268798828125
-0.87907314300537109 -0.093353271484375 -0.121795654296875
-0.88706207275390625 -0.069103240966796875 -0.188568115234375
-0.88631629943847656 -0.050530433654785156 -0.252593994140625
-0.18694496154785156 1.0007505416870117 -0.228668212890625
-0.21455097198486328 1.0142841339111328 -0.1634521484375
-0.23355484008789062 1.0152397155761719 -0.09857177734375
-0.043300628662109375 1.0088014602661133 -0.092987060546875
-0.0308074951171875 1.0017509460449219 -0.152008056640625
-0.018276214599609375 0.98845577239990234 -0.204437255859375
-0.031468391418457031 0.97855281829833984 -0.25555419921875
-0.064733505249023438 0.98121547698974609 -0.270843505859375
-0.10546588897705078 0.97851276397705078 -0.284088134765625
-0.78448390960693359 -0.14390468597412109 -0.510284423828125
-0.78276443481445312 -0.20345211029052734 -0.4892578125
-0.779541015625 -0.25447750091552734 -0.4644775390625
-0.79131507873535156 -0.28787708282470703 -0.41741943359375
-0.81138229370117188 -0.28510379791259766 -0.3763427734375
-0.82654666900634766 -0.2839508056640625 -0.326568603515625
-0.86739921569824219 -0.032190322875976562 -0.3759765625
-0.84860610961914062 -0.035512924194335938 -0.432525634765625
-0.82242965698242188 -0.048810958862304688 -0.480865478515625
0.022305488586425781 0.94805335998535156 -0.269317626953125
0.065033912658691406 0.90704059600830078 -0.304290771484375
0.11016654968261719 0.85525131225585938 -0.3406982421875
0.13837718963623047 0.76371192932128906 -0.417236328125
0.11158084869384766 0.7423553466796875 -0.450439453125
0.080724716186523438 0.72414207458496094 -0.478546142578125
-0.00237274169921875 0.79199981689453125 -0.46478271484375
-0.054671287536621094 0.86471462249755859 -0.413818359375
-0.10560035705566406 0.92673110961914062 -0.355316162109375
-0.74099254608154297 -0.122314453125 -0.55206298828125
-0.68674850463867188 -0.17863655090332031 -0.572479248046875
-0.62728118896484375 -0.23909568786621094 -0.579986572265625
-0.57213783264160156 -0.35062503814697266 -0.54559326171875
-0.581878662109375 -0.39975929260253906 -0.5111083984375
-0.59559154510498047 -0.44334697723388672 -0.473907470703125
-0.66727447509765625 -0.42548465728759766 -0.44366455078125
-0.71206283569335938 -0.37313175201416016 -0.447967529296875
-0.74966716766357422 -0.32409572601318359 -0.447479248046875
0.013144493103027344 0.69738960266113281 -0.5283203125
-0.02468109130859375 0.68307209014892578 -0.5517578125
-0.067671775817871094 0.66255855560302734 -0.57745361328125
-0.30911159515380859 0.93682003021240234 -0.300079345703125
-0.25450706481933594 0.95616531372070312 -0.29388427734375
-0.20141315460205078 0.96621608734130859 -0.293914794921875
-0.79095458984375 -0.0092926025390625 -0.52587890625
-0.79285621643066406 0.06395721435546875 -0.5240478515625
-0.78849887847900391 0.14195728302001953 -0.51800537109375
-0.53803730010986328 -0.11282157897949219 -0.660003662109375
-0.55016136169433594 -0.18202686309814453 -0.635711669921875
-0.55758571624755859 -0.24288082122802734 -0.607940673828125
-0.41935634613037109 0.95294380187988281 0.000335693359375
-0.35913944244384766 0.9801025390625 -0.0115966796875
-0.30077075958251953 0.99722862243652344 -0.02606201171875
-0.88817977905273438 0.025595664978027344 -0.3040771484375
-0.894775390625 0.092596054077148438 -0.283905029296875
-0.89465141296386719 0.16558551788330078 -0.257171630859375
-0.39049720764160156 0.84506893157958984 0.25555419921875
-0.33227348327636719 0.88065242767333984 0.2333984375
-0.27719020843505859 0.90643310546875 0.21026611328125
-0.86810207366943359 -0.068711280822753906 -0.034423828125
-0.87282848358154297 -0.011404991149902344 -0.005828857421875
-0.87166500091552734 0.05129241943359375 0.03314208984375
-0.41272449493408203 0.75388813018798828 0.32684326171875
-0.36600303649902344 0.71137619018554688 0.373809814453125
-0.31860446929931641 0.67324256896972656 0.41705322265625
-0.22760200500488281 0.69741439819335938 0.433380126953125
-0.18106555938720703 0.73773670196533203 0.40869140625
-0.13874053955078125 0.76819992065429688 0.386383056640625
-0.74150180816650391 -0.22204494476318359 0.23553466796875
-0.73696231842041016 -0.17506885528564453 0.261474609375
-0.72594928741455078 -0.12200546264648438 0.294891357421875
-0.73976516723632812 -0.018750190734863281 0.278350830078125
-0.78154087066650391 0.02710723876953125 0.2149658203125
-0.82384014129638672 0.075917243957519531 0.145721435546875
-0.25555229187011719 0.62864017486572266 0.4937744140625
-0.24581241607666016 0.62548828125 0.52886962890625
-0.24777126312255859 0.6291961669921875 0.564483642578125
-0.69988155364990234 -0.11184406280517578 0.44134521484375
-0.68885326385498047 -0.10340595245361328 0.411163330078125
-0.69079399108886719 -0.085348129272460938 0.37652587890625
-0.66314125061035156 0.43016719818115234 0.2982177734375
-0.61393642425537109 0.37978458404541016 0.369354248046875
-0.56093502044677734 0.32963657379150391 0.43939208984375
-0.45076274871826172 0.3963470458984375 0.501068115234375
-0.39528942108154297 0.49237918853759766 0.488800048828125
-0.33663558959960938 0.57555675506591797 0.47528076171875
-0.67623138427734375 0.017391204833984375 0.373291015625
-0.63381004333496094 0.10053443908691406 0.4169921875
-0.57930469512939453 0.18627643585205078 0.463043212890625
-0.30613517761230469 0.56515789031982422 0.594573974609375
-0.33781147003173828 0.4919586181640625 0.595184326171875
-0.36374473571777344 0.41829681396484375 0.601654052734375
-0.57299995422363281 0.075495719909667969 0.54229736328125
-0.62520599365234375 0.019730567932128906 0.5126953125
-0.67593955993652344 -0.040666580200195312 0.48724365234375
-0.43862056732177734 0.31682205200195312 0.549407958984375
-0.40388393402099609 0.33290290832519531 0.5711669921875
-0.38434123992919922 0.34074306488037109 0.590118408203125
-0.51154899597167969 0.13149833679199219 0.557403564453125
-0.51257133483886719 0.15565872192382812 0.54302978515625
-0.51176929473876953 0.196502685546875 0.529693603515625
-0.46290969848632812 0.24808502197265625 0.5535888671875
-0.43630218505859375 0.23126697540283203 0.572357177734375
-0.41597366333007812 0.21869468688964844 0.58892822265625
0.17070579528808594 0.81717395782470703 0.187103271484375
0.12210369110107422 0.83404731750488281 0.24127197265625
0.074747085571289062 0.84169197082519531 0.2945556640625
-0.71462440490722656 -0.45363044738769531 0.187713623046875
-0.68911552429199219 -0.49645709991455078 0.16119384765625
-0.65447139739990234 -0.53689098358154297 0.13671875
0.20883464813232422 0.80327224731445312 0.09661865234375
0.1975860595703125 0.82094383239746094 0.06195068359375
0.18679904937744141 0.83677196502685547 0.02777099609375
0.12245941162109375 0.89480018615722656 0.045257568359375
0.067722320556640625 0.922119140625 0.09832763671875
0.013125419616699219 0.94107151031494141 0.144134521484375
-0.79854106903076172 -0.39387130737304688 -0.038238525390625
-0.76471710205078125 -0.44597911834716797 -0.050079345703125
-0.72354698181152344 -0.49501228332519531 -0.065826416015625
-0.65926933288574219 -0.55081653594970703 -0.026336669921875
-0.64415740966796875 -0.56032085418701172 0.019561767578125
-0.62752437591552734 -0.56828594207763672 0.069244384765625
0.15395069122314453 0.87990570068359375 -0.039642333984375
0.14238739013671875 0.89281272888183594 -0.068878173828125
0.13761806488037109 0.89722824096679688 -0.104522705078125
0.098054885864257812 0.92189502716064453 -0.119781494140625
0.050160408020019531 0.95237541198730469 -0.08416748046875
-0.0019016265869140625 0.982696533203125 -0.053253173828125
-0.80768585205078125 -0.34455966949462891 -0.26171875
-0.77144622802734375 -0.39953517913818359 -0.256988525390625
-0.73569393157958984 -0.44947052001953125 -0.25494384765625
-0.70980453491210938 -0.49580001831054688 -0.210693359375
-0.70757389068603516 -0.50463771820068359 -0.169525146484375
-0.69745826721191406 -0.5196990966796875 -0.12860107421875
0.13438320159912109 0.89645576477050781 -0.19842529296875
0.13732147216796875 0.88138008117675781 -0.2520751953125
0.14603328704833984 0.85138034820556641 -0.310760498046875
-0.66236972808837891 -0.47766304016113281 -0.39544677734375
-0.68835830688476562 -0.47699165344238281 -0.353302001953125
-0.70251178741455078 -0.48002719879150391 -0.306976318359375
0.34709930419921875 0.10994625091552734 0.095672607421875
0.35754680633544922 0.043161392211914062 0.092742919921875
0.36882305145263672 -0.020045280456542969 0.101470947265625
0.31841659545898438 0.0002727508544921875 -0.26129150390625
0.31964588165283203 0.062343597412109375 -0.25689697265625
0.31934642791748047 0.12068367004394531 -0.252532958984375
0.33395290374755859 0.17139911651611328 -0.16558837890625
0.34077930450439453 0.17496871948242188 -0.079803466796875
0.34209060668945312 0.18232059478759766 0.0101318359375
-0.086855888366699219 -0.51689434051513672 0.144378662109375
-0.096395492553710938 -0.53838539123535156 0.056793212890625
-0.109222412109375 -0.55195331573486328 -0.028076171875
-0.088441848754882812 -0.54535961151123047 -0.121429443359375
-0.046270370483398438 -0.53534793853759766 -0.13226318359375
-0.00341033935546875 -0.52388858795166016 -0.143951416015625
0.10414695739746094 -0.45125198364257812 0.21185302734375
0.046576499938964844 -0.46332740783691406 0.2100830078125
-0.0099096298217773438 -0.47244834899902344 0.21905517578125
0.367034912109375 0.39296150207519531 -0.169586181640625
0.36689281463623047 0.42147445678710938 -0.11175537109375
0.36513614654541016 0.46199893951416016 -0.05078125
0.35515594482421875 0.43274402618408203 0.042388916015625
0.34875202178955078 0.354766845703125 0.062469482421875
0.34163475036621094 0.27628040313720703 0.084716796875
0.326263427734375 0.23136425018310547 -0.241546630859375
0.33647060394287109 0.28412342071533203 -0.237457275390625
0.34948635101318359 0.33316421508789062 -0.2330322265625
-0.23650932312011719 -0.62425613403320312 -0.079498291015625
-0.20344352722167969 -0.59755706787109375 -0.091796875
-0.16715812683105469 -0.57467842102050781 -0.10308837890625
-0.15057182312011719 -0.52640819549560547 0.218231201171875
-0.21551227569580078 -0.56653499603271484 0.200958251953125
-0.27947235107421875 -0.60394668579101562 0.18170166015625
-0.31189632415771484 -0.64306831359863281 0.09515380859375
-0.28639602661132812 -0.6454315185546875 0.042022705078125
-0.27148818969726562 -0.64891624450683594 -0.010986328125
0.31165695190429688 0.27204704284667969 0.336212158203125
0.3203277587890625 0.2567138671875 0.270233154296875
0.32886600494384766 0.23077392578125 0.198699951171875
-0.099782943725585938 -0.46743202209472656 0.322265625
-0.11383914947509766 -0.45029640197753906 0.38818359375
-0.1207427978515625 -0.43204402923583984 0.45050048828125
0.30020236968994141 0.21390247344970703 0.39923095703125
0.30054092407226562 0.16339206695556641 0.40850830078125
0.30126476287841797 0.12157440185546875 0.422454833984375
0.34503078460693359 0.063884735107421875 0.311676025390625
0.33923625946044922 0.10008811950683594 0.259765625
0.33687973022460938 0.13976192474365234 0.1976318359375
-0.019224166870117188 -0.44058990478515625 0.314666748046875
0.027667045593261719 -0.40754127502441406 0.367767333984375
0.0715789794921875 -0.38069248199462891 0.4146728515625
0.021921157836914062 -0.33323097229003906 0.512786865234375
-0.019155502319335938 -0.35502529144287109 0.50433349609375
-0.064120292663574219 -0.38024330139160156 0.500732421875
0.19861412048339844 0.70729923248291016 -0.41583251953125
0.23364639282226562 0.62336158752441406 -0.435150146484375
0.26602458953857422 0.5448760986328125 -0.43780517578125
0.26950645446777344 0.45209407806396484 -0.44500732421875
0.24469089508056641 0.420440673828125 -0.46649169921875
0.22166919708251953 0.38412284851074219 -0.4935302734375
0.16322517395019531 0.43554592132568359 -0.544097900390625
0.12909317016601562 0.52980804443359375 -0.544219970703125
0.090893745422363281 0.62186717987060547 -0.5318603515625
-0.49993419647216797 -0.3499603271484375 -0.564208984375
-0.43440151214599609 -0.39590930938720703 -0.541595458984375
-0.3683319091796875 -0.43707656860351562 -0.507354736328125
-0.32311630249023438 -0.50831508636474609 -0.418548583984375
-0.34373378753662109 -0.54289436340332031 -0.384033203125
-0.35930156707763672 -0.57901287078857422 -0.351959228515625
-0.42580509185791016 -0.58923625946044922 -0.36798095703125
-0.48623371124267578 -0.55736351013183594 -0.40374755859375
-0.54935073852539062 -0.52136993408203125 -0.4268798828125
0.16239833831787109 0.33127593994140625 -0.570404052734375
0.13305091857910156 0.31684589385986328 -0.602020263671875
0.10413360595703125 0.28822135925292969 -0.62744140625
-0.28087806701660156 -0.34363746643066406 -0.591827392578125
-0.29647159576416016 -0.38682746887207031 -0.558807373046875
-0.30110549926757812 -0.42802047729492188 -0.517913818359375
0.32029914855957031 0.42608356475830078 -0.39251708984375
0.34044742584228516 0.39240360260009766 -0.34588623046875
0.35616397857666016 0.37584495544433594 -0.2906494140625
0.30079936981201172 0.19702816009521484 -0.324554443359375
0.27426052093505859 0.23021221160888672 -0.39801025390625
0.241943359375 0.27507209777832031 -0.4647216796875
-0.24120903015136719 -0.51583576202392578 -0.368865966796875
-0.19642066955566406 -0.53939914703369141 -0.28485107421875
-0.15886783599853516 -0.55272865295410156 -0.19927978515625
-0.27410125732421875 -0.65295219421386719 -0.132904052734375
-0.29502773284912109 -0.6456146240234375 -0.199920654296875
-0.32821178436279297 -0.63437843322753906 -0.263031005859375
0.21304702758789062 0.11463737487792969 -0.531768798828125
0.21624279022216797 0.17818355560302734 -0.528472900390625
0.21010971069335938 0.2473297119140625 -0.526275634765625
-0.23482894897460938 -0.48154449462890625 -0.444610595703125
-0.18912124633789062 -0.48414134979248047 -0.439910888671875
-0.14723873138427734 -0.47575187683105469 -0.4451904296875
0.20143699645996094 1.1304168701171875 -0.208343505859375
0.19189643859863281 1.1420993804931641 -0.2054443359375
0.18525314331054688 1.152470588684082 -0.21173095703125
0.17009162902832031 1.1136302947998047 -0.214874267578125
0.161529541015625 1.0716238021850586 -0.20343017578125
0.15635013580322266 1.0304660797119141 -0.196990966796875
0.16003131866455078 0.99493789672851562 -0.175506591796875
0.16914939880371094 0.99300289154052734 -0.169708251953125
0.17980575561523438 0.98948001861572266 -0.170806884765625
0.19351863861083984 1.0159521102905273 -0.18450927734375
0.19695568084716797 1.0475969314575195 -0.193145751953125
0.20283889770507812 1.081329345703125 -0.20440673828125
-0.81867504119873047 -0.59953594207763672 -0.370086669921875
-0.79678153991699219 -0.58660888671875 -0.343170166015625
-0.77584552764892578 -0.57824134826660156 -0.320037841796875
-0.7607879638671875 -0.55759239196777344 -0.299652099609375
-0.76513099670410156 -0.54341983795166016 -0.30657958984375
-0.76708412170410156 -0.53099822998046875 -0.31781005859375
-0.79160404205322266 -0.52896308898925781 -0.361480712890625
-0.81828212738037109 -0.5396881103515625 -0.388763427734375
-0.84465122222900391 -0.55668735504150391 -0.41851806640625
-0.86916542053222656 -0.58293342590332031 -0.4287109375
-0.86189746856689453 -0.59172534942626953 -0.413482666015625
-0.85233116149902344 -0.60265254974365234 -0.40216064453125
0.24656105041503906 1.2904376983642578 -0.271087646484375
0.22035789489746094 1.2529106140136719 -0.255859375
0.19952583312988281 1.2066736221313477 -0.2401123046875
0.22591018676757812 1.1563119888305664 -0.23175048828125
0.24364852905273438 1.1930704116821289 -0.24884033203125
0.26557159423828125 1.2248592376708984 -0.26654052734375
0.28472137451171875 1.2673091888427734 -0.275299072265625
0.27974700927734375 1.2876462936401367 -0.273406982421875
0.27732658386230469 1.3050785064697266 -0.27679443359375
-0.95383071899414062 -0.71928501129150391 -0.530303955078125
-0.94219875335693359 -0.72150897979736328 -0.51275634765625
-0.92791271209716797 -0.72674846649169922 -0.499298095703125
-0.90307807922363281 -0.69618606567382812 -0.47711181640625
-0.88564682006835938 -0.6642913818359375 -0.454559326171875
-0.86452579498291016 -0.63770008087158203 -0.4263916015625
-0.90081405639648438 -0.60373401641845703 -0.483306884765625
-0.92693805694580078 -0.63573265075683594 -0.513671875
-0.948089599609375 -0.67396926879882812 -0.5369873046875
0.39733505249023438 1.3062753677368164 -0.34857177734375
0.35558700561523438 1.3249931335449219 -0.327056884765625
0.31502151489257812 1.3300294876098633 -0.30645751953125
0.32129287719726562 1.2556295394897461 -0.30352783203125
0.35427284240722656 1.250880241394043 -0.323883056640625
0.38797378540039062 1.2330942153930664 -0.344207763671875
0.42317008972167969 1.2231864929199219 -0.361083984375
0.42708778381347656 1.2415046691894531 -0.360321044921875
0.43217658996582031 1.259552001953125 -0.364471435546875
-0.90142250061035156 -0.92820835113525391 -0.469207763671875
-0.89051723480224609 -0.91897296905517578 -0.4580078125
-0.87789726257324219 -0.91177272796630859 -0.450286865234375
-0.88971328735351562 -0.86411285400390625 -0.466949462890625
-0.90615272521972656 -0.81987953186035156 -0.48388671875
-0.91420269012451172 -0.77528476715087891 -0.492095947265625
-0.96346664428710938 -0.77118492126464844 -0.548095703125
-0.95572566986083984 -0.82783889770507812 -0.533538818359375
-0.93715858459472656 -0.88396453857421875 -0.509765625
0.53625297546386719 1.1012744903564453 -0.457305908203125
0.50946044921875 1.1674127578735352 -0.431976318359375
0.47583198547363281 1.2256069183349609 -0.40380859375
0.45263290405273438 1.1643257141113281 -0.389617919921875
0.48026847839355469 1.1166372299194336 -0.41253662109375
0.50312232971191406 1.0607872009277344 -0.430023193359375
0.52834129333496094 1.0089206695556641 -0.441741943359375
0.53786087036132812 1.0155067443847656 -0.448455810546875
0.54756927490234375 1.0225820541381836 -0.45867919921875
-0.72303390502929688 -1.0551567077636719 -0.3330078125
-0.71905422210693359 -1.0410881042480469 -0.327789306640625
-0.71536636352539062 -1.0259380340576172 -0.326629638671875
-0.75531578063964844 -0.99899387359619141 -0.36260986328125
-0.79669475555419922 -0.97644424438476562 -0.392364501953125
-0.83318519592285156 -0.94451332092285156 -0.420379638671875
-0.87334728240966797 -0.98486232757568359 -0.448760986328125
-0.82966709136962891 -1.0246000289916992 -0.416015625
-0.78002071380615234 -1.0529689788818359 -0.38134765625
0.55902671813964844 0.80340576171875 -0.45709228515625
0.56612777709960938 0.8775482177734375 -0.473480224609375
0.56488037109375 0.95354843139648438 -0.479400634765625
0.52834320068359375 0.94246959686279297 -0.441436767578125
0.53034210205078125 0.88212776184082031 -0.43170166015625
0.52604866027832031 0.82374668121337891 -0.412322998046875
0.5258331298828125 0.75811481475830078 -0.38818359375
0.53446006774902344 0.74869823455810547 -0.395355224609375
0.54176807403564453 0.73988628387451172 -0.4093017578125
-0.51649856567382812 -0.98816299438476562 -0.177215576171875
-0.5230712890625 -0.97763347625732422 -0.172607421875
-0.53051567077636719 -0.96716213226318359 -0.176177978515625
-0.58061695098876953 -0.98486518859863281 -0.2232666015625
-0.62386894226074219 -1.0042829513549805 -0.260040283203125
-0.66783809661865234 -1.0134897232055664 -0.29608154296875
-0.67315959930419922 -1.0688705444335938 -0.30718994140625
-0.61792469024658203 -1.0561084747314453 -0.269866943359375
-0.56380176544189453 -1.0316982269287109 -0.231475830078125
0.48801898956298828 0.56073951721191406 -0.312347412109375
0.51111125946044922 0.61118507385253906 -0.351837158203125
0.53083610534667969 0.66905784606933594 -0.3936767578125
0.50429439544677734 0.71742534637451172 -0.352508544921875
0.48873996734619141 0.6716156005859375 -0.31475830078125
0.46961402893066406 0.63071823120117188 -0.280120849609375
0.45473766326904297 0.57280445098876953 -0.248931884765625
0.45823287963867188 0.55053997039794922 -0.250030517578125
0.46183681488037109 0.53174686431884766 -0.261199951171875
-0.36178207397460938 -0.81349754333496094 -0.047576904296875
-0.37622165679931641 -0.8117218017578125 -0.042816162109375
-0.39387702941894531 -0.81162929534912109 -0.04925537109375
-0.43678474426269531 -0.85010242462158203 -0.08001708984375
-0.46711254119873047 -0.88891696929931641 -0.109588623046875
-0.50186824798583984 -0.92532539367675781 -0.145477294921875
-0.46511459350585938 -0.95640659332275391 -0.15142822265625
-0.42215442657470703 -0.91030311584472656 -0.11260986328125
-0.38419055938720703 -0.86293888092041016 -0.082427978515625
0.50997543334960938 0.77762222290039062 -0.3914794921875
0.50408649444580078 0.78524017333984375 -0.39825439453125
0.49940299987792969 0.7937164306640625 -0.408599853515625
0.48533535003662109 0.7569122314453125 -0.39068603515625
0.47177314758300781 0.72017765045166016 -0.358428955078125
0.45745658874511719 0.68709278106689453 -0.329559326171875
0.44421100616455078 0.64900398254394531 -0.2926025390625
0.44560432434082031 0.63402748107910156 -0.277496337890625
0.44790172576904297 0.61600208282470703 -0.2640380859375
-0.43027305603027344 -0.81716060638427734 -0.07769775390625
-0.44501113891601562 -0.82131576538085938 -0.0960693359375
-0.45778656005859375 -0.82544040679931641 -0.11639404296875
-0.48726940155029297 -0.85710430145263672 -0.152801513671875
-0.51129531860351562 -0.88687801361083984 -0.179656982421875
-0.53857135772705078 -0.915283203125 -0.211639404296875
-0.56387615203857422 -0.94413566589355469 -0.2305908203125
-0.55684185028076172 -0.94662284851074219 -0.214263916015625
-0.54841709136962891 -0.95166301727294922 -0.19903564453125
0.51279258728027344 0.99819087982177734 -0.44342041015625
0.50744247436523438 0.9947052001953125 -0.4495849609375
0.50406265258789062 0.99313640594482422 -0.4580078125
0.50838851928710938 0.94270706176757812 -0.468292236328125
0.50856590270996094 0.89240932464599609 -0.459075927734375
0.50424575805664062 0.84447956085205078 -0.443389892578125
-0.60286235809326172 -0.96540164947509766 -0.279693603515625
-0.63754177093505859 -0.98145103454589844 -0.310394287109375
-0.67302799224853516 -0.98994064331054688 -0.3399658203125
-0.708709716796875 -0.99101829528808594 -0.356292724609375
-0.70864486694335938 -0.99483013153076172 -0.345550537109375
-0.71014022827148438 -1.0028152465820312 -0.3375244140625
0.42177963256835938 1.1874961853027344 -0.375701904296875
0.42285537719726562 1.1740350723266602 -0.386871337890625
0.42606163024902344 1.1637229919433594 -0.400634765625
0.45336341857910156 1.124150276184082 -0.432037353515625
0.47379112243652344 1.0852651596069336 -0.44793701171875
0.49112701416015625 1.040461540222168 -0.460357666015625
-0.74359512329101562 -0.98128795623779297 -0.393310546875
-0.7761383056640625 -0.96352481842041016 -0.418487548828125
-0.80523967742919922 -0.93889713287353516 -0.439361572265625
-0.83552455902099609 -0.90577125549316406 -0.452667236328125
-0.84350299835205078 -0.90396785736083984 -0.4471435546875
-0.85381221771240234 -0.90358352661132812 -0.446014404296875
0.30033111572265625 1.2275924682617188 -0.2978515625
0.30962753295898438 1.2117347717285156 -0.315185546875
0.31912994384765625 1.197566032409668 -0.333251953125
0.35209465026855469 1.1959190368652344 -0.3653564453125
0.37771797180175781 1.1921625137329102 -0.381744384765625
0.40403556823730469 1.1790542602539062 -0.397308349609375
-0.84885215759277344 -0.87639331817626953 -0.47601318359375
-0.86119937896728516 -0.8412628173828125 -0.488677978515625
-0.86649227142333984 -0.80601596832275391 -0.495330810546875
-0.8736572265625 -0.76204872131347656 -0.48809814453125
-0.88515090942382812 -0.75271987915039062 -0.48443603515625
-0.89897918701171875 -0.74227142333984375 -0.48583984375
0.22484588623046875 1.1048135757446289 -0.23211669921875
0.23755264282226562 1.0943069458007812 -0.250640869140625
0.24936485290527344 1.0849847793579102 -0.2711181640625
0.27239036560058594 1.1095161437988281 -0.304443359375
0.28778648376464844 1.1424703598022461 -0.319244384765625
0.30649757385253906 1.1691198348999023 -0.336090087890625
-0.85513401031494141 -0.74015426635742188 -0.4830322265625
-0.84042835235595703 -0.71183490753173828 -0.465057373046875
-0.82169914245605469 -0.68776607513427734 -0.443572998046875
-0.80951976776123047 -0.655548095703125 -0.40960693359375
-0.81865882873535156 -0.64267539978027344 -0.40130615234375
-0.82989692687988281 -0.62913608551025391 -0.397796630859375
0.20536041259765625 0.98058986663818359 -0.194091796875
0.21872425079345703 0.97621440887451172 -0.209686279296875
0.23002910614013672 0.97201442718505859 -0.22918701171875
0.24171352386474609 0.99392890930175781 -0.255615234375
0.24515151977539062 1.0207843780517578 -0.265594482421875
0.25118637084960938 1.0487279891967773 -0.2777099609375
-0.78369426727294922 -0.65217304229736328 -0.394866943359375
-0.76570320129394531 -0.64065933227539062 -0.37200927734375
-0.74870014190673828 -0.63179969787597656 -0.35137939453125
-0.73607444763183594 -0.61605644226074219 -0.320220947265625
-0.74209213256835938 -0.60234355926513672 -0.310333251953125
-0.74873828887939453 -0.58732414245605469 -0.302703857421875
0.33595848083496094 0.58880329132080078 -0.093231201171875
0.34450149536132812 0.57768344879150391 -0.065643310546875
0.35166645050048828 0.55631923675537109 -0.03070068359375
0.37653446197509766 0.42693614959716797 -0.206512451171875
0.37822055816650391 0.46473884582519531 -0.200897216796875
0.37489509582519531 0.49851131439208984 -0.205718994140625
0.35905361175537109 0.52663707733154297 -0.194305419921875
0.35234832763671875 0.53504562377929688 -0.1673583984375
0.34290885925292969 0.55875873565673828 -0.141937255859375
-0.40176582336425781 -0.65954017639160156 -0.02081298828125
-0.3836517333984375 -0.66866588592529297 -0.034149169921875
-0.37724018096923828 -0.67777156829833984 -0.053375244140625
-0.35333442687988281 -0.69116973876953125 -0.05255126953125
-0.32635879516601562 -0.68543434143066406 -0.04150390625
-0.29804611206054688 -0.67612075805664062 -0.041717529296875
-0.38754558563232422 -0.65138912200927734 0.091888427734375
-0.40927505493164062 -0.6547088623046875 0.049285888671875
-0.42360496520996094 -0.65316581726074219 0.014739990234375
0.38809013366699219 0.41346359252929688 -0.247039794921875
0.41123676300048828 0.4436798095703125 -0.25469970703125
0.43708610534667969 0.47739982604980469 -0.264007568359375
0.42963314056396484 0.56833744049072266 -0.239837646484375
0.40924167633056641 0.54647350311279297 -0.233306884765625
0.38888740539550781 0.53487014770507812 -0.2294921875
-0.37887859344482422 -0.72140407562255859 -0.068939208984375
-0.38393974304199219 -0.74829483032226562 -0.062469482421875
-0.39521026611328125 -0.77916336059570312 -0.05712890625
-0.32828140258789062 -0.77118873596191406 -0.060028076171875
-0.30787277221679688 -0.73039436340332031 -0.06494140625
-0.28975105285644531 -0.69344997406005859 -0.0709228515625
0.30284786224365234 0.65046310424804688 -0.093231201171875
0.27008247375488281 0.71422767639160156 -0.0697021484375
0.23044109344482422 0.78130054473876953 -0.04412841796875
-0.60154247283935547 -0.58229160308837891 -0.05743408203125
-0.53866195678710938 -0.61023807525634766 -0.037689208984375
-0.48015689849853516 -0.63299274444580078 -0.022979736328125
0.15518093109130859 0.95850849151611328 -0.18951416015625
0.15678787231445312 0.92836666107177734 -0.1883544921875
0.15381813049316406 0.90698623657226562 -0.179779052734375
0.16302680969238281 0.89017391204833984 -0.1514892578125
0.178924560546875 0.88375473022460938 -0.157440185546875
0.19196510314941406 0.87827301025390625 -0.168182373046875
0.19876289367675781 0.89941596984863281 -0.179962158203125
0.19555377960205078 0.92652130126953125 -0.1781005859375
0.19310951232910156 0.95569133758544922 -0.176971435546875
-0.73330783843994141 -0.56764984130859375 -0.2825927734375
-0.71277427673339844 -0.56535243988037109 -0.267608642578125
-0.69121837615966797 -0.56510066986083984 -0.2547607421875
-0.67782211303710938 -0.55200672149658203 -0.237579345703125
-0.68586444854736328 -0.53703022003173828 -0.236785888671875
-0.69432830810546875 -0.52012825012207031 -0.2418212890625
-0.70663738250732422 -0.50733852386474609 -0.2825927734375
-0.72041225433349609 -0.51287651062011719 -0.300567626953125
-0.74138450622558594 -0.51639556884765625 -0.317291259765625
0.43007278442382812 0.63705825805664062 -0.30157470703125
0.41686344146728516 0.61905479431152344 -0.30059814453125
0.40644645690917969 0.60911178588867188 -0.30712890625
0.39183807373046875 0.59261989593505859 -0.29296875
0.3842620849609375 0.57603549957275391 -0.271453857421875
0.37643623352050781 0.55654239654541016 -0.247344970703125
-0.40124607086181641 -0.71458339691162109 -0.101287841796875
-0.41615867614746094 -0.7323150634765625 -0.12286376953125
-0.429229736328125 -0.74833965301513672 -0.14337158203125
-0.43897151947021484 -0.77259063720703125 -0.149383544921875
-0.44349002838134766 -0.78687095642089844 -0.137908935546875
-0.45336532592773438 -0.80691146850585938 -0.131927490234375
0.39075279235839844 0.60690212249755859 -0.3157958984375
0.38525962829589844 0.61458492279052734 -0.318084716796875
0.3804168701171875 0.62470054626464844 -0.31658935546875
0.36308097839355469 0.6253509521484375 -0.297393798828125
0.35002326965332031 0.61274814605712891 -0.27679443359375
0.334686279296875 0.60302066802978516 -0.254730224609375
0.33396339416503906 0.57865619659423828 -0.227142333984375
0.34587955474853516 0.56209087371826172 -0.227325439453125
0.35662651062011719 0.54778003692626953 -0.225311279296875
-0.39711475372314453 -0.68428325653076172 -0.09124755859375
-0.41045856475830078 -0.67561054229736328 -0.1025390625
-0.42581939697265625 -0.66486835479736328 -0.11346435546875
-0.44613075256347656 -0.67513084411621094 -0.146881103515625
-0.45201969146728516 -0.69812583923339844 -0.160614013671875
-0.46019840240478516 -0.72088050842285156 -0.174835205078125
-0.45810699462890625 -0.74468517303466797 -0.182281494140625
-0.44893646240234375 -0.74986076354980469 -0.176971435546875
-0.44204425811767578 -0.75493812561035156 -0.1702880859375
0.32941246032714844 0.66186141967773438 -0.30865478515625
0.31940841674804688 0.65736961364746094 -0.302490234375
0.30999946594238281 0.65608978271484375 -0.2969970703125
0.30209064483642578 0.65092563629150391 -0.27874755859375
0.30631923675537109 0.63896083831787109 -0.264007568359375
0.31094074249267578 0.62403392791748047 -0.2476806640625
0.36449909210205078 0.64870071411132812 -0.31414794921875
0.35434627532958984 0.657867431640625 -0.31243896484375
0.34408760070800781 0.66361331939697266 -0.312408447265625
-0.49293613433837891 -0.70583057403564453 -0.213623046875
-0.48611259460449219 -0.71742725372314453 -0.205108642578125
-0.47781753540039062 -0.72861862182617188 -0.196319580078125
-0.46605968475341797 -0.64851856231689453 -0.160858154296875
-0.47924137115478516 -0.64717769622802734 -0.184417724609375
-0.48988151550292969 -0.64698123931884766 -0.20428466796875
-0.49223232269287109 -0.65912532806396484 -0.217803955078125
-0.4929962158203125 -0.67306995391845703 -0.217987060546875
-0.49479484558105469 -0.68639659881591797 -0.2181396484375
0.29261302947998047 0.67807865142822266 -0.286956787109375
0.28549385070800781 0.70247554779052734 -0.28173828125
0.27928447723388672 0.73188114166259766 -0.275787353515625
0.26720905303955078 0.76001644134521484 -0.2550048828125
0.25980949401855469 0.75816917419433594 -0.23687744140625
0.25103950500488281 0.75907230377197266 -0.21502685546875
0.2578277587890625 0.72556400299072266 -0.195159912109375
0.2755584716796875 0.68226051330566406 -0.201873779296875
0.29522323608398438 0.64045143127441406 -0.2125244140625
-0.48040103912353516 -0.63014698028564453 -0.14129638671875
-0.51564216613769531 -0.61526775360107422 -0.154876708984375
-0.55275249481201172 -0.60228824615478516 -0.17181396484375
-0.57908916473388672 -0.60268783569335938 -0.20550537109375
-0.57631778717041016 -0.61279392242431641 -0.22222900390625
-0.57596206665039062 -0.62286853790283203 -0.236419677734375
-0.55348110198974609 -0.63378238677978516 -0.241607666015625
-0.53106021881103516 -0.63570308685302734 -0.233062744140625
-0.51121139526367188 -0.64000892639160156 -0.226318359375
0.24141502380371094 0.86920452117919922 -0.230438232421875
0.22982501983642578 0.86950016021728516 -0.21429443359375
0.21749687194824219 0.87116527557373047 -0.197967529296875
0.21092605590820312 0.84958171844482422 -0.182952880859375
0.21884822845458984 0.82479381561279297 -0.18463134765625
0.22842216491699219 0.79836940765380859 -0.184844970703125
0.26711940765380859 0.79123783111572266 -0.26458740234375
0.26145076751708984 0.81894493103027344 -0.2574462890625
0.25610256195068359 0.843841552734375 -0.25146484375
-0.63936042785644531 -0.62571048736572266 -0.2716064453125
-0.61967849731445312 -0.62759494781494141 -0.263092041015625
-0.59906101226806641 -0.63078212738037109 -0.2568359375
-0.61216449737548828 -0.58267307281494141 -0.203460693359375
-0.63486099243164062 -0.57533645629882812 -0.217254638671875
-0.65334033966064453 -0.56933116912841797 -0.231414794921875
-0.66722393035888672 -0.58158111572265625 -0.248809814453125
-0.66333389282226562 -0.59799098968505859 -0.2581787109375
-0.66053104400634766 -0.61182403564453125 -0.26885986328125
0.2467041015625 0.89345169067382812 -0.24346923828125
0.24346828460693359 0.91837215423583984 -0.24237060546875
0.24140167236328125 0.94350624084472656 -0.24371337890625
-0.71335411071777344 -0.62355899810791016 -0.315399169921875
-0.69543838500976562 -0.62258720397949219 -0.301605224609375
-0.6766204833984375 -0.62209033966064453 -0.2896728515625
0.20396327972412109 0.82124042510986328 -0.074951171875
0.21986579895019531 0.79743003845214844 -0.119903564453125
0.23224639892578125 0.77809047698974609 -0.157928466796875
-0.59793663024902344 -0.5826263427734375 -0.16888427734375
-0.61550235748291016 -0.5732879638671875 -0.144561767578125
-0.63879108428955078 -0.56226634979248047 -0.117401123046875
0.32079505920410156 0.59906864166259766 -0.141326904296875
0.31644248962402344 0.60110664367675781 -0.167236328125
0.31514930725097656 0.60094165802001953 -0.19476318359375
-0.44542598724365234 -0.64371109008789062 -0.100341796875
-0.44310951232910156 -0.64169120788574219 -0.07293701171875
-0.43956565856933594 -0.64439868927001953 -0.044342041015625
0.26179313659667969 0.96416378021240234 -0.294921875
0.25442790985107422 0.96526718139648438 -0.280792236328125
0.24800395965576172 0.96622562408447266 -0.26568603515625
0.25764942169189453 0.86840152740478516 -0.26239013671875
0.26309394836425781 0.8676605224609375 -0.27685546875
0.26878261566162109 0.86724090576171875 -0.291168212890625
0.27417755126953125 0.89134407043457031 -0.30218505859375
0.27161312103271484 0.91506004333496094 -0.30291748046875
0.27057743072509766 0.93976402282714844 -0.304412841796875
-0.70301246643066406 -0.66014575958251953 -0.355804443359375
-0.6857452392578125 -0.657257080078125 -0.341796875
-0.66911888122558594 -0.65665245056152344 -0.329864501953125
-0.65250587463378906 -0.64551162719726562 -0.3121337890625
-0.65482330322265625 -0.6382904052734375 -0.302520751953125
-0.65587520599365234 -0.63144207000732422 -0.291046142578125
-0.72699165344238281 -0.63556003570556641 -0.34307861328125
-0.72426319122314453 -0.64387226104736328 -0.35430908203125
-0.72220134735107422 -0.65192604064941406 -0.363800048828125
0.27765750885009766 0.76542568206787109 -0.28424072265625
0.28117752075195312 0.76657390594482422 -0.296661376953125
0.285400390625 0.76785659790039062 -0.30853271484375
0.28871631622314453 0.79442501068115234 -0.3140869140625
0.28466987609863281 0.81965160369873047 -0.309906005859375
0.28062915802001953 0.84344673156738281 -0.3072509765625
-0.63418102264404297 -0.65714359283447266 -0.310333251953125
-0.61595821380615234 -0.65903186798095703 -0.302337646484375
-0.59749794006347656 -0.65895366668701172 -0.295501708984375
-0.57889080047607422 -0.64982700347900391 -0.282623291015625
-0.57906150817871094 -0.64316844940185547 -0.272674560546875
-0.57791042327880859 -0.63833808898925781 -0.261383056640625
0.29986858367919922 0.66691398620605469 -0.30377197265625
0.30018138885498047 0.67140960693359375 -0.31500244140625
0.30177402496337891 0.67743492126464844 -0.323486328125
0.30106830596923828 0.69501018524169922 -0.32855224609375
0.29799652099609375 0.71533012390136719 -0.327789306640625
0.2952423095703125 0.74105358123779297 -0.324188232421875
-0.55736446380615234 -0.65867996215820312 -0.28131103515625
-0.53864192962646484 -0.65768051147460938 -0.2738037109375
-0.52449321746826172 -0.65891265869140625 -0.266510009765625
-0.51111507415771484 -0.65533351898193359 -0.257171630859375
-0.50630760192871094 -0.65080547332763672 -0.248504638671875
-0.50255775451660156 -0.64838027954101562 -0.23583984375
0.33764266967773438 0.67040538787841797 -0.320037841796875
0.33853721618652344 0.67532157897949219 -0.327545166015625
0.34039306640625 0.68045806884765625 -0.3365478515625
0.32917404174804688 0.68573760986328125 -0.3404541015625
0.31846046447753906 0.68313407897949219 -0.33636474609375
0.30966281890869141 0.68263339996337891 -0.332275390625
-0.51398468017578125 -0.66701889038085938 -0.26190185546875
-0.51260185241699219 -0.67906093597412109 -0.260986328125
-0.51342868804931641 -0.69520759582519531 -0.257476806640625
-0.50700855255126953 -0.70687198638916016 -0.2451171875
-0.50278568267822266 -0.70299148559570312 -0.23529052734375
-0.49978065490722656 -0.70057392120361328 -0.226959228515625
0.38020420074462891 0.64407825469970703 -0.329559326171875
0.38388729095458984 0.64905548095703125 -0.342803955078125
0.38632011413574219 0.65481853485107422 -0.354217529296875
0.37954139709472656 0.67468452453613281 -0.357635498046875
0.36789131164550781 0.68263626098632812 -0.353271484375
0.35498428344726562 0.68689250946044922 -0.348114013671875
-0.51012706756591797 -0.72928237915039062 -0.248077392578125
-0.50461196899414062 -0.74563217163085938 -0.24310302734375
-0.49722576141357422 -0.75920295715332031 -0.2371826171875
-0.48112773895263672 -0.76468753814697266 -0.22216796875
-0.47672176361083984 -0.75983047485351562 -0.212249755859375
-0.47313213348388672 -0.75088214874267578 -0.2008056640625
0.40081787109375 0.61049938201904297 -0.329559326171875
0.40209388732910156 0.61526298522949219 -0.34234619140625
0.40334701538085938 0.62111568450927734 -0.350433349609375
0.40208339691162109 0.63145160675048828 -0.35784912109375
0.39865398406982422 0.63963794708251953 -0.361572265625
0.39457988739013672 0.65122699737548828 -0.363037109375
-0.47748947143554688 -0.77521800994873047 -0.224365234375
-0.4683380126953125 -0.77806377410888672 -0.217620849609375
-0.46086692810058594 -0.77911472320556641 -0.210601806640625
-0.45327377319335938 -0.77963447570800781 -0.198883056640625
-0.44851016998291016 -0.77572154998779297 -0.19000244140625
-0.44416999816894531 -0.76959609985351562 -0.177001953125
0.44192123413085938 0.66570854187011719 -0.323211669921875
0.44052314758300781 0.67014503479003906 -0.33551025390625
0.43763923645019531 0.67569065093994141 -0.347564697265625
0.42297554016113281 0.66074848175048828 -0.349609375
0.41431331634521484 0.64354419708251953 -0.350128173828125
0.40796375274658203 0.63197040557861328 -0.35162353515625
-0.46016407012939453 -0.78741264343261719 -0.19903564453125
-0.46698474884033203 -0.79768085479736328 -0.195220947265625
-0.47779273986816406 -0.81162548065185547 -0.1932373046875
-0.48549652099609375 -0.83367729187011719 -0.183135986328125
-0.47976112365722656 -0.83399105072021484 -0.167816162109375
-0.47443485260009766 -0.83205890655517578 -0.15216064453125
0.28244781494140625 1.0705327987670898 -0.3369140625
0.27590751647949219 1.0716609954833984 -0.32427978515625
0.2683258056640625 1.0743370056152344 -0.30963134765625
0.27309799194335938 0.98917293548583984 -0.31512451171875
0.27706718444824219 1.0148715972900391 -0.32379150390625
0.28278732299804688 1.0409049987792969 -0.333343505859375
-0.77102947235107422 -0.68931770324707031 -0.428436279296875
-0.75434589385986328 -0.67829227447509766 -0.40899658203125
-0.73730659484863281 -0.67053318023681641 -0.388336181640625
-0.79682636260986328 -0.67639636993408203 -0.429534912109375
-0.79361248016357422 -0.68495750427246094 -0.438873291015625
-0.79126739501953125 -0.69346427917480469 -0.44573974609375
0.34573554992675781 1.1726741790771484 -0.389068603515625
0.341522216796875 1.1789960861206055 -0.38006591796875
0.33556747436523438 1.1821937561035156 -0.366607666015625
0.30081939697265625 1.0993680953979492 -0.35723876953125
0.313568115234375 1.1265010833740234 -0.3687744140625
0.32952880859375 1.147979736328125 -0.379791259765625
-0.83467960357666016 -0.76495361328125 -0.50079345703125
-0.82289791107177734 -0.74037456512451172 -0.48797607421875
-0.80625343322753906 -0.72039031982421875 -0.470306396484375
-0.85871505737304688 -0.77990341186523438 -0.5010986328125
-0.85449981689453125 -0.78641891479492188 -0.507781982421875
-0.84999752044677734 -0.79069900512695312 -0.509918212890625
0.43682289123535156 1.1445589065551758 -0.443023681640625
0.43628501892089844 1.1505193710327148 -0.437225341796875
0.43367385864257812 1.1527767181396484 -0.4268798828125
0.36852455139160156 1.1671514511108398 -0.40435791015625
0.39042091369628906 1.1649599075317383 -0.41680908203125
0.41281509399414062 1.1539764404296875 -0.429107666015625
-0.8300018310546875 -0.88422679901123047 -0.486602783203125
