# XYZ point cloud file
0.056345430028466786 0.37209123135274808 0.5104129770504402
0.061464440661772562 0.39071278630663336 0.48712869337660791
0.066638689660122361 0.40953109263700016 0.4630949217892899
0.060449676112525247 0.44165274517388292 0.44529068420542961
0.047917886192033701 0.44624010027493483 0.45661064140137309
0.034189825949921149 0.44230475738308245 0.47165301004035776
-0.21386359021005683 0.16438438283895235 0.57168495211856785
-0.23367078608198455 0.13589279523331799 0.56808732318238175
-0.2552311017356238 0.10371155688906941 0.56617230606341562
-0.27743620483640286 0.074580206806239779 0.5918865146706469
-0.27737757377135686 0.078970428011722493 0.61675580774014405
-0.27715333813583187 0.08279037313169596 0.64047661914631893
0.061192018521122438 0.33773051129046355 0.52921541306838393
0.070460576962305704 0.31748604738125213 0.52911364959277418
0.078936534555721583 0.29386789728669577 0.53238839417723915
0.10115703271542782 0.34775585250097413 0.44889629294482036
0.092060033330264274 0.38003567916045272 0.440517188468879
0.082311709858082782 0.40755662804553955 0.43694378987313098
-0.29893416168846221 0.036144868054672874 0.56883787087330528
-0.31830333320096366 0.0045495170249855166 0.57314174463620882
-0.33415013297171914 -0.023538740848155715 0.57866317289920466
-0.31334889118952242 0.020078772057661287 0.66784928291762591
-0.30339510319507035 0.040485130901832422 0.66515058979595931
-0.2908719823373872 0.062739676796967681 0.66335720099263895
0.042357541521954978 0.28160723772903345 0.59831733998527126
0.049238061705251607 0.26832381573404762 0.59732565970748452
0.055370294527313679 0.25299789061112465 0.59830749212836065
-0.29201774118236073 0.050551483618020587 0.72946529173943064
-0.28689048291043046 0.063569488557516873 0.728256079534366
-0.28013860330043738 0.077333565304104124 0.72757109903249284
0.054574486586778506 0.22858694555131287 0.61910120065297169
0.056254162436412875 0.23067539396596426 0.61435508120977844
0.057848515636065023 0.2329742559282364 0.60892514605586712
0.03322520272534607 0.28595741059981605 0.60951097825048972
0.032213826122549222 0.28221396408071053 0.61524819198316294
0.031223555173603063 0.27844713967804618 0.62028840398601481
0.036478350998930126 0.26382697818461859 0.62299980862462134
0.042559856951712327 0.25320639202373196 0.62144326096604718
0.047477158802283759 0.24010321193688777 0.6223983213339086
-0.28521003597606887 0.060843442594072039 0.75223440070351177
-0.28172567730920878 0.071345657068264678 0.75111476891926343
-0.27645363811217255 0.082533755551355337 0.75100834742181277
-0.27103878749402033 0.094172880284392024 0.74660573023760035
-0.27144713599317039 0.093503611283719368 0.74172973584567048
-0.27168186033171177 0.092389709069920611 0.73574812254374033
-0.2927752579584334 0.042936145963726968 0.73889376127350825
-0.29139430701049757 0.045709596555396914 0.74452686538030588
-0.28990632135975458 0.048124843280681839 0.74913998820101968
0.00095077880290711514 0.29175389841050703 0.63698162471803799
0.00063591953782038413 0.28823753348225944 0.64242516351945134
0.00046564637770152295 0.28466642097145006 0.6469359889894235
0.0079692733813113981 0.2821464282077859 0.64341120010184061
0.0153761490520124 0.28280596052986395 0.63614691730920625
0.022618190178743655 0.27909817647015844 0.63056379479980684
-0.26298735626960035 0.10523034187614083 0.75218944613940031
-0.25568341598963118 0.11534808308350319 0.75338915827692321
-0.24841934528306495 0.12331768447833286 0.75544381826570617
-0.24023437068066841 0.13223853822630738 0.75286463891237476
-0.23940645968728802 0.13296906771776479 0.74771600376003455
-0.23847645311583182 0.1332353933911124 0.74146319548783124
-0.025038816939979974 0.24899541998784191 0.66960968586616532
-0.024379177402281543 0.24691072043707885 0.67404655912639555
-0.023588202276111622 0.24477125145941564 0.67743349207640335
-0.017599820139668529 0.25435631295354599 0.67330673821626963
-0.012512517431501946 0.26538963473730648 0.66630507200794642
-0.0063042963757984211 0.2731735402786602 0.65897784514323465
-0.23494795297927198 0.13357204355574359 0.75974680206109935
-0.22933059052537619 0.13517864708409066 0.76168809619783828
-0.22490711319777759 0.13320736974283398 0.76387464899058699
-0.21887496335157891 0.13184312936726089 0.76158091232630243
-0.21746007479020335 0.13295694020853155 0.75683575429932692
-0.21596503855772056 0.13368649511352365 0.7510192517548222
-0.028483664557754432 0.18427043106824204 0.68725681421381291
-0.027384712859166854 0.18419011760352977 0.69089799598353663
-0.026267874828062629 0.18419533738933125 0.69360979988594385
-0.026221706022056201 0.19889432343981917 0.69268226570799629
-0.026714469934891211 0.2133449482578294 0.68954653302678626
-0.02496429297949071 0.22758298030012625 0.68515893077801238
-0.21785521791430057 0.12252733453536369 0.76714524590006627
-0.21536743240859835 0.11463496727573042 0.76821538509702036
-0.21430207226834128 0.10481883719377444 0.7694570666336209
-0.21168862782861333 0.09457319888230642 0.76718134702517693
-0.21036436459483382 0.094289222294589192 0.76298638166597721
-0.2090057529689667 0.093761122645181105 0.75772129348514072
-0.0015751087226433813 0.13805978427019133 0.68610824120601932
-0.0009744257289106828 0.13935843001578507 0.68935131800199367
-0.00045092248480867181 0.14076536791106986 0.69181970699204975
-0.0079126800896835575 0.15130437110945283 0.69534494717762585
-0.015015639805956937 0.16036802255177829 0.69647617630168579
-0.020261081875203091 0.17176833937749025 0.69619574524371242
-0.21467005791209909 0.083331117546883993 0.77194162266326849
-0.21623093795058981 0.072854680383358794 0.77305264744684976
-0.21946866463023465 0.062892708183232893 0.77403064030909885
-0.22178527575559176 0.05113302065947134 0.77150435738971046
-0.22069860578346992 0.04929181708749053 0.76762064024923271
-0.21964235762064296 0.047159012211347939 0.76266465019506802
0.038482488019567065 0.13231449023711883 0.66449444841897209
0.037905635989227027 0.13335055633298309 0.66810514428017087
0.037190269927805775 0.13454619613274743 0.67103088827610091
0.027115603462373405 0.1350568213997792 0.67971041902631568
0.018325707136045644 0.13489324022756011 0.68519790756109722
0.0092743617807270889 0.13825617915998517 0.68960978765302916
-0.22889429636332315 0.044692655522338087 0.77442991209218714
-0.23480006493381547 0.037190012741788847 0.77371782286325574
-0.24187766428592422 0.031644321975194123 0.77259731771999096
-0.24943923052047939 0.023484628811084596 0.7675034103546059
-0.2493664984533504 0.02073279252357918 0.76341891054533706
-0.24935026714924846 0.017654713693919022 0.75837390898562229
0.063199138940235294 0.17082393894254883 0.63240052954652093
0.061702617341419505 0.17071018559922618 0.63664745177549054
0.059995903346954926 0.1707791259131991 0.64027520700091278
0.054046248927582835 0.16004218973128204 0.65129422709632889
0.049772401376819708 0.14997909415700511 0.6585954987081204
0.043313550813440141 0.14276546712651977 0.66608320193511394
-0.25790893120984038 0.024298619505188357 0.76875878844598078
-0.26588168198929063 0.022742787721828972 0.76629666320502254
-0.27303561841160606 0.023637696726265256 0.7639875303339525
-0.28124227191253276 0.021838221318865036 0.75760097100554114
-0.28241134546336089 0.018765151079678022 0.75339108732767901
-0.28352020027836755 0.015383815674344659 0.74828430391194156
0.055365434556545648 0.21174332143197261 0.6277203670971121
0.057822149606503795 0.19794318000410571 0.63174203313561983
0.058086478264097949 0.18462312783661455 0.63748255562984446
-0.28406223819734433 0.02978475475194331 0.75909793649291957
-0.28722578211120842 0.034895382973025912 0.75677484219677882
-0.28807209342455387 0.042228095461850912 0.75514417291452851
0.046259273955785912 0.22167584456268247 0.63316179320187338
0.038559087464007408 0.21634010410554239 0.64372213020404612
0.028650537632699119 0.21012803273846636 0.65608748245181081
0.02990660950367928 0.18799631974426584 0.66339920455463419
0.041248694872732944 0.18047102778496749 0.65592072101852428
0.050294661976234556 0.17514709444427851 0.64948321175157298
-0.26552355688803564 0.068070121223991475 0.77190390383366081
-0.27488867504243353 0.061306171313444402 0.76560475396593608
-0.28215038714556678 0.055587019564702744 0.7594071979908632
-0.27524220563017376 0.033605261232171446 0.76624798421699802
-0.26960331230231555 0.043850886230616171 0.77092888092520928
-0.2622649130580893 0.056931711068864965 0.77520049768185162
0.021167710944993923 0.17398799526924869 0.67556312060516532
0.02707788783858367 0.15762934888538194 0.67572747436329417
0.031996201122911891 0.14563451773089264 0.67490200623148833
-0.25030607736827837 0.034487108612288042 0.77419532166511029
-0.25094748494266261 0.04435701977134171 0.77686944266709479
-0.25132131343632835 0.057136480263358935 0.77867026184009092
0.0075829922447241127 0.17660727915113639 0.6843421468081603
0.0043884613124076377 0.16195090742245855 0.6895553742510232
0.002012410548907162 0.15113699647226037 0.69233079037572565
-0.22788368561073913 0.057217254090926706 0.77712306237939388
-0.23353901158798962 0.062210485214742817 0.77896703018457547
-0.24050822295655727 0.068374475567015758 0.77989831383267205
-0.0022706720989788542 0.19393915103660719 0.68511835777182784
-0.011795336056150074 0.18968651679784576 0.6907519555293995
-0.019039280923892954 0.18666965816267339 0.69392428468360801
-0.21911992069542904 0.092286303223104549 0.77405649671020438
-0.22634002959091482 0.089275104421217 0.77687371891026968
-0.23574897324992306 0.085079281811989149 0.77887524988592927
-0.0024109994244526922 0.21679429060082328 0.67844491152467179
-0.011298479984190479 0.22713456979344498 0.68029198806633651
-0.017655602712091614 0.23539715711528697 0.68067218037163912
-0.22544873474193328 0.12178771054682236 0.7701589577685497
-0.23142136386872425 0.1115577956319968 0.77407188650467296
-0.23896535857024123 0.098306239262913542 0.7771047808086915
0.0064564761820341821 0.23135838160827271 0.66723632330605476
0.0032941593964992688 0.25130498788144684 0.66184280884593272
0.0014829074513221241 0.26719643304005147 0.65643280604594367
-0.24339579164365549 0.12250919091132123 0.76317762340390893
-0.24579723968683237 0.11216386920613686 0.76867885773497457
-0.2482571936832339 0.098646339907938918 0.77380657221874594
0.019195099899632501 0.22853460521977542 0.65753666077266293
0.0235172813353349 0.24684658899997758 0.64552891376870347
0.027067490675197203 0.26162638706554719 0.63491790626275724
-0.26785873701881485 0.092478739659220377 0.75747777293939778
-0.26441896679079113 0.089624551964092247 0.76413916617229782
-0.25947694068874216 0.085375371094848884 0.77107507576176237
0.54095938109556752 -0.35226959626262372 0.60933877627934363
0.5606767440836038 -0.35676825117536598 0.61750433273470118
0.57717437381218817 -0.36026985570797304 0.62508642898733291
0.60156827447568306 -0.35902334462954244 0.63663851011602679
0.60610534184169207 -0.35445738133662602 0.64042793640743367
0.60520800953518161 -0.34919058347730847 0.64346953064886303
0.58690751666045982 -0.34151734848250348 0.64071502893595778
0.57147929723172419 -0.33871198146432846 0.6349869199159589
0.55322720196235042 -0.33491329727001884 0.62880293135790055
0.53332968811347325 -0.33457721926678241 0.6174261782662237
0.53187011804127904 -0.33884934129554345 0.61223599590940925
0.52690896172099366 -0.34294592715799577 0.6066826245298379
0.50862899793085736 -0.32467841300827005 0.6158326153405963
0.48365774544424223 -0.31869966139664252 0.60953691025733614
0.45856719997627637 -0.31257515811780967 0.60374025474505932
0.4264237636018432 -0.30924164017162542 0.589625764433094
0.41770511860473936 -0.31242757849094643 0.58074453740279253
0.40733010772852829 -0.31611132855410096 0.57202289878763846
0.42697983060933892 -0.32704915306546023 0.57263004387789762
0.45927831390061502 -0.33393285559950725 0.58206101533546362
0.4898656595975821 -0.34062446902318327 0.59147410355707764
0.60281813568796472 -0.36441462980403588 0.63832648253467739
0.61162371837624407 -0.36476868643432697 0.64387338832122776
0.61651964059581787 -0.36349688389793311 0.6485715631170923
0.62847754838123426 -0.35720150742526824 0.65554255106538362
0.63170217995197708 -0.35243308795169948 0.65775400809348294
0.6272171392667909 -0.34627581066887941 0.65926091355588479
0.61798446063666379 -0.34236475823029333 0.65729539521510993
0.61552503227549615 -0.34400155226813667 0.65395464325710695
0.60918217087077686 -0.34423829547193113 0.65017863946560472
0.412993368656557 -0.30117461230372711 0.59463245819508659
0.39286621673565347 -0.29599608631314173 0.59173384008578445
0.37336709100570675 -0.29087051824155608 0.59021609394245667
0.33730700752334808 -0.28719585944732889 0.57655570810081891
0.31855278794891517 -0.28933665948483506 0.56270182238914057
0.29741667048156056 -0.29223036430792904 0.54915008761131368
0.30149621068511451 -0.30156278555672139 0.54040441926196892
0.33101821457529507 -0.30744266785224328 0.54669265546164036
0.36205964903304466 -0.3136814088562177 0.55455793004844867
0.61103076428598913 -0.35480184696526312 0.65502871102630067
0.59968279460365215 -0.34703531208598642 0.65687021708496085
0.58247916164876523 -0.33688904859841823 0.65799976466493459
0.58105334116374108 -0.32513397630258251 0.66333891032168757
0.5871948761111081 -0.32227882510477662 0.66646631515968646
0.58061879841284592 -0.31672522807018111 0.66857341871221354
0.58278965593119592 -0.31865003537425562 0.66810541645785848
0.59789499123505874 -0.32684396427708617 0.66578959992577791
0.60916101101248732 -0.33375764286466469 0.66318590860187254
0.33292902650749767 -0.2798480268812838 0.59227947370789802
0.31150505222770075 -0.27389810819208926 0.59581361602165639
0.28969485481398649 -0.26787507136234556 0.60057714953157004
0.25032163089394666 -0.2640577839595652 0.59054838056081205
0.22956966194193448 -0.26697176741717837 0.5746044858348921
0.20479316882026238 -0.27089743560302487 0.55938562508601697
0.20079862558910927 -0.28131657529386578 0.54003673505836791
0.22488488304449872 -0.28623268248770989 0.53633050243925617
0.2488471884809097 -0.29106538374180657 0.53501837078568171
0.53039733905248188 -0.30901367784611616 0.65871673447257939
0.49613467358260183 -0.29158180576412523 0.65838538435385674
0.45726866209337502 -0.27233098765210789 0.65751615941944053
0.44154182507425216 -0.25753992216271115 0.66330527927135163
0.4542510506445564 -0.26061586211406612 0.66866025594534162
0.45549418184363138 -0.26137297049818747 0.67268483175355631
0.486661296101981 -0.27588768723869522 0.67457614421849033
0.51789254871701229 -0.28874624054286652 0.67328042024043999
0.54331745410603427 -0.29974684784274097 0.67181758481387921
0.24606932025661243 -0.25611736059596774 0.61228288405033959
0.2228921595906419 -0.25005371565618217 0.6190246360874565
0.19678823956320252 -0.24323944787069723 0.62661400241544474
0.14116215662803039 -0.23640654121271676 0.62300699779150048
0.11371835387866186 -0.23882276341807929 0.60971102724834014
0.084227973518669036 -0.24251825295382434 0.59612109948747971
0.085949725370282837 -0.25568975574743691 0.57295021838728499
0.1176513828635771 -0.26317457979955083 0.56297214982893018
0.14758113535998499 -0.269942874434284 0.55375576928555326
0.36890125976865207 -0.22947218449503526 0.65373676475985887
0.32324247055344479 -0.20709018922576644 0.65085937264679616
0.28013876947175104 -0.18546838998049353 0.6476093916087331
0.25777739656823306 -0.17104344320959597 0.65482769928428541
0.26534437790050841 -0.1753854429564502 0.6642910051228279
0.26566664429663028 -0.17869152836553182 0.67267539210692062
0.30425796715244791 -0.20083861615088799 0.67906300711137901
0.35272565494215113 -0.22163302090990816 0.67804743814476609
0.40216969098752248 -0.24198424343971214 0.67692911049168814
0.13115734252793554 -0.22504739490272901 0.64491561668398534
0.094406813444614074 -0.21345938396661596 0.65477148934440654
0.059446640910263887 -0.2009558899153403 0.66389308004315506
0.0049138684894839413 -0.19182857585668917 0.65970996409808458
-0.019528204662321913 -0.19654085762991708 0.64555956636191381
-0.04347545109299028 -0.2022854011292593 0.62986197927698195
-0.042234420272273393 -0.21857224374206352 0.60804612015237547
-0.013490910229446651 -0.22868597434547033 0.60099016929406335
0.018889572935967491 -0.2384049245300458 0.59253342792432973
0.050078471745242339 -0.037434623283400859 0.68134713086844889
0.061700402260788587 -0.043305611413698708 0.66070539967226738
0.067576708172365607 -0.046924267000529596 0.64222548278507485
0.078344751091392245 -0.033436311032306099 0.61995801945180462
0.093255137099384072 -0.014893277550762363 0.61016991263417464
0.11096295844208877 0.0068320470212814843 0.59777578390539854
0.12726217235340734 0.032148603433183487 0.59376221391297412
0.12217516475093859 0.035869956308944628 0.60428739814193655
0.1146785230840166 0.041762695586725518 0.61429350943039029
0.087116238854656844 0.027582393777637659 0.64297976826104297
0.067191320927526194 0.0082929418921598441 0.66348559010138719
0.047146251065938588 -0.0089395335935268383 0.68376508777287048
-0.15470130912775731 -0.063094524445106159 0.71974715318234606
-0.18895065121130253 -0.069652761854946288 0.70737465029420599
-0.22203449247218421 -0.077126061424949377 0.69453418481828799
-0.25670087135886993 -0.099098838992530358 0.66614736223136428
-0.26103573777758604 -0.11483091595145778 0.64715853965546066
-0.2661343030096574 -0.12993628947284158 0.62716519217698075
-0.2404001910843486 -0.13760219020920672 0.61663946951485671
-0.20954012645784748 -0.13254722044902117 0.6246633105116246
-0.18154598514198061 -0.12899938757367607 0.63116336689416741
-0.14936435417661739 -0.11550505307128411 0.65695914223661056
-0.13873813195877804 -0.099802788487292182 0.68153536590862585
-0.12771134985511373 -0.08187342072935444 0.70686362247215073
0.14493663556142525 0.057455364044454449 0.56825401406422782
0.15865671027894621 0.085995425840567408 0.55129292362606508
0.17008832911709132 0.11757321765843382 0.53170569307741578
0.17812446772697299 0.15284860238730291 0.51686802300699308
0.17308372327458627 0.15482208360169558 0.52487751133999949
0.16523067269483849 0.15733140971742238 0.53319640290371328
0.14720782285579526 0.12803389417834876 0.56315122503090032
0.13603958467978411 0.099582992853949892 0.58328607979625113
0.12218686095713034 0.073263720688361067 0.60299341318707977
-0.28256627120217703 -0.089829128682169135 0.67118587180410216
-0.30902156796942465 -0.093722478674054976 0.66145075844745782
-0.33254045796470777 -0.096059088835403761 0.65238968824798582
-0.36079069427730215 -0.11132183928240846 0.6279719411953455
-0.36721066814415038 -0.12646041092923627 0.61071685904081452
-0.37216082449534632 -0.14124554994357524 0.59224626380127932
-0.35247570360054031 -0.15187798738429698 0.5845588085959319
-0.32737763902265737 -0.14943638215770422 0.5932466390722575
-0.30045547281938428 -0.14659619143058522 0.60072603205466613
0.1864121829308184 0.19379541532736677 0.48054411280069753
0.19130023939249846 0.23824222332368278 0.44982522678221559
0.19374858212468438 0.28468386929509443 0.41890777782796662
0.18985715967985528 0.3227649026468703 0.40625978417762565
0.18278961200984908 0.31399693888406444 0.42361207731696915
0.17358205530616874 0.30465215822096475 0.44212816935885479
0.1649395738594133 0.26043873690056007 0.47814911497863588
0.16422665528914615 0.22572123151555096 0.49858937079340904
0.1611848712200335 0.19146330177614501 0.52039277458972633
-0.36964899764347742 -0.096753070020337395 0.63331731894313226
-0.38245528355450842 -0.09453275829146246 0.62357288878972117
-0.39088549488154434 -0.089404121329041297 0.6153121220475446
-0.40605030298819289 -0.097128863464098159 0.5889223977398057
-0.41693929236523108 -0.11593803152989868 0.56503220433965873
-0.42619500795078946 -0.13477275252495219 0.53997184267699661
-0.42707887702793779 -0.15963605392430735 0.52542661366019838
-0.41478982515509055 -0.16085894597231876 0.54058641230552573
-0.39714480520780993 -0.15828787026127317 0.55761059304831417
0.19028013947885503 0.37484477916243308 0.37042002249035155
0.18497209461133982 0.41445959692214757 0.35773627590734969
0.1781617691041974 0.4481242357052444 0.35307671515642891
0.16561784979844152 0.4583678999057812 0.37626895244666003
0.15905127721122159 0.44021531162492478 0.39813751014272447
0.15127012964395389 0.42086108630165353 0.41942592163352899
0.14940499269989782 0.38187206481419217 0.43672567449493083
0.15510035114230403 0.35658731385828257 0.43966364912181843
0.15995990480281641 0.32704892966721882 0.447646977613122
-0.39374628045543358 -0.066327492160808021 0.60849562170734317
-0.38892947876145778 -0.048514007488393962 0.61059486430395471
-0.3813527006503411 -0.02844273012804871 0.61544628446383376
-0.3784122732601905 -0.014245018820731925 0.60746652220340702
-0.38397210165376644 -0.022971189132617309 0.58836083081966883
-0.38827983800839594 -0.033410404921618897 0.56616893080648967
-0.40707191287669908 -0.076122226448511493 0.53092562546834077
-0.42094052301699225 -0.1069616291329914 0.52098963988099145
-0.43007579489909542 -0.13317868270157196 0.51500965626584971
0.16064392914589429 0.48990404935133125 0.36290029905156884
0.14944915374115952 0.49855026149069792 0.37405944883339437
0.13642109505744612 0.50282259521217076 0.38797940697015432
0.11811881988494383 0.48920159206492686 0.42684520683307903
0.11364335374071236 0.46963459341765756 0.44896640378853769
0.10884279077737352 0.44930859926928124 0.46834832086652023
0.1175295863068013 0.42615463452725116 0.4672287312516461
0.12815801034775154 0.42148603418984193 0.45428490121115517
0.13643318554896 0.41401384222875498 0.44460057126854591
-0.36298533780572872 0.010760242349171556 0.63089636975388608
-0.35256342707712746 0.029322950297373807 0.64075723674383522
-0.33988065762353675 0.049510491828253844 0.6516477245314809
-0.3235359750311837 0.074273877583475534 0.65034979827463735
-0.32202504398347531 0.072710189664568325 0.63074724255237613
-0.31972923772117579 0.068593689630775556 0.60626947341745252
-0.3379940517141703 0.033785773880144476 0.57007951155138592
-0.35662229361639264 0.0082978875121842988 0.56112029858415746
-0.37395270906020728 -0.017105752585080958 0.55196426689276135
0.10623634888766866 0.51066426172804524 0.42182330685051528
0.090962799148372492 0.51779777110578284 0.44044655280144984
0.077118958251168698 0.52750085508906197 0.45880332254191614
0.059154227087593519 0.52550504116813057 0.50240114973293837
0.051963487470488817 0.50646880345755951 0.527477492431915
0.045107392294333082 0.48495220850785481 0.54820743666774985
0.053736719663065508 0.45275008452573351 0.54294201436653755
0.07020244497175851 0.44382328478897248 0.5223818862396028
0.087563598271881843 0.43626927112743386 0.50197596026917779
-0.30288766870531159 0.10312123242120708 0.67400770601808246
-0.27933682643076596 0.13694431715261229 0.68357551015963836
-0.25499544522241319 0.17278400925967397 0.69107204184678217
-0.22654226513712433 0.21756675128324465 0.68314704895943335
-0.22149136807423841 0.22212523927338435 0.6622338472988385
-0.21706032756986493 0.22210478129952393 0.63616627845179319
-0.24072638241732025 0.17455377153308899 0.60335475748419176
-0.26756388199931835 0.13344971927840971 0.59673923770620085
-0.29339983470445918 0.095512879411718821 0.58839660949980699
0.057313526872329185 0.55584706941540141 0.48994827362361248
0.051202328023648047 0.57158218988440879 0.50263651462713299
0.046015006143465181 0.58397168660486221 0.51481659565356641
0.031698749058231279 0.5735722557606755 0.55617968559265751
0.022246553541204375 0.5507874901371197 0.58226374952827653
0.013227540869370891 0.52360596452973618 0.60277071293351803
0.012811693761796888 0.4913358040771858 0.60390334998687911
0.020049967250667253 0.48388150520788098 0.59178554395178518
0.028626179231984669 0.47378092455145016 0.57810030120387235
-0.21113532867852103 0.24142691402943306 0.69979357392478936
-0.1932507526894082 0.27105100114721803 0.70210309045275698
-0.17803342744609238 0.29642907345580533 0.70391253977963886
-0.15333655795922674 0.3396502626791526 0.69098377261588007
-0.14125392445828022 0.35771517295702443 0.66813453909681941
-0.13061373780153962 0.36948776578555081 0.64004818241218153
-0.14110219472394517 0.34187339426500152 0.6094009651610528
-0.16308887418267853 0.30353587837924667 0.60971233289558491
-0.18765900890280154 0.26129153065454436 0.60950983586323737
0.032086083794778453 0.58509228164967353 0.54108900307653518
0.021371217581252419 0.57050973814442629 0.55563318299717324
0.0080063438283569238 0.54617025871168678 0.5707420763551363
-0.014584993331464069 0.50068489115932202 0.61252303456343027
-0.021460498276953038 0.48357847575237289 0.6351098900478398
-0.02738296253008049 0.46292334934740764 0.65167673834631068
-0.020271424432694293 0.46449194561206986 0.64883677394558736
-0.010355406611708057 0.48133609469102662 0.63757067623378871
-0.0017103021149922903 0.49117585630941041 0.62638821099745567
-0.15587853655968523 0.33073706230508132 0.70819274787186104
-0.14907016007248405 0.33812540235761029 0.71115716695139497
-0.14505812586634451 0.33832851411008935 0.71463728717119168
-0.13124379632299324 0.35508280678673881 0.70543587759213366
-0.11869537162351106 0.37552811456747448 0.68459595423767783
-0.10738436632842777 0.39057838232420672 0.65853734219839222
-0.097690546775016429 0.40843890077783979 0.62263243311334704
-0.10111364042064436 0.40752465263602311 0.61659638252142823
-0.10946424087376533 0.39572470574087121 0.61224955321656527
-0.025328737868018397 0.47060427117759163 0.60177519711306138
-0.042884487312781355 0.4252971055503954 0.61636122248584924
-0.058965244651573379 0.38135160830345921 0.62908511400137357
-0.07642222749274083 0.33568869108426325 0.66216205275059714
-0.079059288866172667 0.32633286805942208 0.68100198235879073
-0.08004284248252011 0.31624119968656456 0.69415186540285712
-0.068313378236622868 0.33923069352302626 0.6923510107189963
-0.056469297324686751 0.374299183213196 0.68279355064713321
-0.043926495555957221 0.40915925345705689 0.67187044298789544
-0.14433728861198947 0.31602960805566849 0.7227356604755153
-0.14559561887356881 0.29658589662920132 0.72657632041712628
-0.14608444622912628 0.27576003787942616 0.72944564610010865
-0.13782661075210179 0.26983264075564894 0.72079391634284762
-0.13060960534339808 0.28231451582753408 0.7043159553356888
-0.1240547666760124 0.2922373937952496 0.68312242525068134
-0.11596597144340712 0.32226034953153609 0.65387040239902738
-0.1104464838121829 0.35015061788762436 0.6466465042336309
-0.10400732457589049 0.37709929299575856 0.6383716764011782
-0.083776836552572814 0.31323517977832682 0.64688179780474919
-0.09290451094402627 0.29155872350425488 0.65228079464859401
-0.10056367054863519 0.27696862919349802 0.65613065973916451
-0.11029316918507401 0.26220433165249207 0.68030083536311792
-0.11378217665840297 0.2511630198525584 0.69875303996998994
-0.1170632507034978 0.23576959676579345 0.71319049885822472
-0.10687337669275895 0.23550036731016832 0.71543277129912375
-0.097341332325330765 0.25682551322698827 0.7104670696153903
-0.088323331630516089 0.28009810310472671 0.70569850588256577
-0.14183534375948922 0.24112764848927171 0.7300688994268012
-0.13699771441156047 0.22914795834163693 0.72812493880661688
-0.13043853922363577 0.21968051390188337 0.72569804475458821
-0.11245500742189221 0.26656121570809732 0.66105593767286419
-0.11657638255855976 0.27042838641580746 0.66213897430886215
-0.11898960209721832 0.28070286654764037 0.66168931090557348
-0.075654366255661423 0.30011369884460237 0.69737139334000142
-0.070943447739725593 0.29515194907266429 0.68939559348426016
-0.065640454384182145 0.2914438196006004 0.67935894998808255
-0.053509324864505936 0.30847097747889207 0.6629563001638672
-0.045927688290345547 0.32783589399231383 0.65453297994132775
-0.038086332902875886 0.3456112569381935 0.64549484050313022
-0.032048968517079057 0.37738155448706362 0.64368769689569016
-0.033253385986649481 0.39659912857811269 0.65242271968110255
-0.033285142451771471 0.41794592991229407 0.659177908895618
-0.15462292442968453 0.30489010212667955 0.72170541382764064
-0.16432079878506031 0.27856448217872909 0.71861886415028353
-0.17280703207629827 0.253863530290936 0.71287712653052182
-0.17658826239739439 0.22996272799449258 0.71107220616345135
-0.17354320294028663 0.2247343833022184 0.71416186600578468
-0.17090585955475854 0.21714514897866743 0.71695513206917938
-0.1630440043116233 0.21878164232513453 0.72393945349689903
-0.15732821222338553 0.23082796413736334 0.72939099391632456
-0.15135872933927441 0.24340207439398465 0.73264955351412064
-0.023010233573383179 0.37335077200869798 0.62754753580151235
-0.016000381851345308 0.3826305343979613 0.61910331971240584
-0.0091591379624767488 0.38901020995449193 0.61089954287625825
-0.0021966527011971493 0.41340030153144292 0.60760059209333028
-0.0012586399982987134 0.43795692378562728 0.61360943483615493
0.0012285068756605066 0.4653446654217317 0.61742263611985959
-0.17680564859935699 0.28990069755975995 0.71001634159509552
-0.18687611842022894 0.26218856075078351 0.70764657044388413
-0.19561826518531544 0.236070320846475 0.70250689461153359
-0.19550288737169208 0.22294804922101308 0.70011102536863423
-0.18936316879136361 0.22906459057928552 0.70237517920189463
-0.18431434906434291 0.23226344571749968 0.70500660918567704
0.0048113234088029144 0.39371169740175405 0.59479062928169113
0.012646840473005461 0.39293193177349234 0.58602362855407364
0.021700326963381686 0.39106477364749836 0.57578549622089792
0.033180688937901243 0.40467226696868058 0.56410773065227926
0.034186571409418998 0.42239395824785747 0.56638565884988368
0.036100622545716041 0.44186965175678111 0.56689332472605969
-0.23651039517123917 0.19471129485366301 0.69948822556769907
-0.24091521498616131 0.17890395022048983 0.69669732955618846
-0.24484084318369448 0.16331117932614342 0.69197033533518915
-0.23425248320689421 0.17011420425197638 0.69293519888759003
-0.22215093347348674 0.18744410797300265 0.69527857960876083
-0.21175280766140353 0.20207084824931965 0.69684522495594292
0.045449189372246762 0.38729664739521902 0.54796761007017181
0.059579109276451603 0.38560450997006207 0.53153146939633422
0.073700070728146785 0.38314061134879807 0.51586931470984676
0.090653470523318236 0.38970598063733242 0.49932345754743679
0.094984512446372113 0.40130101207345992 0.49636206027330343
0.099447550063295476 0.41458761233450359 0.4917190935645237
-0.32220229042025406 0.070050178601919921 0.66686319546485473
-0.31954017659941264 0.065666513646649438 0.66540326132547434
-0.31634612125003381 0.061397886828899739 0.6620146935415363
-0.29803145342837511 0.07992826467192371 0.66749455140038161
-0.28128932396256184 0.10347942705018742 0.67562793992928838
-0.26428004570061481 0.12739133871161373 0.68314692479443728
0.096659935123684412 0.37286675753366627 0.49391462376264994
0.10452408217300904 0.36404298805457158 0.48882488740821994
0.1106546727151082 0.35249369209511944 0.48699877418488247
0.12176989342450145 0.35120120254103576 0.47801199420565976
0.12838787804484983 0.36638971035297391 0.46704050733334146
0.13551510878679524 0.38326395708723215 0.45417781150330083
-0.36622603954129257 -0.0048009691134262567 0.63221489928336894
-0.3602683277277216 -0.0033975395876475467 0.63866417477060744
-0.35445484758558204 -0.002559400131415146 0.64343863329399698
-0.34270171071776045 0.01135018687753353 0.64863098304354638
-0.33501963952610009 0.024890908413766677 0.65059357611390989
-0.32535104708874085 0.04026774080902995 0.65429872202474559
0.12032156158047812 0.32063002876357349 0.49120636732630496
0.12426751882646933 0.30042502264047294 0.49708643563147503
0.12713095602945707 0.27768264485261374 0.50580303181535391
0.13602956281217976 0.26163510034612913 0.50606745636023343
0.1445179202916721 0.27220101334173596 0.49277898973909551
0.1537344381986816 0.28347019617232033 0.47757489243618623
-0.38393086603840959 -0.067488108881958442 0.62615804778866346
-0.37386903566382329 -0.057613099847588833 0.63889041369498667
-0.36466199144921152 -0.049787488300791938 0.64904085461361016
-0.3585720226681397 -0.034890923124410778 0.65335412801194348
-0.35752067685365174 -0.024862238190291652 0.65043597410861698
-0.35406524334830269 -0.013447730184751427 0.64871899838581082
0.12770418338628514 0.22561632830007716 0.53202531309204937
0.12514786501807423 0.1980701689114085 0.54815226164194319
0.12098910676213495 0.17140699703997192 0.56465603387302132
0.12427593914397095 0.14970864519975091 0.57207262144277049
0.13441193616869823 0.15347328373162383 0.56245864073951513
0.14508565149512903 0.1568850848842997 0.5522942663704109
-0.34335822656861353 -0.08478027136354227 0.65607104192795807
-0.33334375323140031 -0.074319514581832113 0.66672170253916652
-0.32377276135862498 -0.065213643788056053 0.67580986539521715
-0.32958357656278303 -0.055898393442209593 0.67690413399576466
-0.34154816741596628 -0.053354720504742603 0.66984318167664147
-0.35072547835112433 -0.049174631649650136 0.66323827008074043
0.10848478937415353 0.12563697490189218 0.59524184567190042
0.099589876301427238 0.10771718669611385 0.608915941327421
0.088053085392706384 0.093205364629354248 0.62193140847648909
0.079860361124220097 0.074425580443492123 0.63311146348234715
0.087776761455161001 0.066002615228965666 0.63126424542016535
0.096612040328994259 0.057424536065435849 0.62809634545475568
-0.25163383399369255 -0.071981018566882493 0.69300882210052484
-0.25075946994952453 -0.061581186938394761 0.70027345624405846
-0.25050488464632242 -0.052606405939942646 0.70534039398073722
-0.26808712808343443 -0.05109978853195607 0.70313113979659292
-0.28479978652743615 -0.05502256311197079 0.69676313522137168
-0.30067331718537094 -0.056860085725010556 0.69044309824653616
0.054947793571360024 0.074843845455729363 0.6475178552394798
0.034835842545314799 0.070892178059275224 0.65983706227255023
0.014836957619309102 0.07002189478644727 0.67082519029967491
-0.00087498147975942353 0.053783013099938715 0.6854004836969263
0.0040234195515301274 0.031225466269004798 0.69288183757794775
0.012221531315526946 0.0052683878160688091 0.70008500161183118
-0.14191393652465356 -0.037096028167005912 0.73326403969920695
-0.16107290944161773 -0.021254099521108238 0.73184141181044393
-0.17589329429959688 -0.0084526330697543561 0.72994645988379525
-0.19930402555295568 -0.011042874263663072 0.7267800266759028
-0.21491994110954066 -0.023566442281379052 0.72239614857213441
-0.23242970070915506 -0.035101421967232094 0.71644455217913161
-0.017992335981365806 0.075824688896144521 0.68469799926515607
-0.029877606751804883 0.081646923776261815 0.68726432678445981
-0.039582912795636097 0.089025858296616189 0.6881135373720968
-0.054877264030912837 0.083504871130501646 0.69195317098809306
-0.06397943581514684 0.065861152803419143 0.69689323023793026
-0.074969555867391013 0.045771812690757863 0.7020278033300944
-0.059497371677022001 0.010125848974610607 0.70814045139588644
-0.033851806561104619 -0.00022984031673251026 0.7098347755457588
-0.0068289792638261265 -0.011935697229410736 0.71031043311359254
-0.10955914505179423 -0.038058033526855717 0.73245283465245747
-0.1052965931169358 -0.020898301823330301 0.726401918441687
-0.099787278695428666 -0.0030470401614641762 0.71797057492072636
-0.1182862669227447 0.028602863371595011 0.71286144779825755
-0.13855248392285904 0.034792961148759627 0.71688705544365838
-0.1547059556364303 0.04020468561693552 0.72049376502178997
-0.16890549566810573 0.033815948948842989 0.72588487629187504
-0.17234475353677439 0.023329362049265834 0.72780695688295638
-0.1779753608206511 0.012699812794961129 0.72914521741533256
-0.074855222501731933 0.22775663755163578 0.6846578976995934
-0.071320923246031495 0.24751571765531327 0.68110241225533086
-0.066470895946365779 0.26779057605457801 0.67637068407303147
-0.10633586129929348 0.2084260879727981 0.71366592087038172
-0.095278031328709017 0.20778700948822493 0.70400143920999203
-0.085399185719986379 0.20805357075515568 0.69468086100716242
-0.1546191569161996 0.16475719652313603 0.72367286048621593
-0.1451991684827327 0.17661593514877111 0.72540240582200255
-0.13434108347357232 0.19088416480311937 0.72595454154699857
-0.16664053608343796 0.19613142808136924 0.72068318115248142
-0.16497611104521093 0.18339336725966832 0.72159451122460916
-0.16363608499393412 0.16962560675918015 0.72212836329573471
-0.074011508148058694 0.1588244965176252 0.68999841231380299
-0.076348266357500166 0.17437740905772303 0.68966249931607249
-0.07737179340183778 0.19104401962393919 0.68877320869625414
-0.12071727518305873 0.18167628983712614 0.71970018845289907
-0.12016552603634756 0.15852372225194927 0.71615628234415873
-0.11878058395493037 0.13725100478029489 0.7129062468573637
-0.10359688931007446 0.12403875375414153 0.70482738362586606
-0.091191109568988793 0.13126931478264359 0.699199104444723
-0.079986731128493166 0.13821998276884123 0.69394391432825953
-0.15337513736171154 0.099709206770530245 0.71992666051756804
-0.14210443886074803 0.10466607844926984 0.71715769343329816
-0.12965509587972052 0.11048561015100056 0.71399923845602609
-0.16224496316039855 0.14024257050552957 0.72267831993168263
-0.16219898497839164 0.12521673046336279 0.72281493070776137
-0.16244733216794788 0.11033830625831031 0.72285000485757145
-0.11358822945486155 0.096940888757827914 0.70753038650842548
-0.10918851019229067 0.075769663036176271 0.70596261381423475
-0.10250379331826805 0.052316941993371946 0.7057207328914703
-0.054840633123534405 0.10767939670390719 0.68855346690291785
-0.061005118076314729 0.11876896306768087 0.68904759868941579
-0.066235936230355938 0.13100961302572134 0.68955309211357352
-0.16343675681033479 0.081993096464403392 0.72265927460457613
-0.16419705943946541 0.068801158756272296 0.72268756211517404
-0.16528757525810167 0.056332901138297919 0.72309517637485188
0.58950584411397311 -0.33700567338037152 0.64754339871435795
0.57692687325315717 -0.33065518952158252 0.64885947732865001
0.56339714542168595 -0.32474517966945182 0.6498816359132854
0.54467660260908946 -0.31953985592973122 0.64730195894408904
0.53671603097930376 -0.31853042640198209 0.64408628957369229
0.52709460588473478 -0.31683763460720138 0.64101366054081454
0.52103607153624965 -0.31773876926353889 0.63520743567548987
0.52562620959585982 -0.32153777043987275 0.63145299831001822
0.52951417378659338 -0.32576235448678487 0.62709598143908485
0.50445362375226477 -0.31188733564077054 0.63549488049887526
0.49179150161301222 -0.30874851982201673 0.63320132257446538
0.47819399052324812 -0.30517280733856728 0.63136458317454591
0.45874723515914251 -0.3020671276847004 0.62423880942405241
0.45169669510235444 -0.30319507669052231 0.61667991258501043
0.44334526943223801 -0.30466641968602648 0.60795708245992153
0.59923504368884406 -0.33105913962216016 0.66116556797700254
0.57944440519581897 -0.32300732790033032 0.66199840039109337
0.55930368487942661 -0.31557399960909766 0.66286804390442688
0.55030577895881283 -0.31409204546756569 0.66051942192270996
0.55424865894735365 -0.31723308645428594 0.65728376788962051
0.55406328527836024 -0.31905204469663206 0.6539612360613043
0.44812422981217159 -0.29677846529707386 0.62951314285739135
0.43149896910669816 -0.29197905358246562 0.6297776200269295
0.41364613907811659 -0.28677905997278635 0.63104932077363785
0.38802525559134182 -0.28200666621083104 0.62577969909265629
0.37909475999643116 -0.28304596805179488 0.61564743106607644
0.36762912449952689 -0.28422218406388694 0.6036069668649946
0.54176919508310184 -0.30162998375839911 0.67132883436280466
0.51525479491138626 -0.29357748286542812 0.67242483925901098
0.48734955651705258 -0.2858527718405367 0.67346883318135475
0.48574131424925476 -0.28754912691122286 0.67195983838142448
0.50789468383622893 -0.29563312846215944 0.66943196859039278
0.52687130611129596 -0.30311312613245389 0.66664251315597856
0.37387018348933321 -0.27512850161099206 0.63714180107790386
0.35394078183647648 -0.26908957520739518 0.64187124141998142
0.33664156050076077 -0.263448378826876 0.64738433883026869
0.30926568972288959 -0.25843145347264507 0.64455534868282172
0.29638130097933024 -0.25919005367877807 0.63350419839895844
0.28285783707705847 -0.26033842758425013 0.62063079239896779
0.25085421724066559 -0.18263114047578732 0.68547940171820421
0.23869857217785445 -0.18363123978397472 0.68976575652553684
0.2251142630638272 -0.18421675949442179 0.69287136670059146
0.25343439439841881 -0.20261183847130548 0.6915233900967277
0.29926767524475184 -0.22075722097921113 0.68774259674308658
0.34462979946971761 -0.23763166870765323 0.6841307710994764
0.40274180810998794 -0.2542467290981083 0.68070449337202965
0.42045203274471482 -0.25669140488148101 0.67970397302344621
0.43618065232201086 -0.2588848390963332 0.67807342466939957
0.1898636040521878 -0.2348286768976946 0.64561504989856866
0.21144424733915401 -0.23523040633189707 0.65425261267579771
0.23151802672694671 -0.23613490229001177 0.66117659398525497
0.21742468103456103 -0.22675010186358691 0.67313097025259627
0.18052017655842134 -0.21373029792833598 0.68055899766539385
0.14317191618133113 -0.1992658984995993 0.6877946382882123
0.090962759102638402 -0.18459550631398147 0.69121470220367431
0.071895988540698952 -0.18513298530214473 0.68682722275328856
0.051156060520517355 -0.18629304292099946 0.6804211584035027
0.41365451757762323 -0.26208829418389806 0.67880273623506948
0.43394230039410187 -0.26927985843304214 0.67708142030058882
0.44791742067754003 -0.2744185004518826 0.67566965184036243
0.30953803413536507 -0.25459916770716406 0.65580424862982145
0.29455357965557705 -0.25048965836579096 0.658169828515627
0.27552984612005271 -0.24504052304144264 0.66158879345058352
0.17647285582073441 -0.16824705074355717 0.69746452266422931
0.14771527643569815 -0.15329713956066054 0.69928677029123176
0.12419031170094488 -0.13948488001559167 0.70081555614290503
0.10048807612628743 -0.13247928849549806 0.70488042652140748
0.094721217303101402 -0.1371362021382671 0.70591596864357919
0.086880992476276009 -0.14031372824715438 0.70652817111542854
0.089533168625297629 -0.14964739803539839 0.70480929238739987
0.10817693152953647 -0.15961333255452936 0.70275172581730705
0.13269325921478131 -0.1716777039519306 0.70030027341447076
0.17503742398366814 -0.18557861978383799 0.6970452463909238
0.18671645085319472 -0.18532204139086034 0.69687908819251954
0.19869796355803432 -0.18497466780518862 0.69625045802558638
0.12386703171472344 -0.18469266288872394 0.69567357486428971
0.13800215782775604 -0.18506234303053515 0.69651887338327878
0.15103035743407531 -0.18543295657106013 0.6968608019511835
0.063683118008491663 -0.14197050234581982 0.70763674764386275
0.048170290357353013 -0.1406476667019782 0.70833439227835004
0.030258271514044491 -0.13825724436045383 0.70896257776707228
0.029263350324691698 -0.14648461694319159 0.70532564356979188
0.051979195180538007 -0.15820781398849482 0.70217314821047672
0.078128735122858312 -0.17082351003981466 0.6986121278818691
0.33478693976169843 -0.24664023189913015 0.67836080628423612
0.35090275734073961 -0.24822066197281278 0.67977730371928624
0.36738703847801168 -0.24991332623634038 0.68072516125145155
0.20010679708240237 -0.201364125179611 0.69231207293516772
0.24060288338305408 -0.21731830194917118 0.68695417756467547
0.28145605719398881 -0.23224106185882459 0.68152554669776566
0.26836281468702883 -0.23915423392065338 0.67022668861786538
0.28564234177994796 -0.24109284329782243 0.6729224255862456
0.3023809545728996 -0.24309430111982938 0.67495580022771762
0.34800219560210588 -0.25450104286738773 0.67302437770695445
0.36998779741861892 -0.26140892831846813 0.67033095419547406
0.38569258070641937 -0.26629980973441875 0.66833043909126233
0.41056588878926814 -0.27144227501411294 0.66944386535097777
0.42330914086165861 -0.27265922249545438 0.67193873114528868
0.43741574173853393 -0.27438249658718761 0.67375149296837078
0.33905462985757751 -0.25979180755708603 0.65938040675534881
0.3579356426056795 -0.26292403194370112 0.66230452681532004
0.37790172094094399 -0.26653791400532634 0.66454199898546307
0.097794458155915254 -0.11470934594731103 0.70296182145833308
0.091887822113936549 -0.10607405422540095 0.70318765298894226
0.085078550948354953 -0.098031073896726939 0.70357305613328691
0.076126984528488512 -0.089679960693059946 0.70790694860211345
0.077015455626562535 -0.089263881626853059 0.71181202946817712
0.078426158244718103 -0.088901191426842996 0.71576438805148657
0.086267076357922995 -0.095622040332186742 0.71928827863257028
0.089780561500778747 -0.10180594260544518 0.71876264348740326
0.090650976876748446 -0.10752988055090318 0.71828490585374172
0.089926335826247372 -0.11467039860235467 0.71466405018455093
0.090953569843480214 -0.11678094624963503 0.71103773039836038
0.094351946432796943 -0.11995055182998787 0.70721273459633305
0.0052361478433000652 -0.12843203207193871 0.71413211938187904
0.0038967811689838289 -0.12480459714061609 0.71855472604962434
0.0033566416492942786 -0.12223242430238795 0.72279894038024839
-0.010007698725293696 -0.116309946473172 0.72931217502589418
-0.021661558062129799 -0.11211609708423853 0.73194493400934979
-0.032102374724009397 -0.10736132994741387 0.734365951357004
-0.043557317828354036 -0.10316082348004013 0.73174173986122248
-0.045114049939645004 -0.10460088310775312 0.72705153366866071
-0.046928858744368571 -0.10614925813194609 0.72252094009825574
-0.039762936840932822 -0.11430804661806648 0.71630948379450055
-0.027946847282478524 -0.12044659811267538 0.71409580992628929
-0.013206753957865303 -0.12676898033989081 0.71181842962779096
0.065430224556864952 -0.081375040215794892 0.70503757358610919
0.052539025865295241 -0.072793801786456724 0.70609076829644368
0.038440561089492647 -0.064969288714025297 0.70727447982255276
0.025744183590578687 -0.060225083777768473 0.70966681070682114
0.027700040099098572 -0.060353938033532673 0.71223089264237305
0.029564183498973107 -0.059902606921381718 0.71569264407825428
0.044101946393258901 -0.065379440681993195 0.71928687027125959
0.057145184504802604 -0.072709132366898188 0.7193920590224272
0.069420969105538882 -0.080786930873039842 0.71960097244000609
-0.05074642219541331 -0.095353943149377507 0.73723740311182939
-0.058219118481280044 -0.08839976503453334 0.73741331671752453
-0.063221782441887989 -0.081561881689244775 0.7369251354389279
-0.066028154757806545 -0.076395784425237645 0.73148961788070488
-0.066439006872915096 -0.07734853877763076 0.72733479304416848
-0.067167606749457473 -0.077620566383668266 0.72432883291344607
-0.068521390067320734 -0.084185998435879761 0.7232770184358166
-0.064656060982103025 -0.092294065985032647 0.72227847811084844
-0.05811397966455524 -0.10031735659411462 0.72056603477872327
0.0084741581729624177 -0.054571995789190919 0.70956228766698692
-0.0060599085731220942 -0.053313612342326844 0.71073862071773286
-0.019099304062835221 -0.055312404877302601 0.71219389207120409
-0.017181361046506777 -0.062977474286239343 0.71567365156683072
-0.010185413228273321 -0.062497247949376056 0.71841721821288007
-0.0054213331603511772 -0.061417969970891217 0.72186037844592543
0.0030505022361017042 -0.057399302966100407 0.72364565365245648
0.010484134070137541 -0.055976723922592064 0.72188878044077232
0.020090262552777099 -0.056664403330600743 0.72047270725959378
-0.062831746682858403 -0.070906814559990705 0.73491172350811285
-0.057607194178263349 -0.067942627426840319 0.73382246307201604
-0.0500775891936171 -0.066719280436725759 0.73287311090454144
-0.04004859298947297 -0.067658550908766102 0.72752831296131037
-0.037970900452388961 -0.067753359109206213 0.72282467770561665
-0.035147842847914737 -0.066546125631124331 0.71848292723327822
-0.047925452903616744 -0.061530055744933199 0.71706362487889752
-0.058961366343931385 -0.064547811864332061 0.71974097940959458
-0.06597246259933065 -0.069756353170146335 0.72195899176638201
-0.021888855469202814 -0.069096857357990371 0.71656362913168659
-0.016202579878133297 -0.073515489391007882 0.71828506470299658
