# XYZ point cloud file
-0.16907882690429688 -0.097911834716796875 0.7625579833984375
-0.23723983764648438 0.27051544189453125 0.77178955078125
-0.25459003448486328 0.28885459899902344 0.7742767333984375
-0.26975917816162109 0.30905723571777344 0.7765045166015625
-0.28448772430419922 0.1974334716796875 0.7868499755859375
-0.25801181793212891 0.21899986267089844 0.7802734375
-0.2358551025390625 0.23770713806152344 0.7736053466796875
-0.33850193023681641 0.074224472045898438 0.7650604248046875
-0.33255195617675781 0.0995635986328125 0.77386474609375
-0.32612991333007812 0.12989234924316406 0.7824249267578125
-0.42669105529785156 0.057720184326171875 0.753753662109375
-0.39835643768310547 0.0589752197265625 0.7564697265625
-0.3705596923828125 0.056955337524414062 0.7582550048828125
-0.15215682983398438 0.22162628173828125 0.7596893310546875
-0.17476940155029297 0.23051834106445312 0.7625274658203125
-0.19686222076416016 0.24152374267578125 0.765594482421875
-0.28055381774902344 0.15287590026855469 0.781402587890625
-0.24818038940429688 0.13831710815429688 0.77349853515625
-0.21784019470214844 0.1252593994140625 0.7656402587890625
-0.17035293579101562 0.13981056213378906 0.7574310302734375
-0.15467643737792969 0.1672210693359375 0.756591796875
-0.14036941528320312 0.19286918640136719 0.755645751953125
-0.24038791656494141 0.033246994018554688 0.7560882568359375
-0.22354793548583984 0.057115554809570312 0.757110595703125
-0.20625877380371094 0.083742141723632812 0.7578277587890625
-0.31927013397216797 0.04583740234375 0.7589569091796875
-0.29629039764404297 0.036680221557617188 0.758331298828125
-0.27468585968017578 0.025720596313476562 0.7577362060546875
-0.15738964080810547 0.097454071044921875 0.7518157958984375
-0.12475109100341797 0.081960678100585938 0.745880126953125
-0.087108612060546875 0.065198898315429688 0.7431182861328125
-0.061952590942382812 0.20143699645996094 0.747589111328125
-0.084562301635742188 0.20408248901367188 0.7503509521484375
-0.10684108734130859 0.20832061767578125 0.752899169921875
-0.23668575286865234 0.00063323974609375 0.755584716796875
-0.21984481811523438 -0.013034820556640625 0.7548675537109375
-0.20492362976074219 -0.027040481567382812 0.7546844482421875
0.86391067504882812 -0.33086204528808594 0.5672760009765625
0.84875202178955078 -0.33087348937988281 0.590301513671875
0.83400154113769531 -0.33259963989257812 0.6105499267578125
0.81686496734619141 -0.35088348388671875 0.6326141357421875
0.81156253814697266 -0.36563301086425781 0.6392669677734375
0.80448436737060547 -0.38031578063964844 0.6467742919921875
0.80244636535644531 -0.40259361267089844 0.647857666015625
0.80951690673828125 -0.41220855712890625 0.637786865234375
0.8169708251953125 -0.42370414733886719 0.625732421875
0.78634166717529297 -0.40766716003417969 0.66436767578125
0.77631092071533203 -0.42016220092773438 0.67413330078125
0.7651519775390625 -0.43122291564941406 0.683807373046875
0.75245761871337891 -0.45926475524902344 0.69195556640625
0.7514190673828125 -0.48238182067871094 0.6885986328125
0.75004768371582031 -0.50753402709960938 0.683258056640625
0.86793231964111328 -0.25856399536132812 0.543487548828125
0.84586811065673828 -0.26188850402832031 0.5742950439453125
0.82439708709716797 -0.26582908630371094 0.6016693115234375
0.81593513488769531 -0.285858154296875 0.62066650390625
0.82073593139648438 -0.30255126953125 0.6207733154296875
0.82217884063720703 -0.31855201721191406 0.623291015625
0.74000453948974609 -0.44673919677734375 0.7034759521484375
0.72479438781738281 -0.45111846923828125 0.7128143310546875
0.70849609375 -0.45253944396972656 0.7220306396484375
0.68975639343261719 -0.47455787658691406 0.7298431396484375
0.68860530853271484 -0.50633049011230469 0.7270355224609375
0.68635177612304688 -0.54053878784179688 0.72247314453125
0.80938625335693359 -0.18888092041015625 0.5654144287109375
0.78138256072998047 -0.19713783264160156 0.599365234375
0.75266838073730469 -0.20835113525390625 0.630279541015625
0.75116539001464844 -0.22934532165527344 0.64508056640625
0.77280998229980469 -0.24019813537597656 0.6348419189453125
0.79159259796142578 -0.25436019897460938 0.6269683837890625
0.6711273193359375 -0.44228744506835938 0.73834228515625
0.65067768096923828 -0.43052482604980469 0.7442626953125
0.63207530975341797 -0.41438865661621094 0.74896240234375
0.61004924774169922 -0.43076515197753906 0.75396728515625
0.60633182525634766 -0.47015571594238281 0.754547119140625
0.60254192352294922 -0.51030731201171875 0.751556396484375
0.50783729553222656 -0.045352935791015625 0.6561431884765625
0.49383831024169922 -0.0643310546875 0.677520751953125
0.47996139526367188 -0.0845947265625 0.695068359375
0.51504802703857422 -0.12480354309082031 0.7005615234375
0.56524372100830078 -0.14559364318847656 0.691436767578125
0.61255741119384766 -0.16491889953613281 0.6811981201171875
0.66969108581542969 -0.16238975524902344 0.6535186767578125
0.68811130523681641 -0.14393806457519531 0.630401611328125
0.70491504669189453 -0.12720298767089844 0.6041107177734375
0.50232124328613281 -0.44466209411621094 0.7629852294921875
0.5155792236328125 -0.41316413879394531 0.76422119140625
0.52899837493896484 -0.38292312622070312 0.7626495361328125
0.50591468811035156 -0.331268310546875 0.759002685546875
0.46409893035888672 -0.30346298217773438 0.7608489990234375
0.41923618316650391 -0.2751922607421875 0.7624969482421875
0.36091423034667969 -0.27173614501953125 0.765228271484375
0.34571552276611328 -0.29756736755371094 0.7650146484375
0.32957744598388672 -0.32460975646972656 0.760650634765625
0.68082904815673828 -0.19501495361328125 0.666900634765625
0.70062541961669922 -0.20518875122070312 0.6628265380859375
0.71454715728759766 -0.21390724182128906 0.6605682373046875
0.60306262969970703 -0.38783645629882812 0.7528533935546875
0.58845806121826172 -0.38163566589355469 0.7542266845703125
0.56885433197021484 -0.37058830261230469 0.756195068359375
0.42460346221923828 -0.085742950439453125 0.7144775390625
0.38712215423583984 -0.068731307983398438 0.717620849609375
0.35541820526123047 -0.051845550537109375 0.7209320068359375
0.32563018798828125 -0.059110641479492188 0.7337493896484375
0.32300186157226562 -0.080913543701171875 0.7398681640625
0.31748771667480469 -0.10106086730957031 0.7450103759765625
0.32747364044189453 -0.12899589538574219 0.7462158203125
0.352813720703125 -0.1410675048828125 0.7452545166015625
0.38520240783691406 -0.15634346008300781 0.7436981201171875
0.43339347839355469 -0.15856361389160156 0.7353515625
0.44412326812744141 -0.14103889465332031 0.7287750244140625
0.45502758026123047 -0.12307357788085938 0.7198486328125
0.38844394683837891 -0.22705459594726562 0.7585906982421875
0.40095424652099609 -0.208831787109375 0.75372314453125
0.41256618499755859 -0.19193458557128906 0.748046875
0.29557323455810547 -0.13526725769042969 0.7543487548828125
0.27871608734130859 -0.15062713623046875 0.759033203125
0.25909328460693359 -0.16448593139648438 0.7625885009765625
0.26592063903808594 -0.19309043884277344 0.762298583984375
0.29924201965332031 -0.20769309997558594 0.7618408203125
0.33485221862792969 -0.22606468200683594 0.7624053955078125
0.60918903350830078 -0.24333381652832031 0.7121734619140625
0.62254047393798828 -0.22224998474121094 0.7013092041015625
0.63706398010253906 -0.20181465148925781 0.6882476806640625
0.4668731689453125 -0.19745063781738281 0.7377471923828125
0.5128936767578125 -0.22107124328613281 0.7324676513671875
0.55729007720947266 -0.24382591247558594 0.7272491455078125
0.55577754974365234 -0.32897758483886719 0.750640869140625
0.56909465789794922 -0.30636405944824219 0.7422637939453125
0.58269977569580078 -0.28470993041992188 0.7325439453125
0.62509727478027344 -0.2789764404296875 0.7189178466796875
0.64691543579101562 -0.29033088684082031 0.716705322265625
0.66207981109619141 -0.29834365844726562 0.71478271484375
0.68372344970703125 -0.28249168395996094 0.7023468017578125
0.69354248046875 -0.26147651672363281 0.6913604736328125
0.70527935028076172 -0.24086952209472656 0.6785125732421875
0.62653923034667969 -0.36353874206542969 0.7431182861328125
0.64149570465087891 -0.34266090393066406 0.7337799072265625
0.65732383728027344 -0.32317543029785156 0.7232208251953125
0.31138706207275391 -0.010812759399414062 0.7252655029296875
0.29937744140625 0.0053310394287109375 0.72576904296875
0.28661441802978516 0.018123626708984375 0.727508544921875
0.26958274841308594 0.027959823608398438 0.7395782470703125
0.26850795745849609 0.029499053955078125 0.749267578125
0.26817131042480469 0.031904220581054688 0.7589111328125
0.27989578247070312 0.022909164428710938 0.767333984375
0.28827190399169922 0.0110015869140625 0.7659149169921875
0.29350852966308594 -0.00284576416015625 0.7649078369140625
0.29880523681640625 -0.022640228271484375 0.75653076171875
0.30305671691894531 -0.026586532592773438 0.7469329833984375
0.31035804748535156 -0.030675888061523438 0.7373809814453125
0.22411727905273438 -0.16620826721191406 0.7730712890625
0.21904182434082031 -0.15963363647460938 0.7814788818359375
0.21555328369140625 -0.15556526184082031 0.790191650390625
0.19518280029296875 -0.15876960754394531 0.8036651611328125
0.17864608764648438 -0.16174888610839844 0.8084869384765625
0.16299343109130859 -0.16184806823730469 0.8113555908203125
0.14653491973876953 -0.16131401062011719 0.8039703369140625
0.14636421203613281 -0.16378021240234375 0.7939300537109375
0.14629173278808594 -0.16685867309570312 0.7849273681640625
0.16267776489257812 -0.17749595642089844 0.7750701904296875
0.18167781829833984 -0.18024444580078125 0.7727508544921875
0.20350074768066406 -0.18107032775878906 0.7697296142578125
0.25299549102783203 0.036111831665039062 0.7337646484375
0.23211383819580078 0.041276931762695312 0.737030029296875
0.21003246307373047 0.042352676391601562 0.74029541015625
0.19112205505371094 0.037565231323242188 0.7456207275390625
0.19296455383300781 0.039312362670898438 0.751373291015625
0.19371414184570312 0.042184829711914062 0.7591094970703125
0.21307754516601562 0.046779632568359375 0.768310546875
0.23270511627197266 0.045385360717773438 0.7683258056640625
0.25201892852783203 0.040342330932617188 0.768951416015625
0.13009834289550781 -0.1515655517578125 0.8112335205078125
0.1144866943359375 -0.14124298095703125 0.8084869384765625
0.10180568695068359 -0.12892341613769531 0.8043670654296875
0.093942642211914062 -0.11606025695800781 0.7908172607421875
0.094800949096679688 -0.11655426025390625 0.7827301025390625
0.093956947326660156 -0.11623001098632812 0.776092529296875
0.099097251892089844 -0.13370513916015625 0.776397705078125
0.11220359802246094 -0.14905548095703125 0.777374267578125
0.12804317474365234 -0.16177940368652344 0.77789306640625
0.16652488708496094 0.029445648193359375 0.7451324462890625
0.14859771728515625 0.014862060546875 0.7466888427734375
0.13374614715576172 -0.0050716400146484375 0.7490234375
0.14198780059814453 -0.019855499267578125 0.7564544677734375
0.14931774139404297 -0.011167526245117188 0.7620391845703125
0.15284156799316406 -0.004207611083984375 0.7701416015625
0.15882205963134766 0.014652252197265625 0.774688720703125
0.16662979125976562 0.027002334594726562 0.77166748046875
0.17900371551513672 0.03699493408203125 0.7697601318359375
0.092028617858886719 -0.1009063720703125 0.79608154296875
0.095198631286621094 -0.086786270141601562 0.7934112548828125
0.10309219360351562 -0.074571609497070312 0.7910308837890625
0.11648941040039062 -0.062074661254882812 0.780609130859375
0.11999893188476562 -0.057781219482421875 0.770660400390625
0.12293910980224609 -0.049907684326171875 0.762054443359375
0.10285377502441406 -0.053928375244140625 0.757904052734375
0.091587066650390625 -0.074703216552734375 0.763275146484375
0.08786773681640625 -0.095203399658203125 0.7692718505859375
0.14103603363037109 -0.039083480834960938 0.75799560546875
0.15104293823242188 -0.043041229248046875 0.762786865234375
0.15569210052490234 -0.044301986694335938 0.766571044921875
0.15852165222167969 -0.044971466064453125 0.769989013671875
0.16192913055419922 -0.045709609985351562 0.7740325927734375
0.16333580017089844 -0.044635772705078125 0.78204345703125
0.16494178771972656 -0.035131454467773438 0.789337158203125
0.16197776794433594 -0.0240325927734375 0.7861328125
0.15747356414794922 -0.011964797973632812 0.7821807861328125
0.128997802734375 -0.05748748779296875 0.7907562255859375
0.14391136169433594 -0.05335235595703125 0.7914581298828125
0.15599632263183594 -0.0488128662109375 0.7916107177734375
0.28538703918457031 -0.10304069519042969 0.7707977294921875
0.28945732116699219 -0.10676193237304688 0.762481689453125
0.29648494720458984 -0.11168098449707031 0.755126953125
0.29771327972412109 -0.038888931274414062 0.7667388916015625
0.29593563079833984 -0.059419631958007812 0.770050048828125
0.291290283203125 -0.080183029174804688 0.774200439453125
0.26794910430908203 -0.11649703979492188 0.783538818359375
0.251007080078125 -0.13115882873535156 0.7884063720703125
0.23199081420898438 -0.14268684387207031 0.7935028076171875
0.26506233215332031 -0.086584091186523438 0.79840087890625
0.27248668670654297 -0.0911712646484375 0.79266357421875
0.27812957763671875 -0.095682144165039062 0.785858154296875
0.29228496551513672 -0.017543792724609375 0.7728729248046875
0.28734111785888672 -0.016803741455078125 0.7804412841796875
0.28171443939208984 -0.017839431762695312 0.7861175537109375
0.27548599243164062 -0.029829025268554688 0.792633056640625
0.27139854431152344 -0.045337677001953125 0.7966461181640625
0.26500415802001953 -0.06336212158203125 0.7998046875
0.24334335327148438 -0.097467422485351562 0.808624267578125
0.22902488708496094 -0.11209678649902344 0.81243896484375
0.21619606018066406 -0.12384223937988281 0.81591796875
0.20726585388183594 -0.13582038879394531 0.8154754638671875
0.208221435546875 -0.14210128784179688 0.81103515625
0.21009445190429688 -0.14713096618652344 0.805206298828125
0.16643333435058594 -0.04229736328125 0.80059814453125
0.17074203491210938 -0.043012619018554688 0.8087005615234375
0.17850017547607422 -0.044771194458007812 0.8155364990234375
0.19164848327636719 -0.027881622314453125 0.8156280517578125
0.18646240234375 -0.01302337646484375 0.81085205078125
0.18102169036865234 -0.0022907257080078125 0.8059234619140625
0.17184543609619141 0.0054683685302734375 0.7986602783203125
0.16528606414794922 0.0052356719970703125 0.7930755615234375
0.16039752960205078 0.0039882659912109375 0.786041259765625
0.11578273773193359 -0.065824508666992188 0.7990264892578125
0.11892223358154297 -0.068254470825195312 0.80712890625
0.12332916259765625 -0.070600509643554688 0.81317138671875
0.13751602172851562 -0.071283340454101562 0.8197784423828125
0.15205955505371094 -0.067722320556640625 0.8216705322265625
0.16992378234863281 -0.061887741088867188 0.823211669921875
0.18171596527099609 0.012155532836914062 0.801422119140625
0.1884765625 0.021152496337890625 0.799713134765625
0.19706249237060547 0.027986526489257812 0.79766845703125
0.20172119140625 0.0376129150390625 0.7910919189453125
0.19875240325927734 0.04174041748046875 0.7845916748046875
0.19652652740478516 0.043859481811523438 0.7770538330078125
0.096622467041015625 -0.11420631408691406 0.8083038330078125
0.10171699523925781 -0.11251258850097656 0.8154754638671875
0.10849189758300781 -0.11026763916015625 0.8208160400390625
0.11529254913330078 -0.10028076171875 0.823577880859375
0.11842536926269531 -0.089962005615234375 0.8220062255859375
0.12310695648193359 -0.080621719360351562 0.819854736328125
0.21359062194824219 0.0321044921875 0.7973480224609375
0.22723102569580078 0.028995513916015625 0.79986572265625
0.24118328094482422 0.02367401123046875 0.8006744384765625
0.2607879638671875 0.025117874145507812 0.793975830078125
0.26481056213378906 0.030229568481445312 0.7863922119140625
0.26725673675537109 0.032930374145507812 0.777740478515625
0.14856529235839844 -0.15509033203125 0.820892333984375
0.15157985687255859 -0.14927864074707031 0.827880859375
0.15539455413818359 -0.14105033874511719 0.8320159912109375
0.14668655395507812 -0.12536811828613281 0.8340606689453125
0.13331508636474609 -0.11940765380859375 0.83135986328125
0.12197017669677734 -0.11336898803710938 0.8278656005859375
0.26323509216308594 0.007419586181640625 0.7991790771484375
0.27004814147949219 -0.001678466796875 0.795989990234375
0.27480888366699219 -0.011409759521484375 0.79296875
0.19827938079833984 -0.13241195678710938 0.8226165771484375
0.18706512451171875 -0.13298988342285156 0.8275299072265625
0.17455673217773438 -0.13268852233886719 0.831817626953125
0.2150726318359375 -0.028726577758789062 0.81689453125
0.23093795776367188 -0.011106491088867188 0.811767578125
0.2436981201171875 0.004116058349609375 0.806549072265625
0.1683349609375 -0.11557579040527344 0.83380126953125
0.17683315277099609 -0.097415924072265625 0.8313140869140625
0.18480396270751953 -0.076459884643554688 0.827239990234375
0.21418285369873047 -0.059251785278320312 0.8199310302734375
0.23043251037597656 -0.067087173461914062 0.8157196044921875
0.24406337738037109 -0.074611663818359375 0.81048583984375
0.02518463134765625 0.013790130615234375 0.747589111328125
0.065027236938476562 -0.0048370361328125 0.7491607666015625
0.096868515014648438 -0.019922256469726562 0.7503662109375
0.18204593658447266 0.04430389404296875 0.745330810546875
0.17505645751953125 0.05551910400390625 0.7487640380859375
0.16909313201904297 0.073577880859375 0.751800537109375
0.047750473022460938 -0.11871528625488281 0.78570556640625
0.068243980407714844 -0.11444473266601562 0.7812347412109375
0.082512855529785156 -0.11360359191894531 0.7760467529296875
0.27533817291259766 0.031108856201171875 0.721405029296875
0.28086280822753906 0.036169052124023438 0.7113189697265625
0.28801155090332031 0.042322158813476562 0.696533203125
0.27099323272705078 0.05632781982421875 0.6888427734375
0.24239730834960938 0.066127777099609375 0.7057037353515625
0.21032238006591797 0.080644607543945312 0.72430419921875
0.058506965637207031 -0.15992164611816406 0.7709503173828125
0.086679458618164062 -0.18052864074707031 0.7583770751953125
0.10893535614013672 -0.20017051696777344 0.7474822998046875
0.13387107849121094 -0.20125389099121094 0.7549285888671875
0.13880443572998047 -0.18885612487792969 0.7645416259765625
0.14272499084472656 -0.17871284484863281 0.7709503173828125
0.34103012084960938 -0.018718719482421875 0.7116546630859375
0.35529613494873047 -0.00595855712890625 0.696502685546875
0.36826610565185547 0.0077342987060546875 0.6778717041015625
0.35724639892578125 0.0272979736328125 0.6565093994140625
0.33700942993164062 0.03440093994140625 0.660125732421875
0.31714153289794922 0.041318893432617188 0.665679931640625
0.14471721649169922 -0.23158073425292969 0.7345733642578125
0.16080665588378906 -0.24378395080566406 0.7335357666015625
0.17786026000976562 -0.25548744201660156 0.7342529296875
0.20727634429931641 -0.24626922607421875 0.7502593994140625
0.21669960021972656 -0.22366905212402344 0.758331298828125
0.22539806365966797 -0.20227241516113281 0.7628021240234375
0.47630214691162109 -0.012273788452148438 0.638336181640625
0.43862533569335938 0.00096893310546875 0.6449432373046875
0.40688896179199219 0.0108489990234375 0.6498565673828125
0.21916770935058594 -0.28479385375976562 0.740020751953125
0.24549674987792969 -0.30382156372070312 0.7435760498046875
0.27633476257324219 -0.32639884948730469 0.7474517822265625
0.48464584350585938 0.022050857543945312 0.49810791015625
0.45062446594238281 0.031839370727539062 0.5044403076171875
0.42085361480712891 0.038602828979492188 0.5095672607421875
0.39777660369873047 0.043012619018554688 0.54998779296875
0.39529705047607422 0.037761688232421875 0.5870513916015625
0.38946914672851562 0.029954910278320312 0.6226806640625
0.18495082855224609 -0.29268455505371094 0.7158203125
0.17278575897216797 -0.31415939331054688 0.6886138916015625
0.16027545928955078 -0.33235740661621094 0.6580810546875
0.16540050506591797 -0.36304283142089844 0.6305999755859375
0.18665027618408203 -0.38460350036621094 0.6365509033203125
0.21170806884765625 -0.408538818359375 0.6437530517578125
0.37416744232177734 0.048902511596679688 0.5183563232421875
0.35522747039794922 0.053684234619140625 0.522979736328125
0.33790779113769531 0.05850982666015625 0.5280609130859375
0.31833934783935547 0.061563491821289062 0.56915283203125
0.31243610382080078 0.058679580688476562 0.6075897216796875
0.30406761169433594 0.05432891845703125 0.6439056396484375
0.12091636657714844 -0.23699188232421875 0.714813232421875
0.11273860931396484 -0.25725746154785156 0.68463134765625
0.10499477386474609 -0.27603912353515625 0.6521759033203125
0.10986900329589844 -0.303192138671875 0.6198883056640625
0.12168598175048828 -0.31596755981445312 0.620147705078125
0.13455104827880859 -0.32962799072265625 0.62213134765625
0.30286693572998047 0.066537857055664062 0.5411376953125
0.28679466247558594 0.074222564697265625 0.547393798828125
0.2750244140625 0.087799072265625 0.5505218505859375
0.054941177368164062 -0.26104545593261719 0.6257781982421875
0.07273101806640625 -0.26534843444824219 0.6244049072265625
0.08638763427734375 -0.27584648132324219 0.6220550537109375
0.72191333770751953 -0.25180625915527344 0.668243408203125
0.72187423706054688 -0.24521446228027344 0.66986083984375
0.72244548797607422 -0.23705863952636719 0.667816162109375
0.67985248565673828 -0.30914688110351562 0.7102203369140625
0.68392467498779297 -0.31244468688964844 0.706512451171875
0.68660736083984375 -0.31647682189941406 0.70159912109375
0.69707107543945312 -0.3013763427734375 0.685394287109375
0.70478916168212891 -0.28254318237304688 0.676849365234375
0.71252918243408203 -0.26732063293457031 0.66912841796875
0.6492919921875 -0.36588478088378906 0.72247314453125
0.66020870208740234 -0.35254287719726562 0.7144775390625
0.67409420013427734 -0.33730697631835938 0.704376220703125
0.63013935089111328 -0.38086318969726562 0.7459869384765625
0.63714408874511719 -0.37663459777832031 0.7414398193359375
0.64181327819824219 -0.37647628784179688 0.7356414794921875
0.77838897705078125 -0.2805023193359375 0.643829345703125
0.78440666198730469 -0.27715682983398438 0.64276123046875
0.79310989379882812 -0.27376365661621094 0.63629150390625
0.73406982421875 -0.25594139099121094 0.6556396484375
0.74770545959472656 -0.26107406616210938 0.6486663818359375
0.76169490814208984 -0.27118110656738281 0.6439056396484375
0.67270183563232422 -0.41015815734863281 0.7229461669921875
0.65771865844726562 -0.40121078491210938 0.72772216796875
0.64786529541015625 -0.39037513732910156 0.7295684814453125
0.69146919250488281 -0.43256378173828125 0.7304534912109375
0.691131591796875 -0.42177391052246094 0.727996826171875
0.69054317474365234 -0.41672325134277344 0.7235565185546875
0.79643630981445312 -0.33965873718261719 0.6418914794921875
0.80266094207763672 -0.33872222900390625 0.6419830322265625
0.81100177764892578 -0.33686447143554688 0.6370086669921875
0.78232192993164062 -0.29922103881835938 0.6368408203125
0.78760147094726562 -0.31385612487792969 0.6357269287109375
0.79055309295654297 -0.32848930358886719 0.6357574462890625
0.73291778564453125 -0.41784286499023438 0.689697265625
0.719085693359375 -0.42007064819335938 0.69873046875
0.70470905303955078 -0.41949272155761719 0.7080535888671875
0.75254154205322266 -0.42696762084960938 0.6934967041015625
0.75098419189453125 -0.41917991638183594 0.6912689208984375
0.74845695495605469 -0.41517066955566406 0.6874542236328125
0.78191947937011719 -0.38436126708984375 0.659881591796875
0.78574275970458984 -0.3858489990234375 0.66131591796875
0.79046535491943359 -0.3891143798828125 0.6597900390625
0.78942394256591797 -0.3546142578125 0.6407623291015625
0.78652763366699219 -0.36553764343261719 0.6447296142578125
0.78181743621826172 -0.37582588195800781 0.6495208740234375
0.77090263366699219 -0.39342117309570312 0.6607818603515625
0.76358413696289062 -0.40144157409667969 0.667083740234375
0.75496864318847656 -0.40854263305664062 0.6738433837890625
0.75668716430664062 -0.38871574401855469 0.6319580078125
0.7645721435546875 -0.38815498352050781 0.639495849609375
0.77126979827880859 -0.38651847839355469 0.647796630859375
0.784820556640625 -0.34492683410644531 0.6304779052734375
0.77820682525634766 -0.34730148315429688 0.62152099609375
0.77069187164306641 -0.34712028503417969 0.613525390625
0.75982952117919922 -0.35331535339355469 0.611480712890625
0.75646591186523438 -0.36481285095214844 0.6163787841796875
0.75203895568847656 -0.37539863586425781 0.62164306640625
0.73894596099853516 -0.39486885070800781 0.6337432861328125
0.73128890991210938 -0.40362167358398438 0.6394805908203125
0.72244834899902344 -0.41185379028320312 0.645721435546875
0.72500705718994141 -0.41808319091796875 0.6558837890625
0.73330974578857422 -0.41666984558105469 0.6634979248046875
0.73967170715332031 -0.41503334045410156 0.672821044921875
0.7686920166015625 -0.28917503356933594 0.63092041015625
0.76397800445556641 -0.29367446899414062 0.6214752197265625
0.7597808837890625 -0.29747200012207031 0.61309814453125
0.75933170318603516 -0.30959892272949219 0.6045989990234375
0.76203823089599609 -0.32046318054199219 0.60284423828125
0.76309680938720703 -0.33118057250976562 0.603912353515625
0.70424079895019531 -0.42325210571289062 0.6574859619140625
0.69438076019287109 -0.42597198486328125 0.6640777587890625
0.68446826934814453 -0.42534255981445312 0.671844482421875
0.67933940887451172 -0.42247581481933594 0.6847991943359375
0.68238544464111328 -0.42039680480957031 0.6947479248046875
0.68590354919433594 -0.4177093505859375 0.7058868408203125
0.72089385986328125 -0.2635345458984375 0.653289794921875
0.72061538696289062 -0.26969528198242188 0.642242431640625
0.72118759155273438 -0.27889251708984375 0.6304473876953125
0.73253250122070312 -0.28631019592285156 0.61395263671875
0.74138832092285156 -0.28831291198730469 0.6091156005859375
0.74999904632568359 -0.29444313049316406 0.6078643798828125
0.66839885711669922 -0.42174148559570312 0.679840087890625
0.65914440155029297 -0.41674423217773438 0.681793212890625
0.65421676635742188 -0.40865898132324219 0.681854248046875
0.64782333374023438 -0.39324569702148438 0.6930694580078125
0.64494800567626953 -0.38727569580078125 0.705718994140625
0.64461898803710938 -0.38247871398925781 0.7181854248046875
0.68720912933349609 -0.32587814331054688 0.6841583251953125
0.6875762939453125 -0.33226966857910156 0.67236328125
0.68987846374511719 -0.33960151672363281 0.6604156494140625
0.70439338684082031 -0.33135604858398438 0.6407470703125
0.71152496337890625 -0.31484222412109375 0.633087158203125
0.71803092956542969 -0.300384521484375 0.6261138916015625
0.66066265106201172 -0.38885307312011719 0.6748046875
0.67153167724609375 -0.37694549560546875 0.6668701171875
0.68398094177246094 -0.36344528198242188 0.6584320068359375
0.70571231842041016 -0.35884666442871094 0.6389312744140625
0.71887969970703125 -0.36975669860839844 0.63153076171875
0.73313808441162109 -0.37907218933105469 0.6275482177734375
0.75137615203857422 -0.33225631713867188 0.6057891845703125
0.74052333831787109 -0.31890487670898438 0.607513427734375
0.73116302490234375 -0.30380821228027344 0.6126251220703125
0.66654014587402344 -0.40536117553710938 0.6689605712890625
0.68181705474853516 -0.4108428955078125 0.659515380859375
0.69800567626953125 -0.41518592834472656 0.6537322998046875
-0.11173152923583984 0.25246429443359375 0.7648468017578125
-0.11507034301757812 0.24305915832519531 0.7618408203125
-0.12095737457275391 0.23059272766113281 0.75872802734375
-0.041591644287109375 0.21965980529785156 0.750030517578125
-0.041904449462890625 0.23303413391113281 0.7533111572265625
-0.042575836181640625 0.24186134338378906 0.757568359375
-0.058912277221679688 0.24828529357910156 0.76007080078125
-0.075231552124023438 0.25104522705078125 0.7618408203125
-0.09215545654296875 0.25475883483886719 0.764007568359375
-0.27354621887207031 -0.035005569458007812 0.7660675048828125
-0.26039218902587891 -0.044706344604492188 0.7667388916015625
-0.24928951263427734 -0.054731369018554688 0.7679290771484375
-0.23315620422363281 -0.062793731689453125 0.7678680419921875
-0.22446441650390625 -0.058506011962890625 0.7639007568359375
-0.21155261993408203 -0.051784515380859375 0.75982666015625
-0.26643466949462891 -0.0012989044189453125 0.7587738037109375
-0.27552318572998047 -0.012165069580078125 0.761810302734375
-0.28240871429443359 -0.020063400268554688 0.76422119140625
-0.18343544006347656 0.28867912292480469 0.76959228515625
-0.19217205047607422 0.27936935424804688 0.768280029296875
-0.20337677001953125 0.26829338073730469 0.767578125
-0.12620067596435547 0.26708030700683594 0.766998291015625
-0.14296245574951172 0.27515792846679688 0.76806640625
-0.16036605834960938 0.2849578857421875 0.769073486328125
-0.34120941162109375 -0.0041675567626953125 0.7600555419921875
-0.32213783264160156 -0.010066986083984375 0.76190185546875
-0.30437660217285156 -0.017587661743164062 0.763641357421875
-0.34946823120117188 0.035394668579101562 0.7566680908203125
-0.35388851165771484 0.0208740234375 0.756378173828125
-0.35818099975585938 0.0095005035400390625 0.75738525390625
-0.23974037170410156 0.35090446472167969 0.7732696533203125
-0.25220870971679688 0.34493827819824219 0.7731475830078125
-0.26692962646484375 0.3388671875 0.773651123046875
-0.19242763519287109 0.30929756164550781 0.771331787109375
-0.20663642883300781 0.32366752624511719 0.7720947265625
-0.21875381469726562 0.338897705078125 0.7730712890625
-0.42620372772216797 0.0067234039306640625 0.7479248046875
-0.40455150604248047 0.0063724517822265625 0.751739501953125
-0.38287448883056641 0.0043964385986328125 0.7546539306640625
-0.45371627807617188 0.039800643920898438 0.744842529296875
-0.45124053955078125 0.02625274658203125 0.7435760498046875
-0.44974422454833984 0.014574050903320312 0.7445220947265625
0.042502403259277344 0.24565315246582031 0.7373046875
0.036024093627929688 0.25709724426269531 0.741607666015625
0.032407760620117188 0.2645721435546875 0.747039794921875
0.008968353271484375 0.2589874267578125 0.7553253173828125
-0.0093545913696289062 0.25238800048828125 0.75750732421875
-0.026514053344726562 0.24915885925292969 0.758636474609375
-0.23117923736572266 -0.077678680419921875 0.7714385986328125
-0.22515583038330078 -0.091602325439453125 0.773284912109375
-0.22155666351318359 -0.10838890075683594 0.774688720703125
-0.21456241607666016 -0.12876701354980469 0.77178955078125
-0.20529747009277344 -0.12787055969238281 0.766998291015625
-0.19052314758300781 -0.12644386291503906 0.7636260986328125
0.15408039093017578 0.34203529357910156 0.6887664794921875
0.14363670349121094 0.34726905822753906 0.69873046875
0.1346282958984375 0.35170173645019531 0.7064971923828125
0.10699272155761719 0.33137130737304688 0.722412109375
0.0817413330078125 0.30817604064941406 0.733184814453125
0.055696487426757812 0.28688240051269531 0.7431640625
-0.22418498992919922 -0.15833854675292969 0.772613525390625
-0.23015022277832031 -0.18937110900878906 0.7690582275390625
-0.24014568328857422 -0.22048568725585938 0.7637176513671875
-0.24577236175537109 -0.25386810302734375 0.7551116943359375
-0.23706626892089844 -0.25835227966308594 0.7504425048828125
-0.22747707366943359 -0.26471900939941406 0.7444000244140625
0.18193912506103516 0.46391677856445312 0.6569671630859375
0.17094516754150391 0.46079444885253906 0.668426513671875
0.16146564483642578 0.46032333374023438 0.6778717041015625
0.15354347229003906 0.43268203735351562 0.6903533935546875
0.15062046051025391 0.40642547607421875 0.6964111328125
0.14144515991210938 0.38101577758789062 0.7040252685546875
-0.27002525329589844 -0.2747955322265625 0.752105712890625
-0.29054832458496094 -0.29543495178222656 0.74517822265625
-0.31446170806884766 -0.31225395202636719 0.737274169921875
-0.33742904663085938 -0.334259033203125 0.724090576171875
-0.33327388763427734 -0.3431854248046875 0.7178955078125
-0.33164310455322266 -0.35384559631347656 0.710540771484375
0.14250469207763672 0.59687423706054688 0.650543212890625
0.13441276550292969 0.58663558959960938 0.659027099609375
0.12667465209960938 0.578704833984375 0.6656646728515625
0.13251018524169922 0.54777336120605469 0.6717987060546875
0.14205265045166016 0.51927947998046875 0.6745452880859375
0.14930057525634766 0.48997688293457031 0.679046630859375
-0.37185287475585938 -0.341094970703125 0.7162017822265625
-0.40470981597900391 -0.35211563110351562 0.7035980224609375
-0.43696784973144531 -0.36016845703125 0.691009521484375
-0.46994590759277344 -0.37305641174316406 0.676055908203125
-0.47331523895263672 -0.38347434997558594 0.67022705078125
-0.47956275939941406 -0.39553070068359375 0.6620330810546875
0.060776710510253906 0.66274833679199219 0.6737823486328125
0.057132720947265625 0.64862060546875 0.6784820556640625
0.052861213684082031 0.63660049438476562 0.683563232421875
0.06774139404296875 0.6187896728515625 0.681427001953125
0.086285591125488281 0.60759544372558594 0.676788330078125
0.10374355316162109 0.59217453002929688 0.672943115234375
-0.49440288543701172 -0.36278915405273438 0.6703643798828125
-0.51784801483154297 -0.35793685913085938 0.663665771484375
-0.53884601593017578 -0.35049057006835938 0.657470703125
-0.56341648101806641 -0.34844207763671875 0.647735595703125
-0.57206535339355469 -0.35732269287109375 0.6403350830078125
-0.58351421356201172 -0.36740493774414062 0.6324920654296875
-0.03304290771484375 0.65570640563964844 0.706787109375
-0.032194137573242188 0.64335823059082031 0.7090301513671875
-0.031766891479492188 0.63281440734863281 0.712432861328125
-0.0094461441040039062 0.63213348388671875 0.7056884765625
0.011240005493164062 0.63506698608398438 0.698455810546875
0.030162811279296875 0.63251304626464844 0.69256591796875
-0.57153701782226562 -0.32901573181152344 0.6490325927734375
-0.583343505859375 -0.316131591796875 0.64739990234375
-0.59140491485595703 -0.29988288879394531 0.6482391357421875
-0.60482025146484375 -0.28350067138671875 0.6469573974609375
-0.61437129974365234 -0.288848876953125 0.6394500732421875
-0.6264495849609375 -0.29440116882324219 0.6327056884765625
-0.16011238098144531 0.56671524047851562 0.7515869140625
-0.15056324005126953 0.55948448181152344 0.7548980712890625
-0.14407253265380859 0.55271339416503906 0.759674072265625
-0.11316204071044922 0.56827926635742188 0.7546234130859375
-0.085692405700683594 0.59000396728515625 0.741119384765625
-0.057839393615722656 0.60896873474121094 0.727569580078125
-0.59646224975585938 -0.25345039367675781 0.662689208984375
-0.59367752075195312 -0.22356224060058594 0.6749114990234375
-0.58907127380371094 -0.19347190856933594 0.6875152587890625
-0.59075641632080078 -0.16292572021484375 0.6902923583984375
-0.60003852844238281 -0.16124916076660156 0.6817169189453125
-0.61253547668457031 -0.1576080322265625 0.6734619140625
-0.24931144714355469 0.49331283569335938 0.7652587890625
-0.23305034637451172 0.48869132995605469 0.7643585205078125
-0.22128582000732422 0.48517608642578125 0.7659759521484375
-0.19875144958496094 0.49717521667480469 0.7690277099609375
-0.18185615539550781 0.51233863830566406 0.7698211669921875
-0.16192531585693359 0.52862548828125 0.7685546875
-0.57795619964599609 -0.13798713684082031 0.7028350830078125
-0.57301998138427734 -0.114837646484375 0.7047119140625
-0.56752872467041016 -0.094768524169921875 0.7053680419921875
-0.56824874877929688 -0.071672439575195312 0.7026519775390625
-0.57830429077148438 -0.065073013305664062 0.6977081298828125
-0.592010498046875 -0.056486129760742188 0.6948394775390625
-0.28238773345947266 0.42302322387695312 0.77130126953125
-0.26490211486816406 0.4228057861328125 0.770263671875
-0.25079250335693359 0.42293930053710938 0.7711639404296875
-0.23705673217773438 0.43873405456542969 0.770751953125
-0.23145675659179688 0.45351600646972656 0.7694854736328125
-0.22336387634277344 0.46793556213378906 0.768310546875
-0.5530242919921875 -0.061323165893554688 0.709808349609375
-0.54374885559082031 -0.04788970947265625 0.714263916015625
-0.53275108337402344 -0.035715103149414062 0.7196502685546875
-0.52546977996826172 -0.017246246337890625 0.7220458984375
-0.53294754028320312 -0.0078601837158203125 0.7196807861328125
-0.54338932037353516 0.0038433074951171875 0.718780517578125
-0.23567104339599609 0.37212944030761719 0.77392578125
-0.23990058898925781 0.38915061950683594 0.7738800048828125
-0.24123764038085938 0.40646743774414062 0.7734527587890625
-0.504364013671875 -0.015672683715820312 0.73004150390625
-0.48692798614501953 -0.0072231292724609375 0.7352142333984375
-0.46777534484863281 -0.0003871917724609375 0.7399139404296875
-0.21663093566894531 0.42260932922363281 0.7686614990234375
-0.22372150421142578 0.4230804443359375 0.7707366943359375
-0.23108768463134766 0.42269706726074219 0.772552490234375
-0.21972465515136719 0.35880661010742188 0.7716522216796875
-0.21248912811279297 0.36205482482910156 0.768280029296875
-0.20515632629394531 0.36517524719238281 0.7635498046875
-0.20514583587646484 0.38197135925292969 0.7609710693359375
-0.20856761932373047 0.39521980285644531 0.7630462646484375
-0.21027565002441406 0.4092559814453125 0.765045166015625
-0.48921966552734375 -0.03765106201171875 0.725067138671875
-0.47487068176269531 -0.03145599365234375 0.7273712158203125
-0.45968151092529297 -0.026449203491210938 0.7283935546875
-0.44397926330566406 -0.016937255859375 0.7346343994140625
-0.44526195526123047 -0.010725021362304688 0.7388916015625
-0.44605445861816406 -0.004329681396484375 0.7421417236328125
-0.51463794708251953 -0.031850814819335938 0.7261810302734375
-0.50985336303710938 -0.036664962768554688 0.7256011962890625
-0.50568103790283203 -0.041215896606445312 0.72430419921875
-0.19382762908935547 0.47583198547363281 0.7644805908203125
-0.19878101348876953 0.47793960571289062 0.7666015625
-0.20509815216064453 0.47979736328125 0.7682037353515625
-0.20801830291748047 0.43493270874023438 0.765594482421875
-0.20345401763916016 0.44726371765136719 0.7641754150390625
-0.19723987579345703 0.46040534973144531 0.762603759765625
-0.53119373321533203 -0.075084686279296875 0.7106475830078125
-0.52209377288818359 -0.0637054443359375 0.7152557373046875
-0.51280021667480469 -0.05377197265625 0.7191009521484375
-0.55457019805908203 -0.080755233764648438 0.70880126953125
-0.54883193969726562 -0.083751678466796875 0.7093505859375
-0.54386329650878906 -0.086103439331054688 0.708953857421875
-0.13124561309814453 0.53616523742675781 0.7575531005859375
-0.1331329345703125 0.53958892822265625 0.76190185546875
-0.13580608367919922 0.54313087463378906 0.764068603515625
-0.17770957946777344 0.48754501342773438 0.7613525390625
-0.16511058807373047 0.50160789489746094 0.7606353759765625
-0.14874839782714844 0.51685714721679688 0.7578582763671875
-0.55864906311035156 -0.14014816284179688 0.6989898681640625
-0.55284309387207031 -0.11985397338867188 0.70220947265625
-0.54613399505615234 -0.10321235656738281 0.7045135498046875
-0.57747268676757812 -0.16428184509277344 0.6999359130859375
-0.57233047485351562 -0.16433334350585938 0.699371337890625
-0.56785202026367188 -0.16349220275878906 0.6962127685546875
-0.032584190368652344 0.60083389282226562 0.7079010009765625
-0.032083511352539062 0.607818603515625 0.7118072509765625
-0.032032966613769531 0.61514472961425781 0.71435546875
-0.1067962646484375 0.55007553100585938 0.74176025390625
-0.081946372985839844 0.56717300415039062 0.728729248046875
-0.056955337524414062 0.5821990966796875 0.7154388427734375
-0.56983852386474609 -0.23890876770019531 0.6595001220703125
-0.56941509246826172 -0.2138214111328125 0.6707000732421875
-0.56735801696777344 -0.18741989135742188 0.6826934814453125
-0.58882045745849609 -0.27490997314453125 0.655975341796875
-0.58129405975341797 -0.27039527893066406 0.6554718017578125
-0.57394695281982422 -0.26569938659667969 0.6533966064453125
0.038938522338867188 0.60304641723632812 0.68310546875
0.041901588439941406 0.61088371276855469 0.6861724853515625
0.044913291931152344 0.61857795715332031 0.6879425048828125
-0.012899398803710938 0.59968376159667969 0.69390869140625
0.0049829483032226562 0.60248756408691406 0.6875762939453125
0.021128654479980469 0.60063934326171875 0.6826629638671875
-0.54541778564453125 -0.30483818054199219 0.6463775634765625
-0.55499649047851562 -0.29374313354492188 0.6448516845703125
-0.56282711029052734 -0.27973175048828125 0.6460723876953125
-0.54986763000488281 -0.33298301696777344 0.6550140380859375
-0.54403018951416016 -0.32641029357910156 0.65460205078125
-0.53838348388671875 -0.32018089294433594 0.6522979736328125
0.099225997924804688 0.55650711059570312 0.67169189453125
0.10564804077148438 0.56158256530761719 0.6733551025390625
0.11243343353271484 0.56664276123046875 0.6731109619140625
0.051204681396484375 0.58980751037597656 0.6753387451171875
0.065915107727050781 0.58090591430664062 0.6724700927734375
0.079885482788085938 0.56802558898925781 0.6704254150390625
-0.48370838165283203 -0.33225250244140625 0.6649017333984375
-0.50307559967041016 -0.32884597778320312 0.65863037109375
-0.51950645446777344 -0.322113037109375 0.6535186767578125
-0.46544170379638672 -0.35573959350585938 0.6803741455078125
-0.46395492553710938 -0.34787368774414062 0.67919921875
-0.46247386932373047 -0.34062767028808594 0.6761932373046875
0.13276481628417969 0.45701217651367188 0.6858673095703125
0.13906383514404297 0.45896339416503906 0.6871185302734375
0.14585399627685547 0.45988655090332031 0.687408447265625
0.10450839996337891 0.53087043762207031 0.6715087890625
0.11490058898925781 0.50641441345214844 0.6744537353515625
0.12202358245849609 0.48110580444335938 0.67803955078125
-0.37841796875 -0.31640434265136719 0.7062530517578125
-0.40685081481933594 -0.32500648498535156 0.695098876953125
-0.43536376953125 -0.3309326171875 0.683685302734375
-0.34501075744628906 -0.32121849060058594 0.7276458740234375
-0.34721183776855469 -0.31577301025390625 0.72576904296875
-0.34949970245361328 -0.310760498046875 0.7216644287109375
0.11071681976318359 0.36433792114257812 0.7114105224609375
0.115325927734375 0.36231040954589844 0.7137298583984375
0.12087249755859375 0.35949897766113281 0.7146148681640625
0.12777423858642578 0.43192672729492188 0.6879425048828125
0.12539196014404297 0.40945053100585938 0.693939208984375
0.11809825897216797 0.3884124755859375 0.7002716064453125
-0.28994083404541016 -0.26198005676269531 0.7405242919921875
-0.30730438232421875 -0.27947807312011719 0.73370361328125
-0.32738399505615234 -0.2940673828125 0.726287841796875
-0.25992393493652344 -0.24672317504882812 0.75799560546875
-0.26536464691162109 -0.244903564453125 0.755462646484375
-0.27061080932617188 -0.24255180358886719 0.7510528564453125
0.024209022521972656 0.2847747802734375 0.7437896728515625
0.026453971862792969 0.28060722351074219 0.74859619140625
0.028632164001464844 0.27568244934082031 0.7509307861328125
0.087865829467773438 0.34454727172851562 0.716217041015625
0.066966056823730469 0.3232574462890625 0.724761962890625
0.043871879577636719 0.30428695678710938 0.7328338623046875
-0.24785614013671875 -0.16015243530273438 0.7582550048828125
-0.25405025482177734 -0.18731498718261719 0.7558746337890625
-0.26349258422851562 -0.21535491943359375 0.751068115234375
-0.22740268707275391 -0.13143157958984375 0.774322509765625
-0.23330783843994141 -0.13311958312988281 0.770843505859375
-0.23906230926513672 -0.1343994140625 0.765869140625
-0.045184135437011719 0.26419448852539062 0.7487640380859375
-0.044031143188476562 0.25877189636230469 0.75390625
-0.043444633483886719 0.25363731384277344 0.757781982421875
0.0020990371704101562 0.278076171875 0.7420196533203125
-0.015149116516113281 0.27232742309570312 0.7428741455078125
-0.031263351440429688 0.26922988891601562 0.7435302734375
-0.25386810302734375 -0.08614349365234375 0.75433349609375
-0.24831867218017578 -0.099618911743164062 0.7569580078125
-0.24457073211669922 -0.11539649963378906 0.75933837890625
-0.2449798583984375 -0.068605422973632812 0.76715087890625
-0.25103950500488281 -0.070947647094726562 0.7629547119140625
-0.25663471221923828 -0.073595046997070312 0.7572479248046875
-0.17168617248535156 0.30211257934570312 0.768218994140625
-0.16774654388427734 0.30654525756835938 0.7642669677734375
-0.16457271575927734 0.3105316162109375 0.7587127685546875
-0.17378807067871094 0.32642745971679688 0.7543792724609375
-0.18387126922607422 0.339691162109375 0.755218505859375
-0.19236087799072266 0.35377693176269531 0.7567291259765625
-0.42534351348876953 -0.01891326904296875 0.7323760986328125
-0.40697479248046875 -0.017534255981445312 0.73455810546875
-0.38895416259765625 -0.017377853393554688 0.736968994140625
-0.36864471435546875 -0.015081405639648438 0.7451324462890625
-0.36664485931396484 -0.010654449462890625 0.750762939453125
-0.36429977416992188 -0.0056667327880859375 0.7548980712890625
-0.10707950592041016 0.26653099060058594 0.7633514404296875
-0.10547351837158203 0.27266883850097656 0.758575439453125
-0.10446548461914062 0.27764320373535156 0.752410888671875
-0.11839962005615234 0.288787841796875 0.7470703125
-0.13363456726074219 0.29586601257324219 0.74908447265625
-0.14811801910400391 0.30493927001953125 0.7512969970703125
-0.35316848754882812 -0.022974014282226562 0.73992919921875
-0.33665847778320312 -0.0288848876953125 0.741455078125
-0.32111740112304688 -0.03564453125 0.742523193359375
-0.30278873443603516 -0.038713455200195312 0.7505950927734375
-0.29837608337402344 -0.03504180908203125 0.7573394775390625
-0.29363536834716797 -0.030996322631835938 0.762176513671875
-0.060213088989257812 0.26975440979003906 0.7426605224609375
-0.074616432189941406 0.273040771484375 0.7430877685546875
-0.088785171508789062 0.27727317810058594 0.7442169189453125
-0.29368114471435547 -0.050024032592773438 0.744781494140625
-0.28200340270996094 -0.057622909545898438 0.7465057373046875
-0.27140522003173828 -0.066255569458007812 0.748443603515625
-0.38961982727050781 0.21403121948242188 0.6273651123046875
-0.39018630981445312 0.2113800048828125 0.6556396484375
-0.39162445068359375 0.20953750610351562 0.6858978271484375
-0.41017436981201172 0.30483245849609375 0.697265625
-0.40152645111083984 0.3132171630859375 0.66668701171875
-0.38902854919433594 0.32672882080078125 0.637542724609375
-0.37561607360839844 0.29892539978027344 0.6092529296875
-0.37825489044189453 0.26392745971679688 0.6080322265625
-0.38420963287353516 0.23870468139648438 0.605438232421875
-0.40756034851074219 0.20159530639648438 0.60076904296875
-0.42821884155273438 0.18350601196289062 0.5972442626953125
-0.45944404602050781 0.16435050964355469 0.5890655517578125
-0.49556827545166016 0.15480232238769531 0.6090850830078125
-0.4936370849609375 0.16550445556640625 0.64202880859375
-0.49320220947265625 0.1708221435546875 0.6737060546875
-0.50873470306396484 0.45643234252929688 0.708709716796875
-0.49602794647216797 0.46279144287109375 0.6810760498046875
-0.47702312469482422 0.469268798828125 0.658660888671875
-0.44194889068603516 0.45612907409667969 0.6370086669921875
-0.41683578491210938 0.42890167236328125 0.628448486328125
-0.39171409606933594 0.39523887634277344 0.6202392578125
-0.55794620513916016 0.12718582153320312 0.571014404296875
-0.60366916656494141 0.12877273559570312 0.5679168701171875
-0.64264488220214844 0.13213348388671875 0.5661468505859375
-0.67737960815429688 0.1463470458984375 0.5825347900390625
-0.68530941009521484 0.15707206726074219 0.6066741943359375
-0.69145393371582031 0.16161537170410156 0.6358642578125
-0.46372509002685547 0.59225273132324219 0.7144927978515625
-0.45157909393310547 0.59435653686523438 0.6855926513671875
-0.43556594848632812 0.59079742431640625 0.662139892578125
-0.43363761901855469 0.56374359130859375 0.641937255859375
-0.44628810882568359 0.53384017944335938 0.6383514404296875
-0.45524883270263672 0.50091743469238281 0.6403350830078125
-0.69078159332275391 0.120574951171875 0.551910400390625
-0.71561622619628906 0.098901748657226562 0.536712646484375
-0.73763179779052734 0.07427978515625 0.5276336669921875
-0.76702499389648438 0.056423187255859375 0.53472900390625
