# XYZ point cloud file
-0.37290573120117188 0.94109392166137695 0.122467041015625
-0.43421363830566406 0.90889835357666016 0.14056396484375
-0.36156654357910156 0.91368246078491211 0.18267822265625
-0.31507301330566406 0.96415519714355469 0.10369873046875
-0.37422561645507812 0.96393823623657227 0.058990478515625
-0.43548774719238281 0.93394041061401367 0.0743408203125
-0.42250633239746094 0.87917995452880859 0.20343017578125
-0.3050537109375 0.93808317184448242 0.16168212890625
-0.31577873229980469 0.98438215255737305 0.042816162109375
-0.90872001647949219 0.048069953918457031 -0.141815185546875
-0.89862060546875 0.018313884735107422 -0.072235107421875
-0.90934944152832031 0.11545944213867188 -0.10888671875
-0.90864372253417969 0.070813655853271484 -0.212249755859375
-0.90138816833496094 -0.014691829681396484 -0.16845703125
-0.8930206298828125 -0.041402816772460938 -0.1004638671875
-0.89943313598632812 0.083664894104003906 -0.0357666015625
-0.90962791442871094 0.1417384147644043 -0.1806640625
-0.9012908935546875 0.0064997673034667969 -0.23486328125
-0.26186752319335938 0.80171966552734375 0.33038330078125
-0.31496620178222656 0.76290798187255859 0.35675048828125
-0.22046089172363281 0.76566410064697266 0.371978759765625
-0.21424484252929688 0.83109617233276367 0.30523681640625
-0.30391311645507812 0.84155607223510742 0.285797119140625
-0.35958099365234375 0.80307865142822266 0.310638427734375
-0.2701568603515625 0.72537422180175781 0.39678955078125
-0.17560768127441406 0.79602861404418945 0.348297119140625
-0.25248527526855469 0.86878013610839844 0.261322021484375
-0.80647087097167969 -0.10297250747680664 0.139251708984375
-0.76874923706054688 -0.14579963684082031 0.20465087890625
-0.80090713500976562 -0.045770645141601562 0.176025390625
-0.84523582458496094 -0.059693813323974609 0.069122314453125
-0.80629730224609375 -0.15496110916137695 0.109649658203125
-0.77078819274902344 -0.19418001174926758 0.175262451171875
-0.76042366027832031 -0.090904712677001953 0.239990234375
-0.84180831909179688 0.0015616416931152344 0.108001708984375
-0.84207534790039062 -0.11335277557373047 0.04071044921875
-0.15722084045410156 0.71888446807861328 0.494171142578125
-0.15756034851074219 0.72122573852539062 0.534515380859375
-0.11614608764648438 0.75208806991577148 0.4761962890625
-0.16550254821777344 0.72415256500244141 0.4527587890625
-0.20271110534667969 0.6775054931640625 0.5140380859375
-0.20518684387207031 0.6804041862487793 0.5523681640625
-0.11423110961914062 0.75404787063598633 0.518951416015625
-0.12526702880859375 0.75567245483398438 0.4327392578125
-0.21170234680175781 0.68237209320068359 0.4752197265625
-0.72664642333984375 -0.22486495971679688 0.3577880859375
-0.73280715942382812 -0.2713313102722168 0.336761474609375
-0.73480606079101562 -0.23544406890869141 0.39691162109375
-0.71416282653808594 -0.17209434509277344 0.385101318359375
-0.72685813903808594 -0.20740938186645508 0.31414794921875
-0.73226737976074219 -0.25324106216430664 0.290557861328125
-0.73961639404296875 -0.28380966186523438 0.3790283203125
-0.72418975830078125 -0.18136453628540039 0.419769287109375
-0.71528244018554688 -0.1551666259765625 0.34320068359375
-0.49752998352050781 0.56031894683837891 0.3948974609375
-0.445648193359375 0.51934385299682617 0.44720458984375
-0.43386650085449219 0.64157009124755859 0.39166259765625
-0.546539306640625 0.60597896575927734 0.335906982421875
-0.56029891967773438 0.4706878662109375 0.389312744140625
-0.50703239440917969 0.42405414581298828 0.451904296875
-0.38430595397949219 0.60315418243408203 0.436431884765625
-0.48200225830078125 0.68545436859130859 0.338714599609375
-0.60965538024902344 0.51855754852294922 0.3236083984375
-0.72229957580566406 0.18712568283081055 0.30316162109375
-0.75971221923828125 0.098332881927490234 0.262237548828125
-0.67540168762207031 0.13835430145263672 0.365692138671875
-0.67495346069335938 0.27884531021118164 0.34307861328125
-0.76853179931640625 0.23720788955688477 0.233673095703125
-0.80442237854003906 0.14949941635131836 0.193267822265625
-0.71532249450683594 0.051932811737060547 0.324005126953125
-0.62357902526855469 0.22898101806640625 0.411041259765625
-0.72269058227539062 0.32980108261108398 0.27130126953125
-0.39806556701660156 0.50759506225585938 0.621551513671875
-0.41480445861816406 0.45824241638183594 0.6251220703125
-0.43189620971679688 0.51483488082885742 0.633087158203125
-0.38257980346679688 0.55552196502685547 0.62725830078125
-0.36577224731445312 0.49835777282714844 0.611907958984375
-0.38661384582519531 0.4352569580078125 0.616119384765625
-0.44448089599609375 0.47551727294921875 0.63568115234375
-0.41962242126464844 0.55130147933959961 0.63763427734375
-0.342987060546875 0.56074142456054688 0.61517333984375
-0.67948722839355469 0.040059566497802734 0.5269775390625
-0.70761871337890625 0.058201789855957031 0.53497314453125
-0.644317626953125 0.076298236846923828 0.548126220703125
-0.65192794799804688 0.023205280303955078 0.52166748046875
-0.71520233154296875 0.0027823448181152344 0.513214111328125
-0.73491096496582031 0.029718875885009766 0.524383544921875
-0.67928504943847656 0.085793495178222656 0.550933837890625
-0.60671424865722656 0.068534374237060547 0.547943115234375
-0.69743728637695312 -0.026510715484619141 0.503143310546875
-0.34362602233886719 0.4762263298034668 0.557281494140625
-0.33542060852050781 0.48078346252441406 0.58038330078125
-0.29788398742675781 0.55425262451171875 0.5455322265625
-0.36469650268554688 0.47663354873657227 0.528045654296875
-0.38214302062988281 0.39764785766601562 0.56524658203125
-0.36652565002441406 0.40493059158325195 0.5860595703125
-0.296722412109375 0.55816650390625 0.576171875
-0.31293296813964844 0.55712461471557617 0.514556884765625
-0.41253280639648438 0.38900279998779297 0.54071044921875
-0.61103248596191406 0.031204700469970703 0.482147216796875
-0.65673446655273438 -0.040880203247070312 0.447845458984375
-0.61470603942871094 0.017187595367431641 0.50262451171875
-0.56224250793457031 0.098341464996337891 0.5169677734375
-0.61716079711914062 0.057995319366455078 0.457366943359375
-0.66081428527832031 -0.019366264343261719 0.41656494140625
-0.66435050964355469 -0.051260948181152344 0.472808837890625
-0.56319808959960938 0.077417850494384766 0.532958984375
-0.56567955017089844 0.13434553146362305 0.496978759765625
-0.41364288330078125 0.26034832000732422 0.585235595703125
-0.40158843994140625 0.25426387786865234 0.5958251953125
-0.41543388366699219 0.28385162353515625 0.5797119140625
-0.42636871337890625 0.24535083770751953 0.57977294921875
-0.40923118591308594 0.23159265518188477 0.5936279296875
-0.39649581909179688 0.2876439094543457 0.595703125
-0.44188499450683594 0.26880741119384766 0.56500244140625
-0.45818710327148438 0.18678665161132812 0.574859619140625
-0.48023605346679688 0.17748117446899414 0.5638427734375
-0.44790840148925781 0.17851924896240234 0.5859375
-0.44959259033203125 0.20646524429321289 0.57293701171875
-0.4770965576171875 0.20983600616455078 0.55609130859375
-0.47659873962402344 0.15809345245361328 0.576019287109375
-0.43037796020507812 0.19746732711791992 0.589996337890625
0.13513565063476562 0.81425571441650391 0.336029052734375
0.14078712463378906 0.80899429321289062 0.381866455078125
0.18076896667480469 0.79071903228759766 0.289703369140625
0.12797737121582031 0.82390928268432617 0.288543701171875
0.089464187622070312 0.82579231262207031 0.379150390625
0.096048355102539062 0.82657384872436523 0.422027587890625
0.18587303161621094 0.78131580352783203 0.34197998046875
0.17486381530761719 0.80438661575317383 0.2354736328125
0.0811614990234375 0.83267736434936523 0.337249755859375
-0.66749000549316406 -0.51659250259399414 0.272064208984375
-0.62681770324707031 -0.54745197296142578 0.25897216796875
-0.66297340393066406 -0.52328157424926758 0.323638916015625
-0.70056533813476562 -0.4819035530090332 0.289703369140625
-0.67706680297851562 -0.5100245475769043 0.218780517578125
-0.63920783996582031 -0.54510831832885742 0.198211669921875
-0.61770820617675781 -0.54933261871337891 0.31597900390625
-0.70080184936523438 -0.49254703521728516 0.333831787109375
-0.70521354675292969 -0.47165012359619141 0.24041748046875
0.090358734130859375 0.88288545608520508 0.171112060546875
0.14248466491699219 0.86243438720703125 0.116302490234375
0.075601577758789062 0.90665102005004883 0.138031005859375
0.038482666015625 0.89340496063232422 0.22235107421875
0.10480308532714844 0.85939931869506836 0.2071533203125
0.15556716918945312 0.84199190139770508 0.150848388671875
0.13022994995117188 0.88298368453979492 0.082061767578125
0.022542953491210938 0.92025279998779297 0.186279296875
0.05535888671875 0.86636543273925781 0.258056640625
-0.73037338256835938 -0.47847795486450195 0.05621337890625
-0.75047111511230469 -0.46555900573730469 0.003021240234375
-0.69266319274902344 -0.52444696426391602 0.032989501953125
-0.70940399169921875 -0.49153327941894531 0.108062744140625
-0.75905990600585938 -0.4315028190612793 0.0771484375
-0.78195762634277344 -0.41490793228149414 0.019744873046875
-0.71055221557617188 -0.51305580139160156 -0.01483154296875
-0.67380142211914062 -0.5340118408203125 0.083892822265625
-0.7353973388671875 -0.44607830047607422 0.134185791015625
0.044443130493164062 0.95349025726318359 0.019073486328125
0.094987869262695312 0.92626619338989258 -0.023895263671875
0.042169570922851562 0.95978736877441406 -0.0294189453125
-0.0095920562744140625 0.97752475738525391 0.05743408203125
0.051820755004882812 0.94399595260620117 0.062225341796875
0.10484886169433594 0.91571378707885742 0.01251220703125
0.091245651245117188 0.93065690994262695 -0.068817138671875
-0.010839462280273438 0.9858860969543457 0.005828857421875
-0.003528594970703125 0.96495628356933594 0.10296630859375
-0.78305816650390625 -0.42230892181396484 -0.152252197265625
-0.78116798400878906 -0.41088581085205078 -0.204010009765625
-0.74467086791992188 -0.46919679641723633 -0.15802001953125
-0.7783660888671875 -0.43659877777099609 -0.100067138671875
-0.81847000122070312 -0.36949777603149414 -0.149688720703125
-0.81732177734375 -0.35700082778930664 -0.20452880859375
-0.74398612976074219 -0.46022701263427734 -0.207061767578125
-0.73792457580566406 -0.48448610305786133 -0.112701416015625
-0.81294441223144531 -0.38342380523681641 -0.0938720703125
0.0575103759765625 0.94444894790649414 -0.19744873046875
0.0622100830078125 0.92995882034301758 -0.2518310546875
0.010202407836914062 0.97848224639892578 -0.16864013671875
0.050113677978515625 0.95397472381591797 -0.13787841796875
0.0995941162109375 0.91034460067749023 -0.225189208984375
0.106292724609375 0.88857173919677734 -0.284210205078125
0.017597198486328125 0.96619224548339844 -0.220458984375
0.000354766845703125 0.98629474639892578 -0.1094970703125
0.095140457153320312 0.9228973388671875 -0.170257568359375
-0.74784469604492188 -0.39790678024291992 -0.356842041015625
-0.78451728820800781 -0.34511804580688477 -0.36376953125
-0.73045730590820312 -0.39250040054321289 -0.403289794921875
-0.71331024169921875 -0.44439411163330078 -0.352569580078125
-0.76272964477539062 -0.40022516250610352 -0.306884765625
-0.79983901977539062 -0.34573841094970703 -0.31268310546875
-0.76685333251953125 -0.3408808708190918 -0.40740966796875
-0.69203376770019531 -0.44111728668212891 -0.39984130859375
-0.72782707214355469 -0.44776344299316406 -0.30474853515625
0.34879875183105469 0.0522613525390625 -0.078155517578125
0.35320663452148438 -0.012676715850830078 -0.0787353515625
0.33691787719726562 0.057486057281494141 -0.171875
0.34357070922851562 0.11764001846313477 -0.07928466796875
0.35634613037109375 0.050707817077636719 0.0103759765625
0.36521530151367188 -0.016714096069335938 0.016510009765625
0.33865165710449219 -0.0055055618286132812 -0.172882080078125
0.33484649658203125 0.11928939819335938 -0.168121337890625
0.34778213500976562 0.11999368667602539 0.011077880859375
0.010427474975585938 -0.50727367401123047 0.04486083984375
-0.01404571533203125 -0.52452516555786133 -0.04461669921875
0.062002182006835938 -0.49286079406738281 0.036773681640625
0.030963897705078125 -0.48554515838623047 0.131256103515625
-0.041204452514648438 -0.52179479598999023 0.052032470703125
-0.061115264892578125 -0.53559541702270508 -0.035430908203125
0.032823562622070312 -0.51111555099487305 -0.054656982421875
0.08823394775390625 -0.4719996452331543 0.127288818359375
-0.026430130004882812 -0.49883651733398438 0.13702392578125
0.35262489318847656 0.31486701965332031 -0.09259033203125
0.3528289794921875 0.33941555023193359 -0.017120361328125
0.34534072875976562 0.24916601181030273 -0.084747314453125
0.34740829467773438 0.29869747161865234 -0.1666259765625
0.36040496826171875 0.37696218490600586 -0.10107421875
0.35978317260742188 0.41105890274047852 -0.03155517578125
0.3455657958984375 0.26479339599609375 -0.001953125
0.33921623229980469 0.24028110504150391 -0.165283203125
0.35729408264160156 0.35286617279052734 -0.1678466796875
-0.19663429260253906 -0.59288644790649414 0.053955078125
-0.14609718322753906 -0.5632014274597168 0.055999755859375
-0.20414543151855469 -0.58299493789672852 0.125579833984375
-0.24345970153808594 -0.62136268615722656 0.04876708984375
-0.19434165954589844 -0.59739780426025391 -0.01873779296875
-0.15146827697753906 -0.57198333740234375 -0.02484130859375
-0.14469718933105469 -0.54674530029296875 0.138397216796875
-0.26092720031738281 -0.61692094802856445 0.1131591796875
-0.2333526611328125 -0.62504816055297852 -0.014068603515625
0.3291015625 0.39119100570678711 0.222747802734375
0.32009696960449219 0.39754486083984375 0.29522705078125
0.324920654296875 0.32483100891113281 0.243499755859375
0.33988761901855469 0.3790431022644043 0.1446533203125
0.33106613159179688 0.45757007598876953 0.208984375
0.32061958312988281 0.45845460891723633 0.2821044921875
0.3159332275390625 0.33751773834228516 0.314971923828125
0.33416557312011719 0.30516529083251953 0.166748046875
0.3438873291015625 0.45415592193603516 0.12554931640625
-0.22478294372558594 -0.52530574798583984 0.346954345703125
-0.16774559020996094 -0.48913240432739258 0.36572265625
-0.22557830810546875 -0.50381851196289062 0.41326904296875
-0.28154373168945312 -0.55606985092163086 0.32928466796875
-0.22029685974121094 -0.54772377014160156 0.273834228515625
-0.15819358825683594 -0.50783061981201172 0.29534912109375
-0.17175865173339844 -0.46922397613525391 0.4315185546875
-0.2789764404296875 -0.53243017196655273 0.397186279296875
-0.28299903869628906 -0.58315372467041016 0.255157470703125
0.31998062133789062 0.15107059478759766 0.338531494140625
0.31067276000976562 0.16440486907958984 0.37701416015625
0.32379531860351562 0.10913419723510742 0.371612548828125
0.33010292053222656 0.13200283050537109 0.29705810546875
0.31870841979980469 0.20427227020263672 0.301849365234375
0.31027412414550781 0.21831226348876953 0.3558349609375
0.31310272216796875 0.12078285217285156 0.398895263671875
0.33505821228027344 0.091559886932373047 0.34405517578125
0.32811164855957031 0.18020772933959961 0.24505615234375
-0.0045566558837890625 -0.38348388671875 0.43988037109375
0.04082489013671875 -0.35799074172973633 0.4678955078125
-0.013702392578125 -0.3711543083190918 0.47503662109375
-0.056142807006835938 -0.41689825057983398 0.412017822265625
0.010471343994140625 -0.39673471450805664 0.4033203125
0.056390762329101562 -0.36890697479248047 0.443328857421875
0.030529022216796875 -0.34579610824584961 0.493499755859375
-0.064752578735351562 -0.40064525604248047 0.4615478515625
-0.041351318359375 -0.42987918853759766 0.357208251953125
0.35932540893554688 0.045625686645507812 0.204986572265625
0.36643218994140625 0.016225337982177734 0.225738525390625
0.36049652099609375 0.047804832458496094 0.1585693359375
0.35161018371582031 0.072430133819580078 0.227569580078125
0.35818862915039062 0.041637420654296875 0.2725830078125
0.371856689453125 -0.001811981201171875 0.170166015625
0.34844589233398438 0.099603176116943359 0.16876220703125
0.076776504516601562 -0.42101907730102539 0.313720703125
0.066371917724609375 -0.43729543685913086 0.271759033203125
0.10817146301269531 -0.41002750396728516 0.330902099609375
0.056364059448242188 -0.41442012786865234 0.3363037109375
0.020879745483398438 -0.44097423553466797 0.283203125
0.11308479309082031 -0.42829561233520508 0.27667236328125
0.093637466430664062 -0.39396381378173828 0.37615966796875
0.28605461120605469 0.15266561508178711 0.443695068359375
0.28406906127929688 0.16888952255249023 0.44635009765625
0.28392410278320312 0.12720012664794922 0.450042724609375
0.29224395751953125 0.1613316535949707 0.430877685546875
0.29221534729003906 0.1990199089050293 0.427337646484375
0.28018760681152344 0.13917684555053711 0.45697021484375
0.29218673706054688 0.12529706954956055 0.439483642578125
-0.0037555694580078125 -0.32695579528808594 0.528106689453125
0.018354415893554688 -0.31147146224975586 0.532073974609375
-0.018991470336914062 -0.33218622207641602 0.53338623046875
-0.011659622192382812 -0.33847808837890625 0.5194091796875
0.022531509399414062 -0.31942558288574219 0.52484130859375
0.0070590972900390625 -0.31152153015136719 0.54071044921875
-0.044940948486328125 -0.35737514495849609 0.521148681640625
0.18140029907226562 0.58478116989135742 -0.486663818359375
0.20730018615722656 0.6092524528503418 -0.459747314453125
0.21335983276367188 0.50351476669311523 -0.485198974609375
0.15470695495605469 0.56094551086425781 -0.5142822265625
0.14675521850585938 0.66925811767578125 -0.472991943359375
0.17244529724121094 0.69227361679077148 -0.4427490234375
0.23896026611328125 0.530303955078125 -0.4593505859375
0.18792152404785156 0.47303199768066406 -0.513031005859375
0.11751174926757812 0.64819622039794922 -0.50177001953125
-0.46002006530761719 -0.48178339004516602 -0.4698486328125
-0.39911270141601562 -0.51455259323120117 -0.43377685546875
-0.47281074523925781 -0.52184009552001953 -0.435302734375
-0.52150535583496094 -0.44472169876098633 -0.494781494140625
-0.44671630859375 -0.43893527984619141 -0.50518798828125
-0.38307380676269531 -0.47558975219726562 -0.468780517578125
-0.41339111328125 -0.55194854736328125 -0.3997802734375
-0.53591537475585938 -0.48656797409057617 -0.459442138671875
-0.51092910766601562 -0.39700222015380859 -0.5299072265625
0.063243865966796875 0.50137805938720703 -0.59832763671875
0.020092010498046875 0.5971369743347168 -0.5804443359375
0.095453262329101562 0.52030658721923828 -0.57110595703125
0.10035133361816406 0.40945100784301758 -0.603424072265625
0.028034210205078125 0.47514247894287109 -0.625701904296875
-0.018915176391601562 0.57442855834960938 -0.608062744140625
0.054698944091796875 0.61534690856933594 -0.55517578125
0.13149261474609375 0.42694807052612305 -0.572509765625
0.068010330200195312 0.38202238082885742 -0.630828857421875
-0.41595268249511719 -0.29727649688720703 -0.610504150390625
-0.42595291137695312 -0.34832286834716797 -0.575225830078125
-0.48330879211425781 -0.24234628677368164 -0.627899169921875
-0.40068244934082031 -0.23909854888916016 -0.644683837890625
-0.35244560241699219 -0.34439420700073242 -0.585113525390625
-0.36057662963867188 -0.39119148254394531 -0.54779052734375
-0.49280166625976562 -0.29930782318115234 -0.596466064453125
-0.46953582763671875 -0.17794609069824219 -0.657958984375
-0.33722686767578125 -0.29381895065307617 -0.620330810546875
0.29724884033203125 0.33161640167236328 -0.370880126953125
0.31907463073730469 0.30442667007446289 -0.3079833984375
0.28329849243164062 0.28983640670776367 -0.385650634765625
0.27176284790039062 0.37396812438964844 -0.425537109375
0.31672096252441406 0.37005329132080078 -0.3572998046875
0.33520698547363281 0.34755182266235352 -0.29742431640625
0.3078460693359375 0.2576904296875 -0.317291259765625
0.25261306762695312 0.33372592926025391 -0.44720458984375
0.29335975646972656 0.40855169296264648 -0.407684326171875
-0.25256538391113281 -0.58059406280517578 -0.248504638671875
-0.22591590881347656 -0.5548405647277832 -0.268280029296875
-0.22117042541503906 -0.59126663208007812 -0.171722412109375
-0.27533912658691406 -0.61061859130859375 -0.22467041015625
-0.29346466064453125 -0.56336879730224609 -0.3211669921875
-0.27035903930664062 -0.53421401977539062 -0.35003662109375
-0.19071197509765625 -0.56836891174316406 -0.18768310546875
-0.24831199645996094 -0.62067985534667969 -0.15234375
-0.31219291687011719 -0.59750175476074219 -0.292877197265625
0.27269935607910156 0.12618112564086914 -0.411773681640625
0.27052497863769531 0.060824871063232422 -0.416900634765625
0.24417686462402344 0.15882682800292969 -0.474365234375
0.27220535278320312 0.18509197235107422 -0.406005859375
0.29895591735839844 0.095348834991455078 -0.33917236328125
0.29698371887207031 0.032785892486572266 -0.34503173828125
0.24215888977050781 0.094079494476318359 -0.480682373046875
0.24088287353515625 0.22488737106323242 -0.469512939453125
0.298797607421875 0.15328311920166016 -0.3323974609375
-0.11789703369140625 -0.52059841156005859 -0.301849365234375
-0.15586662292480469 -0.50408029556274414 -0.3763427734375
-0.075487136840820312 -0.51199531555175781 -0.3135986328125
-0.07942962646484375 -0.53199911117553711 -0.21966552734375
-0.15787696838378906 -0.52839374542236328 -0.295166015625
-0.19927024841308594 -0.50702571868896484 -0.375579833984375
-0.11276054382324219 -0.49449968338012695 -0.384002685546875
-0.03720855712890625 -0.52060794830322266 -0.23291015625
-0.11908149719238281 -0.53968000411987305 -0.210601806640625
0.16887474060058594 0.21692371368408203 -0.58856201171875
0.15472412109375 0.26101589202880859 -0.595062255859375
0.18992996215820312 0.2073206901550293 -0.56573486328125
0.15915489196777344 0.18337392807006836 -0.60015869140625
0.13193702697753906 0.23199081420898438 -0.6181640625
0.17998123168945312 0.26951456069946289 -0.565887451171875
0.18572044372558594 0.15086460113525391 -0.5721435546875
-0.22048187255859375 -0.42852592468261719 -0.520751953125
-0.20903396606445312 -0.45590019226074219 -0.49005126953125
-0.25127792358398438 -0.41420936584472656 -0.536529541015625
-0.20017433166503906 -0.41387939453125 -0.5341796875
-0.17229843139648438 -0.44437217712402344 -0.495208740234375
-0.25113868713378906 -0.4479827880859375 -0.4981689453125
-0.23592376708984375 -0.37993478775024414 -0.56524658203125
0.16821861267089844 1.0713272094726562 -0.178619384765625
0.16004371643066406 1.0778970718383789 -0.185699462890625
0.16457939147949219 1.0353403091430664 -0.170135498046875
0.17860794067382812 1.0638184547424316 -0.1805419921875
0.17459297180175781 1.1103811264038086 -0.189300537109375
0.16732406616210938 1.1169137954711914 -0.19598388671875
0.15596389770507812 1.0384244918823242 -0.177520751953125
0.1755218505859375 1.0306582450866699 -0.173248291015625
0.18502426147460938 1.1005630493164062 -0.18988037109375
-0.81400680541992188 -0.5637211799621582 -0.35223388671875
-0.79055595397949219 -0.55438375473022461 -0.327667236328125
-0.81872177124023438 -0.55269622802734375 -0.367706298828125
-0.83899307250976562 -0.57747793197631836 -0.381317138671875
-0.80749320983886719 -0.57710123062133789 -0.345184326171875
-0.78491783142089844 -0.56776952743530273 -0.3204345703125
-0.79393386840820312 -0.54272747039794922 -0.340606689453125
-0.84515190124511719 -0.56806850433349609 -0.396728515625
-0.83083534240722656 -0.58952140808105469 -0.37237548828125
0.21936416625976562 1.2368249893188477 -0.233184814453125
0.20002937316894531 1.194922924041748 -0.217498779296875
0.22757530212402344 1.2202672958374023 -0.237030029296875
0.24358558654785156 1.2724161148071289 -0.249969482421875
0.21450424194335938 1.2519721984863281 -0.237640380859375
0.19427299499511719 1.2071728706359863 -0.2225341796875
0.20923995971679688 1.1802020072937012 -0.220184326171875
0.25029182434082031 1.2548670768737793 -0.254547119140625
0.24006080627441406 1.2888827323913574 -0.254150390625
-0.91410255432128906 -0.65017795562744141 -0.47259521484375
-0.90189170837402344 -0.65877437591552734 -0.4599609375
-0.89000320434570312 -0.62017011642456055 -0.444122314453125
-0.92431640625 -0.64352083206176758 -0.49102783203125
-0.9331207275390625 -0.68544673919677734 -0.497406005859375
-0.91961479187011719 -0.69188976287841797 -0.4833984375
-0.87896156311035156 -0.62957954406738281 -0.432098388671875
-0.8986053466796875 -0.61237955093383789 -0.46026611328125
-0.94414710998535156 -0.68071126937866211 -0.514678955078125
0.34407234191894531 1.3043441772460938 -0.309967041015625
0.30669403076171875 1.3080172538757324 -0.288787841796875
0.34496879577636719 1.2832841873168945 -0.313262939453125
0.38288497924804688 1.2861537933349609 -0.33270263671875
0.34552764892578125 1.3234915733337402 -0.31195068359375
0.30556488037109375 1.327357292175293 -0.29290771484375
0.30987548828125 1.2867336273193359 -0.29193115234375
0.3813323974609375 1.2653627395629883 -0.3349609375
0.3856964111328125 1.3047614097595215 -0.336456298828125
-0.93618583679199219 -0.82480907440185547 -0.502288818359375
-0.922332763671875 -0.82418918609619141 -0.490325927734375
-0.94553184509277344 -0.77494192123413086 -0.511566162109375
-0.94859695434570312 -0.82841014862060547 -0.516265869140625
-0.91791152954101562 -0.87562704086303711 -0.482086181640625
-0.90480613708496094 -0.87115001678466797 -0.4730224609375
-0.93121528625488281 -0.77661037445068359 -0.499725341796875
-0.95754432678222656 -0.77455234527587891 -0.527923583984375
-0.93015480041503906 -0.88219594955444336 -0.49395751953125
0.48957252502441406 1.1577177047729492 -0.41162109375
0.45745468139648438 1.211266040802002 -0.386138916015625
0.48194313049316406 1.1436171531677246 -0.40869140625
0.51522064208984375 1.095944881439209 -0.43231201171875
0.49718475341796875 1.1715822219848633 -0.417449951171875
0.46370887756347656 1.2266826629638672 -0.39031982421875
0.45150184631347656 1.1946449279785156 -0.384033203125
0.50668907165527344 1.0856876373291016 -0.426483154296875
0.52423858642578125 1.1070094108581543 -0.442352294921875
-0.81413650512695312 -1.0040497779846191 -0.396759033203125
-0.80526924133300781 -0.99164772033691406 -0.39447021484375
-0.85596847534179688 -0.96822309494018555 -0.428466796875
-0.82233428955078125 -1.0173473358154297 -0.4051513671875
-0.76704788208007812 -1.0301508903503418 -0.3648681640625
-0.7600555419921875 -1.0158624649047852 -0.362518310546875
-0.84433555603027344 -0.9572601318359375 -0.424652099609375
-0.86556434631347656 -0.97852420806884766 -0.43731689453125
-0.77383804321289062 -1.0448384284973145 -0.370635986328125
0.54717826843261719 0.89359664916992188 -0.440887451171875
0.54431533813476562 0.96230792999267578 -0.449432373046875
0.53688621520996094 0.89534664154052734 -0.43194580078125
0.54265213012695312 0.82601118087768555 -0.42108154296875
0.55604362487792969 0.89236545562744141 -0.454132080078125
0.55438995361328125 0.96493864059448242 -0.460845947265625
0.53472328186035156 0.95835351943969727 -0.4407958984375
0.53276252746582031 0.83178281784057617 -0.414642333984375
0.55074691772460938 0.82182598114013672 -0.43560791015625
-0.616668701171875 -1.0338664054870605 -0.253082275390625
-0.61957168579101562 -1.0198531150817871 -0.25494384765625
-0.66695213317871094 -1.045379638671875 -0.2916259765625
-0.61547470092773438 -1.0467400550842285 -0.259674072265625
-0.56760787963867188 -1.0109624862670898 -0.21490478515625
-0.5733184814453125 -0.99912023544311523 -0.217803955078125
-0.666534423828125 -1.0304412841796875 -0.291351318359375
-0.66913795471191406 -1.0608401298522949 -0.2965087890625
-0.56340408325195312 -1.0237970352172852 -0.21923828125
0.50017547607421875 0.65094661712646484 -0.317626953125
0.51814460754394531 0.70420551300048828 -0.35845947265625
0.493255615234375 0.66663360595703125 -0.3134765625
0.47960281372070312 0.60332679748535156 -0.279510498046875
0.50598716735839844 0.63568973541259766 -0.33026123046875
0.52502250671386719 0.69165563583374023 -0.3707275390625
0.50994873046875 0.71683692932128906 -0.350616455078125
0.474365234375 0.62304782867431641 -0.276153564453125
0.48455429077148438 0.58612918853759766 -0.291748046875
-0.43647003173828125 -0.90045881271362305 -0.09521484375
-0.450408935546875 -0.8949885368347168 -0.10113525390625
-0.47650146484375 -0.94311189651489258 -0.136016845703125
-0.42588424682617188 -0.90671157836914062 -0.10076904296875
-0.40241813659667969 -0.85654306411743164 -0.065277099609375
-0.41843032836914062 -0.85406112670898438 -0.070465087890625
-0.48755264282226562 -0.93545675277709961 -0.138671875
-0.46814346313476562 -0.95122480392456055 -0.138641357421875
-0.38951492309570312 -0.85998010635375977 -0.069549560546875
0.47585678100585938 0.71212339401245117 -0.33123779296875
0.49041175842285156 0.75378608703613281 -0.364898681640625
0.47260475158691406 0.72353267669677734 -0.344482421875
0.46048927307128906 0.67541694641113281 -0.299468994140625
0.48087120056152344 0.69836568832397461 -0.320831298828125
0.49599266052246094 0.74212884902954102 -0.35577392578125
0.48568534851074219 0.7630925178527832 -0.376251220703125
0.45754241943359375 0.68935394287109375 -0.31304931640625
0.46390342712402344 0.65973138809204102 -0.28558349609375
-0.49059295654296875 -0.88741493225097656 -0.143707275390625
-0.50095367431640625 -0.88841772079467773 -0.1630859375
-0.52100181579589844 -0.92047595977783203 -0.177947998046875
-0.47771263122558594 -0.88889932632446289 -0.1287841796875
-0.46365928649902344 -0.8546452522277832 -0.11627197265625
-0.47634506225585938 -0.85728979110717773 -0.13714599609375
-0.52942466735839844 -0.91906452178955078 -0.196685791015625
-0.51069831848144531 -0.92373228073120117 -0.16162109375
-0.44973182678222656 -0.85362958908081055 -0.097930908203125
0.51253318786621094 0.90153741836547852 -0.437957763671875
0.51113128662109375 0.95603609085083008 -0.447113037109375
0.508209228515625 0.90486717224121094 -0.447357177734375
0.50951385498046875 0.84939670562744141 -0.422027587890625
0.51945304870605469 0.89902210235595703 -0.432220458984375
0.51734161376953125 0.95667266845703125 -0.441986083984375
0.50701904296875 0.9558558464050293 -0.45556640625
0.5042572021484375 0.85411834716796875 -0.431121826171875
0.5159149169921875 0.84409523010253906 -0.414337158203125
-0.62958717346191406 -0.99052524566650391 -0.28436279296875
-0.63296890258789062 -0.98618602752685547 -0.2977294921875
-0.6681671142578125 -0.99928855895996094 -0.315643310546875
-0.625701904296875 -0.99752092361450195 -0.27142333984375
-0.591156005859375 -0.97301673889160156 -0.249908447265625
-0.59678840637207031 -0.97018289566040039 -0.2667236328125
-0.67030906677246094 -0.9951171875 -0.32818603515625
-0.66690254211425781 -1.0067882537841797 -0.305450439453125
-0.58510017395019531 -0.9796452522277832 -0.235870361328125
0.46935081481933594 1.1097841262817383 -0.423736572265625
0.44469642639160156 1.1523752212524414 -0.4046630859375
0.46873092651367188 1.1029047966003418 -0.43450927734375
0.48859786987304688 1.0615510940551758 -0.438140869140625
0.47162055969238281 1.1183285713195801 -0.4156494140625
0.44553756713867188 1.1629853248596191 -0.394500732421875
0.44536018371582031 1.142998218536377 -0.41729736328125
0.48693656921386719 1.0569381713867188 -0.44757080078125
0.49303054809570312 1.0676393508911133 -0.43310546875
-0.7831268310546875 -0.96863651275634766 -0.40289306640625
-0.77892684936523438 -0.96770334243774414 -0.408966064453125
-0.81583023071289062 -0.94125890731811523 -0.426300048828125
-0.78868865966796875 -0.97389030456542969 -0.397125244140625
-0.74680137634277344 -0.98832321166992188 -0.375152587890625
-0.74447250366210938 -0.98547935485839844 -0.384368896484375
-0.80967330932617188 -0.9416193962097168 -0.432525634765625
-0.82467460632324219 -0.94432163238525391 -0.42193603515625
-0.74984931945800781 -0.99493217468261719 -0.368316650390625
0.35875320434570312 1.2261700630187988 -0.3458251953125
0.32972145080566406 1.2309298515319824 -0.3287353515625
0.36578178405761719 1.2141408920288086 -0.363128662109375
0.38844871520996094 1.2117462158203125 -0.364501953125
0.35319137573242188 1.2425680160522461 -0.331756591796875
0.32187461853027344 1.2470822334289551 -0.313873291015625
0.33888053894042969 1.2177443504333496 -0.3466796875
0.393035888671875 1.2003512382507324 -0.37890625
0.38481712341308594 1.2276816368103027 -0.350860595703125
-0.88089370727539062 -0.83271360397338867 -0.479461669921875
-0.87040328979492188 -0.83965253829956055 -0.482391357421875
-0.88802528381347656 -0.7945246696472168 -0.48553466796875
-0.89328384399414062 -0.82799863815307617 -0.47869873046875
-0.86598968505859375 -0.87213420867919922 -0.46649169921875
-0.85650444030761719 -0.87622547149658203 -0.470245361328125
-0.87671089172363281 -0.80231952667236328 -0.488555908203125
-0.901611328125 -0.78682518005371094 -0.48638916015625
-0.87729644775390625 -0.86906766891479492 -0.46533203125
0.26049423217773438 1.1733450889587402 -0.278594970703125
0.24388504028320312 1.1390538215637207 -0.261505126953125
0.27177619934082031 1.16180419921875 -0.297943115234375
0.27989959716796875 1.2022404670715332 -0.295440673828125
0.24841499328613281 1.1874303817749023 -0.2606201171875
0.23181533813476562 1.1510896682739258 -0.2427978515625
0.25552940368652344 1.1286201477050781 -0.2830810546875
0.29053497314453125 1.1892819404602051 -0.314544677734375
0.26912307739257812 1.2178206443786621 -0.276885986328125
-0.8618621826171875 -0.69374275207519531 -0.451690673828125
-0.85058021545410156 -0.70618486404418945 -0.4583740234375
-0.84159469604492188 -0.66760444641113281 -0.427734375
-0.87420082092285156 -0.68171977996826172 -0.451141357421875
-0.877471923828125 -0.72321128845214844 -0.470611572265625
-0.86534690856933594 -0.73408317565917969 -0.474884033203125
-0.83152389526367188 -0.68054914474487305 -0.433624267578125
-0.85357475280761719 -0.65517473220825195 -0.424407958984375
-0.89043807983398438 -0.71234035491943359 -0.472198486328125
0.21679306030273438 1.0420207977294922 -0.22198486328125
0.20384597778320312 1.0481362342834473 -0.20465087890625
0.21409797668457031 1.0126571655273438 -0.21380615234375
0.22866439819335938 1.0354495048522949 -0.242156982421875
0.22320175170898438 1.0715885162353516 -0.23419189453125
0.20969581604003906 1.0799217224121094 -0.216766357421875
0.2009124755859375 1.0186824798583984 -0.1961669921875
0.22624015808105469 1.0076828002929688 -0.233245849609375
0.23500251770019531 1.0641160011291504 -0.254180908203125
-0.78157234191894531 -0.61910820007324219 -0.350830078125
-0.76314163208007812 -0.61193323135375977 -0.329345703125
-0.79065322875976562 -0.60574865341186523 -0.34356689453125
-0.80116462707519531 -0.63074254989624023 -0.375091552734375
-0.77400588989257812 -0.63324975967407227 -0.3604736328125
-0.75571632385253906 -0.62540817260742188 -0.340118408203125
-0.77052116394042969 -0.59730339050292969 -0.32305908203125
-0.81114387512207031 -0.61740875244140625 -0.37060546875
-0.79253578186035156 -0.6448674201965332 -0.384246826171875
0.36348915100097656 0.50388288497924805 -0.138092041015625
0.36676025390625 0.47179031372070312 -0.1243896484375
0.3686370849609375 0.48165607452392578 -0.1732177734375
0.35754585266113281 0.52724170684814453 -0.152801513671875
0.35664176940917969 0.53800487518310547 -0.100616455078125
0.36225128173828125 0.51261568069458008 -0.075592041015625
0.36984825134277344 0.44559097290039062 -0.170501708984375
0.36472129821777344 0.51287221908569336 -0.18145751953125
0.34864234924316406 0.5558934211730957 -0.123016357421875
-0.34390640258789062 -0.66882562637329102 0.0048828125
-0.32959747314453125 -0.67529630661010742 -0.022705078125
-0.31729888916015625 -0.66192293167114258 0.024566650390625
-0.36959648132324219 -0.66456413269042969 0.0318603515625
-0.36576080322265625 -0.67205047607421875 -0.014984130859375
-0.35457611083984375 -0.67974376678466797 -0.037994384765625
-0.30072402954101562 -0.66500520706176758 -0.0145263671875
-0.34459114074707031 -0.65806961059570312 0.064056396484375
-0.3875885009765625 -0.66393661499023438 0.004302978515625
0.41161346435546875 0.50027227401733398 -0.223480224609375
0.41245269775390625 0.47360134124755859 -0.23248291015625
0.43363571166992188 0.52729988098144531 -0.23223876953125
0.41030693054199219 0.52888774871826172 -0.2239990234375
0.39164924621582031 0.48132658004760742 -0.213897705078125
0.39117813110351562 0.44753122329711914 -0.22320556640625
0.43643569946289062 0.50478792190551758 -0.243408203125
0.43123626708984375 0.5530552864074707 -0.23175048828125
0.38937568664550781 0.51405096054077148 -0.217376708984375
-0.33662033081054688 -0.73826122283935547 -0.043487548828125
-0.35105514526367188 -0.77356386184692383 -0.04107666015625
-0.31720161437988281 -0.73441219329833984 -0.048797607421875
-0.32716751098632812 -0.70841217041015625 -0.047149658203125
-0.35954856872558594 -0.74318170547485352 -0.050445556640625
-0.37148094177246094 -0.7757725715637207 -0.045501708984375
-0.33534622192382812 -0.77185249328613281 -0.045745849609375
-0.30290985107421875 -0.70115184783935547 -0.05126953125
-0.35277748107910156 -0.71447515487670898 -0.054168701171875
0.28208541870117188 0.71211910247802734 -0.00567626953125
0.29103469848632812 0.69890499114990234 0.030487060546875
0.31682395935058594 0.64613103866577148 -0.034637451171875
0.27358818054199219 0.71976232528686523 -0.037322998046875
0.24107742309570312 0.77469253540039062 0.023956298828125
0.25069427490234375 0.7605891227722168 0.059906005859375
0.32503128051757812 0.63067436218261719 0.00189208984375
0.30843353271484375 0.6549067497253418 -0.064300537109375
0.23115730285644531 0.78609561920166016 -0.0074462890625
-0.52374649047851562 -0.62439298629760742 0.03570556640625
-0.46195793151855469 -0.64349746704101562 0.046905517578125
-0.50908851623535156 -0.62645864486694336 0.080322265625
-0.58670997619628906 -0.59817266464233398 0.02392578125
-0.53388023376464844 -0.61875534057617188 -0.003662109375
-0.473358154296875 -0.63989496231079102 0.00830078125
-0.44378662109375 -0.64356803894042969 0.091766357421875
-0.57150650024414062 -0.60306549072265625 0.06982421875
-0.59856796264648438 -0.59078454971313477 -0.01812744140625
0.16645431518554688 0.93973064422607422 -0.162322998046875
0.1700592041015625 0.91321277618408203 -0.159698486328125
0.17832374572753906 0.93790960311889648 -0.166290283203125
0.16442489624023438 0.96974086761474609 -0.1634521484375
0.15725517272949219 0.94007730484008789 -0.16766357421875
0.15751457214355469 0.91574716567993164 -0.160980224609375
0.18254280090332031 0.91015863418579102 -0.166595458984375
0.17530250549316406 0.96711874008178711 -0.166412353515625
0.15543174743652344 0.96904659271240234 -0.17083740234375
-0.72247314453125 -0.53994274139404297 -0.26983642578125
-0.71871376037597656 -0.55362796783447266 -0.26654052734375
-0.70266342163085938 -0.54018831253051758 -0.254730224609375
-0.72379875183105469 -0.52654314041137695 -0.2796630859375
-0.74436759948730469 -0.54247713088989258 -0.286712646484375
-0.7399749755859375 -0.55710172653198242 -0.28125
-0.69854164123535156 -0.55418205261230469 -0.252044677734375
-0.70803260803222656 -0.52462244033813477 -0.26251220703125
-0.7456207275390625 -0.5299835205078125 -0.29840087890625
0.41086578369140625 0.60279369354248047 -0.2628173828125
0.42738151550292969 0.62131834030151367 -0.26531982421875
0.41325187683105469 0.61925745010375977 -0.280059814453125
0.39542770385742188 0.59199190139770508 -0.2650146484375
0.40852928161621094 0.58197307586669922 -0.24658203125
0.42695808410644531 0.60181856155395508 -0.24969482421875
0.42729568481445312 0.63673591613769531 -0.281463623046875
0.40026473999023438 0.60845756530761719 -0.285003662109375
0.39056396484375 0.57134437561035156 -0.243988037109375
-0.41885757446289062 -0.77088069915771484 -0.099761962890625
-0.43137741088867188 -0.78114748001098633 -0.1204833984375
-0.42819023132324219 -0.79517173767089844 -0.093994140625
-0.40154838562011719 -0.75983095169067383 -0.080169677734375
-0.41376113891601562 -0.75025653839111328 -0.112548828125
-0.42702102661132812 -0.76413440704345703 -0.131927490234375
-0.44199371337890625 -0.80308914184570312 -0.115264892578125
-0.41146469116210938 -0.78817033767700195 -0.07659912109375
-0.39790153503417969 -0.73582744598388672 -0.090087890625
0.36401176452636719 0.59843158721923828 -0.27288818359375
0.3558502197265625 0.60971355438232422 -0.273834228515625
0.35326004028320312 0.58415508270263672 -0.25018310546875
0.37225341796875 0.59017610549926758 -0.271820068359375
0.37420845031738281 0.61390876770019531 -0.295257568359375
0.36839866638183594 0.62364339828491211 -0.2952880859375
0.34284782409667969 0.59781217575073242 -0.25030517578125
0.36305809020996094 0.57202005386352539 -0.248291015625
0.3816375732421875 0.60649442672729492 -0.294769287109375
-0.42807769775390625 -0.71427583694458008 -0.142669677734375
-0.41810798645019531 -0.69537258148193359 -0.12432861328125
-0.43930244445800781 -0.70710420608520508 -0.1512451171875
-0.43848609924316406 -0.73497676849365234 -0.161285400390625
-0.41955375671386719 -0.72271060943603516 -0.13427734375
-0.40681648254394531 -0.70292758941650391 -0.114654541015625
-0.43110084533691406 -0.68501996994018555 -0.135009765625
-0.44822502136230469 -0.72891330718994141 -0.16802978515625
-0.43095207214355469 -0.74157571792602539 -0.15350341796875
0.33014488220214844 0.64922237396240234 -0.286407470703125
0.31660079956054688 0.64379072189331055 -0.274078369140625
0.33894920349121094 0.63694334030151367 -0.280792236328125
0.34233856201171875 0.65945196151733398 -0.296783447265625
0.32308006286621094 0.65925979614257812 -0.292022705078125
0.31132125854492188 0.65724420547485352 -0.28436279296875
0.32432365417480469 0.62893152236938477 -0.261444091796875
0.35176658630371094 0.64813995361328125 -0.296112060546875
0.33344841003417969 0.66687536239624023 -0.30126953125
-0.47470283508300781 -0.68600177764892578 -0.190582275390625
-0.46287727355957031 -0.69336318969726562 -0.17584228515625
-0.47328758239746094 -0.66680526733398438 -0.185577392578125
-0.4844207763671875 -0.67915582656860352 -0.204559326171875
-0.47939872741699219 -0.70432043075561523 -0.196197509765625
-0.4698944091796875 -0.71339225769042969 -0.185272216796875
-0.45921897888183594 -0.67091226577758789 -0.164306640625
-0.48383522033691406 -0.66335582733154297 -0.2047119140625
-0.48780059814453125 -0.69483423233032227 -0.207489013671875
0.27821540832519531 0.69814491271972656 -0.246673583984375
0.26641654968261719 0.73290395736694336 -0.24176025390625
0.27559852600097656 0.69340133666992188 -0.2242431640625
0.29072952270507812 0.66922140121459961 -0.25311279296875
0.28039741516113281 0.70555639266967773 -0.26373291015625
0.27222824096679688 0.73704719543457031 -0.2584228515625
0.26077842712402344 0.73030614852905273 -0.218994140625
0.29141426086425781 0.65836429595947266 -0.233428955078125
0.28992271423339844 0.6796422004699707 -0.2694091796875
-0.52075576782226562 -0.62790155410766602 -0.199920654296875
-0.51706504821777344 -0.62205600738525391 -0.179168701171875
-0.54903411865234375 -0.62149572372436523 -0.2099609375
-0.52599525451660156 -0.63352727890014648 -0.21893310546875
-0.49620437622070312 -0.63712024688720703 -0.1903076171875
-0.48681449890136719 -0.63479328155517578 -0.169189453125
-0.54922866821289062 -0.61242961883544922 -0.19329833984375
-0.55059242248535156 -0.63009977340698242 -0.22686767578125
-0.50454521179199219 -0.64025783538818359 -0.209564208984375
0.23884010314941406 0.82680797576904297 -0.22247314453125
0.22653961181640625 0.82807540893554688 -0.20367431640625
0.24694442749023438 0.79856491088867188 -0.228302001953125
0.24907684326171875 0.82704591751098633 -0.239990234375
0.23156547546386719 0.85256862640380859 -0.216156005859375
0.21913337707519531 0.85389852523803711 -0.19866943359375
0.23630523681640625 0.80085659027099609 -0.208038330078125
0.25628471374511719 0.79902553558349609 -0.245330810546875
0.24287223815917969 0.85291910171508789 -0.233154296875
-0.62345123291015625 -0.60655593872070312 -0.240753173828125
-0.60099983215332031 -0.61101007461547852 -0.231689453125
-0.62774276733398438 -0.59346485137939453 -0.22930908203125
-0.64426994323730469 -0.60342741012573242 -0.249664306640625
-0.62107658386230469 -0.6195368766784668 -0.2520751953125
-0.59956932067871094 -0.62264490127563477 -0.24359130859375
-0.6052093505859375 -0.59770441055297852 -0.21759033203125
-0.64786529541015625 -0.58742046356201172 -0.23907470703125
-0.64154052734375 -0.61730003356933594 -0.2598876953125
0.21680259704589844 0.93171310424804688 -0.204498291015625
0.20391273498535156 0.93239355087280273 -0.189056396484375
0.22049713134765625 0.90490150451660156 -0.20623779296875
0.22891616821289062 0.93029546737670898 -0.22235107421875
0.21443557739257812 0.95842742919921875 -0.204071044921875
0.20093154907226562 0.96133899688720703 -0.18804931640625
0.20733070373535156 0.90641498565673828 -0.191436767578125
0.23225593566894531 0.9044184684753418 -0.22540283203125
0.2262725830078125 0.95560836791992188 -0.2239990234375
-0.70488357543945312 -0.60036182403564453 -0.279815673828125
-0.68453025817871094 -0.59994697570800781 -0.268035888671875
-0.70964622497558594 -0.58464288711547852 -0.271575927734375
-0.72438240051269531 -0.60244989395141602 -0.294525146484375
-0.69977951049804688 -0.61490535736083984 -0.290924072265625
-0.68133926391601562 -0.61481285095214844 -0.278106689453125
-0.68852806091308594 -0.58457374572753906 -0.260711669921875
-0.72976493835449219 -0.5875248908996582 -0.28594970703125
-0.71899604797363281 -0.61643505096435547 -0.303253173828125
0.18706893920898438 0.85808944702148438 -0.132080078125
0.19913482666015625 0.83712148666381836 -0.12200927734375
0.20269966125488281 0.84413385391235352 -0.157958984375
0.17941665649414062 0.87525367736816406 -0.144195556640625
0.16632461547851562 0.8766779899597168 -0.100738525390625
0.17917060852050781 0.85959863662719727 -0.082275390625
0.21308517456054688 0.81923913955688477 -0.1571044921875
0.19414520263671875 0.86526393890380859 -0.162750244140625
0.16035270690917969 0.88748836517333984 -0.126861572265625
-0.66167449951171875 -0.55244827270507812 -0.19189453125
-0.64608573913574219 -0.56586694717407227 -0.204071044921875
-0.64386940002441406 -0.56335830688476562 -0.168914794921875
-0.68242645263671875 -0.53387928009033203 -0.1798095703125
-0.67459487915039062 -0.54501056671142578 -0.21441650390625
-0.66325759887695312 -0.55950927734375 -0.220733642578125
-0.62529945373535156 -0.57453012466430664 -0.18707275390625
-0.66764068603515625 -0.54757165908813477 -0.148193359375
-0.68968009948730469 -0.5263371467590332 -0.2100830078125
0.26617622375488281 0.70569896697998047 -0.13616943359375
0.26543045043945312 0.71618938446044922 -0.10162353515625
0.29210090637207031 0.65412187576293945 -0.15228271484375
0.26936912536621094 0.69798946380615234 -0.170013427734375
0.24048423767089844 0.75920486450195312 -0.12567138671875
0.23127365112304688 0.77680683135986328 -0.08453369140625
0.29491424560546875 0.65772485733032227 -0.120880126953125
0.29290580749511719 0.65122318267822266 -0.181976318359375
0.24740982055664062 0.74400806427001953 -0.16082763671875
-0.52777290344238281 -0.61134004592895508 -0.102325439453125
-0.48102569580078125 -0.62904071807861328 -0.086334228515625
-0.53474044799804688 -0.61218500137329102 -0.071990966796875
-0.57546424865722656 -0.59454250335693359 -0.12261962890625
-0.52040290832519531 -0.61432361602783203 -0.13067626953125
-0.47923851013183594 -0.62946367263793945 -0.115325927734375
-0.48157882690429688 -0.63156700134277344 -0.0560302734375
-0.59096336364746094 -0.58767938613891602 -0.092559814453125
-0.56177330017089844 -0.598724365234375 -0.1488037109375
0.33788681030273438 0.5671238899230957 -0.1866455078125
0.34374046325683594 0.55717802047729492 -0.1785888671875
0.33989906311035156 0.56589746475219727 -0.20367431640625
0.32906532287597656 0.58164834976196289 -0.17840576171875
0.33416748046875 0.57524633407592773 -0.15777587890625
0.34943962097167969 0.55154228210449219 -0.20001220703125
0.32783317565917969 0.58424520492553711 -0.199920654296875
-0.40427589416503906 -0.66350603103637695 -0.0689697265625
-0.40387344360351562 -0.66640615463256836 -0.084259033203125
