# XYZ point cloud file
0.82106008740561265 1.0837182603386282 -0.3552594491588934
-0.9022231350702441 1.3930057867939922 -0.3367164398150635
-0.20273429451572156 1.6207250717509396 -0.28217780062732345
0.073416654567154183 1.1338221572004841 -0.69576943701849814
-0.70743377557641907 1.1907289197665705 -0.26578727155720117
0.36719738595434137 1.8636929558581414 -0.52089883826511141
-0.017127423772308248 1.674069544180611 -0.43538663421441015
-0.41730830522374163 0.45369025930676798 0.42705492011418755
-0.94137971255236153 1.3045031284897277 -0.1716610006146766
-0.11789631146848478 1.5452949597001862 -0.56407245716081889
0.67216774815324243 -0.29305030166386814 0.11470609949719801
0.71516922095725022 1.1476733971113617 -0.1552050279674404
-0.043081533637632674 0.25588939821523127 -0.065076548091383302
-0.50697613558372723 1.3805567950744262 -0.05616888485610616
0.7802044591419417 1.0997571199735603 -0.30414797383718906
0.020064940292741085 1.0795990726622904 -0.51907697663500585
-0.81775431947471589 -0.1992523101862389 0.058148739425178064
0.053146114704759384 0.79554499807079537 -0.25526666977384593
0.42944655010319366 0.89635490645548543 -0.12503571990964701
-0.78389300799835837 0.089652877225589123 0.26463772767965565
-0.52785419303563685 -0.98625875829088727 0.35149249456299003
0.32117436081216511 0.22232590621507597 0.012430757750280463
-0.73452039869152941 1.3025708117606882 -0.18254884296447926
0.95871477929358662 1.2648987727428675 -0.43780546726566172
-0.81888082934119666 -0.25739779778021443 0.080503830999532511
-0.63767751585828591 0.31194064446805214 0.36056122845820937
0.85703446758657265 1.0455763576284198 -0.35435280905539912
0.28138077740914014 1.4943320965271596 -0.18611719190539588
0.29653855748347269 -0.13484933121276299 0.36859140672277135
0.36387689701496129 -0.96951985014311504 0.24025567390162905
-1.0935424864549077 1.5644894053502867 -0.7268140536075407
0.039531270439738364 1.2298479743285498 -0.90490989174168135
-0.95892860817639303 1.4408952573742226 -0.43436099741256839
-0.30946883257388436 1.3472127474290119 -0.33495195197929206
0.3854024357669914 -0.24134102430591042 0.048692751030557702
0.45204952769563533 -0.5935444604672 0.14010748736427558
-0.90007464076597898 -0.99958500768741487 0.22297842563011727
-0.24424375743046767 0.35591493919196182 0.56030717446265044
-0.14068344586121384 0.10942800763891114 0.1434519698323129
-1.215788854017319 1.2964482585521182 -0.90795175323819421
0.1222610515139877 1.6282006496239774 -0.46741485367829227
0.55830275710968635 0.26311891839026202 0.32878510691989504
0.98860366784788312 1.5951822865545182 -0.43048234582647638
-1.1105769182804579 1.5700523557985662 -0.73436466592875149
0.37466141385948504 -0.38135421886511267 0.41639044401836145
0.40796628123871415 0.027819906297168018 -0.03318176669836248
-0.71210796430659684 -0.89165332785648843 0.12833343830152444
-0.0014950670001780964 0.12276307356046345 0.10053841951048526
-0.18239515486584423 1.8034721573494608 -0.48584001661902221
-0.28935996912014161 1.3869409214366897 -0.40464672421194336
0.88404031074014711 1.324537925704135 -0.33673597480128592
-0.17009479498733526 1.2706006226071622 -0.58479261721458897
0.99643473364585589 1.0154790645513003 -0.15958840666098695
-0.33985659221980313 1.5083765825470437 0.58137609368850462
-0.1912162845471812 1.1341469421647616 -0.27301607715980936
0.33167483685838306 -0.35296189831953484 0.25525269467379985
-0.64882019476772257 -0.41912996878534159 0.39401389722524982
-0.82553829117932764 -0.93089873997951145 0.3360820702514502
-1.0357913753446155 1.4690584076631694 -0.58948034227614698
0.46077746912169459 -0.94653877070385306 0.56218005393384374
-0.081494783255948278 1.6608998017036356 -0.44404394016601145
0.45669259215492275 -0.041525411604396822 0.47181108709401087
-0.63162234353012536 -0.40895878000506514 -0.0044288437029535999
0.2758240606194704 -0.15119764419466719 0.14337782592929216
0.042672500264416158 1.1173545931033004 -0.38913085704007244
0.15736043648394116 0.023085133665261992 0.1690655599263664
-0.28578858312675948 0.73558729396074796 0.53734233448312807
0.53048155849182876 -1.0123344397824212 0.48346884298825898
1.0611388053916926 1.0666443544204185 -0.33486880623013349
0.19821045251478608 1.3173054555704766 -0.39784665311890421
-0.64007949718370583 -0.36660432062717518 0.37436592555013704
-0.81008359739598745 0.026232240730735157 0.18333493623185859
-0.11651724431931143 1.3120833340715308 -0.63977922972117085
0.94308552029451675 1.0037070193843647 -0.12753539760433341
-0.68665782171228784 -0.37873253549241781 0.38292093512154679
-0.64705087628180991 1.0711920515914244 -0.2464087101379846
0.33694035706821523 1.7754998979555694 -0.44771416657431473
-0.8847962972699861 -0.94523375764276807 0.20099453047714633
0.10792799672162801 0.095854621519265493 0.098719654469277884
-0.94158038430396118 -0.99978054491089097 0.10896267117095704
1.214332857348154 1.5718451931077198 -0.63419756042321751
0.29916477233882688 1.2514656578757695 -0.19176097318086249
-0.75801333085291844 1.192066829891246 -0.30982601895539119
0.53442460341648257 -0.76879008462481124 0.53941285606742895
-0.80290946679042463 -0.5349621982776398 0.14883076435626208
0.80873810420052905 0.91927024536448698 0.0037123560223335517
0.43813009767382027 -0.16007350762336614 0.41437052957917331
-0.50527896060202693 1.3110506726350195 -0.15587618410700088
0.57546242905686995 1.2189394338312241 -0.084329521778727212
1.1164765332737261 1.5830055381536567 -0.38125646234584565
-0.3990566437742018 -0.16750655676543147 0.18267702104594719
-0.68818839037521684 1.1714733457879447 -0.26275455559289185
0.42592506357141247 0.32731267056101387 0.34103178190116523
-0.83488768671986691 1.3695752743815319 -0.47860954015050083
-1.037119398246432 1.5456790306420771 -0.72294442192287534
1.1602918791606953 1.3205553968346067 -0.5919463930740676
0.95596585364182829 1.4424933694641595 -0.4111106609611852
-1.0067934537571546 1.3531221021301008 -0.69295814986935511
-0.37848653674495836 1.2983457734155763 -0.28009917000190399
0.21159872528164669 1.4675735350162995 -0.45731099992190138
-0.25808845296910476 1.3827930870322689 -0.48422728573950735
0.047653420554070181 1.1079394158246032 -0.81382667206844417
-1.2142409702430541 1.143668425816827 -0.54531528935604001
-0.044176913974297349 1.2949607705750168 -0.76256192259052114
0.37122307227855345 0.47838034267874718 0.22167474081606997
-0.50195236674449006 1.2621519560941579 -0.1867914008948901
-0.4556753215633762 0.80187179538756936 -0.052276692433224525
0.16172391663030794 1.6448552462873067 -0.26752122767538822
0.2587684596580857 1.4227121783428629 -0.36729978940729779
0.032414723746569507 1.6888576913297584 -0.23604943790178368
-0.59708505432035963 -0.72643232583163808 0.43640251775468641
-0.13574024878471391 0.064437734604240404 0.22853259198745945
-0.81063482469517112 -0.13405101029776745 0.12329627770259322
0.64127463886825353 -0.56481300340334428 0.44124073084503834
-0.75823051162751653 -0.62817523222815908 0.10430525884657982
0.59726527666816764 0.14698438188759155 0.11078527659310566
0.61156366010254715 0.095105094067150731 0.39706021422352933
-0.55633112248733596 -0.37482930523867708 0.35584398193259403
0.75458903168100733 1.2272903185714767 -0.25268430801770592
0.31328295371304193 -1.017326655906345 0.61266490762818648
0.37219630627623701 0.26070605588245144 0.46321452866231994
-0.21663485787667014 1.2883823167544506 -0.53445592354955807
0.32394836696494167 -0.7875323903636513 0.5269961869553299
1.1148595973479587 1.5413351223879772 -0.35309098867128341
0.14072940770279274 1.1660161397787761 -0.67136410157445425
-0.43715961098087064 1.8825674266572605 -0.55852544801837212
-0.83859022780870873 -0.9768215114013401 0.3382605959573084
1.1417069281324075 1.2665417681528197 -0.48227121286981856
-0.47416364712717041 -0.31851268342873595 0.13871019895395875
0.042981923961633584 1.5029025653784629 -0.58360180060526545
-0.0089602285700038919 1.1090230225184996 -0.39243530644125713
0.024004137526389968 0.14884668380670973 0.063007264683164976
0.35339161380920814 1.7199978941414429 -0.39560276964812147
-1.1817408306487778 1.1876036095382005 -0.89857505561258222
-0.67844270860769029 0.95587103724301414 -0.17066493157471996
-1.076088255234481 1.5822692063070463 -0.75045059772719469
-0.32421086047270364 0.66464478807745309 0.51127111950336257
-0.4053021902132059 1.8618195497381294 -0.56912609179653373
0.34001770193958691 0.82799633295769581 -0.1885808009651555
0.6582564104287485 -0.46984615251847117 0.33414821408950957
1.1055603750653518 1.6660719848327972 -0.47972019353574069
0.10205812131562197 0.56865063627935797 -0.12044861903086712
0.31961817937235537 1.6346936136578734 -0.38484941003571294
0.085192078724503517 0.82019051883025895 -0.28201770496571044
0.095860529738274636 1.15662481804668 -0.38358103082828165
-0.28366847375764337 0.077859933057283115 0.063567104077264958
-0.91512814119801078 1.3595124215285068 -0.24943184513404049
-0.78158839702882688 -0.23569020874052171 0.20236778971820968
0.172359618406972 0.49750103097881038 0.61380753309549618
0.032826431015109847 0.78911760033440714 -0.22613877550111283
0.28944755892416651 -0.42108864577679128 0.22087229166436373
0.1531213923371979 0.017957058703757411 0.29862591241999326
0.6426277828622915 -0.21956236310612098 0.20061671571966144
-0.0094235662775190576 1.1066395001777209 -0.3573950023605903
-0.56992047414814806 -0.56689857528340326 0.073265245931906975
0.10851829821012871 0.46047075905869406 -0.062093208130590938
-1.125661384404566 1.5245080313094377 -0.67488997674990969
0.3028847535974819 -0.84360006193219306 0.43127100868923662
-0.3660142079115758 -0.17163727036542298 0.19641346534672266
-0.28888888437450078 1.4203164409830151 -0.40617184667689799
-0.23798962312912408 1.4483052309210507 -0.48431706014434894
-1.2222308884533959 1.402406520120735 -0.7097161246797441
0.58124909664229563 -0.51405999621337628 0.50523458539328203
0.55161504785019133 -0.7604843641705088 0.27121686249165577
0.49641907727755097 -0.91263648966236133 0.15525864330629702
1.1157571962614838 1.1433077561197251 -0.029801148557453416
0.0057449599103165383 0.15943958553998527 0.001302975712405896
-0.81698508120143742 -0.53253851909744299 0.32724431705446477
0.97205882592652415 1.1478546722713645 -0.48612499693535938
-0.79701481688152853 -0.26893445953555783 0.19003598778272135
0.31717633171069792 1.8893963614812037 -0.52519224526349717
0.58064752021073218 -0.62425678192136047 0.16694812538980841
-0.80822907716674308 -0.17097232253601646 0.14069691760960268
0.26128370851483851 1.6590007982365478 -0.33895603749760994
0.25185336652521073 0.31078033361870894 0.52132550293299573
0.27540523032166675 -0.45894358981524874 0.27894603245795224
-0.40117712170012965 0.22077830014293909 0.51872536124392354
0.59435667028037642 0.19023449083783817 0.16469244623385748
-0.17794875929212139 1.8522125008959165 0.05028165877547508
-0.46769771683239014 -0.33119520539693781 0.11674694311341227
-0.16030284009866591 0.67381596048630854 -0.15453702271224756
-0.34354379476985741 1.3500902184841834 -0.29621265094101545
0.25125894201073606 0.46142564213465675 0.54793366857984438
-0.44280533109463249 1.8892785222249131 -0.56749921982327578
0.40190188937685889 0.29698348349285197 0.41083967356826179
0.051782200680918322 1.1968374322250384 -0.94664658018336922
0.62368897512124022 0.013781740986388513 0.37973993032301223
0.23342089037350888 0.58366596330984066 0.58481089651240836
0.5401308546531709 1.2040044765774383 -0.092605916264346888
-0.36004148110168899 0.75473714884526544 -0.15938280924774517
0.2057628732000012 -0.0021006536376830809 0.11215960237359468
0.80625404681427426 1.2784215650034412 -0.076546587090888352
0.60438305652223789 -0.9529612530598115 0.4012209568468279
0.86039618182871891 1.3926855507529581 -0.32539203226315294
-0.66285449348174552 1.1780923140900086 -0.23893326410598092
-1.0071008114646247 1.4715318762122251 -0.65769639919517431
0.72759470474966292 1.2500299076129977 0.016728921169033129
-0.038466573954337946 1.1622146889924352 -0.89042385650782307
0.4098365734375875 0.2785175592740643 0.41746886776854808
0.60427158241145662 0.91429129697030476 0.18052342602049976
-1.0229051543819878 1.3751325260211615 -0.73174436889939898
0.25375252690992056 0.44056580521805699 0.019188251801551814
0.029974034013548589 1.0261712394011511 -0.27849095301280613
-0.53327711548990919 -0.30480335849350126 0.046529580364222056
0.47591366377309896 0.30821799835501906 0.33248830675438512
-0.68538932085175475 0.94601422726134388 0.098184573627804639
-0.2901152760059631 -0.0076869299869315455 0.12799779214128648
-0.51035654267798236 -0.84854695775959499 0.30798486864614461
1.2419308137971257 1.4035204898418669 -0.47491620635219078
1.1100418970227111 1.5945341079270747 -0.3918206499970438
0.21239054579473304 0.59081630121022499 -0.051590979238426371
0.15065229842639383 0.050980911330640311 0.1489483890700285
-0.79830805104711544 -0.084043612806468104 0.049588892520205263
0.58409975845142981 -0.87884638368484502 0.39214868374801881
-0.40732926726082042 1.8115519538082481 -0.50832852545863716
-0.55540811256514644 -0.23307383352299382 0.025332228507068066
-1.2384113472944591 1.3469195844973001 -0.5154887759608755
-0.0080892888399830554 1.2590808233771895 -0.87377492017185432
-0.37370733095940523 1.918205812386077 -0.55881377834975865
-0.77890775536297951 -0.648248746749573 0.18941363839076075
-0.33024038514486165 0.49327586454211314 0.056184718623171648
0.19194752369276102 -0.039689449867267967 0.1863643502888408
-0.88001305995521761 -1.0003630053083725 0.26038149450232595
-0.1854819314805809 1.7846293828022226 -0.53911704567826746
-0.81957778245123336 -0.60334875670548627 0.32330157183469055
-0.94543766206425062 1.1890638553738881 -0.57919464401948062
0.39969459389976691 0.34748904309168438 0.08712111008935608
0.01585141833788839 1.0970594159640541 -0.46864806609346488
-1.2132303462199161 1.2798358879791749 -0.63883266949233075
0.8673057985001833 1.4102841641233681 -0.20373944828634194
0.21591846811111282 1.2430401239760158 -0.23618189258604616
-1.2243687771645 1.1627827306056133 -0.52890272735839972
0.66779263966009239 -0.93522766234013943 0.30606066116115471
0.33883592279971708 -0.21665653365789694 0.09140494672146815
0.86482374771230752 1.4424560542190648 -0.3364072333220065
-0.27208640772551007 1.6070071495453249 -0.42311204213410747
0.47790207758089309 0.85079405572162159 0.19404970729101478
-0.75330308956108638 -0.80403157408363768 0.20325105720849024
-0.0417335026559158 0.76732756384865297 0.64912830500225027
0.40259819071297898 0.74823831176399835 0.19145473323942497
-0.27473493007073557 0.096831889546990624 0.068086501189554838
0.18276551278813713 0.63104368737765526 -0.11430406032468454
-0.8140533757018602 1.3115962701580202 -0.4568636690155472
0.26601710241038745 -0.99505626637699152 0.43424849356597406
-0.0066804337914163625 1.7047790483115932 -0.28226642811114289
0.44935286020154308 0.30006952412156807 0.36988988520579369
-0.73268096905758284 0.20185722969912945 0.24522392565586415
0.2680893962619848 1.7777379631729673 -0.52209412669117228
0.32081499446712769 0.27605510231819608 0.4900865360550597
0.36858064288071546 0.59917308498859256 0.20883687329660461
-0.96222166118423047 1.4511195882814718 -0.58556514636666179
-0.53793708045623134 0.33871403908898401 0.38986723871767026
0.33331573335772191 -0.87449804875217296 0.35378469642728305
-0.071154331104935409 1.0930250615298291 0.7470874967234522
-1.2252191587317611 1.3884383617693175 -0.48098811130557806
-0.61602767511294587 0.25483358069223527 0.077824566858453181
-0.012751806887081329 1.0899377469348792 -0.50381948054518944
-1.1491643045101227 1.0968682372612193 -0.34679414397032815
-0.82019717371849765 -0.88719243979494422 0.34333509430553022
0.021443581732455641 1.1107363399548831 -0.41588615124874195
0.45039123010064941 -0.97636336414268499 0.57599261964560355
0.31428111282502869 -0.3777418955982057 0.25880457422999825
-0.065420038084084808 1.4525379262895513 -0.63424983084041742
0.11632560272073533 0.73483926368783159 -0.19726723712574312
-0.37707380261235812 1.3158706471040205 -0.27720798667814961
0.46888658452166965 1.4283963291404689 0.13837181830149348
0.28201775621982961 1.2550177392649857 -0.19446782756722314
0.36906252471362677 1.1207420813041153 -0.18599335780027104
0.2817557295397819 1.13109667212359 0.6571990790680502
0.19430989554507505 0.96177111875897481 -0.31176343491870284
-0.54140882482761299 -1.005658358589244 0.34020381996106153
1.0682292892699934 1.1052543129864034 -0.40728728318026697
0.25305662179903265 1.4544571015262591 -0.3764841155079921
0.36002416907376755 -0.98361308115852353 0.61677711864831508
0.73694754022130837 1.244053727459459 0.0059307852543497575
0.64370375631870047 -0.65038558539282576 0.40125579375126108
-0.10621914705984636 1.3055599324172817 -0.69653521772579552
0.32182325480835061 -0.38802201752214671 0.20072546922483525
-0.88452228637765984 1.3875348016060798 -0.5916647220624327
-0.46299037174821933 0.40580776599779256 0.38521392129314336
-0.68458251485071742 0.92555940768988876 0.039085611059817893
-0.17410626549053632 0.66846459469866204 -0.13991616064276968
-0.016371898669831353 0.96759400759162872 -0.26187521847941753
1.1019301691326291 1.2929598567569656 -0.53630318143132172
0.23532121574294251 1.5480500795783882 -0.41860741593063722
0.35883277401489977 -0.78442142025539852 0.29099672224856477
-0.8091538154326372 -0.11885217585120245 0.094574462385025981
0.23645340543225757 -0.11098931330474215 0.21942096305701853
-0.81493968554013918 1.0258002815141936 0.11600183467362513
0.40067488769659576 1.3494097365726248 -0.17111382332359426
-0.44806753530610877 0.45630376676865581 0.23745810713126048
-0.11303544789006992 1.2029904459000136 -0.84167853005237703
-1.0649772791782652 1.2274113080097777 -0.73159223071843371
-0.075158103977628343 0.12229628164985229 0.14982870722315056
0.98343033018886672 1.400107315988862 -0.4401582959640109
-1.2061033544773636 1.2154089222749462 -0.7016301003263834
0.0062872935241102823 0.94590756607215098 -0.26861672235281731
0.38048878437439271 1.3896614998834593 -0.11246579025782921
0.52164563005362652 -0.84942961775846015 0.51284860026271417
0.88446414345344238 1.3875376697390038 -0.12019169669883922
-0.81830771896557053 -0.24078725733960482 0.064112539706457028
1.1191854621854418 1.1172105665501704 -0.29507742094028799
0.22207343838181259 -0.070097726617376566 0.30795451008179953
0.045752681456178834 0.066945698400786569 0.2161397274603587
0.42602219321861412 -0.20738174502858442 0.39196024102830052
-0.2426085050524307 -0.024442938699650085 0.21887710990449705
0.03962365003371815 0.25906520910075415 -0.048341642830109777
0.17958549294235127 1.6869859372022802 -0.1667128099288675
0.63775960988277802 -0.12730703638146679 0.041173431555762363
-0.53213638599299884 -0.2901754921242059 0.044476602934537368
-0.55253176903670465 -0.69429850425376571 0.12625825460236229
0.33380184837142224 -0.43712729250734128 0.42370670311765934
-0.86514654484244602 -0.98661231392168247 0.28203938603110146
-0.937387563471475 0.99729505933783003 -0.20483555810596954
-1.0953583236150735 1.0450509112490636 -0.41659101752520655
-0.015461783334330903 1.1712961839916716 -0.92733545776854953
-0.22477643029242245 1.5067435784510508 -0.47623167656820442
0.10953157308176742 0.81649116383948694 -0.28339503802135368
0.32252089836310915 -0.12297016447320175 0.4002553831746809
-0.2621689271404648 1.0460447225351572 -0.27874659956523828
-0.5495055876663173 -1.0420931111787013 0.16037756773630463
-0.10081407944744569 0.62515008330200317 0.62864639181407256
0.37480524559305195 -0.69102075385285389 0.21169375177896654
0.61845783813214439 -0.50137032353001132 0.47177456020517639
-0.055411249919870897 1.1855601085628678 -0.89175704490162389
-0.79687549699110605 -0.034427582889009045 0.2488257788509145
1.1196977046176926 1.4493260776038142 -0.3009336959526081
-0.026759394200553288 1.0349494048937231 -0.27903234607856575
-0.065048303694766219 1.0763175337584698 -0.57460683960880488
0.21410237812301602 1.8277372514462513 -0.47457369055882737
0.18781382662064061 0.18141350008420432 0.010769106278075924
-0.38016923001327996 1.5019703014315837 -0.12140138544327783
-0.51353634782617519 -0.9779201992223534 0.39668528256879654
1.2031953133924844 1.5788016563753899 -0.61109526749396537
-0.70466351288905571 1.2705397909902558 -0.23307029177840377
-0.22619007461094043 1.8157268291754463 -0.57469413903345412
0.22466134083606448 -0.016439876735887538 0.095242075710302743
0.26867777797156123 1.6505564246324411 0.078335752379643964
0.98486568669568442 1.6094194891059033 -0.44728422382740973
0.87358626141372042 0.98613668641598906 -0.22109938911216886
-1.2671723681578442 1.2050755247458937 -0.46572324145699895
0.72161869444107651 0.97217326535189841 0.16451755250955102
-0.13983412997004052 1.1926333821686512 -0.58192902193877671
0.71613200102046903 0.9657539040725851 -0.17087510932287842
-0.28398449880569387 1.543310616287954 -0.1819632003357583
-0.36890365480894616 -0.17642579857631802 0.251999421326218
-0.36371930521136164 0.20142449739682888 0.021418587686639512
1.1216542864101484 1.1637531035702295 -0.43048139441407329
-0.46260533868144194 0.92526877587386025 -0.17910581121577707
0.23267800257190174 -0.083610990990280243 0.14942813439893143
1.2110085775470907 1.4897996501227908 -0.46388546572734413
0.26339930298445324 -0.15129666399710118 0.2098486832751405
-1.1125455564040294 1.1496335753010953 -0.66678164192080658
0.30520564525340887 0.29577085318192076 0.0053877483283031324
0.43662675475479773 -0.86056303310328985 0.24625043616924813
-0.29253394349052542 0.66314703936268415 -0.056153960048959561
-1.0035219726480591 1.081728302067404 -0.14215961257195886
-0.14896661315492565 1.8603162195696541 0.077337910709957214
-0.60263044634439211 -0.23103327809332086 0.30455449743567442
0.65609446718235631 1.020805572095469 -0.15722008507191276
-0.11768122139073967 1.246305816565382 -0.80776456914418304
-0.27083493586815166 1.3400608567744712 -0.44322012687280221
-0.77326333136534231 0.95452664334732162 0.071644025279056223
0.56100517364529878 0.95580435077260972 -0.10917649945258745
0.12878595940173909 0.71521363245005887 0.62738318170704588
0.63917063621329362 -0.94691151541837826 0.35422611034118745
1.1147542663641161 1.6325546125351593 -0.43701952039828029
0.19517149608418549 1.3161001942269195 -0.38031112431599468
0.25015775720021338 0.16386935207248143 0.51577981028367503
-0.48831142182461917 -0.32906386097226914 0.25812370583980737
0.10605509677725422 0.49907558865186274 -0.10464518955768654
-0.57802223895896532 -0.85360769003159476 0.44919418854578907
-0.30681889391780715 0.75730408488107059 0.52243776020213772
0.25517817516129071 1.3499853536625324 -0.35452317883255091
0.036573524932919099 0.079044492344678474 0.26508675375271196
-0.39542411113211529 1.8799649410643724 -0.60594989616765815
0.44977626513446012 -0.21011774119540405 0.38864498699558681
-0.54541943497042666 -1.0352438900117704 0.14094781681797031
-0.50957257591016969 -0.18655999196101902 0.036985004397138255
0.046908893937370522 1.1099714724849719 -0.48061274363226403
0.1705800612389794 1.4421995141005937 -0.62034972336732608
-0.02031111161750232 1.104630450846571 -0.34763466847016389
-1.0688558374758941 1.5291020533232995 -0.68493092711878489
-1.0317889696018483 1.5339070503957828 -0.7177074173400797
0.94308008545840494 0.99624405400516025 -0.29493395476993101
-0.41175482499329519 -0.10974307009040274 0.082892107766838308
0.35370488850458059 -0.365792280919365 0.15021492064852282
-0.80248061166412299 -0.093361151119921715 0.059741544439475547
0.29817282132921719 1.740764109678139 -0.37221736129777128
0.57641508078222614 -0.30378705568347186 0.34393355511701884
0.089526691819628468 0.054877723869481088 0.2093800026250392
0.14321856311084957 1.726060536096611 -0.43521774667851787
-1.2478790656177807 1.2388476480685995 -0.78759007944745463
-0.81797200885102939 -0.25380071927366998 0.012215917718094715
0.30161343328245493 -0.75780728822383026 0.50696061379812818
-0.043639887694780555 1.1196453826928519 -0.4096158268544059
0.31137325771669566 -0.84499182674971962 0.39845130543835694
-0.38786268175090299 1.4055250986820056 -0.17775067909406062
0.11299273776876362 0.50552986250386311 0.63001431417160347
-0.93628393883636818 -0.97507353405239883 0.13759371369224027
0.14403075008590349 1.7224023678666072 -0.44424381803310098
0.6046491127981426 0.19084899886308904 0.1938688008463032
0.55513139068261808 -0.13840582510400168 0.39386301092099529
-0.085339278857645695 0.14788726763083559 0.029885663053846656
-0.089381444975515478 1.4903548470008445 -0.58845713322898519
0.67009080515890673 -0.28883775608531437 0.064954076823141804
-0.0032431227195957035 0.32400850929656144 0.59990474815685957
-0.36084990629751701 0.026623791198915114 0.020921714187807083
0.48963310268663918 -0.89914906497853053 0.1532328848625184
1.1849537538980712 1.3388167957022006 -0.61942981862148372
0.70220840172305543 1.1774927888168349 -0.15173632396090397
-0.13478926614016018 0.72225913596884084 0.65486400261715971
-0.6512877375739663 1.0352584264047664 -0.23015368403594039
0.63919670172754195 -0.397735621099784 0.3059198078258305
-0.068111207794572692 0.11925344906183 0.14652051426764956
0.19733839884020199 1.6360156516875577 -0.4597430527396682
1.0167369910568596 1.5198365528616478 -0.51636237439834076
-1.0591712242357971 1.5170793574358186 -0.84244419267952253
1.0480609460107644 1.0591078760812707 -0.35345389898202484
-0.78192801973318637 -0.12197051714707641 0.22252404347409538
0.85257926918734483 1.3739778409687915 -0.13380863688325917
-0.39276905981705568 0.94717648498306062 -0.27145485228993493
0.14895478906123572 1.2449985602488596 -0.42346970772769055
-0.91327913943973726 1.4230367150029224 -0.59214432853650578
0.55879751759630381 -0.40179521697626797 0.48964457576630593
0.26256619958257943 -0.66723990776910114 0.3533546686662703
1.1619673501932084 1.3280825273723167 -0.62937907040350183
0.53997098278591693 1.1920995070141771 -0.100141636450644
-0.30991808555108946 0.74490819095058214 0.51328764471145405
-0.81026957797757859 -0.30022742416781512 0.053623016478013596
-0.40777957922864516 1.6188695897446905 0.11339926812388512
-1.2003578985863896 1.4237242507849714 -0.85144469313172522
0.25068074467731094 1.6526557786351077 -0.33291375175804205
0.34185830812407403 1.3800527259597857 -0.23301594855092844
0.44558280270166506 -0.57897785100226429 0.1248511501989924
-0.87142222306215444 1.0911242578927158 -0.46996790290450008
-1.2127765906618606 1.4074790434084434 -0.46737502357655103
0.13734617707132202 1.13864508579627 -0.27421891845278878
0.1906701812645224 -0.043003794568733156 0.30608885299761823
1.2043693782675291 1.3865608894608386 -0.7153426879744984
0.62122794203332887 -0.25666005690044358 0.25611021409395107
0.020097360506269979 1.3874920852233572 -0.67630986670519633
-0.83832847266057797 -0.92492401847448491 0.29860396109461362
-0.39053009343342637 -0.14085314415085293 0.3422540908445626
-0.71194826492865104 1.3171137966681954 -0.0087378922244170099
-1.0757728259202395 1.5316612413439543 -0.68795404119691739
-0.77396266454525176 -0.25275794808663932 0.21620595072272408
-0.30838194691341414 -0.0011895774430001893 0.43762137309386162
-0.70653331213407 -0.78977716900215 0.42259780446920558
-0.64024112441757097 -0.82044390952796675 0.45237246021360988
-1.0218756199210475 1.5512588539687613 -0.74286940578213034
-0.10573881591699319 0.16234429720384469 0.043100028668050072
-0.20646952071638225 1.6224048972617311 -0.29536831218774751
0.0014161803280785534 1.31303939940085 -0.76384762183442945
0.23180773232957108 0.89847117349472683 -0.29945379926039095
0.80803069919784321 1.3814555121721241 -0.27054566557126236
-0.22245687243275825 1.531333769893763 -0.49101917312009391
-0.62514601628208766 1.0669121694509158 -0.23257129366129448
-0.1847523332730816 0.89789255105074517 -0.32335725133452797
-0.77517908445929606 1.1945504505434883 -0.40218521203723867
-1.123221865610958 1.2046600818102888 -0.91447479499265683
0.90449614398949052 1.3120596591489857 -0.023709527516075468
-0.30570185765532187 1.5158094054825142 -0.17273863728087235
-0.5036900347554365 0.40658995761492633 0.24351716176352056
0.30616030487681201 -0.87772808451620676 0.43006018842197591
-0.58680804318692026 -0.8155728081299003 0.44275672658341136
0.75302807821412898 0.90979222101100277 0.015233110715598741
-0.7410535530721063 -0.45508255089794147 0.40361744695655943
-1.0046902178057735 1.4768600173962341 -0.68894279330470454
0.52965885620005793 -0.94672040387479228 0.49723481819364679
-0.26781176393365058 1.7707257880997531 -0.54847579383022094
0.27361719487544178 -0.98039713078685509 0.41502036332803982
-0.4502780529633128 -0.17666032372206075 0.1026444112731042
0.98108291324479069 1.603215991317029 -0.47383950133598773
-0.94623672977331807 -1.025875820137685 0.075104377601292072
-0.76992920201064408 -0.073787298794201206 0.0098016717988684832
0.28244774391032479 -0.74709881068827144 0.35629907438988084
0.99668424195215266 1.5958926101504858 -0.41928367157197499
-0.023533854478955618 0.53578490126983525 -0.1419428832837184
-0.14568586460472943 0.061206262466157568 0.21883287183345601
-0.70233728001312556 -0.86207116527430117 0.44771698081422073
-0.75664679128431089 -0.96955997308020869 0.49661125410784734
0.10151084635526786 0.11592406042086623 0.080720089732494671
-0.057660754471271503 0.11726424543903136 0.07513922931639172
-0.61729365737664921 0.30653747240864959 0.17808983599570638
0.65764992064350736 -0.46690569160375617 0.18671580605587224
-1.1581060187481853 1.1876228257198136 -0.65261723043840902
0.29032841205162185 0.58074569131554199 0.052625190045546333
-0.71796834077304084 -0.77017293916560448 0.41640145049041166
0.55629064324830324 0.13574400720381163 0.4377454923710502
0.2205569304396704 1.5603504033517765 -0.4469869752942941
-0.58283913625814421 1.3095324103093162 0.15515697139016993
-0.6199596305268642 -0.85933783095788385 0.4661573685152689
-0.019827353952678095 0.92533157690922963 -0.26864283102304398
-0.29762807353358767 1.3721673652025856 -0.37783695679399898
0.055781492913638431 1.0586064671538225 -0.28192600639249576
-0.94468107787906774 1.446474809804954 -0.50710053631428309
0.87198011719692659 1.1046248403208665 0.075765975286230969
-0.88122457207464322 -0.93950064193290928 0.1992597178568758
-0.73504414243484462 1.1517885356395254 -0.30473177687554198
-0.52621708944661805 -1.0010382148801682 0.40332091635264078
0.34124253208119626 0.53786774777620394 0.40540519211890569
0.27017490324442406 -0.62997865287559307 0.26780709249715073
0.17168464175961162 1.2574338968847769 -0.29379059584744027
-0.85979994515446379 1.3974430538058868 -0.52593120953360994
-1.2404118440679213 1.3543724683740948 -0.4842986360181385
-0.44342594836325588 -0.56331212461680025 0.31079340409451106
-0.42669533933985804 0.97634471477135776 0.5549629274473773
-0.10406862543004536 0.13807719956156461 0.10567241670332805
-0.46644677452741234 0.94854471427493081 -0.19731388557738683
0.39346722837399284 0.75862008505464473 0.044899276984779135
0.3897753148216907 -0.24759757769152202 0.048641276926446153
-0.1826207984058783 1.7620043653107587 -0.54579189250034688
0.31852851286294026 0.97899450735576465 -0.26890256432943715
0.23776716340444182 1.4802744469843674 -0.39797700277358672
1.0606027527478545 1.6382312023345094 -0.42423426703544465
1.1707077279684199 1.3060932154612601 -0.49907099811343869
-0.10244820290517964 1.1744742078242325 -0.84874877842730712
-0.70892253785405046 -0.82040292013039107 0.43083286135561139
0.44635345239839808 0.94127401237847153 -0.1113108148711035
-0.68878900207255356 1.2991107797806762 -0.15154889728955823
-0.099464655480460351 1.5728344205772373 -0.54763356741023017
-0.17133474627416945 0.64778329984119409 -0.14627057718689684
-0.48464958344720799 -0.30623498062800536 0.20956450206085719
-0.00070950420604276587 0.39043665787062309 -0.086305626029570703
-0.89536178763773933 0.99892646628973125 -0.10644253493592259
0.15603506407705936 0.86314442045534179 0.65987269723427744
-0.34407566785830568 0.28665224376504739 0.52529354310308918
-0.82642186932798722 1.2987945746903051 -0.45049200039784409
-0.38158495130028314 0.82345964163573626 0.5628502048007249
0.1795310834513657 -0.027112362155662595 0.22510542957252255
0.54728613575571217 -0.030171029747748435 -0.027977918846318062
-0.87211450239215083 1.4021042738849019 -0.55279376814360148
0.046399768818901066 0.11500589628354874 0.1114434138426077
-0.8211792553252053 1.3367193216716942 -0.32623273152012189
-0.5864615893174232 -0.35442543807502602 -0.0011425823754507292
-0.81180664078192422 -0.1687329755559972 0.12546712909897906
0.77029421201928017 1.2452180658601719 -0.11526907774305073
0.35789226662745932 0.4833447145451828 0.19979936537902176
0.38105401405300654 -0.23298452756705501 0.36053869012266659
0.19289048789823937 1.0017989695749066 0.67901435241356012
0.39180035610343111 1.8439354447743881 -0.48401001671209087
0.52920076549162332 -0.89079053349087189 0.50332866391136122
-0.90950059106626213 -1.0406611074275816 0.11213642576967686
-0.82678616927432813 -0.44088854936035204 0.19455783092826096
-1.0397807475728769 1.5359481811566411 -0.71181423402867949
0.76421034274653721 1.2771306933090045 -0.24371833919758501
-0.1355676246287203 1.2097758391892057 -0.47107714234516607
-0.76885691545840018 -0.51266519582520687 0.065871285728917428
-0.3896882053909394 0.65295609592635628 0.36851933407160686
0.58084577452427766 -0.49470959961936956 0.080399689064506674
-0.80913289979480396 -0.87400363878828102 0.34667549578671242
0.22466157356348049 -0.014951849884624835 0.090077354256209219
-0.38233291359074428 1.8107497852345205 -0.48550602410750798
0.3009475704138822 -0.87654766191798217 0.46941698633872875
0.78455897826506771 1.0595952652940923 -0.23483255923565594
-0.81096162544054096 -0.15064646737295107 0.054309222530264378
0.42579406202321479 0.39038205932740766 0.16867906929701348
-0.29552467752478151 1.5233606331169085 -0.18480240340022647
0.52293304424483722 -0.80559436693204134 0.51682412679747358
0.354081003993997 -0.92339348031600821 0.5931395848624561
0.22017495521959063 1.5279738192855348 -0.45289665060363404
-0.65404072127603285 -0.71925530731630261 0.43767353873863613
-0.20734943066054257 0.7025999121061659 -0.18069873833928796
1.1723532824603353 1.5692420318554241 -0.45092535092680919
-0.50278752829035511 -0.9048429802667215 0.35880498365258973
0.20960083143745578 1.715990000356669 -0.34208453693190677
-0.78613842687491342 -0.56610615075635451 0.12470775921383392
0.43333823421244233 -0.26679291172129638 0.02359808302617239
0.16709367761359317 0.39513907110898572 0.57575063276726723
-0.38536259263537431 0.50468594023357127 0.42637514439820734
-0.83241265023252708 -0.53224646604144255 0.29080111314578971
0.18805945632720977 0.60123898907772855 -0.07896132746418516
0.44778228325276359 -0.21994037280521184 0.38497826225602694
0.23627981369327244 1.5597910594842688 -0.41437345871509024
0.10323360659822356 0.46306573301228582 0.62492598661901866
-0.5424305124320199 -0.28738212279398567 0.28484265130919084
0.15561113604508137 1.3334593194665558 -0.5811600753431776
0.63847795021911224 -0.90834238845286563 0.29387879107389381
-0.15385169174396651 1.2863405055288695 -0.67592187039281271
1.2120911157005594 1.3455949097416351 -0.46093260489942622
-0.48352666078835682 -0.57453778671015243 0.097251204344502185
0.50604565865023687 -0.20079875156008598 0.38975735385474763
-0.3591902679472696 1.8516991752590002 -0.57593988759526837
0.46120898899653184 -0.85264324111346923 0.54749392922394691
-0.79832930844668226 -0.11519904090152977 -0.015485937264656968
0.44360869224738053 0.28190855916750479 0.39409565040250527
0.418918490552187 1.0262529169542631 0.54227618182176229
-0.040782518470223295 0.12071013704667166 0.18750226700331041
-0.017429944398827502 0.11700731186050461 0.08081987187051709
1.0852381845850232 1.2664975457872742 -0.51404926308350696
-0.68111258036151412 1.0600989309023134 0.22645209369466102
-0.26884082656010833 1.3883663536325912 -0.458654546496291
0.042446662979500616 1.6712892327159352 -0.38279055298153253
-0.42892285969537625 -0.095544076129414179 0.056381511412837426
0.15051143081564078 0.15785942793252161 0.028641290961786581
0.5777393352755098 -0.51877303238268269 0.10565010313030143
0.24822062492967234 -1.0052796022005168 0.56315151918079209
-0.38339837551575329 1.0003405841972608 0.60806196732437456
-0.0111034746093992 1.3553399219063067 -0.69705564386595142
-0.47209737278308239 -0.18981115546466754 0.33892990843287407
-0.00022619604033025098 0.23263651328022661 -0.031484677313073917
0.023625623668522167 1.416676667856791 -0.64902953555520071
-0.96365189279481456 1.1228848162608074 -0.55967130941871801
-0.56321043913703761 1.0327872506748008 -0.18256036648017471
0.17765374548662294 0.035100497377811735 0.3843881288553348
0.29749166810461247 0.2694217501851881 0.0053805819616172812
1.0646177469216127 1.451177177087061 -0.59448816077474476
0.69373679516502307 -1.0229035180376513 0.27987074396742173
1.1445014292669384 1.5873319997870112 -0.4171008438820536
-0.53188416935017813 -0.51202470447151427 0.05456033144491812
-0.48150296209996668 -0.29666321376751625 0.12927656789725006
0.34973578500603253 -0.32481489778987793 0.14078132155918865
-0.49796719860660232 -0.28726610424348564 0.23068055676685617
-0.53049925040068047 0.2216438369554794 0.012389224329581339
-0.65663345720099642 1.2511274392662699 -0.2146738942774391
1.2402441709228924 1.5036476848802067 -0.62005541896451177
0.23046237068547271 -0.078480001638695285 0.32003272626025137
-0.75744845892768353 -0.80831606506410481 0.39176809339323881
-1.1087730999583982 1.1930867704625143 -0.71483746122476077
0.33024875033288481 -0.049829177031426752 0.45150951032519515
0.10149841671022841 1.172260563334703 -0.87439098832373929
1.1703151660478852 1.2930128466972519 -0.46380121464608237
-0.096881429511086026 0.16722305304909924 0.014034706893653492
0.32316005834445605 -0.28966908570271244 0.20415188033712184
-0.29886504646174217 1.4543680682140803 -0.36188347990855618
-0.42318533884053977 0.46963481152982922 0.17325990000972524
0.19966764491800859 0.38088485996536292 0.55933209559225361
-0.21220629898834886 1.6359994788815584 -0.31701467748825962
-0.02549130198713101 0.91158522390298913 -0.26874664962542738
-0.1529819037159541 1.2201723919724827 -0.38894445992264082
0.63557383061925066 -0.9046608728741603 0.26003745637126485
-0.75823935805146903 0.98401511046586165 -0.24267352955075694
0.284764804713177 1.6543187489974116 -0.35043991966540489
0.33410323250018337 0.64581593192690434 0.44909196786011307
-1.2361172173280011 1.2407475476420586 -0.70894248811373473
-0.60257271653836142 -0.83332395365914635 0.19835227722251147
0.042341893562934274 1.5816977057938857 -0.5044277825845711
0.36591856272161749 -0.88486898928590563 0.56193157459347276
0.34630272146205243 0.46082446644629727 0.10605636176478583
1.0337421770709625 1.1305174159680291 0.0064352342142228736
-0.071284705703874351 0.11872525337810202 0.13199939331889254
-1.2478659489820529 1.2934019281117344 -0.77312595196735856
-0.73486928042621003 1.2547388051433472 -0.26928779923582624
-0.12854856745570942 0.6210505342083934 -0.16710238931727872
0.15774457685120069 0.01366922558182182 0.1881017438854542
-0.25573612820198832 0.40819238600386143 0.56084999766335386
-0.38940796703855085 1.9254772326014518 -0.58704270094813182
0.21976663857890344 1.7066660500852322 -0.49722480351147169
-0.61354079464672395 0.92529001811249145 -0.018272145547143737
0.49092854792888829 0.89074261115320041 0.2276656530461878
-0.33985490490772463 1.91635009376364 -0.56403706566834444
-0.73265727396255897 -0.50075189459960256 0.038740575851534231
-0.79630659243662194 1.3071948952625689 -0.36219322677879973
-1.1473246337125147 1.1114948902322794 -0.59443192685193935
0.20723391445153538 -0.00060767875584133435 0.38747196120721128
-0.54898203662423839 0.34440399244090258 0.20913644629808914
-0.55313454016413743 -1.0527571493200867 0.11854926956266354
0.64637913021351778 -0.30140911269367621 0.20326607512424744
-1.1176496724972367 1.4452520645976392 -0.45269969715718616
-0.81600273418303004 1.2874445929076046 -0.4483127476428308
-0.20068662867288367 1.7340534216239121 -0.36514328724069856
0.27525622788016335 -0.72190389199772653 0.35465987232419138
0.68579523860216796 0.94644552582235519 -0.15124331355582399
0.61819175035088847 0.89104548882369272 0.1150173498804179
0.53718990913785092 1.0252912231069331 -0.11751202343157274
-0.55340709508072905 -1.0322720160719427 0.20392637319173446
0.20834007814050892 1.821498273862062 -0.45395160261250567
0.0300379199031795 1.1828884292378916 -0.93707967872251174
-0.3495626300746153 1.7007799244158832 -0.46212110615033453
1.1629506110641614 1.3788340084332731 -0.70821623537722189
1.0860300141068819 1.4035213062057892 -0.60043856916308869
-0.48495318747109195 0.42861718357266909 0.22254035881951495
1.2500977679271728 1.4386454641190767 -0.51496372011797575
-0.44937394578801104 -0.34270337390103123 0.22285600271607109
0.042569780505800736 1.3787630120946233 -0.67552446978061198
0.66403019653034789 -0.1786861402466684 0.12276017246222182
0.5552833858350823 -0.88457664490709931 0.19787895726722127
0.57972218037048151 -0.41386028035950062 0.063315813406916277
-0.42227172246566624 0.51546435519014722 0.27586896089951551
-0.61762422818628693 -0.14045642433825378 -0.026302992910586909
-0.83277322871845172 1.0789635382013785 -0.41380874917422261
0.052003287665684184 0.61769867702003012 -0.17833186855114036
0.41835380842485392 -0.2801479277333101 0.37952528338655611
0.53595335100499142 -0.87810036193258156 0.48572254150712979
-0.088143823952123057 0.30431847651772159 -0.057456550855022215
-0.20233521764498619 1.8007556093596122 -0.43523792707901521
0.65775847770964901 0.063460891170336708 0.17456332495339666
-0.27715268690053563 0.59155608020273576 -0.0035631250220831134
-0.4269326215712681 0.078238920141473045 -0.0076103140618215548
0.067519451397402008 0.063369138648994294 0.20856924072495531
0.35421338936066604 0.38019037569148395 0.44320284962532241
-0.69018703598931097 -0.29382464214950232 0.32597444648081364
-0.095835510635879473 0.52552265708800405 -0.12999872854652494
1.1233464484782871 1.3100092715106939 -0.57076660906341203
-0.2043124103761329 1.2940979054401396 -0.44510518119295739
-0.55129720939976323 -1.0175653108740335 0.12248246770104743
0.55936208148705191 1.2745203444562776 -0.0033694902540446492
0.80361846928417435 1.3156779528583229 -0.12939825404282601
0.3320383540808507 -0.32696482074618416 0.21200983893004377
0.32144468432124995 0.78530148783772802 0.53370864514954519
0.17552352437314767 1.4492080789700594 -0.550852497692631
-0.022406247820981662 1.2883136171415117 -0.81441354198068439
0.36412024762421424 -0.28676760672942692 0.34042801943678569
-0.44577928603939654 -0.3392810068564529 0.19813480802758932
-0.39404259273419484 1.9079315797566778 -0.55056462132642991
-1.0434460319911523 1.4434456215253704 -0.85269890583867891
-0.91384366158536068 1.3070647352247988 -0.56727723331414381
-0.83193592847055697 -0.59091112556245662 0.26372142412446919
-1.0389472482202109 1.4831574709254483 -0.81156178057335637
0.24503068347848966 -0.048174634221567203 0.084532612515431538
0.52918796740414109 1.3407300943626979 0.1697458198127606
-0.68313422385881495 -0.49414787179586028 0.024787438907878823
-0.82442657433011846 1.3489386249603967 -0.47644058206242335
-0.4937671386742295 0.82687246918328583 0.027515635757026757
0.64187341992737856 -0.37592806043639371 0.26082385613062797
-0.45647210175684449 0.4547908319307794 0.19713280190944715
-0.62313559317453837 1.0730428772340019 -0.23317975980853589
-0.86723029617905922 1.3976909136694076 -0.46763244558860606
0.2390161670980433 0.92406826917999751 -0.30004119277100472
-0.43846057401560756 -0.70613729365788913 0.29297340578250441
0.6553752737013383 -0.92281994295274217 0.30582051223609596
0.70458027921108624 1.1403418270767816 -0.15361323236311364
0.60785005478282983 -0.32465156717850618 -0.0028011229564981477
0.6467235219174654 -0.28915822666883173 0.20123488396438916
0.4451695904308508 -0.48773154342573832 0.078217904368102609
-0.48150198850771631 1.5647529525646178 0.18933076888060896
-0.9004421003526204 1.2346250658415556 -0.53325535771045907
0.34233832720269675 1.8355418512569486 -0.42645443787841941
-0.38830650603722461 -0.08451592604973257 0.081119485286762938
0.36410694568030522 0.58610941032816299 0.36218144368240246
-0.80241270726946823 -0.4797131305944049 0.35636495172184368
0.48635057356705147 0.035078533288810831 -0.03223698306010192
-0.46240527100508189 0.78889862125652144 0.0050696751254690753
-0.83093080359321903 -0.47652215891929472 0.30227002491074018
0.14167547787110379 0.35756139946289522 -0.032377804678617395
0.64053935747642754 -0.90532646320770027 0.26565217699635468
0.5892555614509547 -0.82140505515235418 0.38890122989505471
-1.0179930685087584 1.5338239717336819 -0.78867987925423222
-0.55325122891144929 -1.0443058476007536 0.099700032702003227
-0.079028350216503895 0.6373929781204879 -0.18636671252306769
-0.35645382544271342 0.45289892128624842 0.076800913041552121
-0.50263421033605482 1.4296296834459099 -0.057868146166583756
0.3046474916986881 -0.90123959724382985 0.37557855026398101
0.31616419786632832 -0.99608337193933494 0.35095259927447842
0.06060859262743179 0.58627484555051979 -0.14836307804080207
0.4603112814384076 -0.82605333057983898 0.54831637573897751
1.0087127468593735 1.4565089548992773 -0.49076017178958864
0.41242245533703681 1.3422582494383732 -0.11844499431026634
-0.36402631015744191 -0.12166759293428697 0.35470474936300889
-0.72863497090429519 -0.32398879735842456 -0.0088886135326902149
0.062422208213547492 1.1489622589647297 -0.88445766699214801
-0.61794191370654517 1.1647705953936338 -0.21347400122294857
-0.20142005556317599 0.69691218911941633 -0.15582812245702371
0.45365563414520693 1.2707223488926047 -0.13681907773479907
-0.73789192829235617 1.1417660730182888 -0.30752333952750632
0.39471647158961787 0.27167225353525737 0.43585296753326475
-1.2081130900896824 1.196912355509312 -0.61602167635146543
0.39460708018123114 -0.9580661142314284 0.1490331909917586
1.2237271403911336 1.3850889530351651 -0.69139605124382797
-0.75240008293167193 -0.24453447064044553 -0.055490558768724441
-0.4957958112581764 -0.82847886009426475 0.32447290364325454
0.51589452122107105 -0.75505465562264362 0.24143274313018992
-0.0031233270931352308 0.94523626803743355 -0.26611630511479234
-1.0935056279286073 1.2187795028586379 -0.8136893763489752
-0.26633756121327679 1.4976578029973098 -0.42452591127494088
-1.0480127562304915 1.4695330978025822 -0.5142504871237179
0.47466448865407074 -1.0270201189043178 0.54328994582010637
-0.45322038432368572 0.22078534583289411 0.013101203104724846
0.28025647772619777 -0.69508273140957044 0.44321466213523308
-0.062377127961099177 1.261641842432482 0.73846508217184237
-1.1085691378052616 1.3253209173556115 -0.23277447821101305
-0.78870582392687538 1.2194186136453027 -0.4394621580686362
-0.49435501770062729 1.0546304242969882 -0.19783323626643323
0.29361398131868555 -0.57581685516993275 0.44560663146557999
-0.45370274556353252 0.2115880403642052 0.52253551190233338
0.076889271542313509 1.1256402675816162 -0.43725499584161298
0.97731941838901548 1.4669122463034228 -0.20447583392660817
-0.019079305102650324 1.1035536011480644 -0.72645429745125512
-0.21348261157208981 1.3229155180986254 -0.35905995400935353
-1.0236742826389218 1.5252337431771821 -0.71956719185254769
0.020678421781440193 1.6297335215176645 -0.44615793929506253
0.12828618350818033 1.6500206220473501 -0.2090989606954281
0.27992566330885893 -0.45002069718921689 0.232339396910902
-0.75947556922619697 0.16616593590762818 0.21315908815131479
-0.21331129619215972 1.530452814979526 -0.50934077815873025
0.57097848513922145 -0.80830850303999568 0.46850563985935878
0.65879319377791035 -0.46768508913241646 0.23570927161108557
-0.14914738225502333 1.2261640998917755 -0.74656261535437807
