# XYZ point cloud file
-1.1170467483175202 1.2020647126857398 -0.6549209305351269
-0.22201221719313935 1.7816337067391856 -0.46257483003421385
0.27138679046932168 1.3937728946013266 -0.28077185786992231
-1.098353005139117 1.5108555559490782 -0.7303059316168401
1.032146985884836 1.0838128510739438 -0.21379416853346811
0.62654617607002194 -0.31747074511433482 0.19178725142990061
-1.1749191555924341 1.2468597628478761 -0.63509336348056422
0.1875953327031965 0.6364636811833293 -0.12193244697220962
0.22918913860329582 0.36376273542956028 0.54219537181734268
-0.37911606492852457 1.3069786565210535 -0.27945677427351256
-0.29639054317416225 0.62525217608987305 -0.0033247538667637855
-0.011295600567994057 0.15343339070893336 0.016310684459881486
-0.6448454392800187 1.081914340665719 -0.22249109780318577
-0.50716289075244703 0.1527048309777328 0.00079285802871709166
1.0943139735734064 1.4669995010153514 -0.36457333799268099
0.62639528391137844 -0.30675620931263836 0.18484300584941593
0.19376262257067367 1.1796582796891357 -0.26165451022689012
0.27706633110059897 1.4011598438767692 -0.29637429328181497
-0.42346380534949191 0.32462485460320067 0.052407671595119609
-0.53473569419108458 -0.29826155340642657 0.2275495449795244
-0.51244637952834182 1.4181436855363785 -0.056827898655228637
-0.48973395679091425 -0.040585748784813802 0.44854342614058851
0.6425585335236832 -0.50526077282876258 0.3368534324587813
-0.73704549391341345 -0.69119737556790639 0.24467072095876574
-0.44980922152234371 0.15714771006936701 0.0026292237644156558
0.40533914998813003 0.76923896378116297 0.075116870784313505
0.43603738439668405 -0.41648162805644517 0.13116603411651795
0.12216585439890792 0.025259133414927248 0.22557719476054672
-0.23974409355423631 0.75322765336885311 -0.20993178210710539
-0.42814360366933712 0.44842747823513207 0.3643945763009242
0.95856843095901922 1.0255018603011763 -0.23857146333000401
-0.42752251628667892 0.80451539236793224 -0.045360877225107288
-0.50475533233033332 -0.22138599643685097 0.10790274209222162
0.40856368954328559 -0.28824722587759766 0.10803313946024673
-0.56846081636541967 0.29403351963078705 0.10377604003485885
-0.0066788928404974968 0.12343350695631727 0.20253987626881553
-0.729576315113178 1.0556548841328492 -0.24725287496028159
0.08456773925587413 1.4321994013594406 -0.56933460038521844
-0.75052153633805574 -0.92944408333062967 0.25418437079417799
0.31870423353304389 0.54062507601268806 0.12314499625938424
0.32694567937613783 -0.40733232351303883 0.27398064271238809
0.61667653170870551 -0.28655106695254062 0.049671057594764534
-0.26047086201278091 0.63679144383084463 -0.053594862194813686
-0.40452184201079788 0.44040283046425088 0.08947048019729209
0.31653206008110324 0.43148129293588511 0.047593819549433647
0.4032181481373982 1.8210369783366929 -0.45479857740554053
0.46357983199109754 0.98697818852510011 0.33778789283178412
0.20435580320477698 1.7874261469598451 -0.42879388244864458
0.39901668370721666 1.2968919710208695 -0.20565456287590678
0.38049913527841284 -0.78825713353000282 0.34023986706716869
0.43214472815644456 -0.43100942844576196 0.13849710086253708
-0.74929370765099179 -0.81275708371527244 0.20617323919697128
0.60125118700574376 -0.88949218636587801 0.32265954906853267
-0.034921877712818628 1.0147488677086898 -0.2779416219941595
-0.73944163207011115 -0.25143497685552063 0.201734349074286
0.26508048477585788 -0.049205601147043865 0.36998899057584822
-0.095016403956133644 0.19785291799530569 -0.014207379776166817
-0.21049272111361272 0.6947340891525613 0.60938014142368502
-0.091310595034091335 0.16983595431867826 0.0070433876016977592
-0.09793746854721519 1.198648402377458 -0.39175883378754861
-1.1106073062755826 1.2582217980070673 -0.86008210359818804
0.27186963136382403 0.58079160488181003 0.02861033848319039
-0.97708986615579363 1.4080379633362554 -0.47139522501379361
-0.72654999983410562 -0.035600019532630256 0.29058980122766798
-0.13218299743401829 0.27830395775313832 -0.028861778195960142
0.4293393775212877 -0.44417505598238449 0.1452061217054279
-0.46344222762876797 0.44837754804239438 0.19089639790172441
0.39464607064916635 0.7588733504816787 0.019789040526916324
0.025301985785432635 1.1497119699187692 -0.37690918927967232
0.83651207775326952 1.1814942388382974 -0.2873302016365642
1.0589546033622241 1.5795539995155252 -0.43709529744455722
-0.77710268162074669 -0.87807298026656611 0.18083073301858121
0.33355773470892558 0.72532754384931764 -0.056127959614286738
0.47464187338280794 1.2450819722079274 -0.11419339422741359
0.55294589813760808 -0.85028472694522605 0.32502386415183082
-0.6068343675299559 -0.10697064948973889 0.0043357362517326692
1.0510681225387657 1.5253738983820142 -0.50351727631039012
0.56381191320340918 -0.7248259488852824 0.28708499323005299
0.093304749169959678 0.49662400533239293 -0.098391611972601822
0.9907802120048359 1.4766800544058896 -0.34216520371273873
0.35282610535718106 1.4105020061755198 0.44253098202477759
0.59397843413995588 -0.54837025113441484 0.19573948603243707
-0.99488849400988499 1.4502754345483595 -0.65728031072194426
1.2128989874721015 1.3660517364335192 -0.53555163324011801
0.40431832623323771 1.8904950751707901 -0.51246181318049366
0.42559266861740497 0.81360184608112718 0.089824923899300302
0.14935031506286123 1.6322575150999512 -0.28592151553539225
-0.33826115111028443 0.54685014927780173 0.4829302808589091
0.72001306206078652 1.0432835065340527 -0.1563759468247099
-0.73652721797299137 -0.21150994131932777 0.0018461113094190296
0.56923561775518294 0.90984511388735712 0.043370065710064409
0.35199093718298968 -0.96550278999299621 0.44363392833213311
-0.71707095470213744 -0.89697162831114241 0.27569291653037453
0.13390962298549525 0.54745920034932283 -0.11505874023725937
0.29880563557206585 1.4762109710093512 -0.17083143572767767
-0.30156121477386932 1.7825067456918831 -0.51221363049069168
-0.45890374778721288 0.43547829875296884 0.15747793341290617
0.47613916390994859 0.99966572142973575 0.31992526879480465
-0.6446117594054428 0.93834524885015469 0.084815780454619016
-0.16088439180475689 1.3620625217279496 -0.54231748639529087
0.093430242150404297 1.1603810921506295 -0.53506702139009121
0.28722047225028291 -0.510795057134942 0.22505456395867895
-0.77582458733027693 -0.12454444643735485 0.1221463240009939
-0.61304363850170773 1.1193631921000744 -0.21446311171291654
-0.75010758058874671 -0.77840221223038952 0.21549059221439393
0.6202642994963341 -0.16377260174810715 0.099886350665371992
-0.57780339375509016 -0.62447240623525602 0.17324333781039059
0.15090675444981372 0.030235829695797634 0.18102493800518005
-0.96477360214663577 1.0398801548660117 -0.35880650103638345
0.39611946679420029 0.2732171810781665 0.042291323748031573
-0.31533247638812156 1.3812471501019843 -0.34793923579104558
-0.6748768118590931 1.2582465975827759 -0.21168909211110076
0.81575031109292695 0.9969435516819658 0.025617532577257407
-0.63141271542494337 -0.82863834000961134 0.27485469744266311
0.99615873444844283 1.5061513103047304 -0.3813199975775774
-0.29867173819634196 0.54916834410252591 0.030218391220159901
1.0356846079413913 1.4658365033335627 -0.4585151703554402
-0.73488888231609906 -0.84519421001565576 0.20143325998907358
0.36438993012760079 1.8882254006718568 -0.49943604011548359
-0.5270248067462191 0.87386702038027408 0.21610764637136981
-0.08518261170283381 1.6487788473207274 -0.44626165128681805
-0.077466163188489645 1.7502620130718469 -0.31083353888800502
-1.1377721198667814 1.223841224444616 -0.80807878755990714
0.07816879800532206 1.3270647428961837 -0.68696053359121834
0.034515102867331393 0.64414026685770409 -0.19654301192383627
-1.1961972108429393 1.3384230684460618 -0.71053738106127184
-1.1176700579360386 1.4299395519805671 -0.65217262480996396
-0.68516464137663036 -0.24402701344939715 0.023954183671264673
0.33635921245080169 -0.75107667779762011 0.38492198031235603
0.52617221469090225 0.96893386185224983 0.24124068489606998
0.58967152151151936 -0.7965555286305559 0.34157679722483181
0.1964678056961624 0.41205113464123144 0.5814521254610554
-0.29440831287159597 0.24381772539462077 0.51818051273630772
0.024980848857055094 0.99182522070061907 -0.27949675956006104
-0.42034448328356078 0.49754496557868322 0.25533452639388088
-0.40582699981565895 -0.16247926191535811 0.15829367966750851
0.12176646868568852 0.31327281866116152 -0.016006613316562834
0.75178772711021224 1.2394507810240327 -0.077157835647199136
0.821707579037394 1.109851479251347 0.12360125999441607
0.4533617236744476 -0.031780215929792632 -0.007145545659795971
-0.27501210215286775 0.54022217689266938 0.54758696228623194
-0.64750163611496703 -0.85760358623202038 0.28710109121828964
-0.026100509960272689 0.89017868185149496 -0.27160161198958122
0.55314298694550246 -0.7635893473234816 0.43515997790069605
0.98867555366733484 1.1263782081087896 -0.41806719600555198
0.055299686300386952 1.1666661173429134 -0.82034290190324555
0.55490889030315316 -0.3307488092037687 0.070407600638532131
-0.055216900498862742 1.1112094552054401 -0.59814786931315211
0.35449857549765795 -0.32593365027786803 0.23608647785385983
0.64454233768434221 -0.55093667452729278 0.34049100396771337
0.044271406189981377 0.38119752537288321 0.60694842848181452
-0.26748734957052989 1.7906262602839718 -0.53333432946101311
0.42187657613428087 1.8673410130773931 -0.48894975848304512
0.51203592987279478 1.1130277715363377 -0.11991720716787313
-0.53206687889664295 -0.85985858255544656 0.3384514703802779
0.23183939856997426 -0.057270260060569456 0.14401829579213654
0.27922713412934996 0.54089276994149316 0.052632044382221466
-0.693861623008317 -0.802685366888376 0.22253378467479479
0.53559796888875155 -0.35370450210435678 0.088105023594948761
1.0679906819247833 1.4937101060185114 -0.50755700320979713
-0.23529486379342046 0.79669429190978747 0.60572082888154455
0.62240976427142414 -0.72745975386763817 0.36609420213824251
0.25452943611406909 1.5269974731778007 -0.36333634502648238
1.0168893417610434 1.3966377081567316 -0.41867662571218034
-0.16557987422093845 1.3192113224160522 -0.6604543727893315
0.51389779705807825 -0.78834459896727083 0.31248447431278237
0.39473753915517307 -0.28499804907917792 0.11683539549176203
0.42507612052310151 -0.61111884461445953 0.22745728126710674
-0.53790416258568996 -0.31534356872570868 0.22067757878107841
0.62603066111159933 -0.24810454799965953 0.1603331954256646
-0.54294342892137593 -0.19298845577956314 0.33072251916019013
-0.48705177162607427 0.35341856776810232 0.41412425354224069
0.15412157475904564 1.1989426877471345 -0.71356996258941763
0.45973180088410004 -0.28732216477771289 0.3527560325518948
0.43036209635485534 -0.71134286516777223 0.28853154280409399
0.21662754358766279 1.6295608966435964 -0.4401217228431733
-0.28546737400205302 -0.076133208561195431 0.18477921796278451
-0.68580369682285891 -0.30181271082958006 0.24516275080071637
-0.59838524418718464 1.2857728363337344 0.23580796000294413
-0.78659778446223072 -0.20770542221134036 0.091073228430047948
-0.72526136064163893 -0.52779699195609453 0.09553052055690614
1.139861886597572 1.6063348362828975 -0.5300491153336111
0.095512666240296085 1.3729640225328694 -0.60690864297885128
1.1652538607896474 1.4269266553750413 -0.41506233137181425
0.45211653871224655 0.87275702993038351 0.021897882823736836
0.41761917581607833 0.39370855418687256 0.16444259570175745
-0.052456115684137217 0.46001729885739451 -0.12241282840705026
1.1744785804208675 1.4955926470925363 -0.46371472073741415
-0.63134064917609578 -0.47038263548019188 0.30027509290124499
0.71739724977089736 1.2005305559111576 0.11551293598006396
-0.20232165952236869 1.6825445260675878 -0.37852271405745341
0.36371344859739452 -0.89855363153354517 0.38386768463379894
-0.77360384986955921 -0.87556193536936178 0.1761540458427362
-0.99656617341143772 1.3059398893212943 -0.27148556335157537
1.1493351034136765 1.5662674726251851 -0.50046975519347825
0.13124468985989779 1.2390277421400384 -0.80281328952969488
0.42296223731480609 1.3236251110292727 -0.1866336896920302
-0.47735709068562215 0.91874434640001823 -0.1294881852746812
-0.78513820140977941 -0.24713441263094893 0.1168351785104278
0.29403718595186223 0.4252691402674742 0.4906908877682099
0.26863747330483534 0.057023486273514834 0.4546920738628728
0.79638289967230946 1.2634474254227257 -0.22671263196707514
-0.80014845486459762 -0.97448056202122757 0.15996616344057202
-0.14176680360986715 0.30517390585490034 -0.0226086453831158
-0.62637969698707252 -0.90752422078372419 0.35017263791081632
-0.42486115784183909 -0.07192677990667562 0.069899569195001732
-1.1173388031553486 1.5079573676697819 -0.79211226656821054
-1.1890629869804599 1.3846848214041891 -0.74396053638179183
-1.0799645327800249 1.5363489918063209 -0.7388739792997967
0.23150271527137534 1.5573323883981658 -0.40866673459925096
0.36374062761161952 -0.78369306652787074 0.34225365555818144
1.1194955017890607 1.5496452461803045 -0.56878079024284034
1.0879820120831738 1.3703940980090294 -0.2336759216962605
1.1893354936146352 1.4062304782849537 -0.694794469565295
-0.023437973914326449 1.1917426815212195 -0.89540607736023503
0.27573388879932281 1.5891729163950714 -0.36455857523401392
0.024079461449943551 0.83918337154209155 -0.25597978886969486
0.18742148646593648 0.15588025482318812 0.5056647210460028
0.85715677807296231 1.2852980221249339 -0.26974344675056727
0.33747384410453662 -0.51465954769895461 0.34830801206777551
-0.57676182858030245 1.1002311818667039 0.29100669380864019
0.064383188175128225 1.2450228998131792 -0.8389031237919653
-0.71977372309797261 1.2191395080312333 -0.25432092073901913
0.80295324853652517 0.96891937849485998 0.039493485349225921
0.70581503277134061 1.2453958995485692 0.010118918152784317
-0.24890757381911399 0.60271227774990166 -0.031348418847301218
0.2389441265356993 1.6754596911828088 -0.34987142651607428
-1.1648141807388583 1.433782192670531 -0.72709497983908022
0.10660595253089156 0.033170717462013499 0.23830122045347935
-0.34854391846315025 1.7282061108163873 -0.46204360402225575
0.077671684355223647 1.1649563776123983 -0.45377343839936657
0.62615964377600619 -0.92327233413810461 0.32040502358387357
0.23500330413709491 1.2526223953394151 -0.2234161177354963
1.1882564452332645 1.3420911860402498 -0.48163051263372836
0.3802819016783161 -0.75618628295313783 0.32096713568199675
0.28124839964988979 0.075113230333727188 0.46839486159217358
-0.3314675698715206 1.4285991028772429 -0.32059619042797749
0.47089016020037633 0.018724540967269832 0.48992859744606676
-0.15707455082289812 1.2618933246251629 -0.60993128850020639
0.35500859681903307 -0.95505358367799431 0.43391526760433408
0.53411739919978629 -0.21753814522224246 0.35354942990005611
0.42318303304401184 -0.27742700347859994 0.090985654185260501
1.1234543309139582 1.1870384937446659 -0.30995969262181688
1.1699570981641898 1.3230393777262037 -0.53536237337158354
-1.1795704493685264 1.3623377276129709 -0.85892964316360576
0.15782123930941339 1.2713895221266256 -0.72847269435010276
-0.51899239094962013 -0.95254168980675757 0.40885246741589754
0.55622758557633745 1.1999989470382246 -0.09589561358291121
0.022399920898848791 0.94372065580635933 -0.28601030046502274
0.9706095972613582 1.043873185190705 -0.31190830678406201
-1.1435234296641852 1.4840911571709476 -0.82683771544384399
-0.37099190661390935 1.7051141805644647 -0.47200296225742022
0.04816784455884715 1.1410038625461425 -0.75679988107003737
0.044818765962066465 0.18795410318612937 0.041424457618290944
0.99097735267852727 1.4944022131769117 -0.39299482786685758
-0.53368444803928128 1.1192334211011428 -0.18202221787089456
0.085386709901726476 1.215509344459619 -0.85118875990053766
-0.49970637440486598 -0.77643618408843906 0.30584049237785393
0.3776824859914143 1.759980243351734 -0.41420777113444274
-0.61292947406781195 -0.90576705954169512 0.35073456941267978
-1.1681965299489008 1.2055179023608247 -0.81739746093501253
-0.15189972238336225 1.3400399287388751 -0.63844298822107248
1.0004730556278503 1.4656691089412561 -0.40978718883292231
0.62984314022779131 1.2185358447785291 -0.10179888862865027
-0.88182134697298409 1.4027435736001834 -0.51961914262244591
0.53323500215213926 -0.22210004247450854 0.35204998376809726
-1.1519101838774333 1.2063447767359605 -0.7168150911511475
0.78349422587143636 1.0419796021369763 -0.19441754919841969
-0.48048288282130613 -0.39992993004909039 0.11289559340605138
-0.48066863763142464 0.3814426023766444 0.15682811331657831
-0.58171108016079387 0.93698571713265721 0.085193395258556848
-0.78873628342392976 -0.91726578799732295 0.18680393673048457
-0.79712293672700696 1.2791497173070923 -0.30104600997265152
-0.51479671814826844 0.31710202341736249 0.42034133898641812
0.023023478977535206 0.28655202685452252 -0.06489872820952769
1.1682136502101059 1.3905045433831731 -0.42013372091685142
0.37412511585573327 0.20048157327982352 0.46233680591615212
0.080799380556229039 1.1645426089569924 -0.4355820845019025
-0.76790709796513568 -0.023562726570176551 0.20866802251123318
0.16901329395049913 0.0013850685439606991 0.19531626716212713
-0.75008055780209304 -0.78762932531150653 0.21313276070117126
-0.58161686206398144 -0.77484523412536177 0.26344260209526738
0.019446794064322148 0.42404050663419923 0.60130006326562579
-0.0027596303766301844 0.97767553359955173 -0.2759827829427195
0.34288589843215789 -0.7971990931226145 0.36867256111668212
0.64940832129636306 1.2373958801468632 0.13301179936354401
0.63874051544524946 -0.94296873450523577 0.307509977423706
0.25937289074170167 1.5761529438399577 -0.34377283777621415
-0.78555333331321719 0.99867116801112132 -0.18014846696792119
-0.49611378425933594 -0.048579267222763178 0.44022396238460715
0.38001110958728646 1.8650936014351061 -0.5021592498493419
1.2080148083725248 1.4901962819298831 -0.52620533642493683
0.015917537215273114 1.6987664952906272 -0.30974652898930799
-0.28032189891517589 0.21017213604750395 0.031593072961186408
-0.15635786229540827 1.2653951326406627 -0.59928409448991715
-0.51177021388986077 -0.8878984913250747 0.36134712001836533
0.45824171525400459 -0.31898904915929904 0.3484087842063559
0.29597758458183421 -0.19324033120862794 0.26208661224399066
-0.76720780333876348 -0.15012595972688558 0.16139806464411777
-0.51581758232785546 -0.81034686713164561 0.314384630370796
-0.71215163242671053 -0.84373226036706228 0.2212042662137037
0.23443458127096051 1.3743541940511506 -0.33639965192890031
0.22820760942948937 1.2306575063438032 -0.23745522135675401
-0.41012110952498659 0.76214870892430042 -0.022117991330560471
0.59999536535944742 -0.77230056942642022 0.3908580432445774
0.32848531796656033 -0.15613104263114508 0.10955619654566817
0.34270267679297106 0.63669987369583225 0.15309053185058019
0.16624966070570579 0.27537281708094952 0.55112048229534594
-0.79492479059746302 -0.92691659208986721 0.17569643412400637
-0.52645462387772568 -0.40255323445241231 0.088736683497018021
0.50230016915281794 -0.96246272275283218 0.4290360395867765
0.6291382223994475 -0.38622926465244944 0.18691638411360145
0.18183742233814471 0.45685944862472638 -0.037400486403271316
0.27622340855702987 1.4598430767047859 -0.34162907356414962
0.41371791073964914 -0.35549918084348775 0.13263084375779499
0.535118182255232 -0.85250741904973637 0.30704772663239055
-0.44776643924951465 0.42467577997142314 0.12062428749129595
-0.41510215687753771 1.8824554477147899 -0.58727714127985564
-0.089678550614529229 0.79761569042676683 0.64879736682280509
0.84404812006002317 1.1260702337216912 0.050649423579102404
-0.23911193070203751 1.0531704014890124 -0.30147215363263058
-0.77993775989966707 -0.53759812529131779 0.16036152917854452
0.15931112590220664 1.7146234334137205 -0.38029324641524909
-0.062603200238754653 1.2466331958186103 -0.84380714462679407
-1.1468825552480126 1.4763164658088606 -0.74429141729194725
1.002945709021219 1.5579731352817703 -0.44005450948782254
1.1661830341013513 1.3193714988229459 -0.54448857852673882
0.39822879772566466 1.8825782633187345 -0.4968815915021878
0.79780523786392621 0.96990594454443624 0.11717522641549749
-0.30392142835806624 1.2503003780376361 -0.24649260613182378
-0.77682730192229599 1.1956585892876532 -0.33228624730577394
0.63334200384663575 0.92112325217956936 -0.0405354009238863
-0.68724026331693722 -0.64175330018824894 0.14660548155791275
-0.67687902099046937 -0.5843291199407048 0.12923807708767754
0.25226473513856718 1.6927285472225861 -0.36016403090582116
-0.41354920744797141 0.92695956604686103 -0.23986369914621264
-0.18309988711735059 1.756459687516724 0.20085706724569263
-0.044230996080166562 0.12143141698963689 0.059043956673122011
0.24686834964259674 1.7198815408064263 -0.46393747170327515
0.005602510113618564 1.0288323242291142 -0.27249881803652443
0.57997446204333869 -0.85886117743998014 0.35054358522916118
0.38867522071905114 1.3850563670628304 -0.19146110723841048
0.89807985901495613 1.4550309454937462 -0.30256049344995972
-0.26450394106203134 1.8598818689413719 -0.54130939808362655
1.0123425138766322 1.4519777886317087 -0.29004063270036795
0.26329135629183043 1.8273420937432405 -0.45071545548648828
0.77658199510602799 1.10855678532468 -0.20027653007457502
-1.0370487650777704 1.432052139976669 -0.58860375448728064
0.94076951303816259 1.47383641843237 -0.31012962194188276
1.1966326190617735 1.5551538112153764 -0.54005342390422584
-0.69979169819787046 -0.85089439439757442 0.23098095346585978
0.015467235410852709 1.3723793254434469 -0.67041307526653782
0.89814292242751037 1.1029207664755347 -0.010598272466154413
0.52677670853050529 -0.30369760581960037 0.064519092791272215
-0.3953538243321475 1.1634911796118956 -0.23690590897149377
0.38078100948456495 -0.59524901637483651 0.22399521530581978
-0.41915474497698701 0.49344786944095631 0.22422125102104928
0.57809071180468052 0.19123099269793897 0.24246399515919848
-0.19214742548893327 0.70003012003070353 -0.13068306685966036
-1.0976102917035888 1.2458463960074724 -0.781996783427644
-0.06123501068549686 0.57800850981233509 -0.14863966853602051
-0.51239230234648403 -0.91719775733010067 0.37452002460594258
-0.78961875113424185 -0.89744651793434826 0.15820810132737506
0.33586032214677886 0.60328971264127063 0.43109747024436729
-0.53005370467724333 -0.71816407145870897 0.24798451959003387
0.92618978494539306 1.4177380532364339 -0.2099737858258095
-0.48505095520272334 0.84885791898028629 0.008274032372696638
-0.99047848986184306 1.2769664988604603 -0.61812066941126886
1.0163155736342731 1.5243413495418139 -0.45143258082731563
0.37047342693750807 0.38751164533789506 0.40469698898721163
1.091996700315363 1.2332980913853788 -0.47478768756752743
0.62224141164031721 -0.36458389971308947 0.14415872456709167
1.2418266865792873 1.4360409729595034 -0.61348796871232025
0.38129970713605488 0.46470335382556982 0.26032264550690343
-0.24454181190819213 1.5950237405123886 -0.36934398391315426
-0.74759840449989667 -0.84927612251842177 0.1995347684785429
0.33495639189588644 -0.84884679140083819 0.39131253639607166
1.120317533453715 1.3434827381513372 -0.56060595403141633
-0.085909065052888423 0.16287584839565028 0.01104269904794819
-0.16869417570374878 1.2830673513940241 0.75715157769366215
-0.27108864838401914 0.9351140467419583 0.68754850489483488
-1.0447345397273011 1.1035727242249749 -0.21832281612057614
-0.60020041648533606 -0.93915432028884283 0.38570519659975844
0.42877835229298 -0.83842938156992375 0.33400818923081488
-1.0625155993261046 1.2871356092727311 -0.7305004040562153
-0.37614413325709251 1.3644903389181877 0.64295543198613814
-1.1958846096848674 1.3173163538788408 -0.81519161159553732
0.06265580309244001 1.0104325891160784 -0.29061724333041639
0.25657913974805524 1.5496558034514152 -0.36459563521941618
-1.0141693502519047 1.3694532403461537 -0.67245599529428546
0.012272847988739954 1.1827878893513315 -0.88518573339081286
0.38599397724179596 0.72050702236552411 0.19249359397406351
-0.85170545920473728 1.0162667975305268 -0.24115375745725487
0.55569501979231717 -0.049555083590597349 0.0090841094117308785
-1.018555142418208 1.5473566954176974 -0.72681942169879221
0.29161649296212655 0.42204428984959463 0.49313148281976282
0.071566871792896336 1.197039949709378 -0.8658517502108225
0.3693680945229687 -0.88031914124994515 0.43601014090512535
0.44861482516157025 1.8797710264087613 -0.50374661676812593
-0.69496216880209261 -0.62516641649287408 0.13970780885631484
1.1363688478508323 1.3619744788497741 -0.60724128872340088
-0.21400228325046555 1.6289766604714941 -0.45775684676232231
0.18921539872641802 1.3426614378966235 -0.51337981179665348
-0.62061631885879365 -0.69857806437782699 0.20011421694141518
-0.52284233210573916 -0.31920138104050011 0.20152694549045691
0.92832359468421544 1.3709554843285332 -0.1599757479056052
-0.76672078339366578 -0.39625064939666288 0.062829836359867386
0.4507306667634623 1.8685808985213441 -0.49678298898572848
1.1536621201452419 1.2518463032765652 -0.39551122246444947
0.17510517041634444 1.4289241694680044 0.59120998508763023
-0.69374338355498821 1.0837040927507147 -0.24836215612481283
0.33297904441152326 -0.15313115179414183 0.10127811379896912
-0.45310407532386421 -0.23619372557057972 0.23869967288402449
-0.34784619912211667 1.0809656250738016 -0.28572044980455757
-0.35961410088154366 0.10907227542446662 0.026007467715999155
0.37758792408166642 0.14699944462194026 0.0013393484031212211
0.52830467304448803 -0.97829731226012484 0.41155298910683769
0.24564811073535608 0.56370764470469226 0.0044264297395102403
1.2150154814760299 1.3638319873233797 -0.5616052411459691
-0.40568036897309412 1.3489445163069007 -0.26789180720504646
0.32275309843134892 -0.40274922701917149 0.25855330720088432
0.82135180325128943 1.3748893671710363 -0.22347989180582317
0.13141688853065148 1.6872974576682793 -0.37376541877529235
0.34564151679911248 0.49849356198214423 0.36505928521341957
-0.67546825139113764 -0.80060498781751477 0.23212614963654232
0.59100122043336967 -0.24989614187317954 0.28709505056724538
0.49256341388847602 -0.87393375555651964 0.42639970484708556
-0.66093820684267257 -0.64843027789594743 0.16135984762661337
-0.82114959587810432 1.1091574769024106 0.1419020711820167
1.1347869580132226 1.2658841120495055 -0.21644009691686961
-0.0034928742394697565 0.14148838394238794 0.038147763373217458
0.58555705887130216 -0.81941682032515217 0.35719475324447103
-0.69599456302860574 0.062078602645286196 0.01069845811889536
0.22323497103464973 0.0041521783833431414 0.09592741640682334
-1.040402075537358 1.4067615625809466 -0.75322447007056326
-0.018007055091530333 1.1428674882171066 -0.46191805204148295
-1.0016100960743728 1.5100231871080609 -0.7137462993526924
-0.30143647755909342 1.5150976373550833 -0.28852878387863257
0.57025800249389036 0.1569170768210455 0.3625010355269751
0.57567376941527471 0.037375960944999065 0.39335879864171375
0.089396320057476775 0.36779455129521921 -0.044656859812334915
0.40687696168548371 -0.81871926798868344 0.42600888253275571
0.5252976858931504 -0.97066649859041121 0.41524637013543497
-0.26375852784163101 1.3582431909214847 -0.4551903735267615
0.41704696541123099 1.8929110872707327 -0.51280830062205496
-0.5674354362995615 -0.64232506205900108 0.1874506731963379
0.34792757324533241 0.48802490519727826 0.17971896612823457
0.41678041047543957 0.77614875450434795 0.27016077336224953
-0.25801917176913847 0.65396855787302854 -0.063313025439697412
0.29059343355025646 -0.56314587680394368 0.24646720591306348
0.36803654969537547 1.8608472403337259 -0.50192717179766078
-1.1192537247980994 1.4337232578556396 -0.65848240361992794
0.37316409999368716 1.8562207141063567 -0.47471189068187414
0.44996679391720562 -0.12953459859371463 0.41537231285468579
1.2039991243797772 1.3595228587007142 -0.59931548456631845
-0.025231682278104017 0.21024212064047276 -0.02366511618106415
0.5350544444086438 0.91988809133319194 0.15710476176138854
0.40797724847117678 0.76753986979966271 0.11429462746775698
-0.55750298961743283 -0.86404976400228861 0.33514177584476101
-0.2520764664734827 0.11679564756954619 0.081970584093710386
0.34556118475320829 -0.96452037644523969 0.44308794338274993
0.11615187127956972 1.1752709402549328 -0.70303003101514605
-0.31148718730136693 1.3537465423538038 -0.32885286843611539
0.82186072501990282 1.0346819461848753 -0.20740069203998246
-0.20513300169400228 0.4733971430296009 -0.038731321724526424
-0.62034724602261804 -0.89611124922879171 0.33791640468945161
0.57836466554040555 -0.9509528889605221 0.37397118827493614
-0.93124847244306608 1.0153311977240946 -0.12486136727591202
-0.29417779438206892 0.55368397664902602 0.021048202766905888
-0.34657621595523125 0.77817576199358029 -0.16302827586787316
-0.61517778537750445 0.30859242306381418 0.36695114966880737
-0.29284784252526164 0.44528774553113237 0.0037643826236717359
0.49779973980601255 1.3546229300754362 -0.0049436199616366139
0.24726709010487546 0.3774938470253062 -0.011405918470245524
0.26461166714250339 1.7439026483820896 -0.43512162040144631
0.72075280712162737 0.98623857990986608 0.15018321723869121
0.34368076546785176 -0.94869754170809983 0.42861958197636341
0.019904416524440194 1.1668974101734761 -0.84112710699423587
-0.75211379882339457 0.074740452123123191 0.20950095937234892
0.36209288838782783 0.6764475244726782 0.21643516706205901
-0.36045274272878203 0.43198614184963446 0.066557546790249944
-0.35151353205617397 1.7878724996385174 -0.49397528119982326
-0.61178453862689253 1.2795045979844133 -0.1034274480213071
-0.87106035631997258 1.1001884127562391 -0.43022116260419807
0.38402720377599309 1.0792767226444937 0.52477474762326892
-0.63373084239628952 -0.91186071589252293 0.35214287883610496
0.41954061179289681 -0.2525634655124307 0.081870594273993902
0.41080764131869785 1.5041035220307322 0.057485339631966781
-1.0421173116887559 1.3322539237870501 -0.71739494368648593
0.35542001718953031 -0.33280024939796249 0.23718715658907286
-0.030289130758953675 0.47366558182811502 -0.12872932433447204
0.62090951496107039 -0.37848826624993137 0.27724167314494252
0.12236876248249473 0.73684272631614078 -0.18944039707571392
-0.4786229077097417 0.84802116021721474 -0.038330339890421783
0.31719819778214742 -0.93385829346815896 0.44435171650656002
0.15753155166677857 1.6951085422145837 -0.36046968468110663
-0.18426113694755486 1.6794415706833377 -0.47459431718232281
0.88981315236203784 1.3220446278285607 -0.10211715115156039
-0.73761020963851109 -0.044286331763110809 0.02331658735676001
-0.1272522574573145 1.203766713656151 -0.72811614293368621
0.33721424410175871 -0.26843203833002605 0.20499297635416269
0.65579121385439976 0.92032146351129995 -0.020356408553425354
-0.78340923975797239 -0.32329712589871917 0.068635774792312532
-0.62191477841378173 -0.80306210900705466 0.26339933269537141
0.014422395917833342 1.119433139369221 -0.29994180503604184
0.34734709316099099 -0.30200117205762922 0.18909889806167257
-0.50876686419610451 -0.91045519401637165 0.37821659509273786
0.36664824863626677 -0.6037590573801026 0.38669019824305906
-0.71398401538830569 -0.44169214763131492 0.29055400734966952
0.10503158255316691 1.1783239643298486 -0.58544662222664101
0.093229336615777925 1.1791384722790497 -0.44229607777697311
0.57224226211427265 -0.86444261557519297 0.36811284155828616
0.34078068271217887 -0.26781410252220894 0.22902995030045759
-0.44010636158218119 -0.091075896295429004 0.072730402931370008
-0.11692762151272973 1.2008584458296099 -0.79466480789517391
-0.61661731371147255 -0.33784517691957205 0.26492082158773655
0.41844938775463447 1.8802616793229419 -0.4976954565674987
1.0668605029166542 1.5953273713872136 -0.54736492475194609
0.0091316035177726462 1.2613014995846328 -0.84745376529861005
0.16608115700367421 0.02674767276729284 0.38483727526664779
0.019965046805040743 1.0997585959829621 -0.2887287710699411
-0.59352119997646469 1.3396333254836179 0.17452297307659137
0.017539513360912196 0.16232142740264521 0.033613681975680265
0.31944202597543025 0.52587629731587526 0.12180008559516864
0.45080434210062492 -0.17370813048438549 0.035261821014216821
0.37091915162001499 -0.865136374826875 0.36624904718649987
0.16956831920116855 0.0078082560740284634 0.30071924364779079
0.32871424443580111 -0.23829921116282549 0.19605843043194682
-1.0755926075544835 1.5507497192474204 -0.75285319245301707
-1.1793325787622564 1.3469076458835332 -0.67300105967103718
-0.72055928492146393 -0.82593134082197395 0.21479140330569635
-0.35626058576737307 -0.17186614664652922 0.2539319862002003
0.2796904633361379 -0.13946529566891996 0.15868452443726255
0.29474057372100049 -0.62638546657664307 0.28010006401569854
-0.53925114947186614 -0.46040869252523464 0.27982664177494598
0.5951524776241115 -0.44779967161461087 0.42395710995896252
-1.0072963438895215 1.4380307099840053 -0.68555211387376858
0.38527181486571926 0.33695777491027457 0.40632856698255182
-0.29708703588384822 -0.06251091742905146 0.17431694387113339
0.79076258163171076 1.253283032471586 -0.05266351048942397
0.32197107436772399 -0.76021626442981471 0.36691117241616666
-0.36818271703060645 1.6430140772439188 0.12944391062865179
0.28295910341043395 -0.60110267143662099 0.29402152461204878
-1.135225149869953 1.205492299802799 -0.68208846905747578
0.21413434281436139 1.5242135508994892 -0.41499982907623689
-0.017682304875847876 0.93462117055030092 -0.28045660664929528
1.0209673513689097 1.5713431008526442 -0.42451359025812962
0.46330423909724061 1.3373865985092976 -0.074874549401897639
-0.34756337860039821 0.87711729176044173 -0.26672142595282367
0.24295029809647417 1.5681939726408132 -0.31118466737905237
-0.87846721375338177 1.2982150183031393 -0.47170423616557855
-0.46659265325530441 -0.1638197581206029 0.10034564514836575
-0.55014549074341801 -0.19455466244593822 0.06007616782187597
0.089423066641337812 0.75941611073784543 -0.21067160732695811
-0.22379903902954368 1.4969592859463461 -0.45770763812583937
1.0713692800238732 1.3982388327367801 -0.5006280926043587
0.5370028035037393 -0.933159714948264 0.40801853365047691
-0.10593860805543187 0.15931415834356955 0.041112085809800192
0.33301338397835423 1.4498094160985602 -0.21235089293622877
-0.5068655643888178 -0.31483387084552561 0.15590931114115847
-0.49550035620178789 0.20950943128084987 0.010051642047642417
0.27056296017311254 0.24193146110924602 0.013734922148955775
-0.53883805619875602 1.282974696184354 -0.15659019696352061
1.2223476209938156 1.3973625698342005 -0.52320369073623851
0.53637187943563447 -0.85105150715487454 0.31031125834857676
-0.72145722089869935 -0.18218154460805636 0.23451138092508472
0.60798864271245634 -0.39900019291611954 0.13997794763258753
-0.29741457791686798 0.56150685989535987 0.025646123449632796
0.31115660316525151 0.69016168907442932 -0.022960811326356634
0.29419189292829628 1.4880620970778295 -0.26597226548381059
-0.41788859204002904 0.08699550785144794 0.50790955570926144
-0.58239003003316725 -0.8041365560131446 0.28264264331443201
0.35218248360732218 -0.27758306927009357 0.15812357774422026
-1.1750041095617689 1.3795558813058548 -0.85356788016144947
0.36529296998274319 0.58623482409078065 0.32394755603377234
0.19928951123274885 1.3292835983850324 -0.39912190965765149
0.62584013036264707 1.0490664247358552 -0.12794503198836082
-1.0693698111865473 1.4266567346714396 -0.61472266675286846
1.0732431050567186 1.4479690883352987 -0.51227517227766839
-1.1369130168456394 1.2191085738032612 -0.79566078267930607
-0.39816720592296662 0.098422853829404744 0.50053839144521817
0.026503927148468165 0.99798181376255002 -0.27776900253650183
0.41213013450641256 -0.33102656640411254 0.32554996648059387
0.60477179366445455 -0.74052250018834798 0.32430467791658657
-0.51123650411994959 -0.11940811739314228 0.045341387648932141
-0.041712478452154755 0.11299659780289062 0.10305312843888714
0.41458233061964211 0.36947109876572881 0.30264497483528885
0.024266982027754125 0.17595822844992881 0.019151287357999536
0.13687484689549478 1.6875130582268696 -0.39611199403759656
0.63179771233689053 -0.63045092725862162 0.36141676648588827
-0.52433048110707148 -0.26979745754562146 0.24107270931023095
0.59661260127559501 -0.67701144081243569 0.41225564954868332
-0.20044302997896324 0.62570883231113328 -0.091740385400612467
0.36266435925022833 0.12300220038767407 -0.0048201447356177596
0.10269412969015512 0.43053837055290956 0.6122284315796378
-1.1332468109589371 1.2300842629967974 -0.83131990279343881
0.32751313193003284 1.8208432665223029 -0.44494654293782787
-0.80051043899030105 0.98048670391833781 -0.091994309454548784
0.35036747575134086 -0.31509618180379562 0.19839395111802105
0.77683542023711993 1.1446886096993154 -0.23407455028780078
0.59727176284954453 -1.0104179975709169 0.36608773948492512
0.7807890907242836 1.2632599096219792 -0.10129043455344799
-0.78374818159780091 -0.24472842253983629 0.072678066718481205
-0.2456805200844201 1.5729603242328665 -0.42690806372274892
0.027898633749842361 0.65538627537539185 -0.20282968923118005
0.40421702499538981 -0.24810166247554122 0.3290995679057005
-1.1639906512518081 1.2106067479420588 -0.72813638317211371
0.63987658442636075 -0.97703394312787495 0.31684771795380584
0.63731197836378328 -0.6119741406181376 0.32479352407409579
0.62522079008581954 -0.2656659923202298 0.18469611081440007
-0.76544785945785065 -0.5138348397199124 0.10007465852072528
0.44344891405481235 0.83554952485025069 0.099289021086633511
0.59750033664269608 -0.31314117913501605 0.29585789427602549
-0.49406866702020125 -0.36312476204935962 0.11921917649817715
-0.42772094755310519 -0.032041130974334919 0.027724369238569579
-0.21499905148212406 1.6741477323524094 -0.48173237539629099
0.35958374983314911 -0.33513108233395883 0.25519388893343375
-0.67278699769466499 0.23475457422247104 0.14499694088465276
1.1120173510504543 1.3166606487254171 -0.5184864115271921
-1.0196574426594225 1.3678920149305824 -0.68435771198051043
-0.50277457008425586 -0.35867343113687866 0.21256515506672713
1.1474765486429135 1.3870690624936657 -0.64293328319070042
-0.5045979937789582 0.2954421674729204 0.44698776352799996
-0.18040470155227695 1.3289738437794512 -0.55099441560582818
-0.10418157085975821 0.1460348323741627 0.075095758055795159
-0.84396093531147187 1.2798640440190994 -0.42332202957493337
-0.10647713486750376 1.5911249015346129 -0.49037975110422849
0.052502636105280942 0.79712898569546553 -0.22657898824922995
0.17669694423481275 1.3905217283883076 0.63556958563412991
0.39362269107284931 1.090244061893813 -0.21091850462960338
-0.094965054112847724 1.3421791206821894 -0.66529023521354702
-0.46768676141511634 0.44133136863536038 0.25229600494026272
0.79519528577513654 1.3387349390414727 -0.21123065510903416
-0.84132844754461189 1.3108745387187071 -0.29234712972026955
0.57702935560459423 -0.1849235919428267 0.042026220157538319
0.35368581413983691 -0.35881818376730479 0.21936318303949065
0.35624109615719135 -0.35274726883267959 0.19971690281755627
-0.10431494600869939 1.0910921038759938 -0.26787733586422746
0.72557900574439316 1.1813031372091132 -0.13766390236241932
0.38933450319534302 0.4399091920568452 0.29408049883534204
0.5251417552886295 1.0579571916420321 -0.11286434900887343
0.42183586002416007 -0.34862472905600583 0.12508010674764591
-1.0700278654435209 1.2739195393990741 -0.74135737165886439
0.38747830893646551 -0.79309715523819335 0.41338271571976293
0.18794536172311638 0.19584426371726238 0.018614131199910844
0.62651881777557605 -0.41462113815270385 0.36315508227784221
0.81646756316263236 1.2603282116541124 -0.052929001239135687
0.45509442105188214 1.1609928340954383 -0.14238154242320888
-0.49609844233690126 0.028104392263159639 0.48917528888438255
-0.51705611772001703 -0.17741424420790253 0.072114005574803741
-0.65602611855179305 -0.21669254111046143 0.27461425800044026
0.38117062029280646 -0.3682379512443319 0.1553178301655862
-0.73132794847182936 1.0918569782770788 -0.26866596285265132
0.63418458532726163 -0.0035463925698877574 0.21848442196306905
-0.40103860044567341 -0.12205547778265924 0.12357768194078744
-0.4474909463202863 1.3233670635982264 -0.24434591493877633
0.52635474898011125 -0.64966026919596231 0.23710666092728161
0.21062518172530531 1.8178237336862537 -0.461686648380919
-0.25351620689156995 0.67487585654485827 0.58345097262269974
0.078307519737933262 0.15244051610179099 0.066396136543403372
-0.54752395311516722 0.35093292045060309 0.22708947098396948
-1.05792067005099 1.2038304992004853 -0.66110430111154983
0.55444220607944317 -0.63185474199602965 0.43504509433745397
0.19323271348014259 1.2390691556387736 -0.25605889164853579
0.48008374323296721 0.87191275403073121 0.095506602573664168
-1.0336913738152447 1.5037730078779745 -0.69142035708364347
-0.50433374163411315 1.4178848827770878 -0.019395615074813577
0.027850233665873247 1.2530761883158732 -0.85514164706000884
-0.6594618265484371 1.0757415886320842 -0.22586397186660179
-0.743944195564751 -0.8854057063482621 0.24689542317435098
-0.74436800460120622 1.1248111026802547 0.2117842949713804
-0.25533046626262035 -0.03592025971063606 0.19336418003013023
0.11737471449441905 0.42085560874798489 -0.05138430804595373
1.0278122286645441 1.4747737661567442 -0.34500338298522593
-0.51061801087481484 -0.0093299239398660916 0.0019469197519015324
0.36190862978161675 0.84361751881773728 0.49457656407651029
0.59386232763540647 1.117099024097385 -0.11606116423945423
-0.63052379311628215 -0.89258150003315251 0.33238221636986509
-0.75908232743147153 -0.63419809464306098 0.16486401093663972
0.041877326843319906 1.62547809656499 -0.45407327863051705
0.09162743791071648 1.1288367323267465 -0.28366105870577485
-0.5566353984150183 0.34966824532987317 0.30578068883801279
-0.90758528696798635 1.0488752887832149 -0.32084313515929352
-0.39240683705563129 1.8381680430874496 -0.54152861547242992
-0.77643263051345457 -0.90531025117088504 0.20784768848477597
-1.1022631754088366 1.4593204503057677 -0.6769228091648074
1.0153851204474336 1.5529582719717752 -0.46370537288225933
0.19759282745060602 0.69636164994395244 -0.13320389492298546
-0.45660914058527702 0.45061470588721875 0.25342961693672805
-1.016477715717528 1.5490658851118226 -0.76096098396214984
-0.79819300106771607 1.2713983235348607 -0.25692666548059151
-0.66658368425146364 -0.36376537776092732 0.04403379992771761
0.19094189841857201 1.717763376580109 -0.1127945153446035
-0.07927300783032365 0.64468630529717075 -0.1899323880427346
-0.050001891812637922 0.24421506957973804 -0.032351683709975987
-1.1788896466421193 1.2172036852574095 -0.70892212194655713
-0.11601694792143746 1.1859154508917698 -0.6982278098283814
-0.43034564604213799 0.85912041796341043 0.47793443981186101
-0.24457707029179687 1.4651160131023175 -0.45881917867325228
0.0074971452573358022 0.17103651199585101 0.0047465137000699542
0.58149547452646289 -0.30003955697694096 0.31406784259615961
-0.44157078140758088 0.46602468836300659 0.26383146395198764
-0.75013037822671436 -0.78897908075264667 0.19849665080175782
-0.67837006038649861 1.2871147922783734 -0.092630685751146302
-0.55261990197470823 -0.8726608322114906 0.34227552856327748
0.24800009645827004 1.6223027009130249 -0.38160103583413729
0.47543112821014688 -0.85059963129744176 0.31649231026125335
-1.1867487732394864 1.2287089100670556 -0.6928009036171261
-0.62262206552040311 0.29962491180150863 0.34426724719673985
-0.78441107900135876 -0.92436110596194254 0.20130785137536122
-0.65547816753020527 -0.8470941415655453 0.27110219284878667
1.0841971507527148 1.578592740439376 -0.44429684943958137
-0.28517899770804434 1.8649208300252766 -0.53397777251302614
-0.93897188276790189 1.3939599658104243 -0.60068558138334538
0.070164093053378451 0.87196256902089431 -0.30141231845061611
0.45473342368217118 0.92047009583527029 0.35864115242645767
-0.99546180262862549 1.0677142931757686 -0.46835705708065234
-0.63163715958253874 -0.92834833655451376 0.37022044345923177
-0.72429818951022895 0.076482457274970272 0.29855648091904641
-0.53903525295177701 0.94880486418840349 0.27281335493626102
0.013038474545822965 0.99701103087433296 -0.27217841670551479
-0.99878357654387173 1.4283435033909129 -0.62035808094196909
-0.23012798495356357 0.34772055588594242 -0.0062912823658507477
0.19740873548825277 0.64195736187899399 -0.11009012767374315
-0.63194145213981301 -0.92187080769889462 0.36326622660379826
0.40442679403503234 0.90343651341486009 -0.18173931678745703
0.37995291349950833 -0.32272386628972782 0.29731661743960558
0.16060433954483955 0.68096906216374009 -0.16119463363691011
1.178870988226123 1.4347787143775861 -0.43122177987771693
-0.69638033122645027 -0.66361777478503825 0.27391884510939235
0.34306747048725583 -0.9626883879371313 0.45560505580183985
0.60959393585625321 -0.7718805402582376 0.36642796800958877
-0.21805933347644668 1.5683087810882057 -0.46961668402627765
0.35152666834261126 0.63871826087184047 0.16483321256077943
-0.52565295919912813 0.37148861153455215 0.31650955958104987
0.64079817805819062 -0.95248378622004992 0.30973337270449974
-0.96782594187438065 1.307768884277472 -0.60068339627048317
0.42146415999700082 -0.27152353862557277 0.089271854172523035
-0.6175153031283287 0.93424489596283422 0.027743065535219102
-0.76524200731213909 -0.23284982903954443 0.16432587095658846
-0.73678791595057191 -0.82655800385645861 0.20699729639989073
0.8890271837864816 1.4492233500262728 -0.29421385125056077
-0.22734277750448939 0.016473737838133218 0.17752029848497841
-0.98776819016241291 1.2838332040263509 -0.61622334144976776
0.79265466321470512 1.2978070841212599 -0.16425172667220522
0.60592836597808741 0.93887230401487898 -0.050700069599429298
0.60169993412951328 -0.92535080622846522 0.34748356455332896
-0.38945141332281707 -0.10685540999548238 0.39541410864927684
-0.2684168716540114 1.6282886985737832 -0.39491747282465894
0.63926418529241857 -0.96970517005528833 0.32031082143174672
-0.52871754769317647 0.34974192769864487 0.3596710728893413
-0.84309312104183221 1.335550197412104 -0.3431053489335909
0.29420451515284185 -0.91329279453135825 0.41771145517782315
-0.75691957496488271 -0.73060954407537793 0.21264283729999534
0.42431982203959251 -0.62567554028369443 0.23536794194433242
0.30809421420812555 1.8531017416261761 -0.47002677841805962
-1.0498422810866828 1.3606602176299845 -0.74317912754406734
0.22149889890985719 1.6014953873588809 -0.42602144184377266
-0.4410945689961423 0.20086051231736235 0.5084172056784837
-0.00076610612488892116 0.19763731093928527 -0.015051326401589904
-0.2974925351036859 1.4232635043773314 -0.39829373580460015
0.28680422221296453 1.7402464408039577 -0.38970220303326641
-1.1532636058567789 1.2180109240885244 -0.82169895527226799
-0.22863225045404789 -0.034144207920661529 0.20578804581828081
-0.64081390949810668 1.2711633440799162 -0.14677505461531837
-0.51380063745054372 0.99419664054110513 0.46119081406504847
0.1064293295790435 1.3839178251730146 -0.56849991533533739
-0.34209974440389246 0.60687584735580913 0.11350699079810056
-0.75887327808524674 -0.93397527616169995 0.24570059937485667
-0.79091817130171194 -0.98958838291996187 0.20776471397721252
0.44325790150948308 0.050944112338363823 -0.0082783895983311595
-0.011670258766589114 0.45599478292901097 0.60268121152387266
0.5494582693517458 1.3034558507918774 0.079809564166566815
0.027879388201711208 0.16592362858904153 0.050102155071613197
-0.018757986927370851 0.48667973861596181 -0.12373466935162014
0.3791028906748295 1.8659907667131108 -0.48255391473082909
-0.060183265282539367 0.8001406066340877 -0.2208192477630746
-0.78826739004293245 -0.21672191233402316 0.074623871938058528
-1.0125677605960846 1.4314947372880695 -0.69241739432220584
1.0693258002359585 1.5007211418595432 -0.37554748465578314
0.30367604381488178 0.56483041082397278 0.091455904871168059
-0.63865042796111027 1.2387609262669201 -0.20348270610088548
-0.22649291968662055 1.5881152269085277 -0.43365275395478875
0.34846107572872143 -0.84268668661993118 0.37034170372061226
0.84627537695953947 1.4083284509334675 -0.27012007729854304
0.27154545148671616 1.2165085645140152 -0.22584936830855895
-0.11121937935750736 1.3125528221743252 -0.72455086237062005
-0.44116641963859493 0.3376193097275717 0.071190034970641136
0.50937459572206478 -0.82272439743812598 0.32105375564799488
0.48444621680311606 0.31377745363705856 0.29396143762755855
