# XYZ point cloud file
0.32126622435498575 -0.39114748043357395 0.20545224671423057
-0.88549631300065812 1.3836427897363137 -0.59638084058633467
-0.46315573037645663 0.41000078021443187 0.38326208975286136
-0.68762320175119385 0.92359923309595615 0.035700313166671549
-0.1743488417532717 0.661540601940942 -0.13699781939067179
-0.01952928499031259 0.96104034087329637 -0.25776678092825023
1.1033128129988654 1.2886146670998642 -0.53592913899956329
0.23634345800792289 1.5415538305724112 -0.42308333258188213
0.35904670611944312 -0.79022807490264313 0.29197867634184149
-0.81432631374809716 -0.11444491624570219 0.10357991698492697
0.23635780225686176 -0.11149891156219383 0.22457077956914873
-0.82096139210625552 1.0227634639777534 0.10586736667028163
0.40180038424796294 1.3458437174258506 -0.17231260171229223
-0.4483214593728917 0.45556507579613026 0.23855186476885137
-0.11129319904375734 1.1919724016170221 -0.85112097860428548
-1.0679628916927868 1.223478034483378 -0.73580194563055557
-0.073465494729134662 0.12197712630404567 0.15463952119989699
0.9854124403818787 1.3968947705038772 -0.44586623262694047
-1.2095499714932885 1.219146404298499 -0.69499573525763481
0.0031066328920132946 0.93888183693707106 -0.26457730441325111
0.38272517859149957 1.3884744063507242 -0.11189147109371333
0.51004526468523181 -0.86337723180440662 0.52343347421810904
0.88185512117524922 1.3889403358484742 -0.11819565641189911
-0.82980839943138562 -0.23198194290398533 0.081573597582973889
1.1219181312180808 1.1179200074575419 -0.28639321264927275
0.22175976424023247 -0.069270411642264662 0.31403159668752778
0.046859609959028603 0.068689334922055423 0.22204649385639641
0.42254907436654321 -0.21191304465764915 0.39735088017550879
-0.23801108484713041 -0.021254287985357223 0.22368293466297473
0.040372314237174578 0.25249465978822627 -0.048041993674814876
0.18417167237885224 1.6912861603759666 -0.15586288942813553
0.64440809475217975 -0.12914261739024369 0.041344426723753713
-0.5383825102044284 -0.29201054189024944 0.042696011197222106
-0.57778673391021584 -0.6904060186402603 0.11503409184660995
0.32914481672378315 -0.4425035030944855 0.4336339067094741
-0.86516700013089576 -0.99523702334226982 0.29885118957554369
-0.93950829522691492 0.99179715004902391 -0.21336044158033474
-1.0971093724001548 1.0421222735044466 -0.42154135328200937
-0.010047375089470734 1.1685278599456979 -0.93367396158510019
-0.22578429520717691 1.5011448953837316 -0.47971565999660015
0.10682393970091653 0.8083233224833748 -0.27958765404491714
0.32018186406094173 -0.12494203085680056 0.40574355248554639
-0.26439103594293556 1.0406494199723966 -0.27575247526056046
-0.60451978350374702 -1.0433837673867856 0.093908093133450166
-0.10381376140048815 0.63577590278191565 0.63285000143696379
0.37489782748070866 -0.69579159503427945 0.21126910676184707
0.60992155015173921 -0.51342498174017237 0.4784484037340917
-0.051595471625660139 1.1787886675310801 -0.89966805079802725
-0.79490328223528195 -0.024693555324574845 0.2495724137779689
1.1160041151733822 1.4540035202858235 -0.29502364960217164
-0.030010502788172744 1.0284773700977894 -0.27517692192850518
-0.067024387148194364 1.0630632185275317 -0.57435312353754853
0.21428159150627835 1.8294420994420761 -0.47431714284402915
0.18784720251096587 0.17744697076159355 0.011697915727381769
-0.36969962699367898 1.5126011365782688 -0.1127122468815287
-0.49859253099657508 -0.99870385481608537 0.35076843238039146
1.2043701757447707 1.581056010186785 -0.61792955483952028
-0.70301825078240654 1.2726508981068037 -0.23236256678592326
-0.22597483539811947 1.8168306908019076 -0.57972393079808171
0.22490189033123897 -0.018941805141821533 0.097436521709823865
0.27579465439703199 1.6557920515733713 0.089339048743113381
0.98378191188157871 1.6113397888052532 -0.45367163183345838
0.87525872368541968 0.98425773742201272 -0.21990418236009646
-1.2708467366533114 1.2103017405543142 -0.45915524601832658
0.72390661618328522 0.97729988685750868 0.16315371068094464
-0.14286027738990015 1.1790453811636326 -0.5852008997790108
0.71630032568191382 0.96266091582492663 -0.17229360025521601
-0.27495828898872787 1.5520224834963301 -0.1733063162992039
-0.36229004355664074 -0.16965632438359535 0.25655735518921574
-0.36025840909042017 0.19281508088397459 0.020534645550469577
1.1230784860249514 1.1604991010635786 -0.42376616957244551
-0.46334384808960749 0.92091544542563497 -0.17768860853266233
0.23281281061190384 -0.085199969334553316 0.15298734478164988
1.2093867290755043 1.4926057558973298 -0.4612133033315331
0.2631888770738442 -0.15241931901164207 0.21480866162164602
-1.1148211362119582 1.1478648680727019 -0.66775602789630284
0.30470120555492031 0.29302903163352312 0.0058234931757397135
0.43872850952266162 -0.86508629266427306 0.2429884433895495
-0.29270987870040699 0.65799160770438903 -0.052786233597544197
-1.0074825808624155 1.0775869539588712 -0.15207494637888885
-0.12939414532684168 1.8679668643148943 0.083765249235057126
-0.59427492921258818 -0.21631995927100434 0.31132698682813498
0.65588338950419711 1.0171214531146688 -0.15955211993241392
-0.1174273411465947 1.233826607044648 -0.81821154538010887
-0.27330144269581069 1.3328737362226093 -0.44502215531247202
-0.77790464328700182 0.95123306293226051 0.063996126088568417
0.56011956459769863 0.95292014608548925 -0.11097971133904139
0.12769265655515483 0.72226915974533767 0.63150947469966923
0.63965400791175853 -0.95216831911693589 0.35931770427032461
1.1092663887166054 1.6388584419755716 -0.43695737986672611
0.19339162867618143 1.3073080446893073 -0.38170074475146976
0.24864113023340906 0.16420891203733845 0.51810460101478384
-0.4822918572153867 -0.31952166180235508 0.26374074467912578
0.10505456834926008 0.49335126468940871 -0.10275414423176699
-0.55093557285181305 -0.86245672868199108 0.44039926227151227
-0.31213913798455906 0.76726543439190209 0.5263256105599794
0.25426173119421946 1.3419048082523659 -0.35659937173932121
0.03787190791717876 0.08225601171488961 0.2716643781741368
-0.39520884917692456 1.8841518869257925 -0.60888829476971296
0.44632168623684265 -0.21493921663159199 0.3937704120712624
-0.60493146956287092 -1.034175301072537 0.075875527297739609
-0.51157396169946878 -0.19092101605201606 0.034715365492047567
0.043450212669085886 1.0982238504357156 -0.4789959387012459
0.17060787410537159 1.4314082755436175 -0.6298646125706
-0.023785519777447917 1.0963428257000487 -0.34492975654939073
-1.0667287128831049 1.5308770723768248 -0.6820384071229455
-1.0312178658996345 1.5341077443927134 -0.71915408555969407
0.94485931708231874 0.99380671026847267 -0.29113070682205944
-0.40964075679676171 -0.11326214384098421 0.081862470630767348
0.35367572143604775 -0.3693716689899702 0.15319956471057594
-0.80770538174147077 -0.092382570986956125 0.067009763854912308
0.29846847928638454 1.7402398109170463 -0.36988619235944498
0.5745731557281033 -0.30944310702307121 0.3487507540421575
0.090264460868638707 0.056117571145477996 0.21495152988791233
0.14458313528712097 1.7247268895803245 -0.43592495844495716
-1.2521792981569888 1.2451447072680821 -0.77778670655652604
-0.83278450802117732 -0.24709429045515208 0.030149547587825509
0.29631122584669356 -0.76838377617741571 0.51924281891933788
-0.047175676572805969 1.1095868349166267 -0.40789283444064495
0.31151592747573886 -0.85319902443325191 0.4029872188830268
-0.38247433190826996 1.4124935692771032 -0.17118987860794732
0.11162436970607814 0.51090195684810169 0.63250534378039447
-0.9722568427787337 -0.96150430034549572 0.19601606292781071
0.14541128507153189 1.7207390773996849 -0.4457206093552486
0.60729119674306276 0.1922987378839025 0.1926541120164984
0.55282170912414585 -0.14329569045139579 0.39660571310332671
-0.083650582360860426 0.14255562208290939 0.031139280935349234
-0.091248035371791048 1.4800931002027937 -0.59756734787742971
0.67826491007417644 -0.29127606817382912 0.066383091229454294
-0.0028151166579846176 0.33204303114189315 0.60255430779761809
-0.35777208110448555 0.018607764100124768 0.018314812391508895
0.49432352960684511 -0.90027494584728629 0.14244126932680956
1.1852461528687854 1.3342819140361826 -0.61785673278154718
0.7028664193444456 1.1740885200624689 -0.15524510656769053
-0.13923184440409386 0.73335217661451679 0.65866277634540893
-0.65201055512170569 1.0316291255130636 -0.23183175196845696
0.63957967566511797 -0.40338602469410034 0.3109211989076357
-0.066469350609622779 0.11881516188168462 0.15125108127267595
0.19881207929574884 1.6310241214023335 -0.46493184358723738
1.019240778715357 1.5188332923976304 -0.52559556284450082
-1.062140298806753 1.5160501688383192 -0.85103531300728719
1.0500712501670932 1.0567246644873194 -0.34692505663178963
-0.78094177891762229 -0.11036423938730877 0.22901865184121561
0.8510240206733215 1.3741767104315841 -0.13360572839656015
-0.39359306345340883 0.94025614364636567 -0.27049102006640169
0.14601317500000732 1.2347591653688141 -0.42394116904870316
-0.91336858116574149 1.4204428831026235 -0.59540903291099312
0.54999647237764293 -0.41343158946119729 0.49587001478312231
0.26178129966774577 -0.67231114346986942 0.36049521900076797
1.1623238542688341 1.3235017645274638 -0.62833899195038612
0.54052802080241236 1.189208807571049 -0.10279689689241422
-0.31507885043720307 0.75466356020797321 0.51720799378108495
-0.82507157019790611 -0.28967787861620309 0.074292668462476286
-0.38965126875882561 1.6317372407547737 0.11954163374412019
-1.2037309660195206 1.4284250879518368 -0.84763804365820761
0.25229081028192013 1.6507734970473393 -0.33161568214791259
0.34265315682478104 1.3753448391280472 -0.23424280075005299
0.44681249504810694 -0.58324452983424635 0.12449293837880759
-0.87197327021476667 1.0842290012851663 -0.47622902597595385
-1.2096242101092685 1.4118754686783177 -0.45663093881830719
0.13440714084936189 1.1322528038044766 -0.271791777814542
0.19069818821390072 -0.041512982497351913 0.31227673110151954
1.2038969339791947 1.3824748876895683 -0.71573339927999768
0.62321469977177912 -0.26021415851300844 0.25936937510277858
0.018767575919810042 1.3752972128449983 -0.68600041163608694
-0.8355807889611242 -0.92830880068640909 0.31775296618161519
-0.38104410382584319 -0.12900131119749858 0.34741001451857301
-0.70792894452006294 1.3229891890241561 -0.0081580526966718026
-1.0735462851193915 1.5336775669557028 -0.68464458280095641
-0.77460984061963245 -0.23690641043731375 0.23023214782460855
-0.29967410257995653 0.012420869119068811 0.44138686936184968
-0.68170513511904574 -0.78873902135228491 0.43204098272872216
-0.61141657183270581 -0.8247514307486199 0.45305437240040192
-1.0218363943135955 1.5511000328806404 -0.74632834754265787
-0.10399673136453202 0.15744431384018753 0.044904985858920554
-0.20036093952876399 1.6271738824480053 -0.28863117191849597
0.0011230809300286637 1.3015162038173003 -0.77337529743408595
0.22821964101331105 0.89042649456041545 -0.2958546623822258
0.80855127606037058 1.3776639410589269 -0.27530062590903981
-0.22337899747435586 1.5257212438546048 -0.49520949312227458
-0.62591792362673004 1.0641399721152993 -0.23336071447556606
-0.18605671444493055 0.88850285331864143 -0.32112940728893591
-0.77602688766182837 1.1904846634442947 -0.40571573204033484
-1.1268538935378274 1.2007964648723828 -0.92256129636871265
0.90209380420083107 1.3161147541491118 -0.019154462884216628
-0.29706899977782086 1.5245678703358863 -0.16436226309724589
-0.50334088992894976 0.40494286029434079 0.24233957892101898
0.30649236536464741 -0.88711475449963473 0.43504766975365783
-0.56121031211569061 -0.82016465909373437 0.43925911097812786
0.75504477278082049 0.91239743849700972 0.013538799524212664
-0.72357242244379449 -0.43031539524963591 0.42038025949022995
-1.0050817322935472 1.475553664959989 -0.69152241501160461
0.52098780042524595 -0.95924371183991752 0.50592897976366658
-0.26708903927965366 1.7709480570965752 -0.55232770855855051
0.27937282016773679 -0.99063116742445345 0.40945473224292073
-0.44910589888513641 -0.17805112175119575 0.10240597999472811
0.98137337898242549 1.6045343869673161 -0.48209084483642073
-1.0010435793419674 -1.0064697293896643 0.14328069117118503
-0.77451132335045259 -0.0773591866118295 0.014287038633483462
0.28220895069080143 -0.75333492982099415 0.36136696147468683
0.99457967106036449 1.5980342303014368 -0.42375775328400778
-0.023556881421427533 0.52815186941734282 -0.14017421530297725
-0.14256685040345474 0.063808594895817805 0.22458069695858285
-0.67119950704272924 -0.87022016541232006 0.44929403351989095
-0.70738985485513695 -0.99587982078992354 0.48777867569879163
0.101886035096868 0.11343599086103495 0.083494096972572152
-0.056164779559367162 0.11394545975781512 0.077792613569727109
-0.61559244214095088 0.30100421723045656 0.17357142909168033
0.66259873392118607 -0.47100921827768616 0.19096346161859401
-1.160930233819272 1.1887067991624463 -0.6498270714064347
0.28847399733786006 0.58097674041891878 0.054422613427959732
-0.69428825227169 -0.76665699737623072 0.4285973195810584
0.55513562730902777 0.13371790489736668 0.43728684164307197
0.22159605921569892 1.5535670897434102 -0.45242550384000424
-0.57885450523281179 1.3190203462518184 0.15775674834458187
-0.58841435098202055 -0.86867528725997545 0.46092926534493017
-0.022784839742598706 0.91814615834937285 -0.26463284047531488
-0.29853902524064324 1.3687069620818875 -0.37733455931311255
0.052351246091348003 1.0518649623354577 -0.27842129011060024
-0.94168364726374421 1.4467059874532424 -0.50615089149368941
0.87333314333818635 1.1107824244313633 0.078510538138743868
-0.90304947053755313 -0.93227101017964742 0.23750309142224069
-0.73564483356494748 1.1491921147189714 -0.30702345582994894
-0.50967979058623314 -1.0245144552468446 0.35290108130675435
0.34083241242751683 0.54208109841101759 0.40697162098331319
0.26984282961348072 -0.63430233551798665 0.27077029687734466
0.16988046643109556 1.2510001502814703 -0.29296017628394111
-0.85939260181885402 1.3950981948578374 -0.52869829147948622
-1.2398319057415392 1.359832816666767 -0.47328672848561837
-0.4358207408531598 -0.55687338902816919 0.31176489203517121
-0.43569625400232326 0.98472890173388805 0.55355970723303471
-0.10229900957892823 0.1358213407384028 0.10929754346398113
-0.46724869905301603 0.94416292211008113 -0.196029509449545
0.3921382434455154 0.75957480153647339 0.045084650548233185
0.39106391710083699 -0.25179724921281377 0.048530136985391437
-0.18209128024500387 1.7613669025304262 -0.55047977647700463
0.31504488587324886 0.97166031438337086 -0.26683667426641478
0.23816694421793727 1.472931404307019 -0.40177736878331416
1.0555516608633297 1.643483294960788 -0.42550026859589707
1.171752661429764 1.3029830653222234 -0.49559889656620726
-0.099983633917872794 1.1643359008476182 -0.85677183016377967
-0.68187580841549789 -0.82288627730304142 0.43772279191489361
0.44453186053397076 0.93812256059663923 -0.11177515523377224
-0.68554550976023165 1.3037114517455848 -0.14966157789422141
-0.10034011308061963 1.5654735582929789 -0.55535451837704386
-0.17127540688670706 0.64029990308608831 -0.14375038491652958
-0.48130587278774328 -0.29963526381061456 0.21366969561586302
-0.00020412304456840502 0.38323752812721068 -0.085353346702504496
-0.89849068115381669 0.99398631226358702 -0.11532377201274358
0.15574422450936254 0.86972895983899434 0.66336807680636412
-0.34099024781335174 0.29870720597182299 0.5237359267548527
-0.8266602906942353 1.2961518915362831 -0.45327336147829556
-0.38943941191337217 0.8322167501196418 0.56251565168895468
0.17975539990493417 -0.026554247805961495 0.23044570957426913
0.55170909617299912 -0.033047363068817504 -0.02902026784431655
-0.87210162231212962 1.3993217785346133 -0.55613068354114148
0.047098565593842068 0.11344377816249107 0.11521364963573433
-0.81878580713373594 1.3378237812330553 -0.32632117060074961
-0.6001568008605318 -0.35544165146484374 -0.0024039397367232596
-0.81723490211697936 -0.16004568619837301 0.13750892032658157
0.77095477082912112 1.2437549419764764 -0.11778748271626682
0.35696403202018701 0.48590237620101107 0.20087348038759956
0.37827516116703919 -0.23640984383519026 0.3668754004766015
0.19389264772780734 1.0068966654189353 0.68123260408810893
0.3912969837269884 1.8466946666421791 -0.48561140121364588
0.51881961590743231 -0.90405649800732135 0.51320878612659726
-0.9573962772201412 -1.0289750115880452 0.15994421265804704
-0.83506617986950005 -0.4186237590320161 0.22429435755839222
-1.0388278418477057 1.5365450429430894 -0.71230862707807319
0.76504682754693931 1.2724662158443607 -0.24821960163490076
-0.13904465695122781 1.1988988320908902 -0.47198830603247188
-0.79427416387170524 -0.49676751398465058 0.092813765751543542
-0.39332444553292589 0.65828161491845094 0.37172735167587234
0.58590618289326812 -0.49837282302860331 0.081996100439027941
-0.79584564782180678 -0.87623761102213393 0.36350643833793583
0.22491777640971122 -0.017574457957380218 0.092130881588673219
-0.37782458820311149 1.8151347330685894 -0.48094690692687436
0.30007578707864013 -0.88718161681208585 0.47690956244332483
0.7851579722241695 1.0555041703573806 -0.23632278858531208
-0.81872993423075968 -0.14701199803130294 0.065388813624849718
0.42539073026728147 0.39186185742573798 0.16849675366665906
-0.28714972149600726 1.5317017461611613 -0.1765647665833967
0.51050240652330103 -0.8198902723579522 0.52768776266384521
0.34523960041360624 -0.94099326280365858 0.60487200132638463
0.2208867370286498 1.5203571676747742 -0.45855889559516072
-0.62917223929707689 -0.7129418756285304 0.4474374772162264
-0.20723318353157083 0.69462688962812535 -0.17843517625624372
1.1687620435709505 1.5743185818373604 -0.44988976014019499
-0.49513666039456439 -0.91746248357594595 0.32561451450919776
0.21096928912629664 1.7160019486036617 -0.338050083246344
-0.80787496445645957 -0.54711927796461168 0.15596762106497408
0.43547636298808357 -0.27113560719908492 0.0227529640415014
0.16605834964866517 0.39897996372201305 0.5782311509228748
-0.38737427008800296 0.51087433313477959 0.42733266930918035
-0.82946186101617059 -0.50761154745714521 0.32212329949197738
0.18586767802480608 0.59764543494748068 -0.076433189140516333
0.44434147833362658 -0.22474766328923579 0.39028621135457797
0.23741255695404107 1.5536517280506814 -0.41862347071764816
0.10202837210363214 0.46844819978105079 0.62731088795044343
-0.53482463649106649 -0.27494135948427356 0.29180078704030166
0.15386642800467598 1.321597480595301 -0.5861699603078705
0.64174111063857708 -0.91214202362289143 0.29830563888026518
-0.15649928023276516 1.2721512878097201 -0.68426629859777677
1.2125488564793159 1.3446784960033256 -0.455384013901039
-0.50118496923096245 -0.57373356364132633 0.084112638123315264
0.50281759335121023 -0.20613911552118225 0.39400170697945214
-0.35836846978691028 1.8550832078399253 -0.57772527406041263
0.44887690611767539 -0.868095751783585 0.55916503149319396
-0.80597497493363335 -0.11744326924736015 -0.0079618785966886207
0.44273038880692184 0.28265698374207204 0.39408775985975808
0.42275856440846837 1.0297261969722058 0.54219577478488645
-0.039273527695513621 0.12186600647510204 0.19317007394420216
-0.01625109897031507 0.11412051447359772 0.083746342842459853
1.0866155933481423 1.2620655859527687 -0.51311753594063703
-0.68656161109538516 1.0620956279080929 0.22139398493618501
-0.27102542753800662 1.3814167130603892 -0.46121728835760223
0.044538623936205113 1.6706213424413363 -0.38089047983476121
-0.42722763537130959 -0.10068877623461958 0.054324283567439124
0.15066529464911582 0.1540965699427943 0.03004669160782214
0.58222629515421431 -0.52258044352765864 0.1079450589472799
0.2515713194379714 -1.0220753293701819 0.56818071075349508
-0.39290972584876727 1.0096197746347571 0.60684003306414525
-0.012599093878634449 1.3427437525242567 -0.70651771393431773
-0.46183239430047252 -0.17636787409401222 0.34413755739933549
0.00080683992564445361 0.22609026153986633 -0.031059452069712279
0.022254429515669472 1.4047643779513237 -0.65874129202757103
-0.96472958000776998 1.1168082444228276 -0.56552050812706511
-0.56408758055658836 1.030805587539362 -0.18185313120193314
0.17758285241234262 0.037660478321413393 0.39016615282525891
0.29711468568802957 0.26647418347010898 0.0058104210065721418
1.0679154846798156 1.4485641112528356 -0.60287155144533244
0.70213355290206891 -1.0224209245161546 0.28153564408012244
1.1392726634894643 1.5932261805428425 -0.41501075515543562
-0.55083553411350294 -0.51048649707399818 0.047419637026905548
-0.4825272618982126 -0.29490137701168351 0.12988700533969677
0.34981452038118732 -0.32826860789737111 0.14362006909368574
-0.49325045044588478 -0.27916470898844636 0.23577595484039193
-0.52670938890514662 0.21064899865677944 0.0091467605798243312
-0.65527176979321666 1.2534687799434323 -0.21334650942571898
1.240940382966528 1.5030001279369571 -0.622927729305502
0.23000123450401588 -0.077788355083157512 0.32615363197692204
-0.73679877656377357 -0.80697260177203134 0.40587475093570902
-1.1115961106047507 1.1910778900960395 -0.71622140510999088
0.32750915313226869 -0.052297500994427537 0.45552392022091226
0.10524858407143256 1.169941545671918 -0.87583461721760614
1.171437410485396 1.2906112833834413 -0.45930864748424938
-0.095104735538370733 0.1611849496762261 0.01487119362809608
0.32266241326306044 -0.2921974222517747 0.20917701369307906
-0.29791011162888026 1.4533942047146411 -0.36039106657972297
-0.42310922287015273 0.46724561852852275 0.17528543336356961
0.19855562762950285 0.38399263760129543 0.56161561378394254
-0.20651601234567352 1.6402409560678279 -0.31078688991328818
-0.028332947471426451 0.90426724276312598 -0.26477431639068527
-0.15603353521692043 1.212371185711163 -0.38805231753485714
0.64046707441184481 -0.9074406831819033 0.26346630734269638
-0.75870161508646561 0.97834682701159181 -0.2474208206840558
0.28615688363152003 1.6517721371337757 -0.35046925020378694
0.33431361414659477 0.65086399830670416 0.45081363050849177
-1.2397440916611231 1.2465658228484244 -0.69913014394205675
-0.62647859341632284 -0.83154537048358179 0.18409536582475994
0.042525350548203278 1.5749433754745041 -0.51066537152655656
0.3574173342267386 -0.90034678528263612 0.57381145638828457
0.34511547617967153 0.46155836035268294 0.10693700648971571
1.0348456698670816 1.1404642635025084 0.016788156607617566
-0.069644571191929572 0.11769107602913209 0.13634574489424267
-1.2517407584464308 1.3002585194171843 -0.76214244486118332
-0.73392238606902538 1.2555203787205755 -0.26956664684621501
-0.12826937356567214 0.61280297710436571 -0.16508019064986001
0.15805525885843963 0.013778917565559823 0.19287395272294816
-0.25575287837546057 0.41943801691695626 0.56171846510278556
-0.38903352248826195 1.9320247474511234 -0.58456540343422603
0.22169091722753365 1.7032618760349578 -0.503772672876039
-0.61538707153340511 0.92387150406557339 -0.018798526932187087
0.4926111840595695 0.89549289699243673 0.22654009973030043
-0.33929752395988544 1.9226922733114407 -0.56036082792934394
-0.75894971509660536 -0.48837994795576378 0.059174272275413387
-0.79524787128229946 1.3068375769480554 -0.36323611237003206
-1.1494559788957304 1.1113848308054912 -0.5939228733877826
0.20678032381329103 0.0010785583554024925 0.39314641055443644
-0.54761304236126307 0.34092017043303713 0.20660971064262412
-0.62089825023758749 -1.0485210047972942 0.053240740671753883
0.65046454137791443 -0.30469207746318716 0.20637426688608684
-1.1123812779096625 1.447899529362985 -0.44544614486903811
-0.81640911342992695 1.2845035056197958 -0.45130842890421263
-0.19521663534987965 1.7387295817015911 -0.35772628494942182
0.27482891296858725 -0.72777364980220227 0.36040790971992465
0.68575517548060816 0.94355745977009065 -0.15283108172434368
0.61961265209083649 0.89420935193265905 0.11249924712501524
0.53639366067955052 1.0219400687765301 -0.11950085691523782
-0.59485377541932394 -1.0387241990542861 0.13940520458072569
0.20832657398432275 1.8231588019989431 -0.45211914605579295
0.03575712472320447 1.1823888540125154 -0.94248284171544583
-0.3462284648453533 1.7023220279602356 -0.46108326137209588
1.1633298173583171 1.37520118206794 -0.71008037030151172
1.0886469117881461 1.4001173003148324 -0.6061988974634005
-0.48475139783568011 0.42656068145288373 0.22227912376092718
1.2496028584273517 1.4387045800785927 -0.51120205653933226
-0.44546500748947437 -0.3361416219640887 0.22627492890478607
0.041357864386554866 1.3666770529962378 -0.68472676895544282
0.67046903523259971 -0.18037631095648976 0.12391924806297538
0.56037220552843792 -0.88659216907626615 0.19627592775304947
0.58489479622039653 -0.41748304824659499 0.064671365527829039
-0.42360380264381092 0.516725639392007 0.2779407399102638
-0.62153699280224828 -0.14732124802549151 -0.027681099216351868
-0.83326947452405875 1.0725026823129156 -0.41951208881710045
0.050890090143184352 0.61052327735433209 -0.17586210707122518
0.41468960623569728 -0.28494769294911748 0.38613827847075299
0.52649246108285297 -0.89052191585233231 0.49545909857442894
-0.086549105616541055 0.29634684531720268 -0.057240039903263096
-0.19889299530177595 1.8050285684676055 -0.42887059317763487
0.66242566808159609 0.064309040301850473 0.17399341447935512
-0.27724191530887765 0.5870388440644092 0.00022539184556080727
-0.42345119708170387 0.068019560269021895 -0.011199735592526849
0.068417432763453689 0.064749387345273135 0.21424834290974104
0.35319542963225103 0.3821697498319736 0.44421624644110125
-0.68114270391652099 -0.27410657027894558 0.33645300376792875
-0.095237301515226136 0.51741630289780005 -0.12844078956823068
1.1245027503450729 1.3056006976889876 -0.57041530762353432
-0.20729990789504882 1.2855390602489933 -0.44647872669929711
-0.61320179927406571 -1.0141740690633014 0.063993291915267037
0.56105656868203369 1.2743169462055448 -0.0047373596617035219
0.80353748564130001 1.3146415325759335 -0.13111596227827249
0.33140402646131406 -0.32974106497113098 0.21729957226943952
0.32270239840545401 0.79048841943676962 0.53541933741416869
0.17513121106821927 1.4387442649458535 -0.55844589782145704
-0.021646224718551821 1.27787881346012 -0.82464303286542417
0.36157538069801376 -0.29004875342343439 0.34758031536739509
-0.44331623248581309 -0.33420483037662052 0.20041544136438461
-0.39198781726145171 1.9142680292961813 -0.54511728974148355
-1.0475886611052374 1.4398271839404515 -0.86357961922021786
-0.91526217422460832 1.3029622631574966 -0.57152163097225639
-0.83375043612431909 -0.56822230367106386 0.29816812631861467
-1.0419117712540356 1.4809517054036405 -0.81953369080247285
0.24533649945715297 -0.051075754885914648 0.086275489298714092
0.53228474754268973 1.343510085131129 0.17176337096725547
-0.70855784252853482 -0.48559143981901798 0.036979467757191742
-0.82425501712941696 1.3465344510577779 -0.47910100317858451
-0.49541994076753326 0.82572767467445374 0.029819386245435453
0.64397548430497409 -0.38055705406395646 0.26524827723733324
-0.45640384805392387 0.45248365242696309 0.19805612423806451
-0.6239053906283516 1.0704214415000024 -0.2338617011637325
-0.86546603900660557 1.3969726473064839 -0.46856399059925025
0.23534155323704908 0.91601441718830756 -0.29662658714187273
-0.43624816034571268 -0.70662684245689888 0.2803897034145848
0.65860815646919946 -0.92661175316879962 0.31032796217414216
0.70516467071820443 1.1369404681663582 -0.1569079562736988
0.61494051907175162 -0.3278267732121094 -0.0027640728603728348
0.65088469861075282 -0.29231392741030504 0.20419699297963234
0.4468300342286966 -0.49202793770109565 0.077179841012366524
-0.46743492192581471 1.5757337456821006 0.19201128234089992
-0.90193728643498616 1.2297188871093567 -0.53802743452297364
0.34037223801078653 1.8378310984758173 -0.42253265327872214
-0.3857738369533763 -0.088430126088951511 0.080139419648730836
0.36395189691120322 0.59071370493893482 0.36337598810678173
-0.7903726136601108 -0.45402112323017718 0.37984835203633338
0.48924160298520292 0.031777911372955714 -0.03349013355000352
-0.46362949157901312 0.78660997458973725 0.007594947981488076
-0.82615989599526074 -0.45063770509887036 0.33038997825906335
0.14106931475998863 0.35312227288159193 -0.030849071627017111
0.64528370832431392 -0.90823436015261905 0.26931876303751778
0.58495554178398379 -0.82994954913829133 0.39715070869897318
-1.0197907317369754 1.5323571287572122 -0.79600819890083585
-0.62473362221135176 -1.0377179612255532 0.037607359864978207
-0.079167512289131992 0.62919236366724363 -0.18414218821726536
-0.35550642031284951 0.44802436276313529 0.079359928566191229
-0.49316988285681873 1.4403128225822002 -0.050905500463159115
0.30711131983935047 -0.90942321899365197 0.37437629858459331
0.32211150529110455 -1.0039146554463514 0.33913849724558531
0.059460569759721693 0.57972775123926112 -0.14593394805069693
0.44753467231930699 -0.84151905984845143 0.56021627446125422
1.0111037783913162 1.4541011825422174 -0.49825179759500315
0.41406018443649373 1.3401562085546175 -0.11900808977043198
-0.35461102854969795 -0.10970832775865347 0.35992779673688347
-0.74550196922973555 -0.31991583669150714 0.0033616780283409753
0.066751675882187556 1.1465789716985455 -0.8859211624044292
-0.61806226671160402 1.1651666976795241 -0.21261453788883955
-0.20158813816397014 0.68973396559158573 -0.15308144553182501
0.45439439881874932 1.2672980230927351 -0.13863804731045093
-0.73854660646520642 1.1388508573299987 -0.31003885316567903
0.39338542310815683 0.27202471760165281 0.43643344370320847
-1.2111912313303037 1.2008011838902348 -0.60955556221233564
0.39776143279686949 -0.95883735167035411 0.12030902719880032
1.2231497029511047 1.3805824254141044 -0.6906847665532041
-0.76668864867406228 -0.24478453809342682 -0.045969753335157293
-0.49280965365687734 -0.8346135951424003 0.30203820601582265
0.51692927798922028 -0.75987986105610617 0.24525458722746407
-0.0062609123697257019 0.93830190530115942 -0.26205496016154939
-1.0969301605568944 1.214773445195533 -0.81920150685755289
-0.26629107629787541 1.4944557631624775 -0.42546468998307319
-1.0432967520664533 1.4714689071570319 -0.50910157112639354
0.46710971907987187 -1.0417909362899991 0.55066188032651553
-0.4494489536364199 0.21069288056924051 0.010932745993159187
0.27724085713907698 -0.70237092092747844 0.45416376415141713
-0.066980380377572146 1.2692683150817174 0.73867164422699716
-1.1081007475299884 1.3246373950828456 -0.23559921400237727
-0.78969343109929468 1.2149608781201096 -0.44341063906540512
-0.49534412247521686 1.0529239661618703 -0.19588752777963236
0.28921847451692884 -0.58207720746258929 0.45718303731337073
-0.44805206004548381 0.22529539818924604 0.51645039313734742
0.073226676592184958 1.1147389490288333 -0.43555261970095671
0.97236105604270051 1.4698653717719026 -0.20043947767999271
-0.018636848250935145 1.0921894615776182 -0.72716812512862816
-0.2150906502433827 1.3184956007889923 -0.35784331006379944
-1.0235198972554826 1.524954827566944 -0.72184368015632572
0.021676815468254063 1.6260425194050185 -0.44862908518189215
0.13296033938877372 1.6534616056387677 -0.20080847460212681
0.27926785969157208 -0.45298497208841582 0.23758142999486154
-0.75817571230982139 0.16447084506353349 0.20625513248705829
-0.21454675940367451 1.5240518222526589 -0.51453229363823993
0.56135971332378176 -0.82037555085207714 0.47818364794511581
0.66214685630166059 -0.47245190744024512 0.24057181872967703
-0.15019391425812501 1.2120753854396753 -0.75517590441813809
-0.55175301681447309 -0.97406523963809377 0.23056975757617693
-0.62295340183663939 -1.044214734761681 0.045810924409579457
-0.042276673833839595 0.8689352415058238 -0.26448824232284096
-1.0328680365519176 1.0392780680545002 -0.30301879091348383
-0.11284523899257692 1.6219132320438803 -0.50736154922333299
0.21029669200970602 1.467248009490504 -0.45919664923758319
-0.29734160367297591 0.22614030244312744 0.5336189165000178
0.48196691067914799 1.2384604824901544 -0.088565880138048669
-0.72468585573187738 1.2850416970459264 0.12345430954428593
0.61201557728509215 -0.18873035420710949 0.30758562837991121
0.36743599342025846 -0.62710338095985207 0.54067828718325472
-0.4584774086752077 -0.23325306090600861 0.17096582253543602
0.38382447248659446 -1.0120349723533764 0.1353217341202253
0.30992440346926742 0.10027251707515461 -0.0059552678294494399
-0.12687691621795238 0.099045906807532447 0.17153029507517203
-1.1919090790565861 1.4281041431108861 -0.61143895930581493
0.3653544524154313 1.3755515584471141 -0.19668617963952784
0.62571808097982284 -0.65459397527592955 0.33454359899951669
1.006639155348239 1.6132170222422246 -0.41888461849521264
-1.066407616365268 1.2738407216534142 -0.77745686024763927
-0.43840983921018051 -0.68236504111837348 0.21654342779584113
1.1284646115054784 1.3494874614984838 -0.65672956380558389
1.0242767481286137 1.3974108259826608 -0.504589917375597
0.71685770289013817 1.1091252754713423 0.24791597105468099
-0.760946699939268 -0.51601089382847931 0.077385606601183099
1.1293460067627166 1.3730052420855827 -0.68928353769479145
-1.0263062618737422 1.5089552821104917 -0.69860773728396452
-0.4440771128729466 1.3606089239228822 -0.17157006813886255
0.025474508462593803 1.1045963892456712 -0.7714144563769878
-0.5394351455852302 -0.75233857321018149 0.16356593200953284
-1.1039626100614441 1.5164920349798194 -0.65440835329991387
-0.65687879421057005 -0.34872723921489523 0.38895902917738567
-0.44815703953645425 -0.74139472405795459 0.25804771775165136
0.029055732622509822 0.77734716631766787 -0.21809735319493484
1.0294462902843406 1.0261200452869161 -0.25072319631863138
-0.61275177537027048 -0.95820436202575365 0.097597911803404713
-1.0688711262200741 1.3521523671774958 -0.81773884329504654
-0.98955615752993253 1.4344433650644532 -0.40360053934409734
1.2590550778318175 1.384303666561209 -0.56955770942158779
0.46962021157196432 -0.41453775892114209 0.059924937170308112
-1.0833291683175048 1.3289767341070728 -0.90535653907227243
-0.595593902337896 -0.43759299819566877 0.41111783045653283
-1.1865975625019018 1.1248975544212954 -0.53174609679990681
1.0401332880255723 1.4967271762784549 -0.26046008191497094
-0.83776129630132345 0.96593695670981106 -0.032786430932901567
0.069795055998838507 1.1662697123501857 -0.90649752867011557
-0.75160780918940873 -0.87892631710155911 0.13983492906299944
1.1024343949297872 1.306190122298176 -0.57506446701154346
0.3123209008995218 1.8045350465326919 -0.48552841430091576
-0.41462895601989658 1.8543371493992709 -0.52425365216913633
0.21079138717141177 0.61184767559007014 -0.060418689497055311
-0.75837706303900632 -0.7571043196435312 0.38119085356083815
0.47812019731100008 -0.98126360981541438 0.55077410032163243
0.37844967188902956 0.45517703438463286 0.33973373612661817
-0.09435738525371562 1.0602206756057058 -0.27247816888575471
-0.10825937030040222 1.1502520236872442 -0.49089989619142216
-0.36784277750939509 0.85748250796723369 0.59893447422655299
0.32025999293364293 -0.27846450136530621 0.2232512189029876
0.46324283206013206 -0.3566028522814122 0.44183724938011437
-0.83253532836351951 1.3066308438346823 -0.085927203203027602
-0.31652530999599549 0.091401812415369932 0.027268608853773912
0.5957721276695338 -0.88859607227232118 0.34857630341684853
-0.13263922982150689 1.120469634730398 -0.28275536347246089
1.0641311879294335 1.4018588748381262 -0.56663855898841575
-0.25227763866087116 1.5443926256230043 -0.39238043709565318
-0.00018407513380225282 0.83610388202032482 -0.25237911838939908
0.19999429454219353 0.50182063195188675 0.59982746321111335
0.76815367452991268 0.9396728098654421 0.078979751499900885
0.24782753300951299 1.4109247816895731 -0.43633296300049551
1.0533213602084288 1.3015739821744319 -0.52748357563950776
0.26906569926586599 1.5085576898263753 -0.19063378791315699
0.99207260606544878 1.2928148458772739 -0.47718725193453793
-0.11215649323412435 1.6488835419122552 -0.46079365173591214
-0.89848358346125679 1.364134193335758 -0.26299523562829563
-1.0814482917294299 1.3449816729344093 -0.91436226917357999
-0.48992771552730119 -0.92542537771896605 0.35410522019037671
-0.80127900442494138 -0.95393441065607476 0.37393114001906724
0.31518370989761024 -1.0113690724751905 0.35232853020943367
-0.0091726843302240013 1.0978099525455036 -0.35118761859757797
0.048491032201127382 1.3273547910339403 -0.72230806417974236
0.36827975991309359 0.67796013249790121 0.25783238359781535
0.28856185096174158 -0.80924949478094277 0.40986815434371238
-0.82991108441729011 -0.26703610415415824 0.13976653729241661
-0.13439236153317324 1.2968533567800478 -0.62924183173618076
0.025882590886794787 1.0946534110698849 -0.74511703256121109
-0.14066934207130544 1.1957258576239838 -0.50944521557357803
0.022418687131448678 1.2295202975637949 -0.92640132287669985
-0.038559521084152948 1.0352127549967918 -0.60018025898716587
-0.2394781291441177 1.6956156954538528 -0.45958632000656507
-0.80829383049331227 -1.0202968812718609 0.36315915790737563
0.055129839547589654 1.0908699946876368 -0.80036452860440477
-0.8090370850832187 -0.70604807814333981 0.33797732563971294
0.67944057789281942 0.91313373780212714 0.094915590144864836
-0.012964265316441015 1.0817363457781539 -0.30379359997368738
0.064389883337753417 1.0944923534143527 -0.28684470649659488
0.30679135841637617 0.50623557361905114 0.095456142938928679
0.68654233315646707 1.2540975992369567 0.19756585404320504
-0.56173774988383229 -1.0219170386544647 0.23378671344289614
0.24945357903288823 1.4490916636195834 -0.40144827892390822
-0.53230411743152217 -0.23092235842113951 0.29032327678305592
-0.8053748803331473 -1.0050904271161016 0.37045102609909009
0.59748704146522869 -0.96393707334345891 0.41288182555899766
0.14445571476062469 1.1217297646417137 -0.27322684295722865
0.061042003221700725 1.7246752866467432 -0.19982787492062926
-0.82423086685685121 -0.2705234934528562 0.07768864052468416
-0.66865652494379901 -0.14814134648668187 0.33123050238737051
0.5719219590882858 0.17233032059903053 0.089635433922921948
-0.39793013412781875 1.9303454290038644 -0.59776106370554771
0.21848213584507903 0.13720176078095392 0.50926451861050737
-0.97781894604213448 1.349677453546974 -0.22370107824372099
-0.41997792414349533 1.0038277404114524 0.56799664972186292
-0.28734795782020228 1.6194051637558005 -0.42859553739208422
1.1309404202788755 1.3251692160151833 -0.6037613871612848
0.22958310056128539 0.028239495284651639 0.03974404081600369
1.2383846172724589 1.5447628903425539 -0.64022536784750628
0.33688590182873668 -0.96348281664677415 0.61714114261985742
-0.25181813508243067 1.2423081886954606 -0.26326489432449307
-0.50329753141340916 0.077316785228504159 -0.026459209692802688
0.41697981000379514 -0.36948861751761797 0.079405449001114903
0.12662516403770496 1.192165225908866 -0.44244710152906919
-0.074397686613792757 1.2787248878130413 -0.75893792967826812
0.30595287396499771 -0.38544742532712917 0.30944114430440095
0.071532953594214632 0.073090546038201865 0.17399853653660102
-0.30067498885136956 1.9035797719257062 -0.5712243050043071
0.51236588012943685 0.94054702040466509 -0.07993320642526669
-0.19404489191674656 0.083761927626255783 0.15105038039928331
-0.62089714327430556 1.0079319709248011 -0.20495529334857565
-0.13072670846077017 1.1554747354966821 -0.59634420570728253
1.0778176358107885 1.4713860126194049 -0.23011405295665099
-0.76890632518916391 -0.38768480164435459 0.39041114381325315
-0.59124969146887452 -0.20217128197282364 0.31767181765371788
-0.75563554885593476 1.07874788431036 0.19267067132477678
0.26102663647088775 0.55661643019266194 0.02892145583700767
-0.46859169780236698 -0.25621329492150835 0.19515315730586735
-0.53978103708504932 1.2423200207722402 -0.1518371542897512
-0.14328232774050775 1.7325885251548243 -0.36977450106905962
-0.46597548798581556 -0.24274226707348134 0.20046038097189012
-1.1987377654477314 1.4879409197415043 -0.69755693443585187
-0.18352457551645784 0.28378702042482473 -0.00084974582932773046
-0.21758555899396015 0.73385742692425993 -0.22993193374077237
0.97750613991365753 1.4961718116996963 -0.45335355070074002
-0.68801539800824685 0.21742418843678024 0.11840159933763061
-0.59947159209332312 0.31992305353242045 0.36528000297312246
-0.80678951550999045 0.0047661832559242612 0.21645181768508337
0.01929784163394288 1.7145122880165218 -0.20658076290101235
0.45321482755844045 0.13794149454952276 -0.016736410821067693
0.60013213631100371 -0.80018725507443378 0.39428068626057211
0.35465073219165788 -0.69631197398348377 0.21990224977889739
1.0911219879726559 1.4623179166273985 -0.21128224419453545
0.77805857996190753 1.2710140138638053 -0.11640406499373057
0.15103362952322641 1.0953861062798751 -0.25252748915681877
0.47167997342012313 -1.0358146560711248 0.54437201919608924
0.53002333612585062 -0.25645778104808414 -0.0017027970434355666
0.6401683399317335 -0.58423966138707328 0.23914399357272487
-0.51958554879365693 -0.9901290602847439 0.30437126954893756
-0.29275850570866169 0.16213623557860046 0.03059591005967377
-0.99163028687644328 1.136203122601728 -0.63480531580262323
-0.15006368794365699 1.7418235365676082 -0.38635024396808149
0.32393168193539168 -0.97533405925196348 0.33979549961259181
0.41117911443143385 -0.11390613013827533 -0.021332975452423852
-0.23892411507222278 0.69127063487439955 0.61144541032899724
0.16515278219958418 0.34137706630463072 -0.022141174439639144
0.5227413696484291 1.1656985662802981 -0.11661861690390651
0.25715047638686883 1.4199216384276951 -0.38440098415685497
0.64512681495307334 1.2799935721404836 0.031092384720523114
-0.49989025735612813 1.3726362022589456 -0.090418906966988288
0.39295022230089671 1.3558366632478283 -0.17205009137978777
-0.71765077252894116 0.24238256030093908 0.29690997444686218
0.70552625956543125 1.2521807808784615 0.17326564925542698
-1.2150834934982413 1.4089739258270129 -0.65594587588066133
1.0029569677576546 1.5739209702192056 -0.54257772463279252
-0.65828262098784762 0.26603426644578576 0.37437293312359543
-0.017623640319470724 0.13621663529738726 0.01450386291162431
0.17222095168699525 1.6743569205345921 0.46867085471876635
-0.5465342473517012 -0.61804025765650294 0.086658809864729847
-0.81318150390870869 1.1278038227137586 -0.45324213242838596
0.029230863657176087 0.79816958367109692 0.6469166054366724
-0.39520309126328357 0.51345593211681262 0.14855155163058953
-0.28572227093809488 -0.084388176742777432 0.20638450479873427
0.25327839476540248 0.50043386516927058 0.55877804374449624
0.59150811917834289 -0.89121595477809024 0.22754312686629419
0.26454263108689702 1.5961886349768974 -0.34003179468618328
-0.51567130743023881 -0.27932540517213056 0.062488474915880943
0.062626434192225133 1.086636216133229 -0.77701503190201038
0.30365372526193823 -0.82526438799277457 0.41449153949679385
-0.44271394898896688 0.23085624074656153 0.51355579534356366
-0.92936360931798845 1.0104917037861014 -0.41227456800606888
-0.76992987040102889 -0.87839306209752976 0.15096183034029309
0.35651107190915354 -0.41315564394835746 0.43429025574869229
1.0105490745272618 1.6348661856482067 -0.43951903693914574
-0.58458144419546443 -0.77125790092259194 0.1610240256313773
0.14675696373979008 0.39424056498501159 -0.035960984189841838
0.68448903261833038 -0.97998571278276358 0.33214372258089497
-1.0298281819741533 1.0149453637668557 -0.34688205721795384
-0.35667910296433547 0.6842924554430283 0.034507918187955511
0.037181936967499496 0.13573939017760495 0.087018089884622896
-0.62391284601562802 -0.29865103213751354 0.0030240212645367137
0.37788885298323294 -0.92499779173203933 0.24378140069711662
0.71578943933945993 0.91317274391985848 -0.031948267042480438
0.02471339213752799 1.114064123834396 -0.84271565285871475
0.62613094828338944 -0.61698670339546879 0.2159326654459619
-0.45310975881420745 -0.22529478833303074 0.17723074220066337
-0.92860920995826746 1.2418299374576236 -0.021522157214349136
-0.41170651036372874 -0.15499579999777779 0.33037367063661804
0.011046855505810527 1.1416917756573639 -0.88245554695095052
0.4126452468426578 0.96163981059362413 -0.17404076401089696
0.51707584465020773 -0.29491034842749286 0.0032391727431786421
0.98510521669368245 1.6208003279007244 -0.46059870635690459
-0.49964736856964009 -0.88354638042619627 0.3686099814553927
-0.40330174076916592 1.0452746818432388 0.60545983098472789
0.64861217404268245 -0.39860495491257097 0.16282349580478694
0.38858091413749207 -0.9446508964019813 0.15895199115129799
0.25864707645678209 1.3818809067115581 -0.37676600321901788
-0.19609823229393442 1.6546405843246248 -0.18498127121256402
-0.7811912939469039 1.2778248648419321 -0.39715824357881502
0.27219426428928273 1.4032167994182601 -0.32374867467160584
-0.19374419723499159 0.035848552066454431 0.36656524015961622
0.70435205480680452 -1.0176573369731159 0.28773000344926913
0.025493293479485146 0.32608016112908444 0.60160485678261466
-0.76308953363331966 0.94708766412168188 -0.14349107277939765
0.20680261754387175 -0.05834216513494539 0.23052844690118945
-0.92829268412378951 1.1585766809566849 -0.55038710335838914
-0.90403996967506828 -0.95901573378387184 0.25569313019832407
0.62514772375743632 -0.91902074850349891 0.34138876194174372
-0.22830749243985338 0.096180117043331848 0.45833691215375438
-0.52675351880225207 -0.88272105419127911 0.43558843839855399
-0.53632193657449534 1.0986733759236813 -0.18666313260746392
-0.088223900163939106 0.39467271092053124 -0.082171993902193208
0.015821234223039937 1.1018917244728073 -0.37009677693822596
-0.94102930473582092 -0.9198970255806671 0.16641454278988022
0.29539837531683588 1.4030299044006824 -0.28547034842677022
0.54536540029266689 1.2052505652654872 -0.091354242254965357
0.58233641746664944 -0.039762668926869082 -0.0076997758451398113
0.4382984515023054 0.3125075041934906 0.35963048721714586
-0.7930108069886046 -0.76685553739071111 0.3231412745549278
0.65607189615548123 -0.51607753146390678 0.37853487834308908
-0.14344842363470889 1.2102695274588768 -0.78492924388547181
0.1461610337082675 0.61855541129443736 -0.138999433382196
-1.1574834381872279 1.187378311896282 -0.77700718661162682
0.010863578104363114 1.0996203930708361 -0.41244049379292846
0.55645289296717237 0.23511613694518019 0.13248433862554521
-0.60481279669511423 -0.98286183633490509 0.10643799543413479
0.25421979331804323 0.80933172296818157 0.59983098248812894
1.0565054825224252 1.2963690420892817 -0.52676718176826398
-0.80457418233436329 0.04653039282447935 0.18256965206637688
0.087718843669790658 0.16344740647355138 0.047002865640024538
-0.33515137859103561 -0.13070829561274877 0.28192748204764939
-0.93923768665172247 1.3309867109574043 -0.20751301285690715
0.046056563440288301 0.45091637070436263 0.62621513740850787
-0.32723477066974738 -0.11593817023776865 0.32799462685215985
-1.2021454945916048 1.4201486842362101 -0.63249022805848654
0.45571573124834686 -0.50714735710926107 0.084454125746560749
-0.52829320659566292 0.36780945402460929 0.35101743349241588
0.39471527804926154 0.46532069707927803 0.2221907777038723
0.37081297706845362 -0.9758867813152392 0.19967706946817998
1.0274955725917607 1.6642878637671856 -0.44726982252268499
-0.0067397651910141576 0.94584555455367081 -0.25953941465195385
-0.42576397023731261 -0.17097779851383166 0.12369235930964351
0.016903685548186331 1.5195518706914299 -0.58438150359870633
0.8666161118517266 1.3513061433986877 -0.083591993672598619
0.41796679649633006 0.91831127156638104 0.48878506450819259
-0.61668839625781402 -0.65889586202456485 0.10979527330118799
-1.0713320023855886 1.3877643843748046 -0.84022380491933291
0.13429748121234297 0.031401183987782133 0.24707421811035601
0.33279090525775246 -0.2692483674372852 0.29836848711147468
-0.11789014146961563 0.61119111236712342 -0.16779674861481908
0.85765306300663724 1.3089630335134643 -0.051655078337262239
-0.24909110560201952 1.2516081795338323 -0.26993301451329899
-0.49181368829340499 -0.81919411546959964 0.2775822504036114
0.68068651394287372 1.2806681013621528 0.11381283778609941
-0.10624137249260457 1.2944408990706506 -0.67384738117470988
0.64472376698086009 -0.37809200839956247 0.045024761613603914
-0.15387334568276856 0.63184486441605259 -0.1595421237498158
-0.82849480822733312 -0.20145259657510906 0.065497445016262645
-0.030547361881872348 0.85666936725829146 -0.25456723878596677
0.065037057659083075 1.160642883145556 -0.90331734560459154
