# XYZ point cloud file
-1.1079263469878811 1.3555273673376149 -0.76840062488957983
0.81346988122515995 1.2161040412397455 -0.1469412630467275
-0.32807703586286152 1.5025390934703893 -0.29789512212305169
-0.47479788116481814 0.43410034185524182 0.28081122965156169
0.40349654367975063 -0.80449683804530991 0.36470934210265682
-0.56753794220722398 -0.79391709528506738 0.26571883143661523
0.66207264345831618 0.95273195773424391 0.047635205682894366
-0.67099271213339762 -0.51117933422574424 0.16636568377239769
-1.0089614352055207 1.3901692437223261 -0.64095115950313186
0.52476714991487938 -0.90771074115538397 0.38005791873578687
-0.26223516908669353 1.743965227195801 -0.46886224701968615
0.36621171379078987 -0.89521890902285861 0.41834623910669677
-0.49962084640577586 -0.16650071452750126 0.11903066828574538
1.0217587012292597 1.5197873345663737 -0.46471739051985139
-0.69728857380863474 -0.95587679234981238 0.26213068527070504
-0.67571862953531081 -0.032898216398393743 0.1191328691589888
0.37184611338585682 -0.67802334229685357 0.31331200697934491
1.0237690552631875 1.4914151675529155 -0.45490769909945072
-0.018747835971737459 0.57578714456042235 -0.11668093415403291
-0.14517924862684595 0.078542108734069416 0.20832782287180862
-0.64874684503172375 -0.8518200231592914 0.26921393963586127
-0.65761989029888923 -0.9473320452827636 0.32010678816706672
0.11905728132001059 0.14440156197312604 0.13594928174177312
-0.059834222873519138 0.13981257607028397 0.11961042573051373
-0.56181098976367139 0.33279625602423835 0.23157644118489884
0.54907411739486633 -0.40693001985823685 0.26005700202584592
-1.0904745996226666 1.2834795887151245 -0.61663249227129313
0.29735689730307513 0.62883166551645786 0.1049253875423517
-0.6686493944445715 -0.77957584529461599 0.22671058214801576
0.48647749400640805 0.098513176500745203 0.33849087750697038
0.26159053666327736 1.6212666828970868 -0.37909253655173814
-0.55424056649360409 1.2845221472378228 0.062986275403545733
-0.58301371456647644 -0.83603053434278252 0.2815738796206233
-0.013384060853127266 0.99813502957769629 -0.28753827424216638
-0.32428571370650161 1.4150046190730876 -0.37961413327445825
0.070778211873516739 1.1403966046402871 -0.29272078356332543
-0.9489837771305929 1.3592484643177016 -0.54393400619872523
0.73554100028098901 1.0589206854922821 0.0094960908443511016
-0.74042146560987021 -0.90900101149168222 0.25327022214641204
-0.74385891111859337 1.1914216409067535 -0.30388619253898241
-0.5514873806014009 -0.92740396780133949 0.36678383576287388
0.32484032647397498 0.5123767995526407 0.37285698087123365
0.34188329581002108 -0.56657927444825873 0.27018158306911744
0.1989859950878099 1.3412864200579406 -0.28869468676464294
-0.88223644923863276 1.3571906566716336 -0.51920682948036756
-1.1254560741464559 1.2828789398188007 -0.58491742639229471
-0.48028159204523035 -0.54951371745212896 0.19610706437636338
-0.36596905370913646 0.9864383480239951 0.54241771218744361
-0.10974497811258743 0.16027391087951059 0.14172889026815483
-0.4877849888317769 1.0144252072506674 -0.1945442711749763
0.38986361234901779 0.8111638391584961 0.080046982095268504
0.4114449151691133 -0.20252425557146125 0.15839657695050846
-0.17232302682634781 1.7546539472037921 -0.45291718558412697
0.35685099573140633 1.0678497481074487 -0.25082737573963243
0.27785696477423016 1.5505344645913226 -0.35265371170824267
1.084797878102961 1.4828565358437373 -0.50998877847351309
1.1039090727580856 1.3559306053382016 -0.42938856233944023
-0.1207553430440953 1.2267120510011154 -0.77895598353966022
-0.65905698487020459 -0.81908927663462805 0.24864794074660779
0.46083117958767161 1.0176053498561828 -0.080723621857714534
-0.69302577881796879 1.2824323845762251 -0.21352182483684601
-0.089943347327846368 1.6175358952049379 -0.4372851973034102
-0.17998249185359327 0.69822790462799844 -0.13330443206561426
-0.52500626890071089 -0.30571888029868433 0.15660033796740436
0.0037996611438302352 0.42119259336328696 -0.037545744732398134
-0.78524983060191289 1.0530535221995052 -0.065729158091471618
0.15770592218433421 0.76164068082516678 0.55844702990582107
-0.31044760170124164 0.27973532698533177 0.42839347675024442
-0.84536485497977765 1.2984199088119226 -0.44927265223627444
-0.33446152675480789 0.83760667397154975 0.55420028002322397
0.22027039644012802 0.00015094675416094105 0.22315707111998506
0.51384786058184773 0.02251492738895422 0.11818398211147496
-0.89466817779918983 1.3614538322333516 -0.53619110607182563
0.060103909267752442 0.14162689074805712 0.15385607308209615
-0.82595241464537139 1.3041692425195777 -0.37163865955308495
-0.64035468483120894 -0.31358931109261334 0.089697891682078534
-0.68869175808100636 -0.16780013872167387 0.16011691114843529
0.73859441632566813 1.2516448774331224 -0.13326410527906773
0.34915784088792634 0.50955002611738109 0.23807762700900525
0.42995143771054245 -0.21606140393501505 0.26250316415249131
0.18795016384927976 0.85770728470026825 0.54703442002235647
0.43162410526360873 1.8137833266835059 -0.4661679530378251
0.53079339631239009 -0.85731145535115161 0.35467090292759451
-0.71199504821507276 -0.96626171566951768 0.27945245208091762
-0.72053488938271926 -0.46694006801916998 0.15200811627042299
-1.0335257881976645 1.4047124900406374 -0.67225228655506442
0.76669196767437597 1.3184390687415544 -0.21034140505844334
-0.14336220781149223 1.286709789644533 -0.45666667173151154
-0.71544571459915574 -0.4817231558521371 0.14537531278153892
-0.36900047509669776 0.68449905527316446 0.38917397168836487
0.5361058105831944 -0.43414249344701261 0.22965595060396993
-0.7285072034328266 -0.87156366149474707 0.25123116942683055
0.25378514321175771 0.018804203223510285 0.15323043616226073
-0.37965224437652978 1.7322398003463348 -0.52637887543407658
0.4089483909208127 -0.80850678392624786 0.36038990881705502
0.75845650966897438 1.1482006791943888 -0.16036588054160461
-0.68821688762267286 -0.12534200806868512 0.14081386251996264
0.40867442097010098 0.42201267001098586 0.22353231118012218
-0.31734105434617277 1.5115164337379241 -0.30724072236203881
0.53656923090113651 -0.78289379912902746 0.32061786715864571
0.46912099552730524 -0.88436709437871741 0.36175071531810943
0.26228581570671849 1.5951603627580937 -0.37929831120756319
-0.61751871347956921 -0.72767544322246636 0.2190954636228355
-0.21889112549592937 0.75809081546111656 -0.17760063341296473
1.1737477172056856 1.4354955923708559 -0.51831750637268925
-0.54922565925630806 -0.84600933653891275 0.31248434348059106
0.23353832638514405 1.7208996893163118 -0.40920729379030263
-0.72371359555725689 -0.55441179891903403 0.1582890881078356
0.445118866789187 -0.22060736269887116 0.15295345000373572
0.2006152817699558 0.34231665991103455 0.46695823250649937
-0.35985863631833581 0.52461279051334486 0.42263235755518735
-0.72819599038902538 -0.58039090315838848 0.15679869787234679
0.20637356532614604 0.6539112453814937 -0.036857095488272762
0.47133114658038266 -0.21215067937495746 0.27132921692083301
0.27592334659857443 1.6173702025027268 -0.36746016816661609
0.13862142199701566 0.40489969566957029 0.51385531898054637
-0.55401401378952642 -0.30149029331141719 0.17644108420833504
0.19590801715838779 1.4191964628624874 -0.48453490988678993
0.53483426840912784 -0.85227493043092295 0.37516501651566614
-0.16350740976878342 1.3540080060161017 -0.58802123645868676
1.1349013386023898 1.3576103668192872 -0.43246142055556902
-0.59066637833001323 -0.53414549865348704 0.14869696916923658
0.49670098176363808 -0.19764277382725481 0.2767982363254049
-0.34728798392018234 1.7791844972501849 -0.50709285666978587
0.51811883088817012 -0.82509022021524459 0.33482385118810498
-0.68505183390720958 -0.064455439512215662 0.11241452082902015
0.41944751593541696 0.25938536669619339 0.34706426060284912
0.3571021113859274 0.86389673130682354 0.37171348502205603
-0.031588850653918144 0.14345065635185961 0.20097175484991681
-0.013745408198531095 0.14103098745462717 0.12650056169997015
1.0436907500347274 1.3438940479651507 -0.40916763108116072
-0.60150294548714101 1.0787110719744248 0.22693610788266483
-0.29068160791450737 1.4375606531362592 -0.42640314715991678
0.059124102989642324 1.696010172986874 -0.40064236868391845
-0.47648871462968145 -0.081619791424287769 0.09562219012198625
0.1691388230419193 0.1879647556461066 0.099651904863520713
0.53482435231859426 -0.45708438071156365 0.24177910840626282
0.38183401782714554 -0.93359051002178717 0.41553271666188607
-0.32228819125225527 1.0007482136891497 0.58659289914655233
0.0043539264323726456 1.4237555855634838 -0.56531944772730469
-0.47242730771307606 -0.20406456854732369 0.20540372340755653
0.0018733794107674839 0.25668468232822761 0.029726712853545223
0.047111801635935535 1.4872483170654931 -0.50924844962986526
-0.94667215990546083 1.2186398636938662 -0.51452547012780769
-0.57860647569253842 1.0887311883683566 -0.18070865222446741
0.23246405166941031 0.037545627132175241 0.30049555175175158
0.3140564667709782 0.30930918723498735 0.09132801825357717
1.0864921458116328 1.4634013396598107 -0.48519774741234301
0.51221542843242673 -0.97944962063814955 0.41385235279935273
1.1474339934345039 1.4340536167569411 -0.51031940866821657
-0.62396418547950816 -0.47030899013384442 0.12550304562435599
-0.53860179230736094 -0.28694187197302767 0.12981762947777042
0.38777475436017994 -0.27645493140551025 0.20050331666598709
-0.52954921796583676 -0.29072224285943093 0.16344231723130065
-0.52674583398732011 0.25551409203615094 0.088532003242079327
-0.67378824975423868 1.2588552264390955 -0.25052678757282365
1.2339484772999185 1.4617925403501033 -0.58437781030886526
0.28661552367725562 -0.060746423240118474 0.26019868669825996
-0.6978739787790289 -0.81535232612765185 0.23440440846256649
-1.0746616941225966 1.2976239082910013 -0.65030818039321048
0.38589344598000253 -0.068249375790941258 0.3059529092949731
0.11101380014179085 1.2133566316653059 -0.80023810822342512
1.0926712312366931 1.3397396174326843 -0.40346967645253073
-0.10702761151611639 0.18838111190393647 0.06797851634229346
0.37077031395608628 -0.24582341027382881 0.21767304423099176
-0.32310959630592606 1.4806545551879964 -0.37749927236593805
-0.41588868520966571 0.50539762785587072 0.22176584286424372
0.23026839023151524 0.32848294058240413 0.45287141059262126
-0.22176476529131151 1.6283365265671677 -0.40193129242054226
-0.019574671925738585 0.98335209948422175 -0.28815467620130164
-0.16429423788207487 1.2936543015525075 -0.38829399215418903
0.53551528318294572 -0.84623681227350289 0.37361613758058354
-0.73367659830194043 1.0563123060494917 -0.21225126963912544
0.31735679594714838 1.6756778240626602 -0.37749070609596913
0.31123573747197497 0.60156471264494371 0.39725566201670404
-1.1533867135596552 1.3184777096167579 -0.68757098286666007
-0.67277855296782718 -0.77364751622522476 0.24426749701208905
0.067380832783612732 1.6366907897146064 -0.41143615190055982
0.47268973469047637 -0.84368162862025997 0.34924249686254427
0.34664556780830935 0.50125218860185328 0.16722447966775178
0.84211707589616935 1.0825800380391257 -0.062272927007981593
-0.070775307094663731 0.14145846772353821 0.16126957436108569
-1.1791055211319019 1.345564905411706 -0.73927646283229365
-0.74566883876826751 1.2583208587644208 -0.29736404882416423
-0.13344424019061307 0.66838727955118316 -0.15664841856596468
0.19124230771086559 0.042101038650599776 0.20568857469095292
-0.22521843532871344 0.40328563409167373 0.48614526392304924
-0.36702011314466176 1.8188453761456316 -0.54601549174257968
0.26060245045187003 1.7396329922425764 -0.40948124846833878
-0.59212083011675531 0.97855398239389046 0.010021407341071153
0.44361545503517164 0.88117678204056915 0.19437240862043836
-0.32031220026476603 1.8258387448975526 -0.53897593131875965
-0.70804431703521686 -0.45743552251931874 0.13719624587218959
-0.81027393301241091 1.2950123433403604 -0.3863417239633975
-1.0546062902643314 1.2411964953191728 -0.55339551917738561
0.26576405380410506 0.0013800560800518724 0.29535468488074912
-0.51329264897532312 0.37000450301457022 0.25183527573574338
-0.67002766523796708 -0.90215452059808854 0.30496603925737986
0.5415482644738745 -0.24938784475958187 0.2505381386855845
-1.0627491169201448 1.3139276732436684 -0.57094780955856095
-0.83619384397150043 1.2927362268386702 -0.44473974203461353
-0.20205897661514882 1.7073822402662984 -0.45685946691938284
0.36580425738696931 -0.65487240722416118 0.30428316793901899
0.66147842691697178 1.031597356189593 -0.087090875857299466
0.55497024749433876 0.90945789232634411 0.11712245476421401
0.54341113283385312 1.0978338873630804 -0.08757986842755372
-0.65507311109612942 -0.91661170369445699 0.32688987856222695
0.23869035778750458 1.8154180579325327 -0.45378803605949258
0.022606615016911746 1.2120316073918076 -0.8416624359912106
-0.35856658737492353 1.6649423819877001 -0.46975699867414278
1.1468891351381671 1.4328352339746999 -0.58734436454560779
1.092139518305089 1.4370305988936423 -0.48683458012079939
-0.46208162807630515 0.4591813882985889 0.26520430357274449
1.2029502349693644 1.4044421776878124 -0.51189469940660359
-0.49343881403819978 -0.3394915851819178 0.16012299056802703
0.067429728143054035 1.4505178112924568 -0.53837801489730452
0.54702997286563004 -0.11922406837874178 0.22369350182988512
0.52265173730373249 -0.82103710870336499 0.36330403303001901
0.53427529659444417 -0.3544833691715894 0.21047281581196842
-0.40570566397514085 0.54784209473331202 0.30958325030039191
-0.6288482054962401 -0.10221949716435574 0.070354591864258964
-0.82637815424681094 1.1564540648317063 -0.38596421337817333
0.066069312681804604 0.66539730123051299 -0.16447704183963197
0.45993951941437672 -0.26506023096669651 0.26381054152868444
0.53177911135227873 -0.84199748520049411 0.35201138727919101
-0.095145158264415386 0.32951036110245013 -0.004241463773837495
-0.19645402404563583 1.7648153541459806 -0.48925418856622116
0.53591168575286474 0.10837589495412203 0.24355558792039744
-0.28869620114670624 0.63849419102652405 0.03622689414208935
-0.45964756830255737 0.10036665929800392 0.056211557683752744
0.093465592585801005 0.087802256914102372 0.21471668510588415
0.34948763087436419 0.34604793294477076 0.3846321313563692
-0.64580949294418133 -0.33279796294149833 0.1781507866451193
-0.098689575548405628 0.56488774453046631 -0.10329818640119015
1.0878847120487194 1.3775050932211741 -0.4650734404301744
-0.22085477359058814 1.3605103437935497 -0.42440132682516207
-0.66912020475706413 -0.87994248509801309 0.29337769232120081
0.54277927973492979 1.2649690258298989 -0.083916290105065627
0.7723236264314437 1.2947544069643016 -0.17259903455679648
0.38118310310591141 -0.28125665635107566 0.22221674376264389
0.29288054773093108 0.69906581159108327 0.44146429302534784
0.21877220252491725 1.5287432269428507 -0.43423608526308044
-0.017343137750742699 1.343464561369359 -0.67911545111415705
0.42032624230893134 -0.26089604485557061 0.25430015799058481
-0.49624697424468422 -0.33363074105255919 0.15293737865735579
-0.37576326586329856 1.8001740127129864 -0.56287373854866019
-1.0435220373796312 1.4064973925187871 -0.69514605669472473
-0.92860275342974319 1.3123445067467117 -0.53681116757564951
-0.73381559026370269 -0.62697672694255857 0.16294457292237041
-1.0370631255570402 1.4109002116045133 -0.683221062259463
0.27508090237097349 -0.013131111299685472 0.15198309598484627
0.47928841109040832 1.2336750455376801 -0.032641605103606253
-0.69570357234186986 -0.44441024139118213 0.12847332817767665
-0.8479404900793952 1.3303499329224877 -0.47563785848906548
-0.48862289231465184 0.88170253109632313 0.060524267677180887
0.54118681791089784 -0.33051286055004425 0.26318509679721558
-0.44146001181769634 0.48857212037097497 0.24404149589182111
-0.63777225349844002 1.126427222465054 -0.23115021354544751
-0.88274216254916382 1.3472067648443868 -0.48924604478838774
0.27580622768107332 1.0066701554517294 -0.29750092124002947
-0.50028024246424252 -0.67125279655894587 0.22983970857204383
0.53283715677096666 -0.8700661059205288 0.37915604207969977
0.69082217858880313 1.1968298789957572 -0.12251238730608804
0.54650619227072639 -0.26753336116050264 0.17127824481870846
0.54125585048910807 -0.23729089110065615 0.24973416784115443
0.46131986818539872 -0.43366300535817004 0.21023164266600247
-0.43953983089727444 1.474190607065907 -0.019163915315516533
-0.909989623642673 1.2707654941420685 -0.50355877481806033
0.3738450126626276 1.8039731279332756 -0.47405136906729695
-0.43349804181161744 -0.072550280432409409 0.10876568397461028
0.34078430864224174 0.56956083802955959 0.34271236124463655
-0.7084974685538441 -0.53904713205773191 0.15829320607150521
0.47539713065901879 0.082692215252166079 0.10098636580329412
-0.46274269281525449 0.84537872660661151 0.039610727076194507
-0.72213397451952233 -0.53086196149263287 0.15457061321978927
0.15754829206616705 0.39312408548036615 0.032938290643414803
0.53549066399116896 -0.84762793042933993 0.37370998921977616
0.53901811274414513 -0.77405238907583396 0.3409261757775397
-1.0150895154228863 1.4265369894445143 -0.67221097302517308
-0.67208120442938935 -0.88917635370276571 0.29491794578486008
-0.078739881122430688 0.68545707259028177 -0.18143367329119542
-0.36361060059334704 0.49082026017612179 0.12993560246079028
-0.51756384340632167 1.3940613926211682 -0.18703197834031471
0.38839079279975408 -0.82158978760278956 0.3787337409777507
0.38720623078356198 -0.91261292115798653 0.42759154922555354
0.074270911761743719 0.63225133068792161 -0.12473087441642861
0.51968542319704625 -0.80175876566394777 0.32453934579257293
1.0293078490157654 1.4522853434661016 -0.41716372327465479
0.42751714385030937 1.3753888289223539 -0.17263339373413089
-0.3595865230630011 -0.12745980969495463 0.22827978440753327
-0.69161900078148619 -0.27569362602730507 0.10735669912679668
0.063179753718429765 1.1875261788238305 -0.82696839141281941
-0.63681261138935952 1.1978646314806696 -0.22969312932545449
-0.21246887511330215 0.75166402522538078 -0.14789597817619438
0.47223692397415107 1.3198378053508435 -0.15895280887134788
-0.74565929971868172 1.1844817538042918 -0.30441055360296332
0.38972582943785028 0.23946399644211169 0.36498671833209073
-1.1091542869222337 1.280130141995329 -0.60369416660891773
0.42596733839263834 -0.904740617159149 0.37541309665790834
1.1868793757982985 1.4313796443521625 -0.59879998385755329
-0.68906760676588874 -0.18006237021077709 0.08874914750376206
-0.55312438142900078 -0.78091072946247664 0.27387699779160357
0.51315193663157288 -0.68846475766146398 0.32084235391616289
0.0050878387331749764 1.0196779869219483 -0.28356589769184382
-1.0804182404012579 1.3296643571716658 -0.70786148062173027
-0.28412024881805564 1.5261083151798118 -0.40875674944813056
-1.0278867379489043 1.3448617925933917 -0.59101400258195724
0.50324759448392342 -0.98438166208146072 0.41690701423038945
-0.46602286707997109 0.2498671661702474 0.079520059894775841
0.39333434660824196 -0.64301794232608245 0.29427420406706517
-0.0098728888144705707 1.1287790441533616 0.63329102797540315
-0.97833141754082931 1.2533635041551037 -0.3286595475204166
-0.80948936448925224 1.2524937724689096 -0.42637515466394404
-0.51915841944168051 1.1109929637099469 -0.20456484099338468
0.40427699575423048 -0.53999511508521891 0.26844273361422211
-0.40701530821218057 0.19530970405449466 0.39728844925716089
0.10086869740467819 1.2124565854359446 -0.43203675312219048
0.93918075662855927 1.3527181190960818 -0.31929695691256654
-0.018746281258188446 1.1681421836138384 -0.72156749527970021
-0.2322794586612531 1.3809865999294715 -0.3626534993019277
-1.0214592140357013 1.4075480119795145 -0.664019994682576
0.039946221615139166 1.670361505081047 -0.40195249631781849
0.13556049867770525 1.6435785252684667 -0.35922914405648498
0.34286073123331562 -0.39850595015974477 0.23106736877910805
-0.63299311469552322 0.17458860691388622 0.24463717836118803
-0.22087199875164742 1.5663650800393043 -0.43783841115950395
0.54169393692245649 -0.77807379355107287 0.32743315383477523
0.54675072880957032 -0.41380061630047749 0.26755061918618139
-0.1640269141444719 1.2910858289198188 -0.66869923965099076
-0.61837944308220472 -0.88257445798802792 0.31986358904215706
-0.67107356283597142 -0.89664547732624555 0.30055065259730895
-0.03522194838149062 0.94555881908129891 -0.28872349563704347
-0.90342677952241957 1.1212586377429261 -0.25686269321286659
-0.10505530911325422 1.657936042994308 -0.42602145630696953
0.25217083615859792 1.5510661174240852 -0.38027533073579889
-0.26663186141644246 0.19973076701950276 0.40647393339870064
0.48948438278512185 1.2791426275446725 -0.11883633343359179
-0.66073794136821107 1.2513857015038923 0.053211871281661161
0.52542224522750303 -0.16059498520232296 0.27071850266752051
0.48123675586492709 -0.60287806061859328 0.27119234106208978
-0.5047617618436675 -0.23229187064137591 0.14533487958834712
0.41514977940678932 -0.95781482840034471 0.40496609121763072
0.32942818946389707 0.1406336147948366 0.092505393893347332
-0.13286254676063436 0.11885123284332622 0.18081339013841102
-1.1399000604720868 1.3268675248568087 -0.68145544209824038
0.39040130457652822 1.4290823868114018 -0.22719751756592643
0.54590463685036639 -0.60018153523256501 0.29709964276653977
1.0355503210993788 1.4900851989078632 -0.46834880006257151
-1.0588788590984564 1.3360221107903811 -0.6777056128420611
-0.51893535871829499 -0.64446380566170092 0.21186726881742857
1.1122887440385512 1.4145295589338076 -0.53264753962810119
1.0304979572372872 1.4232825980773356 -0.40881185635470274
0.59707895618981865 0.9986898705533207 0.10989218683195645
-0.71081858660741659 -0.49005089678183822 0.14427405254230052
1.1216733794935294 1.4309500119826311 -0.55781982308537437
-1.0249627726939821 1.3971103361905364 -0.65800488518020472
-0.47895998669042683 1.3599557647161475 -0.24763169592523582
0.028414439199252683 1.1720198862612818 -0.75537802106850904
-0.61953649773755615 -0.70034227210035738 0.21805872782266533
-1.0857397867941927 1.3695916715034997 -0.68848310243643596
-0.63089047012164201 -0.41353506061176404 0.17623793666581378
-0.5206634242803716 -0.6982743389785071 0.23732379920498659
0.044121587740789892 0.84699276240112908 -0.22957523489324672
0.88969694534273458 1.1255938341734009 -0.17489515355669027
-0.67054610686881233 -0.84760805180347631 0.27855568033473332
-1.0640315701271561 1.36889678168248 -0.69435186596605547
-0.9712014129518991 1.328646368844133 -0.49715303822227952
1.1975261968221389 1.4040861657547907 -0.53259130668268995
0.47416740670558966 -0.35752832813673763 0.19333947981654376
-1.076874394643113 1.3805343085619626 -0.73085807881241749
-0.58925875762781743 -0.48735205484450717 0.18004771968196565
-1.0564662715522672 1.2323342847160461 -0.5098437796344939
1.0127681572043343 1.3686726415030677 -0.37259433338205383
-0.73209413095992204 1.0196816385239913 0.018056991187194171
0.065347712400011915 1.2026651624417468 -0.82812246557685398
-0.71805942611209161 -0.81144448764874255 0.24560396071865398
1.0745817506096387 1.3798842261501676 -0.46180186094620979
0.35143178235341566 1.7999908807646676 -0.4408603721923896
-0.40918290888629372 1.7518053588136411 -0.54604221188667168
0.23074935532639529 0.66905347537547755 -0.018943123570579701
-0.71162390093715544 -0.77956089115237148 0.21451656253174178
0.5157216034760097 -0.93011496192485765 0.38478739595201716
0.36162561467403975 0.44530649383270315 0.3308439618868988
-0.096089689170014481 1.1416604892370685 -0.29482703604648464
-0.10848509829736486 1.2414356161157656 -0.48343766755402839
-0.31045496101160097 0.85618096659499088 0.58393805874740679
0.36975643736263919 -0.23406555298979015 0.22155372864509104
0.49812859786158015 -0.34508995821923349 0.26604764738385711
-0.78503648988544228 1.2620884633777933 -0.15923079756763059
-0.35220080578557145 0.1169182935676929 0.078330498340591248
0.5343473815418065 -0.82652006977147607 0.36626921626576348
-0.14003901569418531 1.1994264992955266 -0.30409519257673878
1.0698237422085981 1.4334495925917565 -0.45538073747059116
-0.26913763671819879 1.5628996877935606 -0.40126670378730012
0.012249987506606885 0.91076535890246646 -0.27306126747294002
0.22158448060167757 0.43054125808399135 0.49425762071567192
0.65547125791766803 0.94887324820494712 0.081837493292766794
0.29315433425523452 1.5015927130515934 -0.36733216480782005
1.03446303893719 1.3720617414563634 -0.41472886682871035
0.28390163761082476 1.5348857558847868 -0.27603028465240698
0.98287116277231235 1.3623329172641832 -0.36777902786947436
-0.10674674133292683 1.674185816706057 -0.42107639167430477
-0.87494409758119218 1.2983833976273189 -0.34416188454832763
-1.0748862061450382 1.3868191515872752 -0.73082324270119159
-0.53518166144573343 -0.85364447987369374 0.31926313793786676
-0.72741209237216253 -0.92762668015058125 0.28326439630581035
0.38322628965639183 -0.91861928489849731 0.43162739982017229
0.0036091220188154693 1.1886139971807381 -0.3629028350927257
0.072839522205185858 1.4088701416153526 -0.58016273006072083
0.34655446069660911 0.6827312792848943 0.26134506351095865
0.38712150740323636 -0.73174462234153737 0.33318419654777642
-0.70211074214540758 -0.28217867133767527 0.14974120612927777
-0.13555374751337013 1.3803674313098639 -0.54100556542366007
0.03121995104220332 1.1660378278523069 -0.73751955024961546
-0.14517078342493051 1.28466271033966 -0.48741952415360856
0.015642397572037225 1.26797786365006 -0.78868191767337237
-0.034721149582253474 1.1212068586285255 -0.62715627512666572
-0.24427185660954365 1.6857165228961293 -0.44851925642630874
-0.727444865600404 -0.97134488914124972 0.3129000032436835
0.057434203551110841 1.1492205152699455 -0.79306429855664362
-0.73326407090507928 -0.74397521992590043 0.19282315752388968
0.59812287968293276 0.92765038038794501 0.1008312477968758
-0.002524936744976003 1.1693285410857044 -0.32012469049446679
0.084178005961064173 1.1846288328380581 -0.29782081383660852
0.31243332810583979 0.54768287106944058 0.15064851618575403
0.59517070373959768 1.123427829152206 0.011168358596279404
-0.62279075905837544 -0.91860346917863467 0.34255003869222378
0.29086969438384358 1.530714175371628 -0.35005987894582802
-0.54808819447930546 -0.25740684327101349 0.18113146970884486
-0.72679124423615349 -0.96180424649547547 0.30625930979446991
0.52941610687861385 -0.90963738756251189 0.39081000589658288
0.17225313863855263 1.2142191721426201 -0.27656000951391491
0.058099027427374494 1.6878677853545554 -0.41204711560671115
-0.70047546224157031 -0.25904739532609256 0.1367345681044867
-0.62484968097476212 -0.19982906342704609 0.20213121743685747
0.51089809411047327 0.22242633719949367 0.19012780802789564
-0.3751715295902045 1.8167078557238057 -0.53981272187142793
0.27661963362379538 0.10151306281650818 0.36789863833348591
-0.91341376362078108 1.2769240971221762 -0.31425438043369525
-0.35108307222486701 1.0014893187107248 0.55240691180853219
-0.30242637055818022 1.6164179783920787 -0.43155872006387597
1.101795082929641 1.3936002697618051 -0.49288791907977725
0.25423496017259595 0.064620724079787806 0.11876073006318677
1.2466176480141371 1.4798063310043403 -0.60463781870895161
0.4646376434038757 -0.905383644825136 0.3703239973136192
-0.27557782677297382 1.3002689172196256 -0.29242283833237082
-0.52559102465937713 0.11804316114069024 0.054434543129275426
0.43700814005910615 -0.31458318326889412 0.18826778889010143
0.16194227676805895 1.2934076225353408 -0.41548947502710121
-0.072411142407247553 1.3549803282450625 -0.63416110333299969
0.37716741540799603 -0.34197918322428222 0.24241913932628734
0.092875324272483795 0.099124742206697647 0.19195593260957367
-0.2828854264452616 1.8267391829206048 -0.5119083550076482
0.51414812765534634 1.0131637933304489 -0.045103129293195821
-0.2106587784965086 0.10239554649095339 0.16418636330180902
-0.62731905775945052 1.0718382332675418 -0.19315151191611335
-0.13652391681807785 1.2454973798188291 -0.57200420965668286
1.0291689284953804 1.3328855179230175 -0.36137079485138202
-0.69277307660007637 -0.47571950259765572 0.16225552794041675
-0.58506221882606724 -0.24163525449122858 0.19025135605895116
-0.64643383662127007 1.0932820824878604 0.20173696800995344
0.27386877771613172 0.60608389677653918 0.081841445838961135
-0.51242267693839949 -0.25939913522722691 0.15265086453555909
-0.56580972057651024 1.2563397665777529 -0.19831732788188106
-0.14542316849065173 1.7155431799970415 -0.44606600088670234
-0.5078510887319112 -0.24682436731089297 0.15511014623803021
-1.1566002118675272 1.3540484987148886 -0.73941641381239265
-0.2007235921140591 0.31707081309215823 0.050621358605781097
-0.23098863446108453 0.80210667562656113 -0.24115530293695997
1.0010866383273651 1.4666878491698156 -0.40502488674358972
-0.61106957270220619 0.25349996024604593 0.1939659297600258
-0.52804946811670561 0.32261819275856851 0.35653744067570869
-0.66323711077393455 -0.013014802806509351 0.21393410457346818
0.014419439292169045 1.6821628501974715 -0.40633266602371521
0.44773769057621848 0.18773041607715868 0.10164496220929209
0.54223352565597338 -0.74676191646537404 0.33088836246653841
0.40731628705628964 -0.62459627806015305 0.28806069131795198
1.0321091701637215 1.3159905456361543 -0.35569892310742546
0.74570973178919076 1.2673526799985524 -0.14422744758898887
0.1783084400469761 1.1863521900996972 -0.25775195206948354
0.50484361782568499 -0.97841382682909739 0.41462200552970785
0.50574799364767387 -0.20171754369786754 0.15187372172066205
0.54719900673597976 -0.52090637353461489 0.28143987107696944
-0.57562363486786694 -0.89990611536420317 0.34254435808654193
-0.32183564658623709 0.19022850551482406 0.081776200820399936
-0.97868552272947795 1.2460794745171455 -0.57167360208094919
-0.15100558340628822 1.723881772347795 -0.45167113707181272
0.39089566826433497 -0.88512746095200612 0.41242542305127472
0.42147058360541223 -0.069080659956455293 0.10857275011812817
-0.20508279657178718 0.67772101050346123 0.57256850378189483
0.18278706074607953 0.38164530338710279 0.044868906949830034
0.53255594272962981 1.2241568284468514 -0.11442001884356046
0.29854944122200777 1.5041995766918177 -0.33970860966626049
0.60503834950509372 1.2361852658811756 -0.072838742944696833
-0.52766506120008216 1.3501501268927569 -0.19013802464721152
0.41509027000290644 1.4049269583863548 -0.20689667703609871
-0.60076129543284651 0.24343081498736296 0.30630478407738337
0.61498061413061578 1.1307457255127957 -0.0012186656858688139
-1.1581567099938468 1.3318072875711238 -0.70418772737487245
1.0455517370770053 1.5196790579704924 -0.47333978748957861
-0.56290432550002834 0.25696625754156344 0.34899467377471183
-0.019278683986442502 0.16387635380544907 0.071985119440995504
0.17969143531348664 1.3593448185491184 0.12132537189913251
-0.62659811630126683 -0.57318325168304796 0.1604156055591659
-0.82261901887687827 1.198341738629253 -0.42340487476221256
0.043917396650556384 0.73362613000429633 0.57210343176051026
-0.39290920054065737 0.55532211560802125 0.19532033322462894
-0.31249109947117404 -0.07762468941425027 0.1740939723067072
0.26349864754337204 0.43453567049687081 0.46561418109639874
0.5309527551426072 -0.82571788680817804 0.36770750965699506
0.29535027358861043 1.6355400637647932 -0.3551193551491707
-0.57140139792886657 -0.25968267300311254 0.10462877732067
0.068999287611177351 1.1492752064705769 -0.77391148112819508
0.40010206830058337 -0.74719246820089325 0.33965227051270119
-0.40288362101142638 0.20244861292445648 0.39828860195228799
-0.87691439811675309 1.1201807870270102 -0.36173423244281366
-0.72208348347822948 -0.81714708365500144 0.24517229730031431
0.44140573327842958 -0.38948103092519659 0.25920900618579878
1.0450736320720466 1.503945246090268 -0.48677588081277179
-0.65047665494475382 -0.71787535255131729 0.22159345675756015
0.16367338516556629 0.4364703566201058 0.024663213957040853
0.52241010300195967 -0.93198598894063878 0.39671899037868741
-0.90932019041889589 1.1161833669859504 -0.29247937557636305
-0.36390507376484038 0.73845413035948582 0.068012223273740346
0.046989552588740935 0.16468970092699919 0.13340399329706543
-0.64611821818300541 -0.26010229520537109 0.090467674237373785
0.42234529250879405 -0.84599076918792093 0.38318800255053986
0.65048634798341709 0.970355055855876 0.014616032608515184
0.018519287608739887 1.1668853444012228 -0.81329344318626795
0.54597551788270948 -0.55074953129522441 0.28468581474903942
-0.49813500426461133 -0.22508768702331849 0.14796897266649012
-0.81077893234970588 1.2123673550914731 -0.065442835363825225
-0.42588285064363163 -0.17456117087678535 0.20748744211269354
-0.00018970996899270176 1.1879266098603836 -0.82501160405755058
0.44133234513611797 1.0507248368394357 -0.14442239069164486
0.49937151093234888 -0.24068723795522828 0.15695213619480342
1.0236602150658882 1.5168483712369465 -0.47125677939965271
-0.53883348332323067 -0.82496037384015608 0.29936383104804065
-0.32839881692302697 1.0342253163003079 0.58311131922388881
0.54688823410612031 -0.33480249421793928 0.24562853798568085
0.42142887102826876 -0.88004510283069237 0.37864831443803837
0.30060383795586176 1.4707428907716746 -0.33429158641959589
-0.21758106179112247 1.6129784463339973 -0.37149342383129635
-0.80109295602278507 1.2845502670586058 -0.40269804972510315
0.3089571114525711 1.4816152370123064 -0.30600972429121498
-0.18203089516077853 0.032136791331879522 0.27287473394778772
0.51248119496588629 -0.97451077689427734 0.41151198660824662
0.075514988378984071 0.27869237597127494 0.46826397089839134
-0.71363622066712651 1.016309590921324 -0.099800530955263866
0.25001198570475935 -0.029752384996413639 0.22274389855621735
-0.92445006184976819 1.2356113870714438 -0.50585157004734072
-0.7422739531650393 -0.93261470298095617 0.26421299648991692
0.53395427360024428 -0.86023054683467137 0.37695943504377283
-0.20539252985935263 0.078243012071283147 0.32846403137875768
-0.53908302170989941 -0.83369423639732076 0.29710494449872726
-0.5584667883564407 1.14692276689469 -0.19916790581379473
-0.093998820189824528 0.43358467208580009 -0.038410902013225723
0.032965909195070253 1.1948711918870174 -0.37828232541917828
-0.72226855995680239 -0.88675782759500521 0.24058787855885555
0.32911062546111225 1.4743481110453445 -0.28430685722575788
0.54760423496071553 1.2467527851528928 -0.10721487695769838
0.52768347695212015 0.01886670830376147 0.13777245285122319
0.41410109323521738 0.29863221319280342 0.33426997250670354
-0.73046132795192875 -0.78341761057549775 0.2128676496822095
0.54427069571147513 -0.4810031305443232 0.27679045218917508
-0.15868062939665606 1.2858503443389822 -0.69162529178949228
0.16859337267663932 0.67649348718438773 -0.11332366195145482
-1.1107953667322477 1.318633346780544 -0.69928526889630405
0.028491553931587532 1.1938257578518403 -0.41865913707309232
0.49818994962396346 0.27679382145842624 0.21386263925906235
-0.66542110513077546 -0.86810452178249875 0.29204149640514743
0.23890056707426766 0.70653786960784259 0.49616959766936475
1.0352587306985015 1.3686292414759578 -0.41450638932982997
-0.65984003093444699 0.045648292972884974 0.21185660910347792
0.10118370283095146 0.19514132774196469 0.10688927830940997
-0.35530375024336536 -0.13606495681182196 0.19806503152526034
-0.88424385963367058 1.2712508741091995 -0.28619951041486047
0.085514242022782128 0.39603794120745306 0.51452734297072311
-0.33723983076481545 -0.12655072988169991 0.21745864917855329
-1.1483025951039281 1.3291745157756196 -0.69220578332168259
0.46814734966386595 -0.44757933492991242 0.21695987929774674
-0.48184595037707822 0.37971268372606914 0.35414043990249411
0.37893805678453418 0.48375498059451161 0.25568388692045119
0.40988583430871017 -0.90387183403737481 0.40152604452340768
1.0652739675454086 1.5092474570405301 -0.51470081274430868
0.0043709735669494876 1.027430725375666 -0.28075170661203686
-0.47492744504802431 -0.1619787276487159 0.12832346079269996
0.041851572274595128 1.5908895590503107 -0.44325080301857156
0.81085572851469578 1.2764073900511903 -0.18363161624287727
0.35948729992702511 0.80494135531375832 0.36931395645720499
-0.66851313975428184 -0.61580078070784339 0.17662876804577365
-1.06542731727194 1.3839256529403343 -0.7012151252699681
0.17040887324674259 0.053630490971784184 0.23372772509171114
0.38968894151832956 -0.23374804079048772 0.24301152803663228
-0.12202260257924991 0.66647904838464456 -0.15986704031061549
0.79064387035089112 1.2414444142127365 -0.14560029143378017
-0.27254736140656632 1.3094394307641579 -0.29819901136546889
-0.55884738921093913 -0.76624423237905148 0.26496298961562559
0.61256762304674339 1.1865824787596182 -0.04019826161722051
-0.10420939154886355 1.3773161709669353 -0.57033547877357194
0.55314421623944554 -0.31284926054624407 0.20409502868170648
-0.16125638843789147 0.68926037155131326 -0.15146930722139018
-0.69425806437266147 -0.18277179683695977 0.13772581176269227
-0.022109622161735842 0.93232153911361593 -0.27699102618691995
0.05987167635669266 1.197890890469651 -0.82996562809415764
0.41187523367295853 0.41531747349580428 0.21211696927437629
0.35995512238753236 0.29947879219048446 0.38458911925258121
-0.65222074827642018 1.2727821512416853 -0.0087068951011417539
-0.72031888707141434 -0.80984281299315342 0.24355649343786467
0.058889475876071629 1.2072383946773044 -0.36857677627602925
0.22262921132028168 0.13874602142089998 0.38405242899928282
0.32225022856397345 1.6376123782258531 -0.36312294649776788
0.48462538966307989 -0.76426884620569524 0.35051012709143947
0.53542659922533176 0.027310000693262282 0.15113144148490676
-0.27415702987474333 1.5534356488174552 -0.38891009438208357
-0.4163733096900728 0.45027079310861495 0.37248026903313303
0.090913800174462267 1.3587418778299138 -0.6313007449938226
-0.70812038860262305 -0.90080329124047864 0.2738324420680982
0.53509624220023966 -0.85313849330702851 0.36571757734844823
-0.60945397983556404 1.173416537721522 -0.22188868091953395
-0.72343767130530523 -0.83960993683260199 0.24747770657985768
0.54306629250817195 -0.44992687323889413 0.27412014675033447
-1.0825580963791026 1.286388364380187 -0.62448153049329846
-0.20998976880963482 1.7546376805673702 -0.48923305697664432
0.28797496085144303 1.4434164573448811 -0.28906280113162097
-1.0986283519386291 1.387122874732583 -0.7230128938784901
0.91768896450372495 1.1414951378593798 -0.15799269786521108
0.54413789445737848 -0.27751600983216917 0.24846882306518125
-1.125869426736898 1.2979891814352982 -0.62955649272531389
0.1957538313341729 0.66725243526994404 -0.078950474471412235
0.23588049873751515 0.34575363019470728 0.45439056471819583
-0.39787064254028337 1.3304907178257253 -0.30563042857919243
-0.30735650189512853 0.65508645298041301 0.034840227312855632
-0.0060328588491529445 0.16789193852790163 0.073007508942083632
-0.6506918724567754 1.1159883174621825 -0.2324021021725855
-0.51023580237534816 0.15505979243019397 0.060207295883856204
1.0690951870697063 1.3866805124979464 -0.41398433007125846
0.54436613460006811 -0.26668203168216564 0.24588684539726557
0.20585620827790763 1.2351215244599416 -0.26608233460724762
0.29524886400076866 1.4511502711196584 -0.30091025175080688
-0.42793426008995539 0.33858518092222312 0.10506219164932418
-0.54209009640811701 -0.27958442219616586 0.17591947800588059
-0.5052703341955862 1.4039284701467523 -0.14902437585141115
-0.47703454658591227 -0.033335548686920902 0.29800838332732837
0.54410277820375086 -0.48104750153233056 0.2755768160780292
-0.72084099765729093 -0.68187143448295728 0.17551587331226415
-0.45908072250159648 0.15993575721378761 0.058589670506194125
0.39757646774529576 0.80797962116358235 0.10489528645835833
0.44932719121408127 -0.38834729347314578 0.19866090789784607
0.14579221527861819 0.060765162052348387 0.22975723391894576
-0.25478127962486496 0.77826967392792312 -0.20077542038583829
-0.41445579467705329 0.4686551346204908 0.36578050929168171
0.86856298071057836 1.1052079011469829 -0.15473524779910974
-0.43672744743770409 0.84118395050796835 -0.024569306451127204
-0.52075278726334773 -0.21181404255105463 0.12396315837614225
0.42322436516826656 -0.26009583079149934 0.17556661274005592
-0.54818236476558013 0.30537216285446789 0.1548276393395156
0.0055591351159023361 0.15698241477653596 0.22058447374945445
-0.72308289125999181 1.0961668526568218 -0.25033707930236915
0.10591693915489486 1.4664010124531615 -0.51610400590406869
-0.7366684390267153 -0.9157440717123535 0.2719140277434775
0.31944700676922366 0.57506394309046982 0.1701853273052194
0.36698789809184973 -0.36337327653259877 0.24091143744857391
0.55377551494916588 -0.25369952100743376 0.17845477432068435
-0.27261946705738183 0.66467929604507958 -0.019134989087149279
-0.40744018659694348 0.46221594377763608 0.13805876539970541
0.32286726177255787 0.46384055725803819 0.11301448270593539
0.42729017278884385 1.7968723082875471 -0.46910443731580642
0.40832148662497048 0.92362638987148671 0.25647544155822288
0.22496120543678444 1.7860315285476105 -0.44524351290091602
0.41191184765773414 1.3460590741049998 -0.21573853746670579
0.42857728772480641 -0.74602841684742316 0.3435704825048731
0.44700935512582873 -0.40223014024081749 0.20326139934141452
-0.73370871243227498 -0.79394512999584776 0.22183664576449758
0.53478712759311975 -0.85100730750589548 0.3750939666414439
-0.038036366388041642 1.0569534868895119 -0.28774710015207461
-0.68428928517062104 -0.25596601859021462 0.16918868424923517
0.29516842859993631 -0.024143069134879624 0.29275014892698437
-0.097491790399715228 0.20691921825741133 0.041793649267873434
-0.20249573898075823 0.70070791308384628 0.57307356830224876
-0.092559512255490972 0.18138231758481993 0.061693005282876356
-0.10138578217834038 1.2382521576390246 -0.40269690117621337
-1.1045661302865426 1.3559574984732308 -0.76635292850723147
0.27764414680746086 0.61809304111659458 0.081197012077012687
-0.96243693682956177 1.3437324812250182 -0.51985653053407077
-0.65201562097121268 -0.049367491692407839 0.23003343386562847
-0.13787204153476296 0.28800327715390495 0.026364210365443341
0.44547338666188807 -0.41477042614610582 0.20759915184784461
-0.45469034688676402 0.47052633014592971 0.2289847899830022
0.39237794556356675 0.80227962753863835 0.057529989785265911
0.030054505950545263 1.1938352371089564 -0.38597349938697789
0.81834372490135365 1.2413540777944547 -0.23656975981394623
1.0622429245190119 1.4787376184070808 -0.48744553706491445
-0.73175702275432286 -0.85458055728840066 0.24035348716520843
0.33943776834979644 0.76887226001642262 -0.012431533504226877
0.47543609009534293 1.2820107918897179 -0.13475441106963615
0.52782840578160517 -0.81104234943366293 0.36574316967988807
-0.60536299335097965 -0.10839825353093602 0.065246928082558497
1.0660379881589961 1.502445005175872 -0.47783552874680879
0.53351054732223702 -0.68281083899003647 0.32072649832343814
0.098661909076270149 0.51630101396469286 -0.046990472175963305
0.9794696592919081 1.427617929114291 -0.37137663690975842
0.28341072375775411 1.1653070225495981 0.21506445657736606
0.54320338341415209 -0.50651908784783473 0.26747306322798181
-1.0035564880302843 1.3847456132186409 -0.63379024030425057
1.1753631470564301 1.3867779627988597 -0.48984069532311736
0.43681795419195169 1.8606175702613825 -0.48229419588645328
0.41376072851738854 0.8493628087966556 0.11086795311565822
0.15320417546553244 1.6399970048978361 -0.35427491731564942
-0.32731237685754877 0.56628100039807805 0.4650563140239683
0.69659276058115438 1.1008485457440145 -0.11544010373670233
-0.68592706509440404 -0.20435833023378791 0.087053488325693706
0.54180316571898857 0.94436032453089069 0.059323517207388932
0.41474096862765464 -0.95962671241760233 0.40625582851626518
-0.71360916932172813 -0.88267854022177517 0.26146657360801839
0.14070996800205648 0.57026451474445139 -0.066538018909142238
0.29772819319009614 1.4914502744157119 -0.23566990771006147
-0.28734342719423012 1.7468785832588196 -0.48141478456315667
-0.45278422705473531 0.45707469513877186 0.20006181430409242
0.41999953585997218 0.93817656381011716 0.23869847106237785
-0.61185056364445245 0.97241376546918445 0.095494123542437137
-0.16010897020248649 1.3873610504868594 -0.51777000467841106
0.10534438839766835 1.1959944363385375 -0.53588164308017383
0.33100708246251997 -0.46977259991450637 0.23528852888672702
-0.68618478319609721 -0.12740301895280481 0.15554873433310945
-0.62293563219276393 1.1494335305788752 -0.22967115402516924
-0.73382197810107641 -0.76356157235308331 0.20347525684387335
0.5471478175483071 -0.12506134206714137 0.20429709970862575
-0.61112982487242107 -0.61047782207080559 0.17681529722391076
0.17375875301587485 0.06396493891631394 0.2039212676534703
-0.90420527161376185 1.12063728088971 -0.34176083391838574
0.39787766398427493 0.30214310565020241 0.12289709128835113
-0.32964227261021506 1.4024176089604623 -0.36415634642504813
-0.67821025702585302 1.2647284640590755 -0.24770360015330084
0.72461362351401704 1.0116911715424521 0.027687304599879781
-0.65823989868553667 -0.80716644358582812 0.26492805766844185
0.99484651602057284 1.4589843977512089 -0.40084330730034878
-0.30827652705829678 0.57631980726176835 0.074706377608606545
1.0398364713237243 1.460279311451842 -0.43059293443808144
-0.72027662124241942 -0.8183780838119219 0.24568535120613433
0.39147866611932614 1.8565322687428534 -0.49910367679396472
-0.50546633070763392 0.90616374432045177 0.23072632010973848
-0.071753735801848961 1.6643723261678787 -0.41916859519155025
-0.077273228406852468 1.7063323533641892 -0.47098404268056981
-1.119145722959388 1.3363161730012223 -0.73690189825639152
0.094722176792913615 1.3528200899268654 -0.63512195016839712
0.035263031052750193 0.66364678139518674 -0.16983919669661418
-1.1678929833623499 1.3310978769032289 -0.71049940923504096
-1.1037699293212597 1.3468496654531208 -0.67718226822221084
-0.66555622124263891 -0.24058581878801988 0.08977749123047829
0.39773292669011084 -0.70890485743643694 0.31637477803764114
0.47402308446442021 0.93897200809323067 0.18794759094899405
0.54006937385753417 -0.76231094770704999 0.3374984719075087
0.20252990123299242 0.38773151836713282 0.4877728879917953
-0.28534418384140281 0.25946832105810813 0.42516161150689413
0.026048429055720135 1.0342271010322861 -0.28611607468027955
-0.41332618967896906 0.52321867826549351 0.2842771898092451
-0.41848481210894306 -0.14345588142461452 0.15542760096948882
0.13156731915051978 0.33246931812510638 0.04846125519418365
0.71450538708847944 1.235910907567856 -0.11084116413258016
0.70613731292337434 1.0343508823846008 0.032069170227771338
0.45109058515771494 -0.013718847730672223 0.097174972812624105
-0.26590102395761051 0.55509818222276408 0.51038333333033847
-0.67615271176549641 -0.83851515685952904 0.26855772553609825
-0.02918157999010873 0.92428083652166038 -0.27497407097851578
0.53988300314270532 -0.75634378789558809 0.2981461482800114
0.93584361358784918 1.2135024286405951 -0.32043096151738837
0.061015172876409451 1.1806831884200477 -0.79459559021233872
0.52560740580287302 -0.30302308340745299 0.17890106708567544
-0.055590512225649036 1.1352648472052351 -0.61121712798750139
0.38488883620311753 -0.2851739970616336 0.22985039169680022
0.5454640440537446 -0.52642214523014275 0.27903392314958353
0.056385082047256674 0.37389873682147368 0.5083037546718856
-0.24868331272728028 1.7616726555973798 -0.46371302981270901
0.44807490137492323 1.8313097839167654 -0.49571349337082893
0.51361813525016942 1.16287867993519 -0.11355508482326115
-0.54946621182460831 -0.83285369811750343 0.30451085114067666
0.2571090063948418 -0.025200569736455236 0.18020325338298449
0.2847719996551632 0.57695858898421193 0.10726309116166988
-0.7038806860017246 -0.77990478199302515 0.23790675957435781
0.51489639933157605 -0.32531281619074548 0.18718979044760431
1.077448653396857 1.4822088707080212 -0.4748923962925744
-0.22495206996313755 0.80175038386747133 0.5765872348673895
0.54783061738012861 -0.70436580975743368 0.305540724819096
0.27732010803890716 1.568773642413106 -0.35492901555345213
1.0092606612169561 1.4117413180162117 -0.38319899095520782
-0.16428203281532205 1.3378011122185853 -0.62226931536243058
0.51295198556135801 -0.74753742305429682 0.3434322494451294
0.41211445398829483 -0.25555136192926398 0.17888916834334623
0.45062570259443646 -0.5748866803006365 0.26773734149500683
