# XYZ point cloud file
0.039575376651967531 0.0075714076501149918 0.26569208137198075
0.16047920521196346 0.31667899647143116 0.22222607117741688
-0.48539902045551742 -0.41688998904865748 0.20893868045997976
-0.07939133557904654 0.63371028069184376 0.089566194952301004
0.93411398799365841 1.3811592121899281 -0.39643202653291709
-0.13878475605541851 1.3589661368124268 -0.37737758305034319
-0.63764528857468861 -0.70974201777887203 0.23555655933066255
0.39709714966336662 1.2828289070392103 -0.26667067118465582
0.62084539994656041 1.3407169938132029 -0.31642695801643939
0.23790022297769298 -0.3237624333602902 0.27761192101383614
0.11719790380517736 0.69669353765301523 0.10647678919993808
0.23365022748870956 1.4120672671669148 -0.3929972722392705
0.064563547521171216 1.4057444631802838 -0.42482126331260162
0.26328852274617276 -0.30728914437204935 0.27377601375503957
-0.35420887486747432 -0.39174715977234342 0.23403718482369484
-0.18853203767234383 1.3776447435303432 -0.42691274729953932
-0.86556173287745253 1.318952940667268 -0.53240062783637754
-0.76735352988602301 1.3566222600665121 -0.50602456384972427
-0.65415985452735725 -0.61846393987108428 0.1995201820791479
-0.86716108145399673 1.3211218714969295 -0.53142462954081893
0.1462169647682714 -0.063174357066287712 0.26971587664196761
0.34866917422383281 1.2704885667971197 -0.25820056081020226
-0.58426003411828731 -0.47453852617666925 0.20516507576446941
-0.69125001664430741 1.3667830626359141 -0.48873393406008958
-0.33269130149263049 0.92963041536800262 -0.062099029198126487
0.40396527441431829 -0.33779659485939462 0.27879617629161046
-0.26606562651962662 0.43726039290232421 0.16007997934717366
-0.47903643656682604 1.2218238893389746 -0.29698334641624768
-0.73641364769958528 1.3736244264487745 -0.50806711569532936
0.15952131453025586 1.116162375103535 -0.16674198724537348
-0.3997202212911688 -0.60632997993343984 0.23074196425768179
0.55148534878794564 -0.69688088320724262 0.33091158325989412
0.49895311251929186 1.256120700754412 -0.25006079075755849
0.37915826663243024 -0.24969026186607834 0.27072331081495804
0.38639571789634175 -0.25089974065712184 0.27339783081784219
0.3161938232015018 -0.41711075724517244 0.2838862485563638
-0.40620637851277408 1.3547981641315126 -0.38449545346073322
-0.7465517362010381 1.3422345061115841 -0.48287959440623851
0.49373395580615309 1.4211959960137044 -0.39148461672195722
-0.28445941027580091 -0.13958565118597477 0.2431752390550308
0.15518717012903238 0.56944523980949313 0.14820599964792436
-0.59294765893481838 -0.5651292737618725 0.1963939355399944
0.27366112143492671 0.087783150042366032 0.23891704680894676
-0.31104475416239552 0.89718778042999148 -0.042853405992282489
-0.61802464172257743 -0.5627002095749134 0.19574261528950032
0.06644376995191692 0.40688106351895215 0.181951862818579
0.53544256440356008 -0.6830440634766326 0.32519676358964134
0.50348647109204592 -0.65110779907141847 0.31251264984712002
-0.84742372446502401 1.3208314736881182 -0.52412349255845214
-0.65251411220904032 -0.71582324546414711 0.23372936747152373
-0.070813681272660745 0.78573955505311588 0.017641160464588523
-0.22169713454901796 0.47768038044218031 0.14962501626747837
-0.42187536800595993 1.3578522916055249 -0.40348046480289668
0.33403517904365287 -0.66071419212779148 0.30318337534697726
0.35397940308192943 -0.69167340306678682 0.32186900068292879
0.017784270614825459 0.71362796288774177 0.059042687641639446
0.46698607809091186 -0.65628061489670841 0.30569634749308783
0.89914845679198763 1.4018248645143032 -0.39225540930978298
0.32655722248732388 1.3298960677695497 -0.30767673928919237
-0.23152919590653198 -0.23765603430835114 0.24377554854041605
-0.55795428147477111 -0.33570491428284477 0.19948697186917386
0.1190816989511454 1.3900816482310603 -0.43056330283998179
-0.48739649091896453 1.2709130587238029 -0.33624788762556435
-0.15026455354330182 0.84406050745851857 -0.012047833217540216
0.34525820261251994 1.3034055597116101 -0.28442891626837152
-0.58340708466405999 1.2805469342411833 -0.37006615950989286
0.18959512873002637 0.20845590867330088 0.24018454298904857
-1.0143659439070625 1.3258261844771813 -0.56105448841104888
0.36419460108583479 -0.68003477529229883 0.31344095189948007
1.0469468843265446 1.3844726960675722 -0.42964559655899492
-0.55015652267925219 -0.2429749917188353 0.1907801694065725
-0.45989991900540872 -0.65349871031454754 0.23705730516219603
0.42721330099207933 -0.5989779890488407 0.2994526940673623
-0.015019014544918718 1.1178318828616511 -0.1711617781697079
-0.92157151879503374 1.3249607183130507 -0.55533890386791285
-0.17299303815761036 1.4035376148236303 -0.42851191767281449
-0.91779337871577837 1.3692675853198644 -0.56212192558394491
0.52271053640768628 -0.72730706120147204 0.3540302404889033
-0.29100690235650006 0.21965685303396398 0.19621302497004578
0.30106269032844324 -0.57914990102661079 0.27409354368996119
-0.085618045315150937 0.94073923961598283 -0.0025907294832023808
-0.90901775774969806 1.3526997802582166 -0.50650441232440357
-0.64454386107534845 1.3322266600579553 -0.43953324406560768
-0.37913395785218285 1.1954089907269143 -0.25738311591475238
0.29067101281661678 -0.51876169013382878 0.26788938758008385
-0.24458502202792687 0.035187613969739573 0.23576485408878511
0.074215168165746803 1.287905022407017 -0.29990328076246797
0.83491027764527814 1.3974012317642526 -0.37383777510787297
0.02210592943993106 1.3450267852814584 -0.38396524594065085
-0.15292859902845635 1.356743071726612 -0.37326441951753253
-0.86956052166107867 1.3339702518869281 -0.53758424489829082
0.12464435657802397 1.4229460016974365 -0.41545367633045771
0.17775094407924641 1.4237464425905699 -0.41516336489834771
0.22258947193812162 -0.4209880114306479 0.27561908140300773
-0.43328019673776197 0.066093374900928481 0.19025411377995027
-0.10420199049343637 1.4108170045980337 -0.4284863007744093
0.50410545130940676 -0.65200702101985542 0.31082847627486032
0.43102773788792348 -0.40480911826114863 0.28342188459101436
-0.067337246740720502 1.3817748570256967 -0.41513117567597035
-0.5459392044175857 -0.6923141749232844 0.24996167340807673
-0.65035879034174116 -0.71750328888949966 0.23584350465023007
-0.043007684294067872 1.0603677363825454 -0.13750830503651912
-0.77284982435566008 1.2311159999477752 -0.3801978279576268
0.0097798308127075018 1.4189061784895713 -0.42452842314263961
0.25457322939830007 1.4095149901941753 -0.38710050258945827
-0.15826298606483391 0.048663128616190932 0.24708702838727703
0.34897943309657364 1.2792834657899412 -0.26434964129125049
-0.55409909515691425 1.2595603177402133 -0.31880854902293976
0.3513673549592653 -0.18319877777532767 0.26960650211049142
0.36787882889154844 -0.55010280464215455 0.27345026265027883
-0.34894400518123803 -0.30575560809686664 0.23664060371324425
0.3678151981716411 -0.69952285158240457 0.32132349741906197
0.17168229354135889 0.12587851822470952 0.24264206274952471
-0.086045735624331599 0.039552362795170382 0.25583422213798812
-1.047691820539816 1.3424394774942439 -0.5879269316180924
0.31240349231286757 1.3562305373375132 -0.33185508139387565
0.46856543416615182 -0.54769145757875037 0.29464308606739564
0.96480848734714897 1.4085906364554717 -0.3964962677143653
-0.89743931116399978 1.334059710035401 -0.54794513014423174
-0.41591562057927689 -0.59249801928504375 0.2312447704309335
0.96524319675762627 1.388273467942728 -0.41252790373442139
0.88645612382837413 1.3956284369245999 -0.3886415451872125
0.4047811287520453 1.1344757422225733 -0.15902781787665532
-0.61669952260572103 -0.517077697153427 0.20160584153212824
0.97818528558197926 1.3901895918484612 -0.41812570820326656
-0.87723369248898742 1.339447294764863 -0.5424770885718182
-0.36778202450712527 1.3458977445604461 -0.38637333865370493
0.065254136961172549 1.3590900811532656 -0.3970884583165244
-0.52374099882455027 -0.62658806213159046 0.22677601897195743
-0.96723958507446994 1.3372718845904359 -0.56542248113684579
-0.48073263966967517 -0.47603508827393881 0.20589620764693706
-0.42227134008010125 -0.61911689335957476 0.23246164636394795
0.0026654165330555202 0.95620773109170187 -0.06913501996811533
0.70708904656736138 1.2444514869873018 -0.26727622387143768
-0.62406107839317571 -0.69706925795353314 0.23356693857278543
-0.89742553389814006 1.3292379152324969 -0.54768746582911021
-0.86175410539453523 1.3787299848265917 -0.54135271376254934
1.0579005060761624 1.3850013420901952 -0.41897886214692903
0.31739481088634136 -0.3540311027082268 0.28154463583772582
-0.89954449096028632 1.31779014243501 -0.54867260311547739
-0.45075292273540413 -0.51965880068416581 0.20736541365854322
-0.96148720959063638 1.3068355002643948 -0.51970706768663888
0.91199941035591081 1.4032933141252997 -0.38594681867947145
-0.57099133312037864 1.0932005364263802 -0.2124735106172615
0.12783189735134215 1.3969177817746576 -0.43599460731513062
-0.68939222054549987 -0.69983151412976241 0.22224089763072641
0.91953952118059945 1.3821697637071999 -0.39481548037113967
0.46221463835059851 1.4177790320837858 -0.38772646987337822
-0.2369624856282897 1.3893468980430868 -0.44734613721579919
0.10681655529366196 0.72476922552304401 0.064922922803859251
-0.6307118674201817 -0.67465301923927967 0.21748903098228389
0.51509706765284946 -0.71077279844521968 0.33835167031127256
0.17007795363242195 0.43332284325280668 0.18952521424668944
-0.075287004404486879 1.2108870211125087 -0.24007380248434984
-0.063984123968623408 1.3164726067394739 -0.33798950642314907
-0.21083172869642652 0.71018145018517487 0.091946537629937097
0.22490027148914038 -0.28458350639507657 0.27702070237832643
0.33824541070273995 -0.36346778450150197 0.27343538003767875
-0.66958645315511234 1.3214279405466591 -0.40828959876899518
-0.22128527052250035 0.071208464963998352 0.23269984364299034
0.51614427109749172 -0.67589368857997201 0.32149260926090584
-0.10206094911637464 1.2513538262894066 -0.2736421947979899
0.92571733436238546 1.3959014105049405 -0.39841603134674841
-0.15988001170147115 1.4094745426635349 -0.43458997656456688
-0.014643193273240485 1.0258758035017017 -0.11383482519866561
0.081934664458991335 0.36571018566557001 0.22022497585896517
0.43777021614209133 1.0673087700766857 -0.12281664328538611
0.2689034932301162 1.3971899264926364 -0.3739986031412279
0.87513847065299544 1.3806422959267088 -0.38270204844723921
0.26253883817063794 1.393952270876067 -0.37271355054728161
0.8194843074013427 1.3765019920169479 -0.36910668446845207
0.0067505385036987775 1.4205923840893213 -0.42817461131890866
-0.75740690844407155 1.3642960298189095 -0.48348274495607768
-0.89540787372072828 1.3158878999075334 -0.54615932357130248
-0.44716167801438189 -0.67044793937416181 0.25006640499860566
-0.68070237313516202 -0.71652206007279773 0.2510009684456751
0.35290158120808712 -0.69311959486533503 0.32310499134493043
-0.001005636256309117 1.2558945678179327 -0.27395052070884773
0.12329658499420759 1.4064448527724096 -0.40817593372056749
0.16480774225540529 0.69978983831028785 0.093136442377069528
0.31367469739236498 -0.62351274132583967 0.28696180089306011
-0.57524480897591701 -0.36704121635872689 0.1964412714409427
-0.052676512846243639 1.3867985580992546 -0.40283449587864339
0.06155062675213685 1.3505713985271584 -0.3878437213923398
-0.084600961773329431 1.3386274443505535 -0.35868856408073668
0.10301507938162757 1.4084596739174984 -0.44113299098211556
-0.01210217119519541 1.2894905927324487 -0.33071324821382575
-0.10776288277599377 1.4169995735667271 -0.4440130860589413
-0.69009577717029913 -0.72297451912714372 0.26634976696085033
0.090239928869948471 1.3608749426396258 -0.40303527245589521
-0.66355804101957006 -0.67005494207447391 0.21039046438396802
0.37654922267173419 1.0259193933490671 -0.093110230266766791
-0.0093910817486992926 1.2331923976347632 -0.25378441033477017
0.049229744957354882 1.2366160419649042 -0.25081758235189255
0.14979743462635753 0.55991761171619103 0.14084818025958867
0.43356643950579254 1.234259570482493 -0.22976243248977113
-0.55552891021906703 -0.70068771085754022 0.25765981317995923
0.27339174742397532 1.4017351867060697 -0.37770093773468716
-0.38342488474816605 -0.34558037180170587 0.22631641982743034
-0.68601631370578531 -0.72091610127451311 0.26301226326225269
0.54737733927853682 -0.71423177960139128 0.33877417900441564
0.1112263710734247 1.2501763120735454 -0.25614310115594918
0.1252296204585619 1.4345332688818537 -0.43534969106955401
-0.57561345156184984 -0.33903160092769902 0.19449984737146053
-0.44761409195434254 -0.31024896498127141 0.2147648628091936
0.29277669242378579 0.22700947428787899 0.21577585838867464
-0.17006258300392574 1.3612136720162233 -0.40347442099849928
0.13162423385207234 0.025368896100367522 0.26449796097451994
-0.81429004253167747 1.3585111199548034 -0.48703092783933499
-0.256364874873519 0.86339824647604146 0.013018990981041867
-0.17601136651109428 1.4150550339948786 -0.44802409126011966
0.95079129413960572 1.3846909957269418 -0.4036634961388188
0.12978915433295413 0.026655017073153431 0.26006785778115926
1.1184128953860437 1.3867609060452395 -0.42495719687671851
0.437461336539684 -0.68653816281838154 0.3214968563185483
-0.19640928467082119 1.3108380432941651 -0.33213233887167704
-0.34247908239758118 0.081477243330539295 0.20694497628033304
0.28139213783092742 -0.32719799281704454 0.28065241432097565
0.12840844587569933 1.3267353116123921 -0.32528054505671733
0.011521964778886229 1.3983204676060303 -0.41703992170283399
0.24209267388992117 -0.37940768468352104 0.27349203072847672
0.038656232729337603 0.026125001506915879 0.26370765293787102
-0.083507250573951808 1.3791093556674241 -0.40674707507657715
0.31457921821061063 1.0821830675234523 -0.1280462745066977
-0.13129460167709084 0.025216722880326614 0.25263208518120095
-0.46486334072323032 1.1723592884782086 -0.25569924963452451
-0.073475031588099426 1.3400018186190437 -0.36799150477992626
0.92368485756738039 1.3988771356140752 -0.38378364453524938
-0.56267129283511252 -0.52507234487220877 0.19699207024198984
-0.41331708534539047 -0.33872352095356639 0.22081118944669242
-0.50854434413085414 1.1010846702797537 -0.18909529155627069
0.12930491425966295 0.6347990970722357 0.10941578677570618
-0.35731842615015097 -0.33255187167365108 0.23454582348428232
-0.43485744082458311 1.2949203509796412 -0.34530587183219552
-0.027233876077854546 1.426492339410224 -0.44503562930673723
-0.35199928198815655 -0.32273946633531203 0.23509252781989076
-1.0537113212594189 1.3192069206036905 -0.5813665230387457
-0.12885535159836792 0.30509114984483432 0.20111502632586209
-0.16496989512074833 0.92251594960138661 -0.064133445378480758
0.88680253787013896 1.4058533054155333 -0.39053740251197411
-0.40280025425742139 0.18030082385791779 0.18031220950497584
-0.326237226329674 0.1949830866885307 0.20190676988633172
-0.4870178344743934 -0.13190146540317116 0.19803006872018258
0.084321020550330417 1.4328846153146984 -0.43739928151883234
0.24668867277716799 0.19352373269996548 0.22384901480431907
0.50259917398076936 -0.63697694817026473 0.30926653497994039
0.30349621504094415 -0.56317730905121266 0.28674616233667294
0.92642370340563218 1.3969804587799288 -0.38252464972681111
0.58286654023340034 1.3191569245769159 -0.29820822574292549
0.11074847603132554 1.2285882835726163 -0.23886375169080409
0.52251740570928717 -0.72617108926965912 0.35230029859983425
0.32591788738375982 -0.20048686029991813 0.27061443639409077
0.44876016395524232 -0.4881433172631553 0.29001380904162133
-0.49507211496369052 -0.6864747856190494 0.25842655407785919
-0.19961828565471507 0.15090259351799773 0.22460334009991811
-0.81717887400371225 1.3217400479395991 -0.49722566461196394
-0.027469350365340262 1.4253356967283111 -0.44427193994428649
0.3502160241110559 -0.68319218818875527 0.31625949149309562
0.24446767824207427 -0.080196224009220884 0.26403178963018092
-0.135390116891692 0.53395678466427299 0.16662500691238691
0.080602340294603891 0.39192084096570667 0.18683672658273665
0.36872901859397444 1.2491768671147874 -0.24146621182019956
0.26981985537204167 1.3937228642548547 -0.36995475150910906
0.45242566330431799 1.2841582302867955 -0.26797282494979768
-0.41887588150977706 1.3391798859146711 -0.38414371233137246
0.3247624354477523 1.3454314452706733 -0.32151126481580405
-0.39575141708157702 0.11982813927986768 0.1938740853736256
0.45311102969370154 1.2420967842387611 -0.23600799983838527
-1.0633818205282086 1.332827550419589 -0.5898334184066556
0.95057548775965728 1.4048920291672609 -0.39844380301944682
-0.35897130649977527 0.11797532842292391 0.2045201787742883
-0.027618252720664316 0.13076682358151714 0.24248256451395278
0.053430212862991766 1.2519920123862818 -0.2345891872595729
-0.51495548792560442 -0.55308209792952745 0.22181247152792594
-0.65272353124589699 1.3015389334944523 -0.4161558555658047
-0.017084565720665523 0.62984397877677267 0.14292220761983998
-0.23917586895386478 0.53036840175397515 0.13458963992054152
-0.19989173539271832 -0.16812246518389529 0.25388850723024703
0.10478094305934604 0.38698552446181367 0.21289751856194528
0.4983045533034165 -0.66735446160209122 0.31837164361168391
0.31483154021681514 1.421131339163324 -0.39745320941750606
-0.41252656448696001 -0.3132607431490726 0.2293740712921597
0.093762420640818078 1.3550832466621365 -0.39511729616602054
0.32891534043777426 -0.6307349075885611 0.29006775239370342
-0.24143020787197855 0.043297373218965873 0.2358538251852238
-0.71604491497717859 1.2392025333735113 -0.38154874631272051
-0.69783512731408592 -0.70393790911653475 0.22237343749131355
0.29577912827970465 -0.40996474476208533 0.26992925436694293
0.98106289228784505 1.4068133054078693 -0.3967465104394492
-0.56108103455112257 -0.639233340888687 0.22447302276707859
0.069256773921964054 0.45787169190998611 0.1664797472183146
0.58083828716150876 -0.72721169497503624 0.34472713338913508
-0.77401390770435441 1.2275937069811285 -0.38305432114653115
-0.23592929316249212 0.77222756288477257 0.03222408780655428
0.011091031761829129 0.113113984276211 0.2507036873568822
-0.48992371389140743 -0.31032829168666609 0.21427513573683399
0.36289561820373706 -0.66849079914571163 0.31084599358919363
0.42607110571330509 1.070708895229469 -0.12646491044870345
0.07259393145711357 1.3744975710563345 -0.41851128992016129
0.44872079029143919 -0.50807706368102146 0.29192788261472202
-0.34274931106473616 -0.30039000027198348 0.23727133112898358
-0.70578358672833374 1.2791733946267492 -0.37440212995305799
-0.28110943442489855 -0.27688571448091892 0.23846655848164744
0.070082792580762998 1.3870220680550993 -0.43107930662969807
0.26917992117253675 1.1207301002412926 -0.15661246084631131
0.32438636715785663 -0.23816930168219486 0.27376606475142751
0.95428894243634232 1.4076102869936307 -0.39561143026650925
-0.44729312163683232 -0.66327440631475554 0.24315345958611978
-0.24795266239856062 0.87807889167035569 0.0085457835051556685
0.40725159063890715 -0.33472982805220042 0.27911301469031358
0.35957210410189333 -0.67472726678277795 0.31256635962210666
0.2609916154575167 1.3832183953120456 -0.36047914580657192
-0.13916045180402392 1.422258870225253 -0.44927068990409325
-0.64480172949497216 1.3474905693470625 -0.45046374441959713
0.26746884157984496 1.3823211402289388 -0.35874313046052464
-0.11291107372679221 -0.08422488056623223 0.25823394756289275
0.59568490498594429 -0.74400742836917999 0.35168488796126951
0.018324739699657755 0.16379311836083943 0.25321081043295379
-0.54146831316451127 1.113544854389005 -0.22655689843083238
0.13260533211484216 -0.10349905215614896 0.2729260283311703
-0.76013384295293918 1.3234322087209698 -0.47178364743730228
-0.76265001582716963 -0.74819857517325161 0.24413065475865992
0.53771372466031053 -0.69242392704793332 0.32863680036328624
-0.12533221836411457 -0.053388344831148515 0.2545846995769061
-0.44542251375541753 -0.66225589883679881 0.24204409918898406
-0.41462511591886653 1.2239606778179244 -0.28403051994652273
-0.07348580273509242 0.46785677988475527 0.15372743193630711
0.020742040058184585 1.263402114505336 -0.27953821285946034
-0.78263400977815678 -0.75211566027860055 0.22718310248756524
0.27939978395705367 1.3774310015889171 -0.35331009247782319
0.38836342777097599 1.2663276049616599 -0.25398208384430987
0.32462053141166791 0.024336855897484355 0.24401306841114945
0.20605381453474791 0.28152174356225501 0.2231530013371632
-0.66668777136722213 -0.68411334314469663 0.21720222846938064
0.44804206649858003 -0.45953227102133809 0.28548682215429011
-0.058912153218102503 1.3851857543724968 -0.4204287611488553
0.072164716911281346 0.7580654781974161 0.0414075415220303
-0.97585234318203362 1.3197479095332803 -0.56564194133227019
0.020619393130811403 1.2733238335458168 -0.29092352218705031
0.27769973978532647 0.2820234040854146 0.20742095516539294
-0.61963925688955612 -0.70253243259882048 0.2376395747015998
0.082650730462795252 0.67713491259571157 0.11951328418332707
0.87545716712040544 1.3795322321048822 -0.38223008131745573
-0.47829790126369431 -0.066659729490616826 0.19361117040977405
0.039629054359544114 0.15869699891521094 0.24269426695261842
-0.23015723786055275 -0.2347547535461203 0.24764942610612195
-0.7757131535671995 1.3500928226434787 -0.46805332511552677
0.018116370263548731 0.28648080442004087 0.23720601781176853
-0.21694694331310416 -0.23206552413846282 0.24705476184063713
-1.0546153004447536 1.3379450834812374 -0.58864787028166532
0.32467838884728906 -0.42808222424234188 0.28446488404189196
-0.28974845924554415 0.26596555579109804 0.19847708518891949
0.18509105290206662 0.48457366289832038 0.16901495983431758
0.3588155296099842 -0.68598455313287943 0.31739968553356945
1.0115732242064688 1.4037831336509647 -0.39686379488394152
-0.01521265166513075 1.1230148331211183 -0.17422858431616817
-0.32054003654710073 -0.23434558761299229 0.24102488840905067
0.1187795506129099 1.4187580065851613 -0.40962775494796233
0.67316496578068552 1.3515187446735943 -0.3270440609200449
0.16535245546808497 0.84532289997230947 0.030534955782492545
-0.56803686748600057 -0.58695859478984325 0.21671182598257488
-0.89597865429310275 1.323760409008198 -0.54461126304254748
0.083152818145933338 -0.027146255091189175 0.26895355731617698
0.23857535719372436 -0.28648307153750352 0.27495959512171453
-0.095432123406624214 0.75961549196129496 0.03024908325172504
0.64179253770031863 1.3303624523333646 -0.30904399730685128
-0.1934699579271566 1.3162403499646658 -0.3369517407884679
-0.46504618133918285 -0.64923203790768902 0.23552812940691581
0.45841483357725821 1.268943071658569 -0.25643833373624858
-0.023179658434617778 1.3918418312188905 -0.40725544629136934
0.40112175627846369 -0.29733881757679015 0.27483008184668023
-0.11853509170136789 0.78081227159306366 0.020008766434088443
-0.55826091910896025 -0.26934478433029163 0.19228095850814597
-0.03533669560776076 1.045628650256571 -0.12691771907441307
0.12225715111071267 1.3952801724118551 -0.4352769539435819
0.20956962888860176 0.41783012915474416 0.18336447104728038
0.16773060777336468 0.26736026263497337 0.23190784740599923
-0.54433522734156981 1.2845994165201731 -0.34190100275111845
-0.68600261509349281 -0.69845143761662953 0.22260813170932181
0.039168859567443093 1.2681471807091356 -0.28103564311413365
0.10050687920416834 0.052561212736659257 0.26304721862686975
0.33948779730488354 1.4217506277234158 -0.39577674661625295
0.41304753707434827 -0.63930831928866994 0.30479049383161438
0.33246604106872013 0.031922784733840359 0.24242691525644489
-0.16921222397467517 1.4077728405655563 -0.4334088480690923
-0.24558151030414876 0.34358896003091033 0.19256593565761193
0.13555204243475671 1.4030505021739188 -0.41046236615634868
-0.64192105388639931 -0.70218044548560243 0.24498272452916225
0.52859364792345076 -0.68935282405266562 0.32637266941031839
-0.46017532283515905 1.2509241907095472 -0.31469149730533985
-0.73435284729880124 -0.72211042975749251 0.22167137617183386
0.43763373610700995 -0.43509740169903921 0.28328100063087547
-0.95567798463328657 1.3260777603093619 -0.54855883870539657
-0.067711823022865048 1.4207204550965962 -0.44869250738841515
0.23908894602853792 1.366213067443848 -0.34502982401080118
-0.97567891918287053 1.3158802323354166 -0.55604084300346202
0.75739244758786484 1.2712174523423343 -0.28639516349355532
0.39676298338519445 -0.28638319593108008 0.27573774317292532
-1.0307753592440996 1.3356160608352639 -0.57415451919074201
0.087420048750658452 0.7390014772539466 0.053180928754240853
0.094945190520562051 0.27860907949030533 0.236605219051782
-0.29025546321485152 1.334306248084502 -0.36662148473915579
-0.19785276911149907 0.6904679967716163 0.069880045946440816
-0.020239166762252125 0.13530294928371589 0.24220282135188853
-0.48927273170563979 1.21534291219184 -0.29442268702637264
-0.32814862783013865 0.12019039746893867 0.20453143728386891
0.96608102000223894 1.4042878865983681 -0.39394647918682324
0.39477597789307595 -0.2759030313766182 0.27499334189162283
0.13653607670680401 1.2606875101659973 -0.26219331289178172
0.24782787659847472 1.3711083417733114 -0.34926347635193977
-0.26213219385354591 0.31186941718264904 0.18432989439430258
-0.38142311127138129 -0.3616256014160566 0.22687928174457284
-0.42039706734082927 1.3559798762720874 -0.39899320453400833
-0.30761694376944604 -0.17822128195548714 0.23061254156110067
0.44662757759977723 -0.45923913800280758 0.28498946621062515
-0.62999177759672165 -0.6396054410623826 0.20354073262113559
-0.29117098122027585 0.12616506242330772 0.21133952477443074
0.20863829235615228 0.85569928872905265 0.009937850350887345
0.29985239929725793 -0.38355683529483997 0.28250606510644261
0.069226789491004581 -0.020907021993753716 0.26835367973133728
-0.17831083725828734 0.88794911812361121 -0.042963543175886798
-0.24483734371715826 0.36795222987654697 0.18696622294201859
0.68007984634407137 1.2268635584739549 -0.25271727201825911
-0.29431501795534132 0.9089297899694877 -0.051512584015629415
-0.36145833155733698 -0.27884749726416125 0.2360003887681863
0.26444102917311341 -0.28053528738113442 0.27908173589680629
-0.34586951939990485 0.25647500556905456 0.18027551640728845
-0.0090231687417059447 0.075366902393238178 0.25828571301294545
-0.55360197927666022 1.2078662895792505 -0.30484498266620008
0.14868490121198263 1.4097465475704176 -0.40277007065727588
-0.70251138847378769 -0.72273845231693201 0.24528673884001684
0.15301706139356952 0.58737198291987625 0.1323228333507771
0.23717381949742844 -0.39666663193673202 0.27344614889767627
0.38910122905211608 -0.23716867911464234 0.26900390464920676
-0.17948967529649451 0.71630932308844919 0.056366613754089911
-0.24802410283649579 0.4429621584713459 0.1556865349923342
0.15791327799435351 0.47672735703265445 0.16436439354929178
0.54091154987885304 1.41811129234517 -0.38607222277927278
0.2179166878936627 0.98490804619902406 -0.053087827917199348
0.33433436219869606 1.4271434803738394 -0.40719095391708748
0.30485604956800927 1.3186805386947 -0.29922913635615345
0.35172420684045846 -0.63040922625643248 0.29654119827618786
0.29985761501499297 -0.39571959359643216 0.28286554315230106
-0.68746183457178489 -0.69306125033583044 0.21889130942973622
0.53568527260697252 -0.68666615530413821 0.32650807182914754
-0.041027314580482255 1.1478780138695655 -0.19286566109516912
-0.52916120863886817 -0.35105883213241817 0.20428963056459892
0.15572247185378529 -0.10107736709016635 0.2703685522077599
-0.072192137456077887 0.18669967643358376 0.22856003154658566
-0.13554739262642101 0.5590276039658022 0.15855452084041488
-0.06868941889383251 0.15132568122238155 0.23632851870204519
-0.066271405811640705 1.2955051733724012 -0.3135287570471661
-0.93837757806578281 1.312969666873359 -0.5661882333714594
0.13151929642337024 0.64819624914515472 0.10408082185027112
-0.84418155736829092 1.3782263572732258 -0.54118574786825846
-0.47108600728255823 -0.17758949914984967 0.20541223350490156
-0.094903685256149117 0.28169999220308739 0.20704956648318529
0.30037578686734179 -0.40650825983635386 0.28316882222445017
-0.27497400919802573 0.4218014757199029 0.16165237023657042
0.20675759861020282 0.85641724021612475 0.0064535056625913967
0.019194179922319421 1.2647839529503031 -0.28140401362184164
0.62559215364853316 1.3047386565588432 -0.29694687956054366
0.99496858783480846 1.4073107397865101 -0.39820865315029508
-0.74990602229460279 -0.73072026017232972 0.22387405108645098
0.17410059709926529 0.83221965236611695 0.014367190525575779
0.33753068351312621 1.2800649028978448 -0.26541274929601144
0.49105366072947731 -0.66506139726440239 0.31699544104651167
-0.43023394765626932 -0.15926759877319618 0.21553966834252236
0.95350873025964944 1.4032910575106321 -0.40142751348135874
0.45882501751213312 -0.59766034390420941 0.3010021511928862
0.032212924453219216 0.56563335218905664 0.12449482286283597
0.87244054322592035 1.4051486439773626 -0.38523481680761762
0.1303974873022149 1.1595491955973323 -0.16242674885680586
0.42823820353999764 -0.47275115856504613 0.28891007741751551
-0.84850917742610221 1.3487925723507956 -0.53893660754835437
1.0353189902166662 1.3855616312608845 -0.41023110914476746
0.59988835156247511 1.3911865867267963 -0.35301517403893357
0.22160966975847529 0.89897490335559382 -0.01219615544939856
0.19252588565573348 1.4222089818006722 -0.41126480626913064
-0.19486343624297575 0.44430566041470598 0.18001965008170728
0.48315767206802462 1.1884473280973076 -0.20643511853746688
-0.54450882820102464 -0.26361416301824292 0.1950958135748202
0.32690190464356306 1.0199502316607045 -0.087272281628340664
0.36802874336018121 -0.70019736414941747 0.32167947618968995
-0.64818598709364039 -0.7014174173469705 0.23917098175791374
0.055471877552086823 0.63159587555992758 0.098292277403075445
0.25865402881117205 1.3770616021523736 -0.35631756888318478
-0.11986744568984165 1.4029408167209532 -0.43564027692328722
-0.2745463233292682 0.41638573788967648 0.1616654270592619
0.22955321072308266 1.003034706638072 -0.064959088658987696
-0.44398829161312037 1.0190862940962724 -0.13206546187348422
-0.074415145302324959 1.3845247538436922 -0.40101616755787006
0.086411536668318689 1.3076425494838411 -0.32557695823487265
0.22029611445741182 -0.46894470144654576 0.27721266653838583
-0.53308199032147741 -0.22324640364312032 0.19498032845903523
-0.46871151025148095 1.2368485965081568 -0.30607038033157252
-0.67122164434309184 -0.67872701182160533 0.21378579120588981
0.36989009474438461 -0.13088651602303969 0.26175111873359569
-0.50384063662649226 -0.57531070924328631 0.22441116976857955
0.084629920829605965 -0.0084395964044681193 0.26748881472576258
-0.75606334317051349 1.2354783450147764 -0.38858088442094996
0.20753422443988256 0.30436311515761005 0.20673289937239758
-0.22785107303261398 1.367759955512156 -0.39417372198659351
-0.53655697080645837 1.3178922453728212 -0.38691269405517303
0.52055719809807499 1.1440984669772902 -0.17641075762318081
-0.5843425767069661 -0.67755071014427593 0.23276287370866555
0.89355812858364203 1.4078273828192813 -0.3902248538276325
-0.19361332328748659 0.59119548649488252 0.11203914338559429
0.91136847703793933 1.4024028129531665 -0.39483647156445301
-0.70785191056503294 -0.70715205244223256 0.22089377309372082
0.55409583952727814 1.4024740308745471 -0.36696366409711345
-0.34692511806908044 0.90474843908255309 -0.040539881788781429
0.036098605519956806 1.4203082761846808 -0.42287834926677803
-0.0032709420780534515 1.4464344232822803 -0.46541750298841578
-0.97580823720725363 1.3147517280107799 -0.57104403684813576
0.13752309836697307 1.4021616232798415 -0.41004986160184487
-0.0046912568865735693 0.76022727009186397 0.033280787630069142
-1.0748710283263012 1.3292960055388292 -0.59238204641319925
-0.99921490517615652 1.3456172492334204 -0.57713421780955798
-0.5124292386839997 -0.29451259419561637 0.2076471062023586
0.31872550568117219 -0.61181855305606447 0.28100347294774508
0.27367737732030406 1.0133223649660117 -0.074975584024645769
0.50212253929479544 -0.64506594310116228 0.31108729837458426
0.074775446857778149 0.31241734800939724 0.23172211055078051
-0.16758368291829839 0.1075587000493563 0.24226780399463266
-0.00081772384893952221 1.1295126168623106 -0.17822932576691741
-0.24761632411604495 0.46269976500359533 0.15860037847776809
-0.27607588407792605 -0.22697152624806449 0.24576908376208095
0.053147999074731445 0.3327523171494704 0.20276947699989023
0.54519712993121416 1.2962773002476133 -0.27926996485657085
0.53054864310732341 1.2044238608759521 -0.21331192656544928
0.26195567477506643 -0.015009744094747646 0.25449664172834474
-0.16015235753440038 0.41676586213571909 0.19398675489076211
-0.63922068418898448 -0.69666027374958617 0.22890619458924988
-0.039963823893561568 1.0383049688946997 -0.12261104710213644
0.47841351497308438 -0.63433594836416418 0.30012779045223326
0.75135949231002996 1.3053466145682542 -0.31938604051408603
0.10329116285474527 1.37682703258535 -0.41511497043912726
0.35949883465683286 -0.29087153007460032 0.27613265539130438
-0.026676472257491923 1.2926539823591057 -0.33196388049771741
0.24118650146997567 -0.32895978962153194 0.27675363784022977
0.46024721988940342 -0.49342087339239882 0.287987126679635
0.0053338007455749903 0.25686188671725318 0.24150761855475622
-0.068405487706645118 1.3961582430274682 -0.41779622785659143
0.59279299738244262 1.4058422713577947 -0.37042611770893785
0.33968873354533358 1.2051145473466036 -0.21030693473304396
-0.46154288393835685 -0.66833342165167942 0.24566570164370916
0.13643118106427465 -0.086640533244597862 0.2721571824668807
0.13496966553142187 0.59828305040835161 0.12483287415138733
-0.6423676504935969 -0.67837023683325803 0.22279487625367622
0.35170380594468043 -0.31596966670502979 0.27861941192155015
0.9535042857263285 1.4019479613471546 -0.40242136317855071
-0.15581854633941816 0.66258170970954566 0.11882316861901998
0.50224095191577334 -0.6124097498792942 0.30324868950170725
0.27567681131474941 1.4101380660678551 -0.38622759060865874
0.86371022304988898 1.3934639158775326 -0.38263824387284728
-0.066476808099412921 1.3882152864661919 -0.41473512777873722
0.44472133127272429 -0.63244845738127964 0.30569325482160536
0.25583239776822353 -0.28025951162055307 0.27917309203087726
0.33173800955589172 -0.52724218591309224 0.28792978966893301
-0.38723198437379125 -0.37425069383825971 0.22633378913578994
0.38438311877048648 -0.21910521902323055 0.270562277643144
-0.3660505419788862 -0.29428324904529113 0.22451418861666639
-0.27623361233897015 0.23532105851773721 0.20740327494515043
0.16685333729884277 1.36875373518264 -0.38863645696029181
0.29842875785865175 -0.30002155224158145 0.27353039931209366
0.36317103021666952 -0.58967633168165534 0.29314169745736507
0.29453804318744758 1.4240915185575425 -0.40043295169426329
-0.18429643378301108 -0.14222201350212416 0.25521537099357872
-0.49676680321464772 -0.38987621304504039 0.20911618723547676
-0.45851372348187525 1.2309378489853593 -0.27283725421960625
-0.56339302588472151 -0.29318400314265602 0.19327197151667619
-0.60959258584404097 -0.52966109140918682 0.20452296392356573
1.0829006715201253 1.3934739353083323 -0.40308647412375009
0.14789656982927468 1.4024325079094098 -0.40050327597960944
1.0149114055777169 1.3978735229460177 -0.3999458321770426
0.2497036051116055 0.97433193097062087 -0.057736945277554241
0.20702238301555553 0.42500170550959382 0.18177389712510816
-0.053799248718689796 0.522063584059417 0.13345608473520443
1.0572732196810435 1.4007912453832994 -0.40703192120316345
-0.48399325273862814 -0.50474239091960094 0.2042861318946656
0.46799258188274351 1.2360528018763937 -0.23191097007169859
-0.09222218488465117 1.4263562441177768 -0.45190304209899068
0.36060237020996055 -0.67605357808909616 0.3135040684627235
-0.75136774481018875 -0.73048400827911486 0.22199147787955376
-0.83661061817028326 1.3614167574817184 -0.49731178765467021
1.0702786716545312 1.3986551507945713 -0.40559477208291383
0.17945903920843875 1.3994873569242046 -0.42252063865929301
0.32660079948732346 1.328326440500156 -0.30637127309383416
-0.3432820471889535 1.0487104770671891 -0.14733346816135651
-0.56921517305183045 -0.33519275500882806 0.19551691223128387
0.12254245739224956 0.36649913749836216 0.21538325384180368
0.14482325017677766 -0.010246921724192504 0.26638931016622536
0.61032766935627336 1.3313874275934374 -0.31109771245837692
-0.80948154541700035 -0.77768609342155237 0.24220744876451228
-0.10012334291315739 0.31198369142865445 0.20045684964498278
-0.61075603601567963 -0.70711841909277773 0.24312504564797877
-0.28931176325054508 -0.12994408563856652 0.24183600856117593
-0.98240531614238691 1.2916377941854016 -0.5441343025932639
-1.0721933385505604 1.3194778509288501 -0.58819349980602809
-0.95183153107397267 1.3098639488010093 -0.54519152788100556
0.27524421578521441 1.4175722701803437 -0.39413929507628254
0.33852151320098756 -0.62787014487531678 0.29451264466825577
1.025339210525523 1.3955952560636042 -0.40986139702251023
0.90822398484806754 1.3892512939660406 -0.37422473010651558
1.0308292328771298 1.3860893523645963 -0.43197665519443262
0.067041959765468562 1.3972839356947944 -0.44368909462557937
0.31315998592315708 1.4194860962110667 -0.39446185582662707
-0.0085861633439208163 0.98513871995850266 -0.088062390321109518
0.093141360686551877 0.070483600482891262 0.26189420655011375
0.67273663893358915 1.3491224379695446 -0.3288461781440013
0.26594162733238846 -0.47596725610953428 0.26787389895263303
-0.40784337341144195 1.0851867214999444 -0.15481433241819431
0.138144351598811 1.4049822436795552 -0.43406792259619209
-0.56989637119795233 1.3065691075574719 -0.3861080568257762
0.50276224479331688 1.1181002044978214 -0.15934935528155592
0.49304647374701815 1.2790423826632562 -0.26455476815356604
-0.16988900885552738 0.67038995220112341 0.07894645757787444
0.30333366787991878 1.4282239238559065 -0.40839705086959199
-1.0522130734498987 1.3222463531034574 -0.5822420946199891
0.060106195878923074 -0.015546273342941674 0.26786183301157607
-0.20177258183128544 1.4158767374686434 -0.46230399406332268
0.066903724268282616 1.2912075466310107 -0.30546406007783844
0.56266953582213119 -0.70443435128304799 0.33413784260600465
0.17446543722904195 1.294699420098727 -0.28520754238686763
1.0022960475803124 1.383183871730985 -0.39923460584448378
0.34090149293247407 -0.61420566272751032 0.29348764820130668
0.14895113451156305 0.0063768707913638423 0.26542378687437207
-0.24244852161886499 1.3796905029343591 -0.40851032899648487
0.24757181703873243 -0.032447797172014958 0.26349241854289929
-0.079709487290212877 1.3630224098747128 -0.390714330340451
0.36614674533574032 -0.6963287575740722 0.31981398534350625
0.32463522192027483 -0.23179645379442704 0.27276714730066587
0.27147882518993072 -0.26743231271799317 0.27824298953291304
0.88121940346936611 1.3354912964702699 -0.34463182157213623
0.98019402065268224 1.3791890565298814 -0.40062576129896144
-1.0356406895764856 1.2929190139344708 -0.57457742298157655
0.19283402101402558 1.3964024573237914 -0.40842728380366466
-0.43099190327209413 -0.67853060291929523 0.2719325168146014
0.38649793903559981 1.2581846315805052 -0.24799472782761356
-0.0049685927429834464 1.0903844354388283 -0.15411139314924682
0.70322598946397719 1.2479729375680648 -0.27232360677545842
-1.0057020580205975 1.2816314236482462 -0.54730577404970759
-0.22116003649625782 1.4117770888788606 -0.45914702161405785
0.078990986227601923 1.3508857916731714 -0.38869083623502121
0.013540786780893654 0.17344246061476554 0.23931836212551616
0.88316377751673514 1.4065569985088402 -0.3894862520221487
-0.40639695492962247 1.2256180724284818 -0.2839091931552602
0.14846176864085336 1.4001051625030385 -0.43260256491473115
-0.41474922566116135 -0.63575598091232166 0.23112503732673773
0.4778813182100663 1.4265497041855575 -0.39741440914226089
-0.57788392991768944 -0.6993433610959876 0.24771198846274167
-1.0105584288219305 1.3097649226585659 -0.58053677382230973
-0.054714748822320303 1.3910785933349707 -0.41322260631923058
0.87849786718047795 1.4033643498739252 -0.38864481341880719
0.44771452793042243 1.276392094457357 -0.26234097692537262
-0.73676173261729261 1.3717824225997184 -0.51281253142391847
0.3251110024090309 -0.23587782557406101 0.27294540667760359
-0.99570409256119063 1.3212483159736426 -0.5668122616944018
0.53617078494386305 1.2032621142819444 -0.22137116862861816
-0.37746719505299353 -0.41977865141838677 0.23536712223016565
-0.28688265920199285 0.35039690099953447 0.17579694091791254
-0.40204290273116783 1.0142791199726275 -0.12022732005702252
-0.76719682478082518 -0.74603686835957816 0.23289667932616354
-0.64732103370056748 1.3413880492198942 -0.43792187430122809
-0.2932045385360027 0.1886303255472157 0.21099726889713111
-0.005220137699559757 0.30465462843419289 0.20342280707563276
1.0011830354119127 1.3926463143405492 -0.39707369461761388
0.18052836284804386 0.14635003710749572 0.25088103778645277
0.067425142578954933 1.28698196421945 -0.30038813411124821
-0.5004388021504198 -0.14928435393615835 0.19601754903766633
0.097014907775296422 -0.038176543980600997 0.26966531509661706
-0.67504583850355715 -0.68248694553526157 0.21516667772689146
-0.52159374618345566 -0.64965368066915197 0.23128278052815787
-0.0088711355716810658 0.30024585735844411 0.23381419201938769
-0.020754129296225443 1.1169633394424068 -0.17086559723124495
0.33171176049326334 -0.63376110509152994 0.29193344747171679
0.41698813258301826 1.2396119809355142 -0.23353297582954013
0.57480363983874128 -0.71120901726970942 0.3364166782642215
0.2904029767642875 1.4166020962128627 -0.39302055278272974
-0.58244416928295806 1.1554784573302541 -0.26974382803368258
-0.31284937857954276 -0.18454343469606371 0.23006884491725899
0.56100501625755861 1.3972867378202984 -0.36096765998395952
1.0827901170206466 1.3955482931707124 -0.4140070565423386
0.087334137251350086 1.433964782267207 -0.43863225592654587
-0.1802478475945577 0.18578807386791141 0.22148415221661821
-0.0800455442626955 1.362521832952762 -0.38912593713025956
-0.43028259490499465 -0.6689207759570337 0.25186169915194689
0.3035925576435119 -0.32624462762537831 0.2737662563990213
0.18932158809464283 -0.22114712415079651 0.27455593099133679
-0.52924476659213582 -0.25719174084661134 0.19896848841996118
-0.43535287178083593 -0.64960152896066781 0.23600337622049494
-0.68640947646165529 -0.7012442888559498 0.22313733721420803
0.21372240517611374 1.3670754691907092 -0.34853692124556801
0.16733971922246482 1.2856234484689253 -0.27881966238236799
-0.2780393479112675 0.85571198927874192 -0.019350909240351655
0.50587135628848046 -0.63922431183364026 0.30745439901394178
0.20120720778604095 -0.17020780567622751 0.27543270619597493
0.16319211273922463 0.69037002157095628 0.092948836605675211
0.072053624228828994 0.17813490168314416 0.25225332488740548
-0.78029700651450895 -0.75382661695616981 0.23348781767201032
-0.42088674141727012 -0.42152484902218035 0.23058413735160954
0.5158926398656476 -0.71698345229423666 0.34397563136741027
0.41247451947534586 -0.34388483154068084 0.27957947982311282
0.08396245914546796 0.51077269327803521 0.14957598591239574
0.27000086996201489 1.3940512863643448 -0.37021263171580188
0.27744758873837583 -0.33861301376425956 0.28094283835458356
0.47368977221239561 -0.65966957811629356 0.31487476264791781
-0.27070656019381545 0.41422968587631459 0.16112053261587178
-0.18218779007848518 1.3600745480359357 -0.40319202177562374
-0.084624716094147345 0.64731484056861888 0.13378012323491006
0.56764633066180892 1.2311191357496654 -0.23382314524760162
-0.18379304539797303 1.1872503464196491 -0.23546142484136112
-0.63987825461269665 -0.5608398974633495 0.19757128629128218
0.25264073219001304 1.4300951993174422 -0.41560542604340966
0.038906652842630507 1.4011429728873743 -0.43923289804825316
-1.0335746206556227 1.3129169725947989 -0.57144125239008758
0.9279163719357939 1.4081699344972378 -0.39525338271859312
0.97593471271318677 1.3785449173107764 -0.40089592525944795
0.58137397761076315 1.4034029968501969 -0.36752005583264946
0.48557310885420435 1.1049279917167532 -0.14880810457331961
-0.23266935426995161 1.3013057101715511 -0.32681661189347011
-0.61717061452489475 1.3065931438145419 -0.40276413367431019
0.38300253598426792 1.0578383678239547 -0.11650922947339382
-0.60579084273305739 -0.59726527391581641 0.21215663341054025
-0.58228129604734136 -0.56123538135374673 0.21222905330931141
0.32349986449640156 1.4294623319363957 -0.40874458536116265
-0.30415583775732813 1.0783492135225323 -0.17131381298785797
-0.20100674216996595 1.3786153092772366 -0.37388287941126919
-0.037207276483272267 0.091618683542215251 0.25001803991881033
0.36220128617884484 1.4220815043876449 -0.39521799718696116
-0.012287726750940919 1.1574283811006545 -0.19686108948705794
0.51682729346254774 -0.67606231323715704 0.32110815489747857
0.31508354125846694 1.3524646970305163 -0.32827829213687565
0.7763303070407197 1.4001738947484696 -0.37359081003646111
-0.049582982795030262 1.3887053545595478 -0.41071920788419547
0.87763160044030997 1.4022418121256095 -0.38172499609489918
0.41165376873981785 1.4227827842294616 -0.39760485024957859
0.54750716229675334 1.2458712527545437 -0.2488176257668826
-0.90767480430145042 1.3614659193959611 -0.55782250560261559
0.82360233504735803 1.4042773571140721 -0.37985614785767652
1.1060264124408477 1.393535659856397 -0.411488363160462
-0.68892478551398995 -0.70352191425202015 0.22181119660883653
0.096993390437596361 1.4078492541883314 -0.41502456535032906
0.61778150875837667 1.2373592141301692 -0.2428733076923244
0.33810607048177133 -0.27168334371403091 0.2756755945263123
-0.30295829458716739 1.255462499869644 -0.29631476615601926
0.29718100303565365 -0.51899057225360679 0.28545509268481339
-0.2486898252855454 0.46771573285231227 0.15566890038194714
0.29465700171233067 0.21448687113844755 0.22072869841273501
-0.14358941103085243 0.8072203891557912 0.010593816191200034
-0.93215676765397149 1.3224904720108537 -0.55849188505955283
-0.061448916513072049 0.66959447362303592 0.075429184786329984
-0.41269087370761071 -0.6649789237782251 0.25766919103350538
-0.77650879092566072 -0.74650415799785108 0.22337646746147044
0.13640289794608407 0.57842435040272733 0.1490670187949199
-0.46104995925686154 -0.61949057296059706 0.23100622761723599
0.77499530312059406 1.3899468900407115 -0.36357822990494526
-0.33261202753719843 0.94384551476661471 -0.072310998978700525
-0.82888417927102864 1.3444753652996226 -0.52105028229641448
0.9219867738772578 1.4064978023879107 -0.39592732980239376
0.1663166158503131 0.36011464729246967 0.21089044286938829
0.87753682351554829 1.3553854159689536 -0.36837996176361187
0.40499500295430124 -0.32011053222683827 0.27788021920311223
1.0879186712412618 1.3878676765802673 -0.42570685500284355
0.17850959959248769 0.48069758716363964 0.17219375727264463
-0.14220544767158216 1.4151893828678119 -0.44040408009074383
-0.71248618120512219 -0.71032420736302626 0.2222056848668803
0.34281634675767947 -0.65552659955495685 0.2995616316228773
0.94306333537801024 1.3845219944815064 -0.40161272284783678
-0.065214609393230205 0.14305297913848136 0.2381316874349011
-0.16510167941057929 0.97017052647864332 -0.023930369855680311
-0.18386173618314672 0.75165843542646726 0.081346016131043086
-0.82311891100695789 1.2609554450710192 -0.4098043409841523
-0.554053766440461 -0.7007027764759286 0.25873182300769493
0.39475374549876108 -0.65262832001469206 0.3080959731531614
-0.90034873796274084 1.3330121449878067 -0.54817554524236556
-0.29255974629734993 1.0928214236080009 -0.12307774197888932
-1.0603862667970247 1.3062978051717895 -0.58708232625471979
0.026930025532223567 1.1474014578196119 -0.18966200619213325
0.28453923489752597 1.4139625439477008 -0.38983184514374614
-0.85986655471275597 1.3462892405209388 -0.539583708238073
0.089754831667551827 1.3942574805593893 -0.43849975701975552
0.18432906411779726 0.77529139913029965 0.055774201882325514
-0.64399658466983567 1.1880755286150695 -0.31291581260488499
0.32261184524607245 -0.016472412955600646 0.24963837125232047
-0.87072253946693223 1.3172312510978372 -0.52729584965912935
0.12152138728633588 0.36204276487427478 0.21657714393361971
0.13566227766306582 1.397069097418715 -0.43399769750366701
0.38872409837936317 -0.66892195315589298 0.30636429140727373
