# XYZ point cloud file
-0.78758409234143301 -0.16854043737971836 0.13327006904410155
0.77329604411923469 1.2454383085488061 -0.11044698980026624
0.35624166708510074 0.48230542370082929 0.20007547310137852
0.40010494556918275 -0.24009810329906145 0.34790196444475896
0.20344839526788405 0.97417129791758583 0.64349396068882925
0.39666323846635265 1.8345303146315928 -0.4744538782458676
0.55191525612929127 -0.87703665434591471 0.45831540549636429
-0.78000767451925412 -1.001915322012394 0.15984512786803862
-0.7974595277120784 -0.47061859020571717 0.17824898126286826
-1.0294757138473969 1.523081945526914 -0.70308185705084725
0.77300890148170254 1.2846685731663214 -0.22575440544142111
-0.13660682344384156 1.2414553731842659 -0.46064027839020127
-0.75748664223573314 -0.50450225062886034 0.077864919154990275
-0.37830752980414672 0.65259175180982965 0.36828413378088953
0.56582684127022276 -0.48503618291523765 0.10099483819647048
-0.75752045688943781 -0.8846083637632205 0.29078003362565141
0.22793343341055561 -0.011064803572693904 0.090757038638685117
-0.3902240100069676 1.8022642514002918 -0.50360441433258529
0.33020811096361058 -0.85280711250729269 0.43542304437301027
0.78588086516829492 1.0749933466702082 -0.22117701573642989
-0.7878276948807752 -0.1336161068955164 0.07071250930982842
0.42228576494721892 0.39334784681528134 0.17348308017403724
-0.30620080411701167 1.5161244626130124 -0.21551859784790395
0.55139676102373869 -0.79855303234631947 0.47068043894842049
0.40270468301451956 -0.8931923251007845 0.54176201158213644
0.22867980581044023 1.5451265788135871 -0.41899583974168308
-0.63540974638016223 -0.74577876341140836 0.36564387059922865
-0.20392594441781853 0.72524926967868453 -0.18602265157392139
1.1772210377668397 1.5438861656550458 -0.46828023260491136
-0.53229117679859428 -0.87989749997967692 0.35507444928566656
0.21315328106674869 1.7159763892373903 -0.35873676437336144
-0.76687265390557968 -0.57496798930695547 0.12070196465992922
0.42750023579333174 -0.25555104972612241 0.043965827980741778
0.17921642839422702 0.37289851171759381 0.56545781795739458
-0.37240452759920117 0.50225600290674777 0.42765626312871063
-0.79599816887417774 -0.5802060342806783 0.25380770777826456
0.19438441253907968 0.61456947495477721 -0.08063684890953482
0.46350244185185829 -0.22708292118274187 0.37350164773499728
0.24426201654788571 1.5731917736736349 -0.38962781980285399
0.11733638477431896 0.43985463080690579 0.61473619934713497
-0.54999057341069602 -0.3154087037713964 0.25398675982626173
0.16499358054525004 1.3635982008399594 -0.54264552619156348
0.61816444443292085 -0.90261511160449004 0.29458794452943948
-0.15975504591777678 1.3222325779829145 -0.64104174994076857
1.1966590575509954 1.3418054883917065 -0.47327691085058632
-0.5372724992670328 -0.5559776902464364 0.12553016262302208
0.51592584250767004 -0.20702359786497482 0.37916697140406086
-0.36451242744316836 1.8438252563505309 -0.56185683125113428
0.49836099055499972 -0.83822626167003023 0.49965739471667803
-0.7785261284014382 -0.080339215471838088 0.01027978324839296
0.4408885966072944 0.2726704955288568 0.39249173893972511
0.41641313985275019 1.000494511770782 0.50187077462805973
-0.037714804340964747 0.11540578431875304 0.17393497445937101
-0.018118813316448268 0.1191395039390386 0.073680685768067633
1.0823655353953257 1.2790956346515614 -0.5032335676518187
-0.67098679269884087 1.0581784725476879 0.24008532147377082
-0.27502608506608084 1.4114902733155574 -0.44103482589162013
0.042360031384120589 1.6763418796366238 -0.38460280263575441
-0.44961114358051191 -0.087822543579576973 0.052529949773997942
0.15253524012854314 0.16505107289054877 0.029766716886342692
0.56445584265981097 -0.50982769499998426 0.12239489590410813
0.2874775338095219 -0.95730643151506456 0.51936912691041925
-0.36480141753492035 0.9981142893140813 0.61567268782118845
-0.010930058432471412 1.3866333660949159 -0.64613806734359969
-0.47375631097520454 -0.21859623420829166 0.31158962679637625
-0.0011201713531363566 0.24397863990677138 -0.031840363465562405
0.026105307507606312 1.4455667235192884 -0.59394913398591598
-0.96078548371880856 1.1430864849051332 -0.54190405070289671
-0.56443394352558585 1.045658748345712 -0.17671566525405069
0.19363829046471892 0.020639519106779858 0.37304722074304664
0.30016621489113504 0.28014276278746308 0.011209366691900868
1.0743692972331758 1.4545833574581337 -0.55509121126522132
0.6514360981691425 -1.0225863558907236 0.29774328501048331
1.1521706827339653 1.5599872556058614 -0.44124192665822193
-0.57818478788522043 -0.48885872573822553 0.084142233397528798
-0.50858600682664701 -0.30095193053290359 0.11662056279806166
0.3534522377156577 -0.32028860550668981 0.14351188899001954
-0.51318977955367018 -0.30750497456826054 0.20279822548104676
-0.52923670195849581 0.24348861233345076 0.019005296487193846
-0.66493596052598036 1.2511093248058351 -0.2149139503214883
1.2358877981524614 1.4941300207135413 -0.61201937446116972
0.24624674301082905 -0.088126822445076414 0.30823569053040956
-0.72165830098612105 -0.82862759063277736 0.3234913099501
-1.0967810079637985 1.2048992602822182 -0.70142932925932655
0.34952730882992 -0.065107706995377157 0.4442651796739483
0.10008895501798776 1.1924639075607111 -0.85536645694946856
1.1565233633719885 1.2964845951527693 -0.46960663055529039
-0.10086841744436015 0.17536302833482864 0.010153469128226789
0.33320902192326685 -0.28917256835751459 0.19756913066191828
-0.30659397455971771 1.4661079095357934 -0.36038875973758877
-0.41515242476197045 0.47662349176596308 0.1727475140489787
0.2106088760737066 0.35928124608496148 0.54915871189996324
-0.21983071113808705 1.6349566255342118 -0.33990057780852112
-0.019738681251453727 0.93550891467096697 -0.27668396637704973
-0.15414944002228026 1.2461774235641601 -0.38294360530198901
0.61082155096920587 -0.89941105456412629 0.27360270317092272
-0.75274983139138385 1.0012857301152671 -0.22580259150913662
0.29164016026461326 1.6582288657548148 -0.35107216835694999
0.33122031409692454 0.6288953834794242 0.43365421264888937
-1.2091884263664809 1.2303361513374114 -0.7160417737404714
-0.63148913110353533 -0.80852404631679065 0.23197607616009464
0.044470183019754472 1.5987070545662121 -0.46634833627103944
0.41052306305971342 -0.86131032731083224 0.51362253817694636
0.34661025411219271 0.46538421055949186 0.10918648902202222
1.0081058293021954 1.1170642626275686 -0.014397974257121859
-0.071293572179001785 0.11704199032338636 0.12050438652750017
-1.2180476039714705 1.2807040042589577 -0.77925529713468222
-0.74242291460272725 1.2551926002077138 -0.26631585626182641
-0.12460147030134294 0.64268607437143999 -0.17278762938690306
0.16485957752320246 0.010225965539873982 0.17965392435939975
-0.24038483017443468 0.3954005267480909 0.56183758683619089
-0.3935364536084176 1.9084411751210197 -0.58840389946294636
0.22491713080449927 1.7132216220933856 -0.46050169150180409
-0.6068371427975876 0.93378014697872658 -0.0079153114086238929
0.48337569593311969 0.88198471825526426 0.22022875126981489
-0.34509717533596174 1.9012868334436526 -0.56929977403410703
-0.73298409263026088 -0.48173135469339456 0.060018163809218095
-0.80460375644716464 1.3075363879154995 -0.35858626518825076
-1.1270253994856745 1.1185093779961051 -0.58654419603089991
0.22440996609589092 -0.014743658242196034 0.37654047788930711
-0.53703643769568998 0.35257061543514112 0.21447063868208716
-0.60590694091359865 -0.94149617234623406 0.33329446455343259
0.63432750590482101 -0.29340662562981379 0.19542027996260458
-1.1174691869181856 1.4106115452782788 -0.48378833031961221
-0.82317391346769853 1.2950802322175505 -0.4376684644546458
-0.20799630692665616 1.7298888089747457 -0.39340454965508798
0.29199287647986694 -0.71210784436661356 0.33456741715326643
0.68545710848626129 0.9611357855130116 -0.14057671829300489
0.60822229491679991 0.88978672445404339 0.11842905184289521
0.54225624212607215 1.0364973162063009 -0.10854366349576594
-0.60227596146182805 -0.94983171797710497 0.35469568104065274
0.20980540414334747 1.8173030343759038 -0.45343057333889192
0.02065511874473458 1.1980137711767966 -0.91038462616324978
-0.35787211540569075 1.7018277459226745 -0.46413336293744578
1.1633643411339092 1.3902466788139662 -0.68524237470785465
1.0924426128035467 1.4104770210818884 -0.56755938133335349
-0.47420555695714484 0.43517498503561569 0.22520728679705826
1.238369215943651 1.427397698886125 -0.52762279585056149
-0.470172683323824 -0.36100725253140808 0.19366423538747313
0.045647474204933758 1.408755698468557 -0.6220266275377071
0.64582748742770946 -0.16568319059018677 0.12286679462613392
0.52706839994510801 -0.8760987729888825 0.24977543464945029
0.56624226617532258 -0.40284424930653984 0.081047761368608917
-0.41187984326393234 0.51839913847872765 0.27589925372649304
-0.63191337211719656 -0.10961536186061949 -0.0082140478102701309
-0.83245537867179564 1.0992802722368182 -0.39681314418226066
0.058587640815403574 0.63791570877393156 -0.18446451454315138
0.43804247529033091 -0.28701351074657566 0.3651524787260314
0.55621618830724628 -0.86581622421377347 0.44282843042822151
-0.089253435242028445 0.31885178341519804 -0.058785632666968013
-0.20898408233557575 1.795539381819065 -0.45587868328152581
0.63740324531437409 0.074253980362598782 0.17781150106964105
-0.27292887444500025 0.60410107194152829 -0.0068843418928281608
-0.43917790907482868 0.096888870142336714 -0.0046684961282608128
0.073804997681463647 0.05728017021463927 0.19637917476711664
0.35519881298012024 0.36602118877479484 0.43636319241409183
-0.68110689867967267 -0.33206449691046203 0.30186886416788639
-0.092494041561906215 0.54485640565975757 -0.13408889991387696
1.1204627822137958 1.3213114391474292 -0.55841016673502963
-0.20800655948778513 1.3211062797049671 -0.43152825564720843
-0.60535127608545736 -0.91860675959321725 0.31152081047503088
0.56350338167712266 1.2704012580703576 -0.015068122799675621
0.80860760184792468 1.3124604291447639 -0.12998733811173224
0.34254263117139772 -0.32626664326234334 0.20475298846179157
0.31980838846436654 0.76279475508114913 0.508239154746434
0.18444506260162541 1.4741148736619039 -0.50267970676100049
-0.026905752941949856 1.3169013501807711 -0.76531676167087426
0.38410221736523908 -0.29250123076161572 0.32578608502319639
-0.46954065631359754 -0.35409436380933812 0.17283696574020269
-0.39941456527089869 1.8918688796810876 -0.56742285857217212
-1.0309794246465671 1.4481201290738426 -0.80636557433126654
-0.91751788670003975 1.3156408310689045 -0.55175076857199201
-0.79418523225820081 -0.63315248621702835 0.2259834877125968
-1.0261412226623818 1.4823086702753052 -0.77429835764496602
0.24792539378427136 -0.043599977107916743 0.086644640118151983
0.53181230398020318 1.3254027696309443 0.12664001676375847
-0.6978029310474767 -0.46804699116137272 0.052785335334874617
-0.83244047690773471 1.3535816177533917 -0.46739480496398755
-0.48737534799863624 0.83604143486503091 0.032130298137417412
0.63394654398177863 -0.371293738646159 0.24597743749791334
-0.44702640994842113 0.46173421489085342 0.19832275712315095
-0.62551386117047514 1.086471185679212 -0.22501391983564645
-0.87501698026508024 1.3943418179481331 -0.46597578324212918
0.25102037676032296 0.94885616326742817 -0.30469162355939261
-0.47358390534674299 -0.70834374018292579 0.27015864907821197
0.63338844121085458 -0.91799013236328619 0.3018154608569148
0.70829061386044145 1.1489847755969933 -0.14042791097881491
0.5900196393843089 -0.31063413131921891 0.019332218346562513
0.634386014454833 -0.28096942464242147 0.1938362021866169
0.43483250860157341 -0.47855230305981422 0.10635894550910052
-0.49175275257999829 1.5379779412597205 0.16026018742331871
-0.9036396361572514 1.247531026898935 -0.51710300194054071
0.3465049032204206 1.8276517758658883 -0.44058421671525139
-0.40712780578223828 -0.081348124152981427 0.072761817481136859
0.36000243636550522 0.57464286908749784 0.35366984092024722
-0.77137683950593328 -0.53322515367287338 0.31829823808482161
0.48146900683849481 0.051262966350009265 -0.017778002813543026
-0.45635108453734574 0.80010731430106574 0.0085503853219961456
-0.79628148557657141 -0.52617167756235972 0.27000182760264124
0.1455026024569861 0.36894030750610796 -0.031633790443947873
0.61606227779083156 -0.90029456093961358 0.2762299955081744
0.59388283584308965 -0.81478613019615409 0.35858233590090549
-1.0054156349959147 1.5290111026265043 -0.75492343988958055
-0.60649452609521859 -0.93014292632781803 0.31871979127515715
-0.074323092337522212 0.65951198431370983 -0.1931133406076242
-0.35192116982881316 0.46333646507438431 0.07447949911897922
-0.51666246809021743 1.4132673150608337 -0.084768594372917505
0.31007539103779891 -0.87687199398138205 0.37492956709638747
0.30188535091514268 -0.96387036370120427 0.39121285082205759
0.066852393374716712 0.60459231531702784 -0.15317172823893088
0.49853704518574204 -0.81427342873067232 0.5010619469184121
1.0197616862890975 1.4564835721423037 -0.45966734358717076
0.41995725996081035 1.3449165073362259 -0.12515142796723921
-0.36250998469807882 -0.1471851026720401 0.3294420541483305
-0.72984646782742857 -0.29356901026261539 0.015977048305899189
0.057275355110292026 1.1694137885271303 -0.87229673611295766
-0.62345486155953722 1.1713186392079979 -0.20957113672602645
-0.1977598327357839 0.71759479790481606 -0.16095566891317503
0.46192732473885201 1.2768798018644247 -0.13484399623052923
-0.74133493145272666 1.1529814169273749 -0.29651837151277505
0.39642488962454081 0.25890750609057989 0.43197846625821512
-1.1844111685199721 1.1881387507522199 -0.61981704915251612
0.33256733128854421 -0.94048329245035234 0.3112883753699407
1.215657513746959 1.3935407623062019 -0.68343098925663526
-0.74722532359464822 -0.20032754616819659 -0.022025591619581064
-0.52803607389120089 -0.8168312922607015 0.31249990232618075
0.50980309893861886 -0.74632865158372397 0.25078525424999043
0.0029166735223782325 0.9683681262568955 -0.27306035716628685
-1.0838283068083854 1.236809162428127 -0.78963889629881123
-0.27306009685985089 1.512548043858942 -0.41344103302435542
-1.0490917979113945 1.4455835316159504 -0.53466019554093691
0.49922462077626051 -0.99338723615639424 0.50043872402875422
-0.45551520168493198 0.23910300526902972 0.015508044775742746
0.3144659939815142 -0.68859222543312626 0.40729714824749408
-0.034455298849252358 1.2411934186935731 0.72444377351052935
-1.1043074999451079 1.293866714148642 -0.243388082103138
-0.79501931270355897 1.2331818974367863 -0.42583721060509561
-0.4971227704151886 1.0683132441784835 -0.19511916257874873
0.33016880102707091 -0.57782188958526604 0.41311061766111834
-0.4375534100056484 0.19581310256120332 0.53317414844696032
0.08468632242615115 1.15650679764844 -0.43345613274414063
0.98527249803616712 1.4503942677190835 -0.22885614834660828
-0.022329406156316622 1.1394813929395546 -0.72740442442159292
-0.21760888488553576 1.3423678972247259 -0.35365819296407608
-1.0144394425969416 1.5158374282421985 -0.70491864226187317
0.021127053223167991 1.6409910840586335 -0.42639371503742041
0.12915967573488984 1.6457449066594307 -0.24919449865092247
0.29000598620064011 -0.44927267090962175 0.2223944843190111
-0.73292396831203632 0.17520959296894034 0.2315880080259376
-0.21844807694694879 1.549686048804201 -0.47998270194716497
0.58792710520566516 -0.80271262429971557 0.42536861882342691
0.64772943528970472 -0.46212992487895121 0.22068385372517696
-0.15810963159835723 1.2629096039076355 -0.71746347222642726
-0.57989683991871743 -0.91471723410222694 0.3438164483301307
-0.60623372232117845 -0.93677296875966931 0.32693719560518275
-0.034170759615761881 0.90108425604875286 -0.27704378923954209
-1.0101964320053582 1.0484320536877512 -0.27425163303428235
-0.11591414706414938 1.6399242714034621 -0.47294743509405635
0.2192798539534877 1.4958685521973933 -0.42036911876880367
-0.28706094772911683 0.19352741554534703 0.53520735155939292
0.48747261215247306 1.2439978702864849 -0.087753497169160255
-0.72867746857428983 1.2658678997314539 0.12630965324410681
0.60475022366631492 -0.18337275969439304 0.29598781964705267
0.42159358652116907 -0.61803638174686171 0.49373997633836098
-0.48104223437570681 -0.2471516358735073 0.14876469416947202
0.31025526149619509 -0.99075502122244075 0.35479083238863041
0.31052459494577533 0.11577568780676017 0.0035391209955832892
-0.12970663169829777 0.094237977773616421 0.15217334218664291
-1.1777306038037096 1.3926971232701284 -0.64731582906711083
0.37303589745945942 1.3864545140189151 -0.19600811981740662
0.6261809493997248 -0.64491734963948488 0.30076146943338244
1.023943000244913 1.591216925282005 -0.41986642696235776
-1.0554075392338547 1.2907274899494237 -0.74718935789837815
-0.4795239327607419 -0.67822721294353983 0.2302977571403062
1.1291593710732402 1.3656454720074152 -0.63184402778051663
1.0303204241999158 1.405223876835727 -0.46846311397598583
0.70406961902639864 1.0883515563338406 0.22558683535748969
-0.73338986207107837 -0.51497193528093987 0.073495650868949269
1.1318289077076891 1.3881705667206674 -0.65726999480943959
-1.0189892527232587 1.499156824910397 -0.68738746685289698
-0.45900043895413489 1.352042369302799 -0.19087429552314461
0.021440898358378035 1.1458740618293781 -0.77061187409753984
-0.56855628214054832 -0.73266000701130451 0.21410772132878719
-1.0957916776484424 1.490111126743173 -0.67446733871202014
-0.66034705336699062 -0.41569327295209746 0.34333016152345408
-0.48794168212543809 -0.73466070857915611 0.2672850728913545
0.038633386552504589 0.80612438154022215 -0.23031686419562902
1.0041504289310836 1.0381267182097531 -0.26553930669581405
-0.61164686648106681 -0.88539645011564971 0.27793917892654463
-1.0549314045458473 1.3637019456067971 -0.77900671149063783
-1.0011134754669371 1.4099446149247399 -0.42502953142479782
1.242984040401045 1.3861091757083628 -0.58441968292061119
0.45880913508011645 -0.40037821012421659 0.083555875450997519
-1.0670231770689931 1.3468974995088843 -0.85007475716861336
-0.60523459888548814 -0.49951951377241244 0.35281217672229559
-1.1585645030969545 1.120272818929255 -0.5294698886950755
1.0526063360589575 1.472760982960132 -0.29067613832421557
-0.81711698151630685 0.97715440794074482 -0.00074135253134954837
0.059504670878652632 1.1856252089069237 -0.88471893585870021
-0.70130187719450987 -0.85174569280036394 0.18949196756523179
1.1009865747746836 1.3229300264017425 -0.55759633400884923
0.31605286268457888 1.8002276660978538 -0.46408451898446401
-0.42469891412352334 1.8381597758825698 -0.54211274873023285
0.21909935201560415 0.62704006609014584 -0.063950389247565909
-0.7378587673651964 -0.7927797881133074 0.29839485390277787
0.51613442702682732 -0.94136532128820249 0.49460221442348029
0.37606546409068642 0.44354666778598784 0.33493354470192571
-0.088867206616157546 1.0877381210240227 -0.28021173705496949
-0.10474819581082784 1.1960133053860122 -0.48341216592712044
-0.3412907071550535 0.8461447101788977 0.60606333982764227
0.33212130020945096 -0.27652165561167408 0.20995383585193395
0.49102241151427961 -0.3572559201449792 0.41642096680232044
-0.84141821308908504 1.2870489899036173 -0.087321017077101715
-0.33031607463510682 0.10952446690751572 0.024641487840654008
0.58992568427180458 -0.87388017312423472 0.32866676429409836
-0.12921454716631331 1.1465988342435161 -0.28851925208505236
1.0688700456890565 1.4109669239850291 -0.52807944154506004
-0.2608989469344678 1.5551484624405063 -0.39072861786598878
0.0090403365383053824 0.867410346337671 -0.26526708819892519
0.21044973644308129 0.47540965531892709 0.58420138224505536
0.74900091141819303 0.93421916240747471 0.08406071881177013
0.25902064945697845 1.4413153976782418 -0.40177360852089805
1.0545296864086069 1.3178958566522567 -0.50375540833886134
0.27208499254109597 1.5112596159211193 -0.21000215976937397
0.99623872709509342 1.3095775773649478 -0.44842215269397911
-0.11663796469506593 1.6607144600050461 -0.44338033841586366
-0.91103176833054533 1.3442328209941223 -0.27276547209839919
-1.0644374743801635 1.3619783678155226 -0.85524707210299766
-0.52641858672734543 -0.88681632594207827 0.36988537514832842
-0.75898897532840692 -0.93679466657303578 0.31159583129397106
0.29675508376624293 -0.96916677576126631 0.39974565300997256
-0.00075790710251055771 1.1329545748758791 -0.35398180871857221
0.052024447010715846 1.3696129404566051 -0.66264466643019659
0.36427644098546352 0.66626261293960098 0.25118182943856482
0.31009774875462881 -0.78568457726518659 0.37870297480560566
-0.79527288973304167 -0.2860829548138355 0.12307683499159339
-0.13479244196972218 1.344571556554806 -0.58900143922528514
0.023488171929585633 1.1381950991700851 -0.74704570628728106
-0.1387751150447798 1.2413377639381764 -0.49542700110237092
0.010101105886640482 1.2510297663889105 -0.8754901728589175
-0.037141392930010397 1.0867076658382242 -0.60992667038590298
-0.2481831356500912 1.6994505715378025 -0.45528827125326643
-0.75952640110915581 -0.97786841669204705 0.3230208482176522
0.049953664321904512 1.1264058067847635 -0.80615287864748097
-0.7728346996418054 -0.75561002530426435 0.25583811012882052
0.66539468671379609 0.90904712609426852 0.10175094104124582
-0.0048935621525316719 1.112453521103494 -0.30912218542994196
0.074374111331025006 1.1234080877658927 -0.29074117082745943
0.3097311267979137 0.50982852809596579 0.095408768522474929
0.68353618307862973 1.2347929415500261 0.16176377343981585
-0.5878745210740135 -0.94836259850160332 0.37255663228461344
0.25903619533166022 1.4747138858263042 -0.37276939190701341
-0.54618820661147538 -0.26963949650993868 0.25624472000401965
-0.75931537462378174 -0.96843569909606231 0.32273124057860514
0.5968588754348616 -0.94433869100600987 0.38204511311255374
0.15577572395423545 1.1488920941552916 -0.27394578237658607
0.053191462622436347 1.7102305783124336 -0.2676173664262933
-0.78920159452923144 -0.2698877076397963 0.070812706222454835
-0.66711019053576592 -0.19522836160750501 0.31425876732669167
0.55837647358504228 0.18470835537368657 0.099844685413700063
-0.4017548302690841 1.9071084885599454 -0.59418545894072849
0.2370161761563736 0.11566427550263825 0.49966471786910915
-0.98590251315108901 1.324692612127496 -0.23223335956413393
-0.39404796496611993 0.99305364486129832 0.57634046488556123
-0.29737181710518357 1.6262190370500882 -0.42649846267067915
1.1283739402277213 1.340907922278717 -0.58763701801672141
0.23077606710842247 0.039174704660794646 0.043628924588574591
1.2359910638030058 1.5310724338135984 -0.62299624155571109
0.39550468848040055 -0.91049671597377824 0.55310417024202252
-0.25513073427774202 1.2581833819730601 -0.26958031013828077
-0.51557357575040896 0.11324101294744082 -0.014400827253894022
0.41180089807357945 -0.35665509744990231 0.095392888254536956
0.13917479527252397 1.2323468090137588 -0.43021751396645413
-0.077959709526680854 1.3248232463868206 -0.70618566958728479
0.32687807908996547 -0.38610562999402021 0.2843512351495292
0.07543337733682165 0.069404878085592259 0.15895012090913951
-0.30616364100228388 1.8864359681753271 -0.56377744637984506
0.5164418461112632 0.95310370324472782 -0.071230025801924057
-0.20045607920849307 0.081420099235472776 0.13307371905739274
-0.61986374713137593 1.0263493958414784 -0.19458557382745312
-0.13104591706417068 1.207089595519399 -0.58221512086220173
1.0870383140677475 1.4432386844504279 -0.27086182582195306
-0.75553851161777175 -0.46699408671435094 0.34097349764863338
-0.59931873367503385 -0.2471140953346378 0.28822100656566363
-0.73740913800301655 1.0772666654261727 0.21890226145933411
0.26652467067958696 0.56469789359401545 0.027524013644097067
-0.49061771781845209 -0.27554205931734543 0.16866409464876142
-0.54958315753790998 1.2380849421831748 -0.16031899073391287
-0.15335971079500155 1.7272115198019122 -0.39762506122428931
-0.48726064191612295 -0.26281188705192449 0.17343372661650847
-1.1780156991086592 1.4520835403503369 -0.72962135323496113
-0.1871694108816655 0.30252358990141204 -0.0059615118909732701
-0.21510303836353728 0.76894327665336704 -0.23793860946102541
0.98902884502563992 1.4932653160574461 -0.42144893234137726
-0.67228435680965504 0.24242181160602172 0.13770996408516112
-0.58148732490172961 0.31828580215633906 0.38802878581304867
-0.77834328363383065 -0.0042067428642269533 0.23070360715018978
0.0096013700353339004 1.6999728583800788 -0.27067578891910671
0.44924977958487489 0.15570017145088855 -0.0039955425249900145
0.60829950378155218 -0.78674399015542917 0.35378806233643445
0.35013642870529793 -0.68173128790709825 0.23611925524392063
1.0992144316098802 1.4318703626083433 -0.25811744529767111
0.78132262715097056 1.270994689704267 -0.11179257768799289
0.16239093851947928 1.1211003710932275 -0.25483843846905074
0.50273848584060943 -0.98921256998517038 0.49479971286211821
0.5154137015199467 -0.23885005038874851 0.020550136656197537
0.62813788179494168 -0.57395278321206433 0.2213405527534178
-0.5564404804678702 -0.93003769541800807 0.38046958238783191
-0.30243567175699582 0.17993496768920636 0.026341653708641388
-0.9874446331430704 1.1642117921267392 -0.61000061499839831
-0.15978692986267973 1.7368747772573556 -0.41100642966057421
0.30900514100068222 -0.93833884661836464 0.37929632563339055
0.40498704303672639 -0.096040070212126238 -0.0014028173062570204
-0.21825711886987165 0.67142642093524074 0.6072684909668169
0.16963874337324114 0.35640792611501126 -0.022195359642864787
0.52920596685488874 1.1762078345663447 -0.10776139843596866
0.26733294227106796 1.4459436744703424 -0.35858728437779064
0.64658450605705298 1.2718176276174447 0.015817418433925923
-0.51819446193378838 1.35349378405264 -0.11516297145681165
0.40043916555598003 1.3652106901093646 -0.17243657752169383
-0.69303267949021574 0.24663542699400409 0.328338743186805
0.70264465592101999 1.2337011619532134 0.14051938490797511
-1.1943682732587462 1.3751999922133393 -0.68864218094563512
1.0153820239896003 1.5652873567399723 -0.49671575572631355
-0.63743052303476588 0.26133848989046271 0.40559393075750449
-0.021653603616243799 0.14913910246670525 0.011294555617041624
0.19458440115475639 1.6532848004259435 0.42039681493997705
-0.57462963751135021 -0.59819050068844604 0.13258480993079047
-0.8155872072998136 1.153792774250725 -0.43161407373690963
0.042532830081910333 0.76758228150239916 0.62087020016497263
-0.38769168032962398 0.52326612543919993 0.14429984748630886
-0.29922224736361613 -0.098860240664748744 0.18081572270068591
0.25996628619174089 0.47615372882395235 0.54310386714087144
0.56186534315247627 -0.88126348105737407 0.25957508881776903
0.26997955871899393 1.6064880584324257 -0.33565695781317118
-0.5411627443938869 -0.2692070273950975 0.065398521252063802
0.059663176656925998 1.1244721190533351 -0.78403030843924171
0.32543834574880748 -0.80020845941874086 0.38354405404845693
-0.4322208414303077 0.20205756027085897 0.52915580360036074
-0.91985609188367334 1.0374290267402522 -0.38522275084937974
-0.71292619627439535 -0.85656421279068695 0.18686375614697681
0.39175489362037297 -0.41527663643456947 0.40289091515535347
1.0282238587152541 1.6109114067438242 -0.43891348004751762
-0.60245231957190981 -0.75118699365742714 0.2099180274316268
0.15197241066402967 0.41014259782990337 -0.037372778589087829
0.65325624342966648 -0.97326210963692006 0.32044774988673908
-1.007808950220209 1.0297848532328189 -0.31773158688633885
-0.35044278839862386 0.69711954552884237 0.02893265893339958
0.037751427686032457 0.14059292708611792 0.077964866079355488
-0.63628446097709457 -0.27120531544814241 0.021152905512735742
0.34976353710129615 -0.89978631306081525 0.31734219864313218
0.70547215781081718 0.91986321084754596 -0.020678109240634512
0.015011219409757359 1.1466083528605786 -0.8389381983279236
0.61242181146377561 -0.60639244487717292 0.20574461333819727
-0.47520413635459136 -0.24020902280182099 0.15405568546020731
-0.92282622819465132 1.2274019209411406 -0.004902546950006581
-0.42368241825386121 -0.19241955530650046 0.29775710866488225
-0.0017941122810753996 1.1698080260176233 -0.86705946698111802
0.42403211184071665 0.98287040413789306 -0.16912645159436579
0.50261944281731985 -0.27788507757188086 0.027799284979209915
1.0014874526665123 1.6024470311745205 -0.44486535521355108
-0.53157910868992531 -0.85858313293439892 0.35830225513450387
-0.37491959840136246 1.0339532031118992 0.61539407459872564
0.63028188148285835 -0.38591144718301962 0.15579182285580373
0.3358410988214473 -0.92338312705402359 0.30741591580022032
0.26967062561493549 1.4093708862722387 -0.3525621840644817
-0.21613317934738063 1.634250870653851 -0.24261844470083815
-0.78904634838080767 1.2857567279401483 -0.38701870535055605
0.28160677121969968 1.4249480110130861 -0.30784671278024689
-0.19199663761622787 0.0079954186599024979 0.34088580536399604
0.65533364690202234 -1.0173553467622014 0.29923347526005273
0.043138916050395437 0.29571475895664889 0.59369166891906389
-0.75178755522361485 0.96492349030939906 -0.11984632617009083
0.21683625880666568 -0.06321102502599274 0.2159381415505095
-0.92728625218731509 1.1824232343495567 -0.5270752755027388
-0.79412765924161022 -0.95299086932564592 0.21056055477799873
0.61139755150560404 -0.90627170058650108 0.32493266552614841
-0.22247624487960138 0.062085025712477204 0.44230932081234187
-0.54987119065009438 -0.86183111942457913 0.38847191689569627
-0.53942044580279003 1.1091507555647873 -0.18564459398430699
-0.088073965553689959 0.4190550030262159 -0.085367722027513082
0.025174457441266895 1.1387669619383951 -0.37169505579254292
-0.79286322851731938 -0.92233865363050427 0.13529001659492224
0.3041949381524276 1.4212000993133849 -0.27503815210639004
0.55055257962867188 1.2118181872953606 -0.08567852736155146
0.56629186588048697 -0.020478986278845923 0.0057928743747197586
0.43540022360076591 0.30366811305984243 0.3586720459195476
-0.75717802075132568 -0.80046458595035119 0.25075121249392396
0.65592807471176684 -0.50930990688638644 0.34178188150940514
-0.15309475649678461 1.259505393223634 -0.74516470270373247
0.15552597653845623 0.64122673960878984 -0.14545542791870503
-1.1370871208680811 1.1994760047856587 -0.76540620028185913
0.020101862803940662 1.1402608133424126 -0.41313411569785785
0.54403795540184774 0.24364049134614163 0.14226962276552513
-0.60666956413871276 -0.90482112519703151 0.30101909534209881
0.25651383488857959 0.77932918117168981 0.56922844481437096
1.0572138828237847 1.31291668686017 -0.5044838422390967
-0.77544309260019872 0.049905373875461123 0.20113598881971484
0.088954461338119017 0.17254254923234669 0.042867531030651662
-0.34765921843251135 -0.15817631662019949 0.25003203609594493
-0.94723017215908101 1.309268903950624 -0.2125061441129219
0.062506235259945697 0.42163884834425858 0.6151782219319557
-0.33636195062950947 -0.14880038352895042 0.29581114071697812
-1.1849843158831206 1.3855413674096475 -0.6667941154601067
0.44358845259012014 -0.493823257007179 0.11290247530735087
-0.51364578654715842 0.3666584246337834 0.36313690063707327
0.39201647262336792 0.46118664323742564 0.22300169556820038
0.32153709650555129 -0.94983879785709746 0.33604816646015934
1.0463855587941815 1.6349716467248925 -0.45448563258889862
0.0023756599241551157 0.9754664293301909 -0.27034254324144058
-0.44866211474902684 -0.17387077584751864 0.10972895701479501
0.019523834630557957 1.5513643247955287 -0.52267625991976274
0.87195631354349956 1.3393303826999556 -0.10105497374252081
0.40935732354054721 0.89082616717315233 0.45907144613056516
-0.62735454386324818 -0.64514539092411383 0.14238342129397097
-1.0552987868111927 1.3968226849322072 -0.79594239902507979
0.1429516631121146 0.022766656288752074 0.22986886229534775
0.35111738046049368 -0.2709892864668717 0.27900545259376486
-0.11407681208987697 0.64115337458254373 -0.17563940969239411
0.85962631853809057 1.2971126690730017 -0.067214674505066796
-0.25248025376092187 1.2678447783584854 -0.27573644762537697
-0.5279793234706176 -0.80215890024859959 0.29647989778163719
0.68034538213630924 1.2658400313162232 0.085736875237216736
-0.10704042034615213 1.3426346947956027 -0.62813055231981707
0.61820044203994939 -0.36243745281430506 0.058391364579051697
-0.15024117265863879 0.66120712498225487 -0.167265580803587
-0.7940032305149316 -0.19240447660251903 0.06627784675310977
-0.022109442686257808 0.88799363751272509 -0.2671818191456623
0.054484751487784422 1.1808236325508901 -0.88360250824052855
0.42463710727895432 0.38485583128924361 0.1570091627779675
0.36350645733102738 0.32257182055808187 0.44932868750629495
-0.70039209924561874 1.2884513957394077 0.069524781425570836
-0.70756087175584526 -0.84760094107420514 0.19382210732214844
0.048719776509742019 1.1492994518966455 -0.36384495833317487
0.18274779763072502 0.15088408880447446 0.51136607175362769
0.29126643487569481 1.6024933407367499 -0.36829917060686057
0.45276325088934755 -0.82181396192598299 0.29367935889752061
0.58547105159476587 -0.014299884416232089 0.020665826748086147
-0.26472048739324805 1.5459426142043782 -0.36593813330955527
-0.4327232836760686 0.43011801606492384 0.37203742555857389
0.070881727462612787 1.3226690733927349 -0.70921650601439978
-0.73970606862377508 -0.908506904536722 0.33984868226013987
0.59434337534753467 -0.88767446446948384 0.38689745195767955
-0.59340560947771337 1.1409017848355454 -0.20602661763609831
-0.7356225389603992 -0.88315036321668572 0.16219223135499305
0.65189823970041516 -0.47470210594501339 0.35033720651586009
-1.1217123658806116 1.1933831684547691 -0.66200391541019599
-0.22121260513208085 1.7871695507585841 -0.44669662979299574
0.26336972337709597 1.3841837985492198 -0.2861682161446879
-1.1062609680188338 1.5305459217827071 -0.73000489206799557
1.0652486377631902 1.0860563069287998 -0.2100632147636361
0.63692360460589725 -0.32445162178512987 0.18043682345603429
-1.1865608837622332 1.2525138885892062 -0.63095056445536102
0.18249462756250523 0.62966176320295375 -0.11733984299735312
0.21893595080268824 0.37745824646647463 0.54574971139027184
-0.37229503124298446 1.3024450343807645 -0.27858241811509288
-0.29162162363317634 0.61971315773595137 -0.0074845052204182139
-0.0096067611081593896 0.15261745298221285 0.011718184574874613
-0.64080130685172776 1.0743091184593609 -0.22867296927324787
-0.50025821724506159 0.14896969317892683 -0.0073504738459178043
1.0995164830518629 1.4864411312980579 -0.34781132203272591
0.6366475412888235 -0.31390473218466752 0.1728495408821118
0.18739320996321851 1.1684989131463031 -0.2646141231718957
0.26870407149131381 1.3911772742849635 -0.303593172640376
-0.41759002542346479 0.32184819924452768 0.044270410567605722
-0.53559728472822599 -0.29393892518608311 0.24397108647167443
-0.51326280289985959 1.4298199125778672 -0.030601849023014438
-0.51067135121144247 -0.029052228885902309 0.48865923102380293
0.653608858870939 -0.50508734607183214 0.35936146696474225
-0.76674491413751866 -0.68664876163694544 0.2938671955623704
-0.44200700275445115 0.15436941216582056 -0.0041478303771782521
0.40566098148366336 0.76390030049585178 0.075446558507564987
0.42213972881290829 -0.4316797111729187 0.09848907420496289
0.12016024390925395 0.029816669870470491 0.22321661441208107
-0.23783846596884928 0.74481637618817942 -0.20527214143180572
-0.42928959424597224 0.44685302209393285 0.35872825527189889
0.98019762704261382 1.0183221075220068 -0.24414553442670694
-0.42382221379591556 0.79627979568336826 -0.051090429243231483
-0.49341715468017355 -0.22311019554935285 0.10314021444764876
0.39801337733285891 -0.29945779077765167 0.083800008022535621
-0.56793674519326487 0.28994027708075976 0.091812751305269558
-0.0043102238257120007 0.12780933693461805 0.19948126293866153
-0.72809183144423173 1.0471253085831904 -0.255526969490802
0.080462577065148366 1.420988121205184 -0.59801244455525193
-0.76763725494726032 -0.9293878890905205 0.27921398502553529
0.31975260385311799 0.53801041322689258 0.12076325191196702
0.31441062859187241 -0.40991528838337388 0.2749754917347218
0.61344972888207394 -0.29956517927820414 0.024596164807462628
-0.25639418454306906 0.63091334045795833 -0.055296103133969154
-0.39947037375384298 0.43689350876310584 0.080654988066271471
0.31544020714125054 0.42773727869240474 0.044741959427710754
0.39676455774713837 1.8219857948853431 -0.44912676963531339
0.46622275944108083 0.99660793480251009 0.35155824796242996
0.19983392470732442 1.786779581047675 -0.42046555187698686
0.39010277937433102 1.2872085392111146 -0.2094436237384798
0.36791217011500521 -0.80425249167609536 0.3193958195970481
0.41811596498672543 -0.44641432085514055 0.10531490477228544
-0.75163486785004352 -0.81926297378242907 0.20980072639326863
0.6139888298868641 -0.90108689296164357 0.29868527541066214
-0.036146398195455731 1.0046190146246552 -0.2752383477973126
-0.75438730100205476 -0.2524827367365674 0.20884238193775673
0.25300175351708276 -0.039054103783485061 0.38091049802983434
-0.09183478483765839 0.19676651853721694 -0.016947111372246582
-0.21498197109173134 0.69410125758688679 0.60427589973255635
-0.087685515770033362 0.1691798978219623 0.0032156903357645206
-0.096772526519401936 1.1878314032541981 -0.39570941492706879
-1.1061211539403217 1.2323374936293447 -0.88231378992963982
0.27061746566710099 0.57608374553790753 0.027908553736324393
-0.97964538108776367 1.4280902194860587 -0.4593438148358473
-0.75103813828388866 -0.035372663331202148 0.30159135280223381
-0.12851868561710944 0.2767727021122397 -0.030419217018788913
0.41521967918322389 -0.45976516399093725 0.11159530100837856
-0.46120928051448118 0.44490519106911108 0.18055306541191385
0.39330186703153913 0.75207577734183673 0.019839839943188053
0.022345074862656134 1.1382918184749036 -0.37942635483477716
0.83363713118529859 1.1693776855625266 -0.30473528674087902
1.0544327240451583 1.598381490245437 -0.42289091195652873
-0.76962813792488305 -0.89005688762642876 0.16104267526861804
0.32954490670476844 0.71750022462443397 -0.054978323469867973
0.46794397478100791 1.2380239201253751 -0.11294225060692042
0.55525780087401699 -0.86494619404157902 0.29717964831525023
-0.59582045908075543 -0.11365256580585026 -0.0065109170238883962
1.0394620770884448 1.5276347139883342 -0.52129251631413354
0.5647124567129822 -0.73833471067374035 0.26589893455195579
0.090129256745058228 0.49202372749049061 -0.094507497134372898
0.98852566033534472 1.4858457148211031 -0.33959445528898868
0.33704441633116744 1.4427021515424734 0.47365682856639069
0.59402866795494447 -0.56234034200360838 0.16609011454750089
-0.99316943000175684 1.4563770550760271 -0.66784636075749404
1.2256764230670143 1.3748090370043968 -0.5328655565937197
0.39911158172234451 1.8902851204523259 -0.51950912655081538
0.42638763571295613 0.80870003247594013 0.090854595429163965
0.14422511802592197 1.6339602168196024 -0.26252056490443465
-0.34048232015533131 0.54556964450183898 0.47888229520094683
0.71992454852119181 1.0319309614636225 -0.16511990667368082
-0.72851182104136569 -0.22311367543579763 -0.017535105958927488
0.57228582223837066 0.90391303085603703 0.043654605409301439
0.30953392372788358 -0.99255439884066732 0.35643510315185267
-0.74405449890485897 -0.89213159983881951 0.32604712037209538
0.12955335030545712 0.54196068597400426 -0.11029428948040731
0.29212445345845595 1.4754304283084885 -0.15295956242766806
-0.29834190205671973 1.7845591041710875 -0.516538677125709
-0.45587812344928125 0.43197002019067554 0.14713597030026904
0.47917581732880876 1.0089941833786478 0.33426476643285241
-0.64927647163980851 0.93163943377054181 0.075475600036952528
-0.15664351318057612 1.3513933481942608 -0.55983272874391332
0.087453822373106505 1.1480891706055854 -0.54010098730805112
0.27457658355308467 -0.5223688235441557 0.20417784033281805
-0.78786557526569823 -0.13074210731551261 0.10949611324099351
-0.60806842496930358 1.1129960313101108 -0.21900746183587216
-0.76499440669078922 -0.78017709297913029 0.23819078005772099
0.62763649374045372 -0.17224516191897976 0.085050835266883951
-0.55675482367570339 -0.63749158155044938 0.15943327068362123
0.14935844157531619 0.032643385976157901 0.1755311527451795
-0.97426920470195455 1.0304319676094131 -0.36861378750813856
0.39444052652379469 0.26876992320315196 0.036882408531482724
-0.30893625258876511 1.3759801437228347 -0.3502196087131324
-0.67108556480125969 1.2599047854059933 -0.20899773435485258
0.83641740677590803 0.99720303321081261 0.029273243765601364
-0.61291084100531634 -0.84218783833324551 0.26180634209674736
0.99084535765850923 1.5141643289165287 -0.38259626148283132
-0.2933431859078155 0.54480786223265198 0.024895324904719018
1.0275712925603839 1.4660858460169877 -0.47561129205735142
-0.71166129284489443 -0.86143766178986425 0.17566980491812956
0.36041185077375104 1.8896769247944931 -0.49427439338842305
-0.52894421021122184 0.86689082200147283 0.20715625627008194
-0.084398981375230164 1.6436809978721705 -0.4573302530438923
-0.084449818304022983 1.7676183144167332 -0.25335103008364968
-1.1375193742729763 1.2024471454510142 -0.82314228058385197
0.074632425530495539 1.3167716232008857 -0.71147454596030002
0.03016125775448586 0.63742675405978844 -0.18773759253213029
-1.2079443540985224 1.35178940023658 -0.70305037649143287
-1.1257196474589577 1.4528072847214233 -0.64146098224705383
-0.67305484217104095 -0.25372234796073201 0.0083956090102219605
0.31699904028067749 -0.75442587299255592 0.42114676796938966
0.5315489729942442 0.97375919192142391 0.25190662135423736
0.59838342554729707 -0.80387603945689534 0.35198710748977646
0.18499647365700866 0.42610216048471727 0.58441468508863181
-0.30391559736381168 0.25240786616002708 0.53358794145196953
0.021912470849571264 0.98153059165696277 -0.27619654547675054
-0.41802298762007695 0.49441248431321583 0.24608531815692913
-0.3978525219629887 -0.16017573560944243 0.15900268268865148
0.12008450646032998 0.31074693347455451 -0.017846412269364009
0.75441531825215691 1.2393766415202663 -0.07379300097795749
0.84476843697930804 1.1240296596526207 0.1429798677272629
0.44398382379790746 -0.040967398085001605 -0.020480867593278163
-0.27892406019952887 0.54094708012587489 0.54591184943751614
-0.61421937300059426 -0.87867355320932461 0.26466749873259232
-0.02854913886520194 0.88065404268787084 -0.26531009101950076
0.54186653475807134 -0.75736292408805639 0.51865586752717263
0.99544946399353051 1.1138476723225743 -0.43452072478032733
0.053109007038273148 1.1583660322563603 -0.82509088775532291
0.54516620807521576 -0.34516749796520685 0.041017275040644563
-0.056154998435289372 1.0993954862566948 -0.59648959765468135
0.34504978772179129 -0.32953026915306793 0.22947133050161028
0.6560303028336989 -0.55103382933469902 0.36550287459920128
0.031635912491026374 0.3943626657110002 0.61340257576034674
-0.26374955769587194 1.7891939775761898 -0.5511363207008344
0.41660270045246506 1.869425914312572 -0.48344848807255403
0.50586680655850103 1.1030303165977351 -0.12349566397051603
-0.52913849334430552 -0.86753696032545236 0.3446344205162859
0.22793265731559131 -0.058355594616870121 0.13440925458701258
0.27857793930513708 0.53690853092031432 0.051072655001917155
-0.67706435964436196 -0.81517402560780283 0.20938022420534708
0.52528406954479578 -0.36831305935267267 0.0575957721201803
1.0580928401340728 1.4948328781553215 -0.52604087346890083
-0.23949347963440459 0.79383451295984742 0.5990200614501191
0.6318096451780093 -0.72834212798395015 0.40392330229633444
0.2463494890461746 1.5178364186859241 -0.37518518990782468
1.0123049520583258 1.3940896547148256 -0.43617674700203679
-0.16020173076110922 1.30826260900084 -0.67960548528708387
0.50965143037467442 -0.80423115844581616 0.28470532741812349
0.3846996539868428 -0.29549895942805904 0.093732379389393827
0.410463242059393 -0.62916410419001068 0.18932269627737242
-0.5379460001918801 -0.31155954087530802 0.23608166947212794
0.63623835456866118 -0.25536490074728135 0.14748789994075651
-0.55701401526147265 -0.18388839547486668 0.3641450121830303
-0.49418288433065527 0.353333939963278 0.41457245314336433
0.14688262074668046 1.1882777644385314 -0.72443716949806003
0.44843763425620864 -0.28285316975936325 0.36871069390679168
0.41819453498561643 -0.72867203158705252 0.25679313590933361
0.20934345413342115 1.6206231659663857 -0.46157648176495059
-0.27948725377797246 -0.07173168839987909 0.18623732019182171
-0.70087261729355532 -0.29878594536991443 0.26684073475360037
-0.60626884148840077 1.2913698224023484 0.24812081531786134
-0.79456398056117905 -0.21579997576259302 0.074621525215093243
-0.70864879163070782 -0.54070114209578435 0.07603610868807209
1.1322668881523583 1.6267020572770789 -0.51853201515507408
0.090964138939291672 1.3616428009582648 -0.63310557337831597
1.1750479267010903 1.4460520249109479 -0.3997816166853454
0.45112663595733693 0.86573382208895566 0.022296507811915944
0.42072319868753993 0.39228629236647095 0.16028995664851209
-0.053369353573202716 0.45599524378067002 -0.11733843074853212
1.1779562257181428 1.5172236973665107 -0.44663383942793189
-0.65606753028851017 -0.46103519379337854 0.35432066054249844
0.7278520549018026 1.2137705567723778 0.13804000959021323
-0.20184250560625472 1.6876628473494364 -0.35800982039882001
0.33696950537751036 -0.92365893193817783 0.31539930967312557
-0.76045670361145312 -0.88962724393559256 0.15019719633983186
-1.0077634874970016 1.3274366903795958 -0.25421788015773927
1.1454510975396701 1.587167171303939 -0.48651076766270762
0.12646658848030512 1.2309566189454699 -0.82004878631505562
0.41435620596107015 1.3153608626868341 -0.18800955701567545
-0.47325284379905952 0.90956534741771833 -0.13438951048124181
-0.79509907022026027 -0.25398932949380537 0.10475976318468838
0.28890941625678579 0.43639105910975928 0.4913132746280553
0.25373726083495285 0.07121358957034829 0.46852845260559661
0.79260593366845455 1.2555641823713231 -0.23904339466366764
-0.80063374044061675 -0.98492239911578849 0.13203091949787904
-0.13776670170750549 0.30358880991457227 -0.024378737849019672
-0.60013887760584339 -0.92592491384863251 0.32947540520649454
-0.41403480377334745 -0.072880668737894894 0.063814281013833352
-1.1256592359519164 1.5179445813631069 -0.80440224942753957
-1.2002106033949218 1.3991306634763063 -0.73873685237219888
-1.0874481830097107 1.5546628433308705 -0.74250112734546292
0.22358613526541404 1.5475937393754933 -0.42674842837595861
0.35059900257442678 -0.79913531417855665 0.32423065517468785
1.107508632426363 1.5550738237293089 -0.58416481869858217
1.1080457114007771 1.3975535349398811 -0.20265433189547366
1.1870157052971697 1.4029070019169225 -0.71379287342688258
-0.020579941837084448 1.1856628709462598 -0.90385103204630468
0.26752053963643618 1.5817411035622939 -0.3731450142417998
0.020129459972736186 0.83007096404096359 -0.24862668725450021
0.17224951394740629 0.17156806634191923 0.51871242077504576
0.85391859662803427 1.2779149099072669 -0.28445191433115724
0.31795802254094951 -0.5133270820101643 0.37351037898656614
-0.58323449816160178 1.0973095221243909 0.29037743837625385
0.062986828623600388 1.2381832247916797 -0.85643700739137785
-0.71601428836272873 1.2182213527164638 -0.25605697177525144
0.82395821129185265 0.96873375360776315 0.043002095373594784
0.71031753420875532 1.2513755646697327 0.024560458048654255
-0.24453411901694722 0.59750607096580666 -0.033634554590207699
0.23266887275162063 1.673841120308893 -0.3396913748345014
-1.1756670785286047 1.4547925514353519 -0.71890199877589112
0.10463098674881621 0.038419821308792734 0.23695665587320036
-0.34597158305919606 1.7348783671463508 -0.45054108170279505
0.072601123592448857 1.1527768963978176 -0.45857065413269993
0.64667262341805554 -0.93240398842414152 0.29793616906135867
0.22840527107500463 1.2425839509299479 -0.22532386579996455
1.2031368639725208 1.3509138589980267 -0.47835087920395836
0.36696181835793595 -0.77298789121434197 0.29487389228779648
0.2660480124131368 0.089761964159706054 0.48215340675869811
-0.32567763436362895 1.4262888595711942 -0.31761402323149923
0.4589934014688879 0.033327646232507391 0.50789927642426846
-0.15274370464825893 1.2503213956640487 -0.62217611894379843
0.31287227973678 -0.98222004681997532 0.34768099410587183
0.53105417100664454 -0.21309089643577295 0.36660749797090375
0.41197858456945369 -0.28922560084853899 0.06610761164847645
1.156655721770683 1.1962786996781176 -0.30005107266288178
