# XYZ point cloud file
-1.1862113347637262 1.3462129961097702 -0.784958989623874
-0.72943803297150112 -0.15731736484173098 0.14986814432967321
0.43468199924825512 -0.44479522915277414 0.19015941200498787
0.091351215674990272 0.28200789438911045 0.54393433628246157
0.58803601358243895 -0.10514763381712555 0.20732821996980988
-0.75074654178320088 -0.91964628017942118 0.21086858975840528
0.19657839562233903 -0.0057182501230101934 0.22530653379672572
-0.58163458963400672 -0.85823666941831789 0.31564145868124172
-0.66441303754760384 0.14529703744145195 0.29184315005065287
-0.65047758529431121 1.2317417941926649 -0.22219820172028903
0.52728824473726377 -0.82465056539487591 0.35598600799829683
-0.30443378230228291 -0.03253838949488852 0.15368292119754301
-0.71741683719665161 -0.04728751314684132 0.057911389017590409
-0.12377721170531686 1.2774382483153985 -0.76318147132442959
-0.037305608011536151 0.66419496906823383 -0.20005459323985519
-0.85960556917279973 1.1547124194792104 -0.41731003692885338
-0.013667457730946353 0.94449968085382352 -0.28639615087664083
0.5715197097568705 -0.72103775131252235 0.32309440004030421
0.61267885562824631 0.98761459838361532 -0.080735863926491902
0.49573464068089379 0.31062083451438127 0.23960266812838427
-0.86710638337876844 1.0906970547560064 -0.31233368882959667
0.10692473633588406 0.25506061693252491 0.034360570816744485
-0.0076496839915307646 0.14326745817348296 0.054184069939594792
-0.24599468291108906 1.6487287954779113 -0.42996388318124446
0.16191312119354961 1.7290844192786707 -0.41423602490553435
0.34997362037188395 0.39792212779363467 0.40320143804385111
0.41462163197257951 -0.80176509781674099 0.36230838289714029
0.54744730072999914 -0.99025061278295823 0.39880441775409281
-0.10537782799502793 1.699419967414137 -0.39079602279548453
0.04999140854675943 1.3120575182805894 -0.7353917187854222
-1.0971009686869024 1.1730339354413992 -0.49511100770027383
0.45043939859664306 1.8717662292273829 -0.50966343042009044
0.49421411959468742 1.3022676442467755 -0.082887643389085497
0.23716288370184202 -0.078088888268908363 0.24089230841224207
-0.74238168360082568 -0.18001683287904768 0.068514652721120228
0.093404833165550372 1.4192521734197143 -0.55770989536242155
-0.17094228624830521 1.2777403014524324 -0.61647065425964342
0.36699642724897785 -0.24207871169683415 0.17324305695439079
-0.35384886165832086 1.0939893016491453 0.60709266293503106
0.41903172901766084 0.36117538399430771 0.27235452224937262
-0.83904226122649561 1.0666760060947169 -0.0032342362623296594
-0.72469671564286386 -0.065998454215332458 0.16520962139910012
1.2339770323714561 1.4389348897753393 -0.62763399935373343
0.40600843137571019 1.3935850507869105 -0.1891410174058592
-0.054720636520869448 1.1771739621171591 -0.51446979141076099
-0.39657804564757271 0.71124656613400816 0.11782415956673731
0.92614184392311927 1.3776572393937982 -0.27980506942964212
-0.051894504835445332 0.11489929998512594 0.2085978182842041
0.8280033457447189 1.1641362610626871 -0.27545356851200609
-0.90150434773676125 1.3240959161820456 -0.38993368565041919
-0.21559513143637332 1.6131303458789787 -0.3590234356513804
0.091615903415458888 1.1943488545608218 -0.6773710201528047
-0.72260639397177329 1.2013386607643852 -0.26239420027420124
0.39228357892142185 1.8534761322091313 -0.47922382821181486
-0.012552277018528457 1.6944519581752324 -0.41421187824215622
-0.39664908706328106 0.45706857573019022 0.43103801077819526
-0.90118447672466573 1.2441090398058989 -0.22231816556191575
-0.11995869667009629 1.5829477510605621 -0.46300712186146598
0.59533459749377471 -0.2433437443887243 0.18708540776280813
0.71297683778703913 1.1823942080606926 -0.12707728079348612
-0.046056434838249061 0.27341661317672106 -0.047211271670249744
-0.52508269769845128 1.3520668773478164 -0.13171828959900722
0.78874984332196618 1.1702751619280889 -0.23366208796318233
0.036423249221229526 1.1457305324686615 -0.52352446008987386
-0.73912491525891255 -0.16855644524895297 0.11904174921065191
0.073427987035415754 0.84528888654304524 -0.27804813957700958
0.4522895842819139 0.94885652481218585 -0.10562855834402285
-0.68258870539949612 0.087837578721590148 0.2623054201246191
-0.57775939621132011 -0.92228554324655931 0.36127211493428035
0.33764083905782627 0.24893750645512114 0.057360005320504115
-0.74220833964648136 1.2723680772538302 -0.21873856622943322
0.9617420596600823 1.3182002864239379 -0.35040408728440298
-0.74111524449367039 -0.23664415388711291 0.12706864290478848
-0.57674082106387914 0.31641008352225697 0.36334877020976819
0.85088473288243449 1.1304707446428992 -0.27556333172415748
0.30145069063649998 1.508542140522259 -0.24102543988033176
0.351343605981981 -0.14692651120184053 0.30395412086625129
0.38592672619327573 -0.90524984827777644 0.41527117116874024
-1.0703966536843836 1.4556521335874493 -0.72711644319034008
0.036641147498471582 1.2615984318926436 -0.81654617615592429
-0.95810609038392158 1.3557908552212474 -0.48972665441189633
-0.3344659222283326 1.3729872070323381 -0.33713836497184957
0.40997752829338197 -0.20553518550919136 0.1213350347082951
0.47341969434646103 -0.54315835452092642 0.23624584828633033
-0.75952385185655658 -0.96958792783813408 0.25524699331273837
-0.21302412143080574 0.3334776446378811 0.5259108340439127
-0.15185236723715434 0.10910563830353226 0.14596202385962442
-1.1760514752396887 1.3729358847183768 -0.82680775775486381
0.14164874698877838 1.663300391753701 -0.40468415591411144
0.50689033272016104 0.25036024984535743 0.31693831146688467
1.0177197864558707 1.5251314774105751 -0.44909906515289322
-1.0830913043420196 1.4554256507876957 -0.73985983880200479
0.4442595626374839 -0.38418252955315779 0.30495486456788967
0.42548592885896142 0.063207937396171587 0.036760663825049278
-0.72595181401442233 -0.82190795590307175 0.23411718460856434
0.00027492669846651552 0.12829005867787657 0.11473321013713189
-0.18772689378755558 1.7950478902733273 -0.48414340936133726
-0.31244763282847998 1.4168592561562789 -0.38675957842716002
0.89276727605169981 1.3478072947237294 -0.28337791557714809
-0.18242408568181645 1.3296354345381545 -0.53091522502720068
0.88884754274903344 1.0570584473991147 -0.12710431386634014
-0.2418032496046294 1.4918316778541225 0.56428167355579717
-0.20437928453736731 1.1796564200431376 -0.28200740700216897
0.3800639610605856 -0.33149354056324398 0.23832396610090711
-0.60831011001681645 -0.4688271669452746 0.22830810834513215
-0.73691416169143054 -0.92198386642144214 0.26474765834913683
-1.0292487750637633 1.3857542595760677 -0.61514925039858781
0.50934331838865887 -0.92091524521181611 0.3819918886594138
-0.082132779206801843 1.6793163640828652 -0.41961840560119867
0.47883043235731293 -0.080213614257701238 0.37202345019349536
-0.68136128849010902 -0.35523502143075802 0.076379511740725547
0.30713026991566039 -0.1319344666719644 0.16716969698052253
0.060436726341777103 1.1796091280258594 -0.38574917902784023
0.17995662003261259 0.028890460862996292 0.17784439658905171
-0.2642250961478112 0.74147778399553488 0.54985623989250598
0.51648689128069236 -0.97723033868274456 0.40525525110371063
0.97528328030006151 1.1381110758379123 -0.27697613117300079
0.23057476377744024 1.378638350568373 -0.35486634896386704
-0.6062294135997206 -0.41400114222477669 0.22731384810057875
-0.70811341350025714 0.035448644771236104 0.2052603109588631
-0.12212168455113215 1.3701699831591654 -0.56039562288523825
0.85014801069371515 1.0423084402465719 -0.095192980175539788
-0.63617043993826883 -0.43149349923423586 0.22661715283120998
-0.66199498483240404 1.1071904945043656 -0.23007414512127866
0.36409754007291895 1.7787135270392831 -0.43513438518621683
-0.75964704680325212 -0.92063777418955794 0.23347274018688324
0.12107636601876948 0.10502342129561271 0.1194350969105642
-0.75066709027336742 -0.95421303154068937 0.22197124701398252
1.2330212888953156 1.5147612218633633 -0.61673301788117385
0.32567004492835849 1.2954384271539467 -0.19344890377234947
-0.77037300543548781 1.2045230539600453 -0.30045673542318241
0.5626095974009786 -0.76648690844515954 0.33927561649902316
-0.74567669427327132 -0.53593025108639836 0.15088160510256898
0.73022902620061814 0.94281599629451307 0.021941621266904576
0.47068414172889561 -0.17822038996010292 0.32661634781439375
-0.53085669373757582 1.3036049775142615 -0.19584404766399643
0.58415197703408239 1.2353237938926327 -0.095541399906608149
1.1189427592223637 1.4611448116904455 -0.48064567591879381
-0.43416909632128409 -0.17678430470117235 0.15418081464017064
-0.70464375694069759 1.1875288706078422 -0.25676301651847666
0.41418016602324315 0.30974703268363157 0.33161024758209123
-0.85651800461130279 1.3459521739708293 -0.47140528055953723
-1.026584020056589 1.4614539625361456 -0.69392950123125274
1.134625453387855 1.3665791270330487 -0.51863405002434604
0.97422225939772034 1.4356543458211348 -0.36716966925771999
-1.0123587626087556 1.356900289718979 -0.6377394857244667
-0.40724654590559339 1.3185056330875824 -0.29265692582853831
0.24430201827948395 1.5217821480231777 -0.38456500724169018
-0.27817452348750749 1.4228279850189267 -0.43884110321036474
0.050621003754827143 1.1540939933302425 -0.81087031942678323
-1.1195684757857407 1.1918646225572083 -0.53443789518109952
-0.044794986797285219 1.3485181454081925 -0.66144884257883518
0.36422811408539246 0.48153747802427915 0.23605662093868318
-0.52886061359930636 1.266700853171379 -0.21108407245895933
-0.46459648134657527 0.84209866616853901 -0.031941487369095967
0.17532483063854443 1.6520253916746768 -0.33990937802002463
0.29212053977801133 1.4738800730309194 -0.32738318469645833
0.03660143952282624 1.6816117156640402 -0.35699795463216333
-0.56564822077453414 -0.74008278100198766 0.25825202306307915
-0.13784955260410925 0.056075270190945048 0.21099819969211353
-0.72635285863438526 -0.12182493823050322 0.15338366266468029
0.58991082962970154 -0.56267560670423222 0.30753037771161473
-0.73944118815649063 -0.60045375954631197 0.15317832366463335
0.54738360088134641 0.18207394876731087 0.16257539858398218
0.54133593685634196 0.072140754163640963 0.34414958170521004
-0.54667004764380067 -0.4124141995130941 0.22302542701953598
0.7663899178114093 1.2676374110643778 -0.20547454070131721
0.41469761602127164 -0.97279168838898045 0.41090061061134975
0.3860131622515155 0.21775156794993222 0.41672284754585576
-0.23375962660895766 1.3428334473189807 -0.48747461308173001
0.43072752598979491 -0.76237806261478624 0.35018979272228989
1.106315914762888 1.4306731914252424 -0.44490631771746791
0.1708703109239309 1.2294521553325239 -0.63372338539178941
-0.44237979159544238 1.8238240139727111 -0.57468756858864367
-0.74040180421789614 -0.95837472165617044 0.28139445687614284
1.093835797670522 1.3092682744263371 -0.4259639474310859
-0.52945785961750857 -0.31684334704407036 0.12788988231082499
0.059556080733045746 1.5536320262245411 -0.46603950483219592
0.00214888622468834 1.1700962473586145 -0.39277388442212668
0.027256525309780955 0.1579349725690804 0.08314577660863165
0.38215153570354232 1.7256954818207646 -0.40309098770859464
-1.1559975785478116 1.3258185594801013 -0.81192644414704773
-0.67416246728544138 1.0008575035024592 -0.14011489858111759
-1.0534971017308408 1.4772270158014322 -0.72922903562582064
-0.3030071842733264 0.67167258860440882 0.52385921803255542
-0.41188113176929164 1.8158802161027747 -0.55193123570450098
0.37348497819789372 0.88413139741045654 -0.17848364113936555
0.58656679910782827 -0.44872338581490112 0.2812871580249805
1.1353032415640314 1.541561906429628 -0.55389958309363863
0.11991419116714042 0.60246141245633567 -0.11809020089086175
0.35051038103119936 1.6575169732836699 -0.36800260744564639
0.11013749010658103 0.87291138197153373 -0.30612703134698904
0.11945294245157356 1.219703965607394 -0.37102305639805877
-0.31447855084678622 0.084431845887053214 0.077266010018064435
-0.89886729825303746 1.2900582260164271 -0.3094067011270738
-0.71380689344144344 -0.25197461923775677 0.17578238113949851
0.21036763082338439 0.43891542878881751 0.57657056495068559
0.049354125121169545 0.83658843840129293 -0.24551104969583548
0.33807980103370028 -0.39229936159139811 0.22391518719339842
0.18850712328946884 0.0086559077815735463 0.27139482275481441
0.57433920145331285 -0.18484941141412037 0.22526364248042796
0.00084225249810288005 1.1655518377871488 -0.35977889322560941
-0.64930007469027373 -0.52390093474497235 0.13216942336467241
0.12276213794308433 0.48707255107017033 -0.047460488404226453
-1.0996950620883581 1.4109393933890839 -0.71291389216227685
0.3806042083714658 -0.79336384963691842 0.36146708990554544
-0.39821136570520821 -0.18245257176826613 0.16210444009351477
-0.31148942266298718 1.4462558339857665 -0.38889218665227077
-0.2549527081473002 1.4825599140163135 -0.43418632863242124
-1.1724902377567901 1.3462690355792599 -0.73651690505812439
0.57959795385224311 -0.53050880664586941 0.32076383383959239
0.53884444907689044 -0.71196431055575715 0.31775226349164143
0.49330351029755093 -0.86009525345374982 0.36795831518554678
0.94516770064808497 1.0838338553503277 -0.10996295813555435
0.006098136846617308 0.17186551611999334 0.02469059789154926
-0.72536803815066264 -0.5840352440488914 0.19086053981047257
0.96473479980807042 1.2338871695201448 -0.39071592851348669
-0.72370480923871128 -0.28376142127966375 0.16811358401952248
0.33716779961883958 1.8789653735981986 -0.48856611243698467
0.55712723381452633 -0.57312612947815467 0.25808206546544454
-0.72629315507757042 -0.16627728867969438 0.15784610134221566
0.28440402099454332 1.6731483801402689 -0.36469352186946935
0.28673621241199498 0.2604794551675127 0.47221489587843735
0.335187801062375 -0.43367695493351732 0.25022023325952603
-0.36622891955175874 0.19546336152639299 0.45967846561646297
0.53923389374381259 0.21532760811959406 0.20137734734473156
-0.12233708688108891 1.7726679365469877 -0.21706292439426988
-0.52987768560802806 -0.32436441435605445 0.11675206704023822
-0.1649735289957448 0.71355499134715217 -0.16237334723717822
-0.37057344524652081 1.3681318526194701 -0.31016674659136356
0.27567498447393746 0.40749070471160564 0.51042238199195822
-0.44710918643642117 1.8291881464069792 -0.57819962964254046
0.40105109960592245 0.2649426471026004 0.38170379619737105
0.04359907149199671 1.218146323529357 -0.87645855302429254
0.55062832311136845 -0.0007743159318920334 0.32603545968908065
0.25605921480155303 0.5252491948375706 0.55137320252381983
0.55294918616414179 1.2270686921812768 -0.09924106829981838
-0.37489313704253391 0.80261641265303751 -0.15423365160472713
0.22853580544170882 0.011523404036012153 0.1376185861273882
0.77949941346628293 1.2507098205321086 -0.11616543574882598
0.54731277317304716 -0.9193726484597704 0.38160678884760557
0.8764284040761936 1.3968003090937415 -0.29127229235075447
-0.68045432882911427 1.1914082734443099 -0.23752906649571059
-1.0075275227970906 1.4118486241065114 -0.63890192532022638
0.69910718795273397 1.2129227968273426 -0.046419435055696567
-0.055506188544143242 1.2007562238330465 -0.84855078896944747
0.40905329658943401 0.24504122971120523 0.38457702836996077
0.56006832795537775 0.90081346109802496 0.15789615121482825
-1.0260325460209287 1.3765864143583428 -0.66642924873056586
0.26765366778283806 0.4660197276598268 0.047179041864467308
0.043993966857954092 1.0812807856462925 -0.28926154474277155
-0.595223198850789 -0.28076692348074062 0.081487479643669758
0.45184742595887428 0.29273563405043035 0.32356674870430879
-0.64701445870588259 0.96902572168562529 0.12796886516670725
-0.31993608401359097 -0.0093113656253365207 0.12538745642450522
-0.56747012248405326 -0.81025951402023111 0.288136127383126
1.1903485936090306 1.3722365187784504 -0.49237730108751521
1.1169293519435541 1.4729364619102192 -0.48802061795274199
0.23056195010479996 0.6241763724630971 -0.037087568710063579
0.17042798458032848 0.058047116072799554 0.16270105470729845
-0.72597472591147039 -0.046875141120423791 0.11647245887053259
0.55056525268167888 -0.84307337569528329 0.35957537078660096
-0.41908915694403959 1.7664070671812304 -0.53323429710863479
-0.60636348692730735 -0.2055292140964724 0.06740480777114044
-1.1594766648670429 1.2652126661482264 -0.59528671509048081
-0.013295617687219874 1.298339298284084 -0.77159012256896631
-0.37692483259411347 1.8670172894185484 -0.57607291873335953
-0.73854801417064664 -0.64987856861857551 0.17382763544620161
-0.34299593759851632 0.51781967810890706 0.080909773828750531
0.22050369184199781 -0.03281050476324765 0.19081499295162985
-0.75651597078606869 -0.97232677538679013 0.26795988607847221
-0.19010490277361214 1.7838488203130289 -0.48078009876300598
-0.73010197892355677 -0.64895624340583424 0.19127892785593303
-0.95262283506747281 1.2408488699051574 -0.53114222029276448
0.4002151953496309 0.37161125615742208 0.12568133097732925
0.031582591032019991 1.1621875934656316 -0.46821203373971798
-1.1535000261657729 1.2774579030107347 -0.65094202442884352
0.86201299618795701 1.3707344584085206 -0.24139335645335791
0.24104579205697974 1.2929819379071859 -0.23323685217170009
-1.1247454128500181 1.1950480648208348 -0.52835029990779958
0.56307799786537771 -0.90068644577497992 0.36943537533731785
0.36730082897832972 -0.1869158025277784 0.14223413668190688
0.88503012203756271 1.4330459391378128 -0.31343540985702134
-0.28910731796753453 1.6103875423098017 -0.42018384144358834
0.45623051268148629 0.84658118887985268 0.18036394542616563
-0.73208612974559628 -0.78245900256136736 0.21417620350854349
-0.0096830806236312128 0.74059794037940208 0.64696448231819659
0.39065699027071332 0.75197434787233419 0.19075249764725299
-0.30351775519892499 0.10323337171401192 0.081569336577189233
0.2052690953300953 0.66924193431668755 -0.10892567153240407
-0.83634964045631932 1.3067267277937802 -0.44227444216741674
0.32813365792193849 -0.92492748890879284 0.42750730135520598
-0.0047184700624711695 1.7007650375758985 -0.38303249574562415
0.43412589708049154 0.27650106162290911 0.35079396308611877
-0.65376953577077757 0.21297875310135339 0.26553374763045667
0.29452664663165251 1.792942030359459 -0.44282579382058884
0.34607780555614909 0.228792614595136 0.44049304383591448
0.36018207847280337 0.60341832748012791 0.21865346989815748
-0.96948164306178342 1.3930080048999827 -0.5832856947766345
-0.50159304326450638 0.33963007040438242 0.38667618420697636
0.3855179090857348 -0.81443442160076529 0.3705447145781875
-0.0044509150151839094 1.0604244321365002 0.75834603760304731
-1.1515166165827964 1.2761348696437622 -0.58476571629572049
-0.59763258345282111 0.28629785570309707 0.12788357884710422
-0.0012742239131853239 1.1554910025168112 -0.50624151765606484
-1.030931123868811 1.1231011845587915 -0.32578263900512638
-0.73352030902250931 -0.88908422631955375 0.25052381197885154
0.037120442532796005 1.1738481257174556 -0.41355742931509099
0.50124118915209692 -0.94885162669271494 0.39040416942943068
0.36594003592250601 -0.35551075768658791 0.23958440305814577
-0.062050993448110603 1.502750437943341 -0.51333307455439581
0.14010164182832341 0.7801985711975874 -0.20930277708202993
-0.40572495531404229 1.3334075326769508 -0.29240947246881888
0.46839638768199165 1.3560523423014104 -0.02999934300271434
0.30783315428374181 1.29911530385872 -0.19717848514378034
0.39931177216027436 1.1729401022334756 -0.17382807390166022
0.3162675678386222 1.0236474300303797 0.57878214935442429
0.22952929640712227 1.0236310007776268 -0.31761628513689288
-0.59454185364469936 -0.93594862107845245 0.36778005408652348
1.0027027815138467 1.1830704277467774 -0.33902286844281093
0.28553921697675833 1.5032480893599924 -0.33514103320490563
0.45560299962224349 -0.95117132790259973 0.39547373778792405
0.70794205316013858 1.2103988664923406 -0.051173699230503189
0.58668729212971016 -0.63353074595474368 0.30820121471148809
-0.11230853672083185 1.3628155785675631 -0.6062378382813165
0.36522777701154041 -0.35835541643001534 0.21451126221212746
-0.90548334037657696 1.3718986773778141 -0.55473365785931605
-0.44111734493554877 0.40988722720271653 0.3901517899873852
-0.6528650630774564 0.95429341886185171 0.072644813856157953
-0.18018619164854499 0.7072881968078093 -0.14504206600935277
-0.0071743065336136169 1.0203418379593359 -0.27780990835722719
1.082717754452176 1.3433075798819232 -0.45536749258661757
0.26559604551073335 1.5901520858206766 -0.36681768168622852
0.40426506080098079 -0.72885230096156306 0.32945648324283638
-0.72774161961686445 -0.097001120145989717 0.14013374281239521
0.27279411194876957 -0.103374172694771 0.21380399221666835
-0.73678101214352409 1.0360788639349465 0.14087434210674132
0.42648427546009771 1.3767834366132448 -0.18750888967284141
-0.44249802139256644 0.47214773756192585 0.26328271386890378
-0.13375579140819127 1.2529467536547969 -0.77703775810948628
-1.0602154827850541 1.2951047228637016 -0.66637647316179027
-0.078796227808368258 0.12258116913677952 0.15376750235688519
0.99683820491992492 1.4104943032865691 -0.37719681524316684
-1.1516032166785521 1.2716050206598446 -0.67935054614753199
0.018875137354768867 0.9994261990068054 -0.2856458179913659
0.39981036512290302 1.4002572489763807 -0.16348893239239715
0.5440782020824031 -0.8310003196730662 0.35483180432753159
0.85850462762289226 1.3229872166703132 -0.1976288915027169
-0.74129708280491968 -0.21356426718142529 0.12055908433774221
1.0068358125957957 1.160346655871237 -0.26556764798715449
0.26657726088200207 -0.07657807812830697 0.2720410939234057
0.061681414904512621 0.063823595089260721 0.20930369801646975
0.46364002518294001 -0.21765744426706135 0.31068863420455273
-0.25677293544919166 -0.035162222920945396 0.19175400920735797
0.045854563206546572 0.27691343501123811 -0.026431230683300555
0.19152388323084324 1.6660177823689324 -0.32753082925816557
0.58451468470468626 -0.076004993731828563 0.12798534932198891
-0.59277972725689665 -0.26647175162727876 0.0792563893250815
-0.64060279988916591 -0.64719361221641236 0.18273243847926324
0.41693155944318505 -0.43626788303048158 0.30402323428026534
-0.75315405717680051 -0.96272051215233034 0.26966979711396277
-0.86742378814085441 1.0393067990319196 -0.1584163907031666
-1.0097249070009866 1.1109415884168996 -0.37239532296322864
-0.032967860268854565 1.2009462348972946 -0.87660779377242193
-0.23947577989576985 1.5345570309326462 -0.42838100621895592
0.13732381992520004 0.86969009848859002 -0.30654093233818003
0.37791444911852068 -0.14148490363248811 0.32328166161070726
-0.28016695121050361 1.0950014009278135 -0.28763595077347759
-0.65542860535063596 -0.91888923325888072 0.33690531756238329
-0.069429103370225675 0.60302919247041586 0.6235107031408802
0.41222738869370801 -0.63855884615081493 0.28245350930575341
0.58601849948104245 -0.51088191560296536 0.31334070648173906
-0.073730070890007937 1.224863326321028 -0.83380882298186521
-0.69880865980493923 -0.046336130795424424 0.22997678242631991
1.0838416812674154 1.3629150898227635 -0.37525009950408617
-0.019607864275144493 1.088605671579792 -0.29118038637298582
-0.063342445119303648 1.1425224135414922 -0.58331028896762405
0.23140639242581074 1.8315039094036329 -0.46004688668401172
0.20479756118771775 0.20035487841258259 0.045814070692188125
-0.40087412472684036 1.4726302526313972 -0.22559627611227029
-0.54358396876921233 -0.92061528956784855 0.36534500367437772
1.2230374898624063 1.5141925637814708 -0.60230732182225211
-0.72045395194271578 1.2577458458748865 -0.25163327279378223
-0.23114033290522684 1.8081269544119642 -0.49657563389777692
0.24794554375301914 -0.00018711461173381849 0.12626346845425473
0.2885254747635031 1.5729943010685616 -0.16986435452406567
1.0178065969686827 1.5394117822582807 -0.4604391717633689
0.8282115164807351 1.0542067591883963 -0.16117536332421878
-1.1404214216620971 1.1926466545982422 -0.49943844851446784
0.64931467465407877 0.94587470758482084 0.12948697569362366
-0.14891489413605541 1.2562503317814588 -0.551338860248336
0.7065650958853098 1.0273514763090574 -0.12193371687186527
-0.30253241769514716 1.5256798005597147 -0.27952315721407217
-0.38940019401536574 -0.19433770705811071 0.19542145829259994
-0.39037916983807008 0.21937221134706419 0.047544260355493861
1.0491956108179465 1.2280400350536098 -0.37262068621797084
-0.4806994455098561 0.97154427713681457 -0.17021452431947637
0.26152207270450845 -0.069765024508356532 0.16711884294517176
1.18972463090779 1.4194098273559064 -0.50390313131563857
0.300630611005829 -0.13954172799442688 0.20854084587421085
-1.0817524623560644 1.2353880286836016 -0.61853996537624312
0.3213893399221206 0.32257549991921053 0.045545714405648141
0.45645869633932534 -0.8014458370456623 0.35543742358186137
-0.30493407116904336 0.69888791801113825 -0.044978164354489536
-0.9051705222548776 1.089036246456665 -0.11902106385008437
-0.084941283344733165 1.7782499456365173 -0.18778790483801799
-0.59071749030701426 -0.26395527007491637 0.21680806397566244
0.65953688029088653 1.0748314448763878 -0.11769121537770388
-0.13391004785029281 1.2987377729763381 -0.72361193638693067
-0.29271543928626897 1.3804096449894203 -0.41372598881551426
-0.71191028274489554 0.97808568217273972 0.10835783811887723
0.56965269953684583 1.0060286130561309 -0.080855348122270243
0.15701401577177876 0.66489001149763283 0.60631985218245177
0.55568370166875525 -0.91292948776040816 0.37693124759667285
1.1332424703131778 1.5067054050452064 -0.52667874012327331
0.22629267622409088 1.3760346813843114 -0.34247384124520863
0.30211253347948741 0.11363558897247117 0.44376850279132896
-0.51370537456688226 -0.3488601044967794 0.18599318334705117
0.1231290424133249 0.52935727316756243 -0.096568547847908803
-0.55409101592530874 -0.83944692759150996 0.29954120121543326
-0.28539297146227227 0.76575747417177809 0.53647396359437494
0.28945601308475943 1.4064196447525461 -0.31767135157053872
0.056133826434802359 0.070698327784086246 0.24747133153161371
-0.39944259427693396 1.8372563688598529 -0.55010889012314124
0.47926238191786297 -0.21908850891620091 0.30919220462530461
-0.65669533332507513 -0.90703009700264658 0.32690731861310951
-0.56244119377714696 -0.16639531265042251 0.068099180488843558
0.067000735821409307 1.1760494712632479 -0.4751423900721079
0.20382949245509963 1.5015429807158682 -0.4899172395149094
-0.011673122451611562 1.1625980589239262 -0.3511829865131233
-1.0545017123936873 1.4329576951450349 -0.69075313935465488
-1.0233767246179468 1.4552124797559163 -0.68718018489050792
0.88865026064581798 1.0768633714762217 -0.22661670066085549
-0.45838381796176009 -0.10412717237358038 0.091533789786922171
0.38881705514430109 -0.33181393311156171 0.19058133611807193
-0.72712437160885202 -0.05958039932393433 0.12232515832207014
0.32118226558424112 1.7425720858907319 -0.40928725004187072
0.55099437806021001 -0.29458525249152956 0.28519896205200723
0.10919675975452492 0.053801523415003771 0.20573214001498741
0.15959213498535973 1.7442815872227477 -0.41756753906912536
-1.1890694405674651 1.3071784295529767 -0.76049795840953038
-0.74580566984812435 -0.20665022374592468 0.097469018980945066
0.40936697682818135 -0.73190718539780164 0.34329510588611356
-0.037139308271889604 1.1806220345242622 -0.40859204598780252
0.37948049648650795 -0.79107930706676655 0.36070613676633911
-0.41390954551866344 1.3973128589628985 -0.23576186170373603
0.1548549418686207 0.45138863553448516 0.59707259368036603
-0.75701523081761479 -0.9412437643339473 0.21975183876097049
0.16098266097878877 1.7421960947923552 -0.41802260164487848
0.54232237136716321 0.21110614053856125 0.22234489960004566
0.53287447592953185 -0.15091776299982484 0.31866870521821511
-0.095785329002296749 0.15703193425900963 0.048227093935423682
-0.08857448533706247 1.5359030441175108 -0.48034625117645646
0.60036498772757341 -0.23503812163185955 0.15994651126720782
0.048062094425574742 0.27790521388570255 0.54841070295853456
-0.40189191938583235 0.039928214161619735 0.043422117048095288
0.48971830290594198 -0.84587980488943515 0.36094111316060662
1.1581793462539167 1.3811752871014491 -0.55034736097097436
0.70320200600036742 1.2072360723264453 -0.12974730355551856
-0.10041493404980883 0.70614376516221 0.65871101195114079
-0.66223762088600324 1.0752827544338928 -0.21023366057025328
0.57825607699663806 -0.37442559552867749 0.27109734250507245
-0.071189533665744875 0.11986004817558182 0.15106449036639447
0.22296983109328039 1.6702762867722925 -0.39827694355469134
1.0483449577201327 1.4989457366319172 -0.45891266709827505
-1.0427579951340249 1.4757054421354052 -0.73712204429119765
0.97114226214875998 1.1370057262174598 -0.28952931143803085
-0.70271961482666256 -0.13595665381161837 0.20042408619627849
0.83439705574426171 1.3265513398294217 -0.19090050565390015
-0.41569262948405594 1.0010429693872993 -0.27310540703311403
0.17871073062605092 1.3098531143282841 -0.38768461826552425
-0.92922917762206225 1.3884989417398472 -0.5673034682900493
0.56442670058189037 -0.42247842718181516 0.32478312348447957
0.33668983983071143 -0.6288139321364099 0.30225328184971545
1.1420381029679447 1.3780331535861805 -0.54884147967770502
0.55370462986610391 1.2184891931908055 -0.10223468347280118
-0.28955699530843049 0.7535449125108471 0.52734567933208609
-0.74326934296462355 -0.27024477825499105 0.11459274700791866
-0.38975734038234577 1.5587453672334206 -0.05393234655747392
-1.1581641269254419 1.4074870017247836 -0.7975214927900538
0.27304139243648251 1.6673678549312143 -0.3607016988710825
0.37127707085170414 1.4167443565668805 -0.23508347723017664
0.46788630635722939 -0.52903216507270656 0.22628851211609913
-0.87548782442917172 1.1558094329050448 -0.42662026864022096
-1.1439616679590472 1.2837082840233229 -0.57976475417018491
0.16041255224979523 1.195164544496663 -0.27162226371814313
0.23287031465650898 -0.051001781649887334 0.27194275236354315
1.1916423031071304 1.4260801499256601 -0.63597568309543817
0.56547732631440795 -0.23094172401582114 0.25094368139701828
0.033598377268333479 1.4437167587321653 -0.55521846656952789
-0.74634838963768857 -0.91430533415700666 0.25362279934130072
-0.38893747323072603 -0.17020776058382125 0.25347985220457758
-0.7015920416409358 1.2756726838535499 -0.066784167132340144
-1.0598339308215259 1.4331097169207396 -0.69584800672561187
-0.71003059097904497 -0.27330843477953692 0.17911317771216773
-0.28405100967898989 -0.035226649702309487 0.34581727136318818
-0.65228257078121032 -0.80454583516099376 0.25409948046556963
-0.59697434394021798 -0.82220620620985585 0.27818153627291053
-1.0128295224509429 1.4742599220069295 -0.69467020361776122
-0.11773873226240994 0.17080733152646133 0.060067638714428995
-0.21955604021002273 1.6158543770825986 -0.36584667486869193
0.0078641323420356457 1.3657965096661542 -0.65228282495004919
0.27070597338001789 0.95950846166741144 -0.30709049156186552
0.82215530647101787 1.3828062590748331 -0.25339846625729479
-0.23624985580420343 1.5575517007639661 -0.43628133585158935
-0.64113418795398047 1.1023991675933829 -0.21817865074149267
-0.19263073170242251 0.95449806203522769 -0.34751158735994636
-0.79449645785416578 1.219760607063975 -0.37946548501432176
-1.1171461176676871 1.3360969013148605 -0.80629965981358964
0.84690695636260216 1.234092256270003 -0.12052925501842537
-0.32594519753575923 1.4989713453804399 -0.26419917198876419
-0.48965591600955349 0.42191085542698659 0.26967517290594856
0.37919821160929246 -0.82321993148990202 0.37361514996800338
-0.56108402865243079 -0.81049937700848318 0.28417908967868755
0.69159875746640864 0.93372405488786114 0.033187711082064197
-0.66624838395145503 -0.51489410330786711 0.2213466097982888
-1.0054982460447377 1.4235261093268043 -0.6533617148903943
0.53083113304012386 -0.91779108265100717 0.3812457292492013
-0.2766668237053409 1.7623588408773898 -0.49056404114597285
0.33236793332935122 -0.91101129588076901 0.42122356985477438
-0.49887177862530052 -0.17271715764940154 0.10551784166511879
1.017891045222882 1.544948087796481 -0.46402509316004625
-0.7416795645248726 -0.96611662957555211 0.22370737217903525
-0.71794956771520901 -0.025670889190507751 0.088593492662141671
0.35148735163230072 -0.69950655675391715 0.32411064853968696
1.023217220135507 1.5195630942340337 -0.44908985772502774
-0.016193248325350851 0.56786774210341662 -0.14560448730620124
-0.14997087385881969 0.053490919817434701 0.20285440968467583
-0.6429986677704278 -0.86258677197005795 0.27992959102611792
-0.65826580788660749 -0.95301639691157902 0.31587903239191917
0.11321580653452656 0.12617486982395576 0.10364906481942171
-0.063621684211341289 0.12322530702613221 0.089907538257563147
-0.58577413063107997 0.32799092885841219 0.21553954631565375
0.58870424929074261 -0.42151623171207575 0.2362385567367653
-1.1121316207651262 1.2472581313676052 -0.62259763357818088
0.29910695265147069 0.60634226863014362 0.073764082305189049
-0.66056896439152979 -0.78992040000420616 0.24637954773425008
0.51470497283798977 0.099425520039019943 0.37480606589394938
0.25056773146184241 1.6035694528452638 -0.38188650406800662
-0.56918587741705551 1.2818026582408777 0.095077962990956166
-0.57802056565705584 -0.85063772001495863 0.29622280916309762
-0.0098699552328866957 0.97817486943441168 -0.28769948757485508
-0.32158973624098053 1.400438302253157 -0.36839322489876736
0.072228293539751576 1.1145313945991475 -0.28903737360982973
-0.95146744434060793 1.3768007370038617 -0.53306745114127807
0.77723041311730867 1.0612239589469183 0.021643539535858736
-0.75937454759218781 -0.91499868819364849 0.23192803627559044
-0.74820813895826177 1.1753176424817298 -0.28956254635374989
-0.55307893384528484 -0.93948182814054348 0.37707690215054868
0.33640313503741481 0.50699618971513871 0.38877886683047791
0.32563715604925392 -0.58720542977332002 0.27367254939694874
0.19665794992766905 1.3120576542227269 -0.2816485703666558
-0.88077393468660148 1.3687016829378749 -0.51185698476521679
-1.1566725610537674 1.2603894241284941 -0.57568774684483515
-0.47210562685233981 -0.56978046035951024 0.21652588707996756
-0.37986564127260181 0.99285023078132895 0.57327234532436933
-0.11356872009133667 0.14161627119524667 0.11581074161546212
-0.48608836111105802 0.99508140375746024 -0.18955138871024246
0.39651956047640624 0.7875011507451859 0.059137135136978713
0.41406379738396026 -0.21129492010386741 0.12244949378148817
-0.18732863307104708 1.765405580765762 -0.47557692315029954
0.35835445134904376 1.0428666128867761 -0.25795703400660841
0.26940544578718573 1.5284042340874464 -0.34999694235750667
1.0840897246311556 1.5231015589730923 -0.50238266096599205
1.1238301430109345 1.335396636035064 -0.45325930308113982
-0.12394140472315485 1.2236603499665435 -0.80074887018295726
-0.65192532655515834 -0.82986933465201673 0.26329478870948719
0.46647318803474036 0.99108664128500834 -0.093014667030331566
-0.69949808571720951 1.2727319804062276 -0.18999523333161505
-0.099610552491128601 1.6080901475911169 -0.45232202967915214
-0.1770660074131456 0.68643739596936371 -0.15181439249107598
-0.52120436113699498 -0.31846977074633287 0.16368571231407714
0.0045988788739350639 0.41379169559397155 -0.07502716264983178
-0.82381819832914971 1.0279176327714481 -0.06569850745779604
0.18763897927459539 0.80146262665778067 0.63269946995572468
-0.31377749288077439 0.26559674898119567 0.48174475471748224
-0.84623092248585863 1.2953863555055065 -0.43644638271129566
-0.34408762520240543 0.83785999262151734 0.58293475748567403
0.21053089979403694 -0.025349659244383815 0.21784786291976843
0.53681217647590529 0.01687829064830737 0.060708438665841413
-0.89269755936277306 1.3749038098994113 -0.53148950341912382
0.053862974075173042 0.12106631800192247 0.12654458264287882
-0.83173589603336495 1.3009939489336162 -0.35155163763809583
-0.64707263833906836 -0.30914354949076994 0.065685502792831585
-0.72894110525291467 -0.15922827365677961 0.1513997155472282
0.75579267729455069 1.2438533582208038 -0.12388650426885306
0.3533307631607272 0.48994460279712371 0.2168274286574956
0.4284937548498533 -0.23582579350426158 0.29280218864651886
0.23043001095464888 0.92313910024569168 0.63770597799211259
0.41804840554300426 1.8310059029013459 -0.47309383980660868
0.54041759758692365 -0.86744289504309791 0.36468429681568182
-0.74619196365074458 -0.97700484552652256 0.24721157345358336
-0.74367182680228439 -0.46219743522001977 0.15940465150828231
-1.0299013795301448 1.4524311322517427 -0.68910071617696644
0.77535622736081677 1.3040252142117836 -0.20854008408417712
-0.14218760276185094 1.2686058515078642 -0.44994298425496027
-0.74114093769387068 -0.48070411681212022 0.12698206651865007
-0.37784371203838418 0.66799081038415409 0.38931984725658708
0.56075677733687712 -0.44263110198073718 0.19631543495310666
-0.72870228074199872 -0.87744026102660655 0.24890768532171137
0.2477409533246373 0.0016564960802156747 0.12222277552308469
-0.39421256468830279 1.7677824428651476 -0.52676516132501661
0.38552695233354939 -0.82703594609071729 0.37323816240395047
0.77637513759151489 1.1222588158450364 -0.1762351186939668
-0.73430290075779681 -0.11707310642498214 0.1180286909792585
0.41531380752320501 0.4037994474144142 0.1956544644149858
-0.31540936166112488 1.5079202587200911 -0.27436578249694321
0.55012739086672013 -0.79260346060510756 0.3457050064950522
0.45552855067580822 -0.89413745713342507 0.38061351015532807
0.25158701342684253 1.5755753073979477 -0.38235907450169293
-0.60754141222301428 -0.74187509808548668 0.24914284015147814
-0.21534828820790608 0.74630150579081089 -0.19030841844892166
1.1744420615132185 1.4636202429417828 -0.51966270380626156
-0.5447832691834833 -0.86033953407053332 0.3236746666953394
0.22711642564087242 1.7221116661241069 -0.3927233002380035
-0.74407709290105117 -0.5547284351586228 0.14841979252801707
0.45279378076821786 -0.22631834545823892 0.11288471239879527
0.20767394277243056 0.34180805297754091 0.53237429038202322
-0.36863037444004476 0.51016839494552357 0.43495549331791494
-0.73750617000058583 -0.57788575814048215 0.18119609929161129
0.20776837967622441 0.63614902088113467 -0.068540679382294911
0.47831009809851821 -0.22749441157230876 0.30657448091992023
0.265966082308978 1.5999273387295432 -0.36640613622896012
0.1479851321414003 0.4092822780416725 0.58794965225044393
-0.55113539787876675 -0.31481200683822408 0.20083105160367154
0.18837547242009123 1.3989204793707302 -0.49238884239306913
0.56024362941877826 -0.86788690962190174 0.36342492173379526
-0.16628656395528196 1.3449450659405784 -0.59816862318939457
1.1529543286525836 1.3418712500311685 -0.45346759645296686
-0.58113501462852923 -0.53729619291577535 0.14201361460425233
0.51245613924390909 -0.20966728289288028 0.31083055540617011
-0.36597810300668243 1.8176796666437127 -0.53452632762923713
0.52042068537278396 -0.83482082501959098 0.35891611883069174
-0.73394364223230468 -0.056591490546253453 0.078419482181544709
0.43223991193877964 0.25320539736634373 0.36699513445788057
0.40954336576112382 0.92609610685985899 0.44754946613215907
-0.037918339534542156 0.11853899683002567 0.1862005244630609
-0.018324953722128612 0.12342595469210949 0.096645325738762722
1.0632373376162718 1.3221304595660612 -0.43245648083163246
-0.63064106488587868 1.0667334331929794 0.23545310588062307
-0.28993057195930305 1.4248718159964469 -0.42188930053271179
0.050458694649648805 1.6892841347705421 -0.39350573632762575
-0.47696183173860618 -0.08492754459868479 0.07401596032497082
0.16519842868365231 0.17379231640428827 0.060165245375969789
0.55781413467491348 -0.46709571740677802 0.21211076528250317
0.34963019960525799 -0.94677686371774428 0.41765745345990979
-0.3325978421680702 1.0147227945136024 0.62754587364790382
-0.0027962122593407912 1.4114138085541441 -0.583658994164864
-0.4699637837965156 -0.22230929899620833 0.24156779445863208
0.00077493900749914246 0.24822565941101971 -0.010005992828752142
0.038155092036447513 1.4723645123218887 -0.52696898755198163
-0.96021127468907252 1.1951837699570618 -0.50977186215919801
-0.57960674977431381 1.0685768408991692 -0.17179970408210465
0.22446166143055279 0.012879035224315771 0.33319378349301587
0.31441753446625853 0.29549503670480703 0.046242084605097489
1.0893672218899155 1.4649920763646342 -0.50028333815001247
0.54890004291891614 -0.99795475586385862 0.39914548609959866
1.1491043680511552 1.4679125152373338 -0.50656859692770695
-0.61970154948457434 -0.47041755026555165 0.11193749436998246
-0.53557470847732702 -0.2940387267017428 0.12267058907988826
0.38340113370645668 -0.29266932211496055 0.18123625718502012
-0.52637800254271383 -0.30400658497178767 0.17490924938209673
-0.54015115802798164 0.25386755933172367 0.057836006776000204
-0.67559187331386283 1.2460393300454129 -0.23104711293873947
1.2359887096479838 1.4700099739778736 -0.60229957093072528
0.27722970577468686 -0.086277996468922424 0.27914654879208456
-0.6923423332778782 -0.82347448933791156 0.24547269662494386
-1.0884003450094042 1.2711405759936163 -0.66049889364160208
0.38551430201300718 -0.082844452233118204 0.36252532451521802
0.10883443124794212 1.2072717041992007 -0.82640773093370967
1.1142363469411407 1.317966315629775 -0.42692268591196125
-0.1085816740085761 0.17774380599438189 0.032986677004259946
0.36347400721666645 -0.26678842713653239 0.21051996860052213
-0.32190493391806285 1.4699678297477803 -0.36510412288791372
-0.42509108261430129 0.48919373459611393 0.20230377342878114
0.23733139496800959 0.32763078242486188 0.51484860924495024
-0.22528899725057272 1.6294424729112649 -0.38081540174346173
-0.015911466329043833 0.96417692468516236 -0.2888113636271612
-0.16204614108880833 1.2722769303496761 -0.37881716367874674
0.56002568105782302 -0.86165204117855865 0.36128596702877758
-0.74816530275910509 1.0348751030796706 -0.20638984588498488
0.31027647230291677 1.6701167616352421 -0.36546073268524992
0.3285150567867845 0.60473862444550264 0.42318608156398341
-1.1731289870570549 1.2817395727646534 -0.70033959826079695
-0.66631976701026474 -0.78338910425669894 0.24464854862280561
0.05609362924906236 1.6220594215208699 -0.421765487545116
0.46051037152855656 -0.85586119190713816 0.37145234067334343
0.34906726955227896 0.48062894101592235 0.13434024328137184
0.89109845842654067 1.0772807910941609 -0.059995117918901997
-0.075681511804020829 0.12038040183689702 0.13866115731323703
-1.1901565459330925 1.3224761128552807 -0.75970264289554734
-0.74953431447767116 1.2471339890191828 -0.27876437512910002
-0.13013676143856401 0.65930667877175608 -0.17678403987187608
0.18220793448887207 0.017744888685598426 0.19179962836074083
-0.22680750801191607 0.39080927662359954 0.53689133864972405
-0.39104110644916545 1.8733812835088237 -0.57525605522496903
0.24574621600191904 1.7334149876218063 -0.42150591938042226
-0.60404904926076597 0.95762771316272222 0.0082551426418433493
0.46503353253120849 0.87515124504082564 0.20122118768463793
-0.34322522127934008 1.8731416997661512 -0.56300053007785777
-0.73070355741546678 -0.45642176015614666 0.11549415095029758
-0.81304202014877092 1.2901113030246663 -0.36891923600163068
-1.087086889948182 1.1940204851389282 -0.55668453023659481
0.25791377863777143 -0.022501629777465837 0.33067184371606118
-0.5309722320409378 0.36101702844139538 0.23830692240213125
-0.66402534082172338 -0.91171408965936962 0.32600200425413561
0.57898959187158994 -0.26396042224740768 0.22903403698634861
-1.0810231591457864 1.3213130244416895 -0.55301613608551747
-0.83685549933528591 1.2886656958993186 -0.43189151606307519
-0.21006642320236324 1.7192726153258775 -0.43889847975555085
0.34603353380759927 -0.67706583174121704 0.31644286469520466
0.6786261058709897 1.0058735700974779 -0.10624133051868512
0.57824656859673951 0.89632034939411653 0.11185010435266918
0.55138633232860457 1.072403709285652 -0.094941939675152298
-0.64815368706831578 -0.92601049621268317 0.34589052105923201
0.22488009261280695 1.8242380049674907 -0.45734473569737588
0.018963850258671755 1.2074924295885374 -0.87784606218454542
-0.36688918776894752 1.6815385750907552 -0.4692429140867489
1.1612283744607907 1.4236316619346567 -0.61257984646252339
1.0994793648226846 1.4320551635488172 -0.50498252895656037
-0.47554698455223843 0.44578653833272597 0.25104505643582797
1.2120151015096781 1.4020680511253651 -0.52980902335653468
-0.4880968400479162 -0.35473374894773713 0.16948434777975763
0.059115461190401675 1.4360568409195693 -0.55630633788965156
0.58784936044520464 -0.13289891119291042 0.18325527262061314
0.53007565886585439 -0.83240341079235236 0.35577714676396965
0.55976728982386703 -0.36261768720345344 0.17230158726846412
-0.41591106769675434 0.53078585997205607 0.29980509207138084
-0.64534595575076992 -0.095628803055419098 0.039397323892586655
-0.83670450429468701 1.1364648106797688 -0.37546350105046145
0.069299521006314535 0.65575687561151597 -0.18908759726161861
0.46244622252925183 -0.28289187282466344 0.29850296987467573
0.54227515851121666 -0.85303689414951123 0.36149135100585283
-0.094868605673241291 0.3230714597077764 -0.041734655788843611
-0.20943383365744239 1.7839956130433698 -0.48412866258220788
0.57301361870554501 0.094186147387432584 0.20959933621594473
-0.28954675758080839 0.62127680967749654 0.012682807165873555
-0.46349125392379165 0.10063446566354628 0.025128723152107568
0.084881239273670417 0.061640616973562601 0.20439386637906409
0.35916100124865125 0.34172525363788964 0.4140220649778712
-0.64913058398289536 -0.33639522543263922 0.21662581895387234
-0.096334247221875557 0.55710195568852328 -0.13137708334770082
1.1053022068592213 1.3593540296341686 -0.48898223520312456
-0.2194206975049724 1.3428896147427309 -0.41744920660872253
-0.66236487691980983 -0.88873635930853823 0.31039462083644764
0.55976862661907489 1.2620270453059206 -0.059016470414206879
0.78981720914339348 1.2948380147056113 -0.15762913003149492
0.37393138723982133 -0.30214224693450831 0.21674931769550199
0.32135061577429269 0.72310951281973246 0.49021602201347036
0.20817319468091 1.5082908338051766 -0.44455691429416788
-0.023436501438368396 1.3362073021240519 -0.7059836956877632
0.41620080838700346 -0.28243771270894058 0.27933640502016033
-0.49095623355057683 -0.34725389416396979 0.15759994709515013
-0.39801987810216133 1.8530146362071953 -0.57867736201299635
-1.038323225607769 1.4421599449746445 -0.73416316861647601
-0.92925444210652586 1.3128774911564278 -0.53226093493356075
-0.74387709413807102 -0.62610695070360123 0.17729573270588617
-1.0314571396922361 1.4530390752402074 -0.71675252080825658
0.26953060689299946 -0.029291220336716606 0.12046301920287306
0.51778573482289403 1.2687043417767825 0.025959510159282218
-0.71168814872942221 -0.44324030994707186 0.1063048767657051
-0.84719054668886429 1.3336954217441708 -0.46426459635998185
-0.49522471975603821 0.86065012948716912 0.051934004378978216
0.57837990193110045 -0.34511161589992412 0.25504607913396171
-0.45285921659257156 0.47365759278579844 0.22686489449259284
-0.63969175710917625 1.1076251570140272 -0.21958798081095665
-0.88378604146629414 1.3560639896809867 -0.47637348037918059
0.27799671004447646 0.98612340092980588 -0.30440615414215699
-0.49160583873128871 -0.68813138038376565 0.24221051398417615
0.56247344973007785 -0.88598771748837635 0.36669628344492367
0.70372772959444774 1.1765716050198449 -0.12504845935202979
0.58023272616264876 -0.27177557576381162 0.12109937958959449
0.57874532387347699 -0.25183025240714585 0.22763167081883751
0.46650167017406829 -0.44061417569292871 0.18372335876524915
-0.45352921591359063 1.509283925963814 0.05442637320223298
-0.91366306718288115 1.2620068792764947 -0.49607575595655362
0.36366052514460989 1.8216151515228098 -0.46851955043433691
-0.43314935650818143 -0.079385040997863143 0.089692734665760554
0.35311187080293394 0.56208689897857766 0.35031382510166509
-0.71073045863303719 -0.53773511722810952 0.20119700739294899
0.49055954655591449 0.076797040687949902 0.045380048450340382
-0.46768266097473088 0.82495354774333407 0.028812832946869094
-0.73246056419165484 -0.52685058996819123 0.18537781098818584
0.15649598221949645 0.38029331297829572 -0.0083911769615951926
0.56132140204144321 -0.8632198420058188 0.36118785921424035
0.55863012037804083 -0.78823638010982222 0.34259918056250172
-1.0097165990564463 1.4785978440328957 -0.70462913990667175
-0.66657141378104257 -0.89859972695418833 0.31434110605898979
-0.075052621109989559 0.67666543254138389 -0.20077740683984757
