# XYZ point cloud file
-0.16058349609375 0.0185546875 0.734375
-0.183746337890625 0.0040283203125 0.73681640625
-0.137786865234375 0.0059814453125 0.7421875
-0.134765625 0.05401611328125 0.73828125
-0.18096923828125 0.039794921875 0.77001953125
-0.197601318359375 0.02197265625 0.767578125
-0.162384033203125 -0.0126953125 0.76220703125
-0.10015869140625 0.02874755859375 0.73486328125
-0.15447998046875 0.0723876953125 0.75634765625
0.805999755859375 -0.39697265625 0.67578125
0.790740966796875 -0.39532470703125 0.64794921875
0.796051025390625 -0.42388916015625 0.654296875
0.818939208984375 -0.39788818359375 0.64013671875
0.812652587890625 -0.36834716796875 0.65087890625
0.803192138671875 -0.376708984375 0.69140625
0.78118896484375 -0.41741943359375 0.673828125
0.801513671875 -0.4217529296875 0.65234375
0.8302001953125 -0.37396240234375 0.66162109375
0.754638671875 -0.48583984375 0.67919921875
0.76251220703125 -0.45953369140625 0.6806640625
0.748504638671875 -0.469482421875 0.6611328125
0.730621337890625 -0.50323486328125 0.67626953125
0.755889892578125 -0.4945068359375 0.65966796875
0.773895263671875 -0.474853515625 0.6572265625
0.76336669921875 -0.4547119140625 0.65478515625
0.7374267578125 -0.47900390625 0.67919921875
0.739288330078125 -0.5240478515625 0.65234375
0.830902099609375 -0.31341552734375 0.66064453125
0.805816650390625 -0.3216552734375 0.66943359375
0.826202392578125 -0.32867431640625 0.662109375
0.843353271484375 -0.2996826171875 0.642578125
0.823028564453125 -0.29864501953125 0.64453125
0.801239013671875 -0.31036376953125 0.6826171875
0.803497314453125 -0.339111328125 0.64892578125
0.8468017578125 -0.32391357421875 0.63427734375
0.857269287109375 -0.28289794921875 0.6435546875
0.692413330078125 -0.53839111328125 0.689453125
0.70928955078125 -0.53802490234375 0.69287109375
0.69049072265625 -0.52056884765625 0.71044921875
0.678863525390625 -0.5413818359375 0.662109375
0.69024658203125 -0.56451416015625 0.673828125
0.707611083984375 -0.5584716796875 0.68505859375
0.704742431640625 -0.502197265625 0.68017578125
0.681427001953125 -0.51824951171875 0.70068359375
0.675750732421875 -0.58349609375 0.6630859375
0.791107177734375 -0.2576904296875 0.66552734375
0.762847900390625 -0.26251220703125 0.69775390625
0.8046875 -0.27105712890625 0.66162109375
0.823455810546875 -0.23297119140625 0.65625
0.766632080078125 -0.24127197265625 0.69873046875
0.740081787109375 -0.25115966796875 0.69970703125
0.7802734375 -0.27691650390625 0.69482421875
0.830047607421875 -0.253662109375 0.65478515625
0.7978515625 -0.21734619140625 0.68408203125
0.614837646484375 -0.53961181640625 0.7119140625
0.641815185546875 -0.54022216796875 0.70068359375
0.611907958984375 -0.50616455078125 0.7138671875
0.600921630859375 -0.52764892578125 0.724609375
0.613983154296875 -0.572265625 0.68115234375
0.63433837890625 -0.58135986328125 0.650390625
0.631622314453125 -0.51593017578125 0.7060546875
0.5894775390625 -0.499267578125 0.71435546875
0.5968017578125 -0.56317138671875 0.705078125
0.574005126953125 -0.14306640625 0.7333984375
0.5186767578125 -0.12518310546875 0.71533203125
0.551971435546875 -0.16253662109375 0.7177734375
0.613677978515625 -0.158447265625 0.7177734375
0.58526611328125 -0.1160888671875 0.6953125
0.535308837890625 -0.10430908203125 0.69921875
0.508392333984375 -0.14013671875 0.7080078125
0.59906005859375 -0.18804931640625 0.6962890625
0.6356201171875 -0.1397705078125 0.69189453125
0.413818359375 -0.39068603515625 0.74072265625
0.42047119140625 -0.37579345703125 0.7490234375
0.373626708984375 -0.369384765625 0.748046875
0.404541015625 -0.42535400390625 0.705078125
0.454376220703125 -0.4266357421875 0.72802734375
0.467376708984375 -0.40277099609375 0.73681640625
0.38360595703125 -0.3397216796875 0.75
0.350341796875 -0.39642333984375 0.71484375
0.439788818359375 -0.4569091796875 0.7294921875
0.716949462890625 -0.20025634765625 0.6875
0.734222412109375 -0.21124267578125 0.7099609375
0.744293212890625 -0.1837158203125 0.67431640625
0.691314697265625 -0.1934814453125 0.7158203125
0.6934814453125 -0.22149658203125 0.73095703125
0.703887939453125 -0.2313232421875 0.7158203125
0.760467529296875 -0.20135498046875 0.68359375
0.712371826171875 -0.16778564453125 0.69384765625
0.66943359375 -0.2178955078125 0.68994140625
0.538970947265625 -0.49237060546875 0.71826171875
0.532562255859375 -0.5321044921875 0.6865234375
0.55657958984375 -0.50604248046875 0.70068359375
0.540679931640625 -0.45904541015625 0.74658203125
0.51544189453125 -0.47882080078125 0.71484375
0.5069580078125 -0.5084228515625 0.70849609375
0.554779052734375 -0.551025390625 0.68603515625
0.5555419921875 -0.47088623046875 0.73974609375
0.529541015625 -0.4476318359375 0.73486328125
0.35601806640625 -0.14093017578125 0.74267578125
0.327667236328125 -0.1309814453125 0.75048828125
0.3482666015625 -0.15826416015625 0.736328125
0.379547119140625 -0.154296875 0.75390625
0.357818603515625 -0.12493896484375 0.73193359375
0.334075927734375 -0.104736328125 0.7333984375
0.32135009765625 -0.144287109375 0.7451171875
0.372039794921875 -0.17462158203125 0.74169921875
0.3916015625 -0.13623046875 0.72412109375
0.31585693359375 -0.2117919921875 0.765625
0.323944091796875 -0.19134521484375 0.740234375
0.2841796875 -0.19482421875 0.74951171875
0.2989501953125 -0.2225341796875 0.7412109375
0.342315673828125 -0.2281494140625 0.7373046875
0.35369873046875 -0.21173095703125 0.74365234375
0.301300048828125 -0.1748046875 0.74462890625
0.26788330078125 -0.20550537109375 0.76171875
0.33367919921875 -0.2427978515625 0.763671875
0.512603759765625 -0.222900390625 0.74658203125
0.52288818359375 -0.2083740234375 0.73193359375
0.461761474609375 -0.20147705078125 0.73583984375
0.5032958984375 -0.2459716796875 0.72705078125
0.55511474609375 -0.2493896484375 0.73974609375
0.569610595703125 -0.22418212890625 0.728515625
0.485504150390625 -0.1785888671875 0.73095703125
0.4566650390625 -0.21697998046875 0.732421875
0.53936767578125 -0.26409912109375 0.7626953125
0.463287353515625 -0.30413818359375 0.7431640625
0.426788330078125 -0.280517578125 0.763671875
0.44927978515625 -0.32550048828125 0.744140625
0.502532958984375 -0.330078125 0.74853515625
0.4774169921875 -0.28472900390625 0.76611328125
0.430206298828125 -0.2606201171875 0.74560546875
0.4022216796875 -0.292236328125 0.75830078125
0.49066162109375 -0.35089111328125 0.740234375
0.51348876953125 -0.30615234375 0.7431640625
0.640625 -0.2882080078125 0.74267578125
0.65057373046875 -0.29351806640625 0.7255859375
0.65478515625 -0.27020263671875 0.7021484375
0.6236572265625 -0.27978515625 0.7392578125
0.622833251953125 -0.31231689453125 0.740234375
0.63970947265625 -0.32464599609375 0.74609375
0.66162109375 -0.27239990234375 0.73291015625
0.6324462890625 -0.25726318359375 0.712890625
0.605712890625 -0.30670166015625 0.73388671875
0.588226318359375 -0.38055419921875 0.744140625
0.570465087890625 -0.405029296875 0.76220703125
0.595245361328125 -0.38873291015625 0.73779296875
0.60150146484375 -0.36279296875 0.74853515625
0.566558837890625 -0.36669921875 0.72802734375
0.5538330078125 -0.39300537109375 0.73486328125
0.58392333984375 -0.40753173828125 0.7509765625
0.61395263671875 -0.3626708984375 0.7197265625
0.5770263671875 -0.34564208984375 0.72900390625
0.283416748046875 -0.025390625 0.75927734375
0.267669677734375 -0.0126953125 0.75634765625
0.275726318359375 -0.02264404296875 0.77587890625
0.2869873046875 -0.04364013671875 0.751953125
0.278228759765625 -0.02288818359375 0.74169921875
0.27264404296875 -0.0177001953125 0.7548828125
0.2667236328125 -0.01416015625 0.76123046875
0.286590576171875 -0.043212890625 0.76220703125
0.288238525390625 -0.04486083984375 0.74951171875
0.1712646484375 -0.20440673828125 0.74951171875
0.173980712890625 -0.20245361328125 0.7861328125
0.154998779296875 -0.19769287109375 0.755859375
0.1739501953125 -0.2047119140625 0.740234375
0.18316650390625 -0.19805908203125 0.751953125
0.187042236328125 -0.193603515625 0.79541015625
0.1553955078125 -0.1968994140625 0.76513671875
0.1533203125 -0.1966552734375 0.74951171875
0.19378662109375 -0.20062255859375 0.74072265625
0.226226806640625 0.01031494140625 0.734375
0.20611572265625 0.0140380859375 0.75244140625
0.226898193359375 0.0096435546875 0.75146484375
0.2420654296875 0.00567626953125 0.74169921875
0.22760009765625 0.01763916015625 0.76123046875
0.208770751953125 0.01690673828125 0.73876953125
0.206787109375 0.02154541015625 0.7685546875
0.247467041015625 0.00689697265625 0.7607421875
0.239990234375 0.01336669921875 0.73388671875
0.107818603515625 -0.1705322265625 0.765625
0.11163330078125 -0.17144775390625 0.7626953125
0.10406494140625 -0.1612548828125 0.76708984375
0.113372802734375 -0.16766357421875 0.767578125
0.117950439453125 -0.17828369140625 0.7685546875
0.121978759765625 -0.18341064453125 0.77685546875
0.10235595703125 -0.1588134765625 0.76318359375
0.10089111328125 -0.1583251953125 0.76318359375
0.12005615234375 -0.1844482421875 0.796875
0.152435302734375 -0.00836181640625 0.740234375
0.14453125 -0.0174560546875 0.7646484375
0.15411376953125 -0.0020751953125 0.7578125
0.16937255859375 0.005126953125 0.765625
0.150787353515625 -0.00537109375 0.72705078125
0.139892578125 -0.0245361328125 0.7451171875
0.15484619140625 -0.0172119140625 0.7705078125
0.1707763671875 0.0089111328125 0.78369140625
0.17059326171875 -0.0001220703125 0.7548828125
0.092498779296875 -0.10894775390625 0.75146484375
0.09283447265625 -0.1116943359375 0.75537109375
0.1112060546875 -0.08856201171875 0.78515625
0.09130859375 -0.1015625 0.7412109375
0.093994140625 -0.1243896484375 0.75341796875
0.08642578125 -0.126953125 0.78466796875
0.107086181640625 -0.095458984375 0.76953125
0.109375 -0.08758544921875 0.76416015625
0.09393310546875 -0.12200927734375 0.74755859375
0.152496337890625 -0.0596923828125 0.76220703125
0.155029296875 -0.06097412109375 0.7587890625
0.154144287109375 -0.05926513671875 0.7861328125
0.147552490234375 -0.04888916015625 0.76806640625
0.153717041015625 -0.06439208984375 0.7744140625
0.15423583984375 -0.063720703125 0.74365234375
0.15838623046875 -0.06072998046875 0.763671875
0.15045166015625 -0.04833984375 0.76220703125
0.1409912109375 -0.05633544921875 0.7421875
0.1463623046875 -0.080078125 0.76416015625
0.14111328125 -0.078369140625 0.77490234375
0.1463623046875 -0.07342529296875 0.74951171875
0.14483642578125 -0.068359375 0.77197265625
0.1309814453125 -0.07489013671875 0.76123046875
0.122955322265625 -0.082275390625 0.78125
0.144256591796875 -0.07818603515625 0.751953125
0.146728515625 -0.06671142578125 0.7666015625
0.13568115234375 -0.0736083984375 0.7646484375
0.29156494140625 -0.10198974609375 0.74609375
0.3016357421875 -0.1063232421875 0.7197265625
0.28350830078125 -0.08209228515625 0.75341796875
0.287506103515625 -0.098876953125 0.7578125
0.282562255859375 -0.12347412109375 0.755859375
0.292236328125 -0.130615234375 0.7451171875
0.301239013671875 -0.0814208984375 0.74853515625
0.2872314453125 -0.0791015625 0.74755859375
0.27496337890625 -0.11663818359375 0.77294921875
0.2423095703125 -0.17218017578125 0.7626953125
0.228240966796875 -0.18621826171875 0.759765625
0.254425048828125 -0.18035888671875 0.76025390625
0.265869140625 -0.160888671875 0.7685546875
0.237884521484375 -0.172119140625 0.771484375
0.224639892578125 -0.1773681640625 0.77880859375
0.24066162109375 -0.1856689453125 0.7470703125
0.26953125 -0.15838623046875 0.7568359375
0.253631591796875 -0.153076171875 0.7548828125
0.27862548828125 -0.0892333984375 0.77001953125
0.273529052734375 -0.09796142578125 0.77685546875
0.27032470703125 -0.06915283203125 0.77880859375
0.265289306640625 -0.0845947265625 0.79638671875
0.26434326171875 -0.11029052734375 0.80712890625
0.268280029296875 -0.11871337890625 0.7734375
0.27545166015625 -0.07562255859375 0.77490234375
0.265350341796875 -0.0775146484375 0.80322265625
0.2578125 -0.11090087890625 0.78271484375
0.226806640625 -0.15191650390625 0.8017578125
0.21435546875 -0.16571044921875 0.787109375
0.236968994140625 -0.1663818359375 0.7919921875
0.241668701171875 -0.15142822265625 0.7861328125
0.220794677734375 -0.15533447265625 0.76123046875
0.20843505859375 -0.15911865234375 0.78173828125
0.218505859375 -0.171630859375 0.77392578125
0.247406005859375 -0.15216064453125 0.791015625
0.237640380859375 -0.140380859375 0.79443359375
0.15924072265625 -0.04522705078125 0.78271484375
0.163360595703125 -0.0584716796875 0.7880859375
0.168243408203125 -0.0537109375 0.783203125
0.162872314453125 -0.03887939453125 0.79931640625
0.1571044921875 -0.057373046875 0.794921875
0.159149169921875 -0.06396484375 0.77587890625
0.1702880859375 -0.06463623046875 0.80224609375
0.166046142578125 -0.03997802734375 0.8173828125
0.1534423828125 -0.0418701171875 0.779296875
0.13616943359375 -0.0811767578125 0.7900390625
0.142333984375 -0.09173583984375 0.7998046875
0.156494140625 -0.07977294921875 0.79931640625
0.1361083984375 -0.08349609375 0.798828125
0.1214599609375 -0.09320068359375 0.7841796875
0.129180908203125 -0.09600830078125 0.8046875
0.161041259765625 -0.08441162109375 0.81005859375
0.150665283203125 -0.07550048828125 0.78369140625
0.12347412109375 -0.08563232421875 0.7890625
0.1661376953125 -0.0023193359375 0.791015625
0.1591796875 -0.01495361328125 0.787109375
0.1705322265625 -0.00201416015625 0.7880859375
0.17498779296875 0.00506591796875 0.80810546875
0.168548583984375 -0.00360107421875 0.78662109375
0.153045654296875 -0.01495361328125 0.78271484375
0.1669921875 -0.01043701171875 0.79736328125
0.1837158203125 6.103515625e-05 0.79638671875
0.17230224609375 0.01220703125 0.779296875
0.097625732421875 -0.11285400390625 0.8173828125
0.109375 -0.12017822265625 0.8056640625
0.09747314453125 -0.1060791015625 0.787109375
0.097198486328125 -0.11279296875 0.77880859375
0.093505859375 -0.12371826171875 0.7783203125
0.10430908203125 -0.12518310546875 0.80078125
0.103240966796875 -0.10589599609375 0.806640625
0.102752685546875 -0.10003662109375 0.7841796875
0.09130859375 -0.1253662109375 0.7822265625
0.219268798828125 0.00946044921875 0.7890625
0.20867919921875 0.01239013671875 0.7822265625
0.218292236328125 0.0042724609375 0.7890625
0.2423095703125 0.0032958984375 0.78369140625
0.22027587890625 0.01055908203125 0.7744140625
0.208648681640625 0.01666259765625 0.78173828125
0.208404541015625 0.00445556640625 0.78759765625
0.240478515625 -0.0035400390625 0.7919921875
0.240020751953125 0.00482177734375 0.7802734375
0.119049072265625 -0.1693115234375 0.79052734375
0.119964599609375 -0.16241455078125 0.79931640625
0.106048583984375 -0.149658203125 0.80078125
0.107696533203125 -0.1690673828125 0.802734375
0.128692626953125 -0.168212890625 0.798828125
0.12847900390625 -0.16888427734375 0.8271484375
0.10968017578125 -0.15313720703125 0.79541015625
0.107269287109375 -0.1475830078125 0.7919921875
0.126220703125 -0.1767578125 0.794921875
0.268280029296875 -0.02288818359375 0.80712890625
0.264556884765625 -0.0118408203125 0.8212890625
0.258026123046875 -0.03118896484375 0.80224609375
0.27191162109375 -0.03082275390625 0.78955078125
0.26959228515625 -0.02532958984375 0.791015625
0.264404296875 -0.00457763671875 0.77783203125
0.251220703125 -0.02069091796875 0.7783203125
0.265625 -0.04058837890625 0.77783203125
0.275360107421875 -0.0379638671875 0.77685546875
0.166473388671875 -0.18548583984375 0.7958984375
0.17364501953125 -0.17779541015625 0.7939453125
0.1551513671875 -0.1787109375 0.7958984375
0.17144775390625 -0.19329833984375 0.78662109375
0.18170166015625 -0.1768798828125 0.775390625
0.18658447265625 -0.17822265625 0.7900390625
0.158660888671875 -0.177001953125 0.8115234375
0.15313720703125 -0.188720703125 0.787109375
0.182342529296875 -0.18829345703125 0.7734375
0.19891357421875 -0.028564453125 0.81640625
0.20867919921875 -0.032470703125 0.81982421875
0.20648193359375 -0.0166015625 0.78369140625
0.18853759765625 -0.01708984375 0.78466796875
0.187103271484375 -0.03948974609375 0.8076171875
0.19818115234375 -0.05780029296875 0.78759765625
0.22625732421875 -0.01959228515625 0.81298828125
0.197906494140625 -0.00872802734375 0.8017578125
0.1790771484375 -0.02294921875 0.81982421875
0.14056396484375 -0.12188720703125 0.80615234375
0.130096435546875 -0.13873291015625 0.79541015625
0.151092529296875 -0.12640380859375 0.82080078125
0.14288330078125 -0.1104736328125 0.8173828125
0.126220703125 -0.1219482421875 0.8369140625
0.119781494140625 -0.1363525390625 0.82666015625
0.14300537109375 -0.1444091796875 0.80419921875
0.162506103515625 -0.1070556640625 0.814453125
0.12628173828125 -0.11041259765625 0.79443359375
0.242401123046875 -0.0703125 0.81591796875
0.227386474609375 -0.09112548828125 0.7958984375
0.252960205078125 -0.06890869140625 0.7822265625
0.2452392578125 -0.05047607421875 0.7998046875
0.2296142578125 -0.06072998046875 0.8125
0.2139892578125 -0.08013916015625 0.81396484375
0.243560791015625 -0.0972900390625 0.77099609375
0.2552490234375 -0.059814453125 0.79345703125
0.241668701171875 -0.04302978515625 0.78955078125
0.195220947265625 -0.1373291015625 0.82275390625
0.201507568359375 -0.14398193359375 0.79443359375
0.204803466796875 -0.1258544921875 0.81982421875
0.180999755859375 -0.13800048828125 0.7978515625
0.186798095703125 -0.1556396484375 0.79736328125
0.193359375 -0.16278076171875 0.79541015625
0.22137451171875 -0.12481689453125 0.802734375
0.19287109375 -0.11456298828125 0.82958984375
0.174591064453125 -0.15478515625 0.79443359375
0.112548828125 0.016845703125 0.74560546875
0.133697509765625 0.0018310546875 0.7529296875
0.1395263671875 0.02325439453125 0.76123046875
0.0904541015625 0.03179931640625 0.74462890625
0.088836669921875 -0.00640869140625 0.74951171875
0.10955810546875 -0.0185546875 0.74267578125
0.1483154296875 0.00775146484375 0.759765625
0.1318359375 0.04827880859375 0.75927734375
0.059539794921875 0.02099609375 0.763671875
0.055633544921875 -0.081298828125 0.744140625
0.05853271484375 -0.10504150390625 0.74365234375
0.073944091796875 -0.088623046875 0.7529296875
0.056396484375 -0.05126953125 0.7373046875
0.032257080078125 -0.07037353515625 0.7490234375
0.038055419921875 -0.1048583984375 0.75732421875
0.073760986328125 -0.1136474609375 0.7470703125
0.082122802734375 -0.06304931640625 0.75
0.021484375 -0.03094482421875 0.7578125
0.22369384765625 0.024169921875 0.75830078125
0.2313232421875 0.01513671875 0.74462890625
0.250518798828125 0.01446533203125 0.72705078125
0.227813720703125 0.03045654296875 0.73974609375
0.193206787109375 0.02923583984375 0.75146484375
0.19635009765625 0.0267333984375 0.74658203125
0.2490234375 0.0115966796875 0.751953125
0.254150390625 0.0244140625 0.705078125
0.199005126953125 0.043701171875 0.76416015625
0.103240966796875 -0.1795654296875 0.76025390625
0.109832763671875 -0.1982421875 0.75634765625
0.097564697265625 -0.1829833984375 0.7529296875
0.076873779296875 -0.15997314453125 0.75146484375
0.094268798828125 -0.184326171875 0.73291015625
0.109344482421875 -0.20758056640625 0.72705078125
0.123565673828125 -0.19775390625 0.751953125
0.091278076171875 -0.155517578125 0.76611328125
0.062164306640625 -0.168212890625 0.75
0.301300048828125 -0.00689697265625 0.72705078125
0.2938232421875 -0.01904296875 0.7265625
0.31939697265625 -0.01788330078125 0.72705078125
0.31805419921875 -0.0035400390625 0.71923828125
0.29107666015625 -0.00225830078125 0.7216796875
0.277374267578125 -0.0029296875 0.744140625
0.308197021484375 -0.03448486328125 0.70947265625
0.334197998046875 -0.01080322265625 0.70068359375
0.290191650390625 0.0028076171875 0.716796875
0.1688232421875 -0.23529052734375 0.734375
0.185028076171875 -0.24066162109375 0.7265625
0.167449951171875 -0.2196044921875 0.734375
0.14837646484375 -0.22027587890625 0.7431640625
0.16265869140625 -0.24383544921875 0.70361328125
0.179290771484375 -0.25714111328125 0.697265625
0.19049072265625 -0.2249755859375 0.7509765625
0.158660888671875 -0.21246337890625 0.74365234375
0.15118408203125 -0.24017333984375 0.72900390625
0.396148681640625 -0.06964111328125 0.71240234375
0.385528564453125 -0.0850830078125 0.736328125
0.426177978515625 -0.0765380859375 0.705078125
0.409759521484375 -0.04498291015625 0.72119140625
0.362548828125 -0.05181884765625 0.70166015625
0.348297119140625 -0.06585693359375 0.73828125
0.414794921875 -0.10235595703125 0.7265625
0.4447021484375 -0.05816650390625 0.7041015625
0.37841796875 -0.0340576171875 0.7080078125
0.262786865234375 -0.2869873046875 0.7314453125
0.2886962890625 -0.3026123046875 0.708984375
0.267333984375 -0.2618408203125 0.74755859375
0.233154296875 -0.2635498046875 0.736328125
0.24700927734375 -0.3084716796875 0.697265625
0.276580810546875 -0.333251953125 0.7021484375
0.309814453125 -0.27764892578125 0.71728515625
0.24249267578125 -0.24462890625 0.7529296875
0.218475341796875 -0.2860107421875 0.70751953125
0.444671630859375 0.00982666015625 0.626953125
0.447906494140625 0.02008056640625 0.591796875
0.410400390625 0.01898193359375 0.6357421875
0.435791015625 -0.00567626953125 0.64306640625
0.477325439453125 0.00164794921875 0.62060546875
0.480316162109375 0.013671875 0.5908203125
0.41314697265625 0.02728271484375 0.58447265625
0.403106689453125 -0.000244140625 0.66455078125
0.46722412109375 -0.02899169921875 0.65576171875
0.209075927734375 -0.37115478515625 0.65625
0.18902587890625 -0.350341796875 0.6416015625
0.2022705078125 -0.38421630859375 0.60546875
0.23651123046875 -0.39337158203125 0.64697265625
0.21923828125 -0.34967041015625 0.67822265625
0.197357177734375 -0.33172607421875 0.67529296875
0.179840087890625 -0.36602783203125 0.58544921875
0.215667724609375 -0.4144287109375 0.626953125
0.25518798828125 -0.379638671875 0.67919921875
0.341796875 0.03228759765625 0.6220703125
0.342437744140625 0.04473876953125 0.5927734375
0.325592041015625 0.0338134765625 0.62255859375
0.33740234375 0.01788330078125 0.64501953125
0.36712646484375 0.02520751953125 0.626953125
0.37115478515625 0.03717041015625 0.58447265625
0.331268310546875 0.0496826171875 0.5888671875
0.320281982421875 0.02935791015625 0.6357421875
0.35528564453125 0.0172119140625 0.65478515625
0.13946533203125 -0.299072265625 0.66650390625
0.1275634765625 -0.282958984375 0.65234375
0.134124755859375 -0.31494140625 0.60400390625
0.15081787109375 -0.31494140625 0.64013671875
0.14581298828125 -0.28070068359375 0.6708984375
0.13043212890625 -0.2755126953125 0.6689453125
0.121673583984375 -0.29583740234375 0.61279296875
0.14599609375 -0.32550048828125 0.60595703125
0.169097900390625 -0.3013916015625 0.685546875
0.2579345703125 0.0543212890625 0.6591796875
0.242156982421875 0.07391357421875 0.66748046875
0.246795654296875 0.048828125 0.66943359375
0.28265380859375 0.046875 0.62841796875
0.274627685546875 0.06512451171875 0.62353515625
0.255767822265625 0.0765380859375 0.6201171875
0.227081298828125 0.0638427734375 0.68701171875
0.27215576171875 0.0482177734375 0.6787109375
0.29052734375 0.05206298828125 0.609375
0.0758056640625 -0.23687744140625 0.6552734375
0.077972412109375 -0.2257080078125 0.69677734375
0.0582275390625 -0.229248046875 0.6484375
0.079864501953125 -0.2568359375 0.61865234375
0.102142333984375 -0.2537841796875 0.65771484375
0.100067138671875 -0.24127197265625 0.6904296875
0.058319091796875 -0.20184326171875 0.71337890625
0.05682373046875 -0.25146484375 0.62939453125
0.094970703125 -0.26458740234375 0.62158203125
0.66363525390625 -0.31207275390625 0.72216796875
0.66265869140625 -0.30767822265625 0.73974609375
0.662384033203125 -0.332275390625 0.73291015625
0.668060302734375 -0.31854248046875 0.703125
0.6802978515625 -0.29400634765625 0.677734375
0.676361083984375 -0.28875732421875 0.73095703125
0.650543212890625 -0.3350830078125 0.7431640625
0.662567138671875 -0.33551025390625 0.73193359375
0.678955078125 -0.30255126953125 0.72314453125
0.62353515625 -0.3927001953125 0.73779296875
0.635650634765625 -0.37701416015625 0.71484375
0.615447998046875 -0.39984130859375 0.73291015625
0.61724853515625 -0.40557861328125 0.7294921875
0.6278076171875 -0.39178466796875 0.7138671875
0.637603759765625 -0.37286376953125 0.71435546875
0.63067626953125 -0.3775634765625 0.73046875
0.6044921875 -0.41162109375 0.76806640625
0.619354248046875 -0.41302490234375 0.7177734375
0.72052001953125 -0.28314208984375 0.7119140625
0.7249755859375 -0.28485107421875 0.70361328125
0.7037353515625 -0.28472900390625 0.71484375
0.71746826171875 -0.297119140625 0.70654296875
0.734649658203125 -0.30059814453125 0.70654296875
0.741912841796875 -0.29388427734375 0.70751953125
0.714599609375 -0.27313232421875 0.7080078125
0.708099365234375 -0.288818359375 0.71630859375
0.729644775390625 -0.29754638671875 0.708984375
0.622650146484375 -0.44610595703125 0.71240234375
0.61273193359375 -0.43798828125 0.7568359375
0.61895751953125 -0.4644775390625 0.73876953125
0.641815185546875 -0.46484375 0.70751953125
0.624114990234375 -0.4530029296875 0.7099609375
0.617218017578125 -0.43939208984375 0.73681640625
0.600372314453125 -0.44647216796875 0.7373046875
0.637939453125 -0.4664306640625 0.712890625
0.645233154296875 -0.4571533203125 0.712890625
0.766082763671875 -0.3394775390625 0.68701171875
0.774505615234375 -0.33526611328125 0.69873046875
0.766815185546875 -0.32354736328125 0.6826171875
0.75592041015625 -0.34375 0.703125
0.766693115234375 -0.3585205078125 0.6943359375
0.777099609375 -0.34857177734375 0.697265625
0.7767333984375 -0.31536865234375 0.69140625
0.75286865234375 -0.32421875 0.68701171875
0.764984130859375 -0.3536376953125 0.6669921875
0.691162109375 -0.4715576171875 0.716796875
0.675018310546875 -0.4715576171875 0.72265625
0.696380615234375 -0.483642578125 0.70263671875
0.707244873046875 -0.462646484375 0.70166015625
0.6920166015625 -0.46380615234375 0.7119140625
0.667755126953125 -0.4683837890625 0.71533203125
0.6763916015625 -0.4781494140625 0.7138671875
0.70501708984375 -0.47515869140625 0.70263671875
0.705291748046875 -0.4599609375 0.68798828125
0.76275634765625 -0.39996337890625 0.66357421875
0.77093505859375 -0.39898681640625 0.689453125
0.76727294921875 -0.38555908203125 0.67822265625
0.75970458984375 -0.396728515625 0.69091796875
0.761199951171875 -0.40594482421875 0.6923828125
0.76251220703125 -0.40789794921875 0.6728515625
0.77801513671875 -0.38153076171875 0.69287109375
0.7578125 -0.3900146484375 0.6845703125
0.75494384765625 -0.41015625 0.67724609375
0.740997314453125 -0.44049072265625 0.69775390625
0.72991943359375 -0.452880859375 0.68310546875
0.7418212890625 -0.44598388671875 0.6923828125
0.74688720703125 -0.423828125 0.6953125
0.742218017578125 -0.43560791015625 0.68701171875
0.72589111328125 -0.445068359375 0.6962890625
0.734893798828125 -0.457763671875 0.68603515625
0.751129150390625 -0.43804931640625 0.67041015625
0.744537353515625 -0.426513671875 0.6884765625
0.748748779296875 -0.39697265625 0.66650390625
0.756622314453125 -0.397705078125 0.68115234375
0.748382568359375 -0.385498046875 0.64990234375
0.7423095703125 -0.39105224609375 0.6455078125
0.743804931640625 -0.4129638671875 0.66357421875
0.74420166015625 -0.4013671875 0.66552734375
0.756011962890625 -0.38739013671875 0.6669921875
0.748992919921875 -0.37786865234375 0.64892578125
0.7354736328125 -0.40118408203125 0.6484375
0.72650146484375 -0.43731689453125 0.68115234375
0.71673583984375 -0.4417724609375 0.65869140625
0.7288818359375 -0.43310546875 0.6748046875
0.729888916015625 -0.42608642578125 0.66064453125
0.7257080078125 -0.43438720703125 0.65966796875
0.711090087890625 -0.43841552734375 0.6572265625
0.718658447265625 -0.44091796875 0.6796875
0.733642578125 -0.42633056640625 0.65185546875
0.726715087890625 -0.42156982421875 0.65380859375
0.743743896484375 -0.3436279296875 0.65576171875
0.752227783203125 -0.3382568359375 0.69287109375
0.748504638671875 -0.33306884765625 0.66064453125
0.748260498046875 -0.34613037109375 0.6533203125
0.746002197265625 -0.358154296875 0.67724609375
0.7559814453125 -0.3621826171875 0.65478515625
0.744110107421875 -0.32659912109375 0.68115234375
0.7376708984375 -0.3304443359375 0.65576171875
0.75018310546875 -0.362548828125 0.6474609375
0.67681884765625 -0.46240234375 0.6669921875
0.670684814453125 -0.4605712890625 0.68408203125
0.684326171875 -0.4566650390625 0.6650390625
0.691619873046875 -0.447509765625 0.66845703125
0.680633544921875 -0.457763671875 0.6904296875
0.665252685546875 -0.4581298828125 0.67236328125
0.6795654296875 -0.46533203125 0.677734375
0.69677734375 -0.44915771484375 0.68505859375
0.6927490234375 -0.452392578125 0.6708984375
0.711334228515625 -0.3048095703125 0.67578125
0.714599609375 -0.29736328125 0.69970703125
0.7103271484375 -0.30157470703125 0.69384765625
0.71405029296875 -0.3050537109375 0.69091796875
0.72259521484375 -0.308349609375 0.66357421875
0.725433349609375 -0.3087158203125 0.69091796875
0.703826904296875 -0.2913818359375 0.70556640625
0.706451416015625 -0.30279541015625 0.67333984375
0.72198486328125 -0.31378173828125 0.6689453125
0.62579345703125 -0.451416015625 0.68994140625
0.613494873046875 -0.44061279296875 0.68896484375
0.627288818359375 -0.45343017578125 0.6962890625
0.637054443359375 -0.44964599609375 0.69580078125
0.626190185546875 -0.4488525390625 0.68115234375
0.6207275390625 -0.44219970703125 0.6826171875
0.618194580078125 -0.433837890625 0.72705078125
0.635711669921875 -0.449951171875 0.6826171875
0.638214111328125 -0.45184326171875 0.67529296875
0.674407958984375 -0.328857421875 0.6923828125
0.668609619140625 -0.33367919921875 0.69189453125
0.6641845703125 -0.35205078125 0.6689453125
0.675689697265625 -0.3367919921875 0.67529296875
0.68499755859375 -0.30963134765625 0.68798828125
0.680999755859375 -0.31268310546875 0.7041015625
0.66424560546875 -0.34100341796875 0.69970703125
0.676055908203125 -0.35821533203125 0.68701171875
0.682403564453125 -0.322998046875 0.666015625
0.635101318359375 -0.39971923828125 0.677734375
0.65032958984375 -0.38824462890625 0.697265625
0.627410888671875 -0.39990234375 0.70703125
0.621856689453125 -0.40625 0.69921875
0.638519287109375 -0.40673828125 0.677734375
0.649505615234375 -0.3951416015625 0.673828125
0.644500732421875 -0.3807373046875 0.72119140625
0.616912841796875 -0.413818359375 0.73291015625
0.627288818359375 -0.4146728515625 0.6806640625
0.701995849609375 -0.36090087890625 0.65576171875
0.703399658203125 -0.3824462890625 0.6435546875
0.71514892578125 -0.37445068359375 0.6357421875
0.713104248046875 -0.356201171875 0.66845703125
0.694793701171875 -0.35498046875 0.6494140625
0.69293212890625 -0.3697509765625 0.65234375
0.716064453125 -0.3924560546875 0.650390625
0.723480224609375 -0.3720703125 0.669921875
0.702423095703125 -0.33929443359375 0.638671875
0.67205810546875 -0.4168701171875 0.64990234375
0.692535400390625 -0.42523193359375 0.6591796875
0.680877685546875 -0.41351318359375 0.64208984375
0.655364990234375 -0.410400390625 0.67041015625
0.673492431640625 -0.4285888671875 0.65625
0.683685302734375 -0.43243408203125 0.6611328125
0.70159912109375 -0.414794921875 0.640625
0.669586181640625 -0.39825439453125 0.64501953125
0.652587890625 -0.42156982421875 0.67724609375
0.722198486328125 -0.3372802734375 0.63427734375
0.71923828125 -0.33306884765625 0.63525390625
0.729339599609375 -0.34442138671875 0.63525390625
0.719451904296875 -0.32293701171875 0.66455078125
0.710784912109375 -0.32330322265625 0.64013671875
0.728790283203125 -0.3465576171875 0.630859375
0.72430419921875 -0.327392578125 0.626953125
0.652679443359375 -0.4508056640625 0.66357421875
0.65985107421875 -0.45269775390625 0.65966796875
0.651092529296875 -0.4478759765625 0.65380859375
0.6485595703125 -0.44891357421875 0.654296875
0.650054931640625 -0.452880859375 0.66162109375
0.665252685546875 -0.44976806640625 0.625
0.63714599609375 -0.4453125 0.65625
-0.06427001953125 0.22784423828125 0.7607421875
-0.064544677734375 0.2152099609375 0.767578125
-0.04949951171875 0.218994140625 0.75732421875
-0.05694580078125 0.23895263671875 0.765625
-0.07781982421875 0.2286376953125 0.75390625
-0.081512451171875 0.22369384765625 0.75537109375
-0.042755126953125 0.207763671875 0.73046875
-0.04119873046875 0.23675537109375 0.74462890625
-0.079925537109375 0.2486572265625 0.771484375
-0.227813720703125 -0.03558349609375 0.76904296875
-0.21270751953125 -0.0416259765625 0.7529296875
-0.218963623046875 -0.024658203125 0.783203125
-0.2449951171875 -0.01654052734375 0.77001953125
-0.234222412109375 -0.0389404296875 0.75390625
-0.222076416015625 -0.05316162109375 0.76513671875
-0.2100830078125 -0.0408935546875 0.759765625
-0.2259521484375 -0.00762939453125 0.7919921875
-0.24798583984375 -0.0245361328125 0.76708984375
-0.1337890625 0.2598876953125 0.767578125
-0.14117431640625 0.24676513671875 0.7568359375
-0.1160888671875 0.2513427734375 0.779296875
-0.12713623046875 0.26165771484375 0.78271484375
-0.152008056640625 0.26824951171875 0.76953125
-0.157501220703125 0.26055908203125 0.7685546875
-0.1199951171875 0.23040771484375 0.75146484375
-0.113861083984375 0.2572021484375 0.775390625
-0.14056396484375 0.2760009765625 0.759765625
-0.28277587890625 0.02032470703125 0.77392578125
-0.266326904296875 0.0059814453125 0.7763671875
-0.281036376953125 0.0228271484375 0.77099609375
-0.299468994140625 0.0225830078125 0.77294921875
-0.288726806640625 -0.00115966796875 0.77783203125
-0.27471923828125 -0.01092529296875 0.7666015625
-0.26055908203125 0.0159912109375 0.7626953125
-0.30084228515625 0.0386962890625 0.76708984375
-0.312286376953125 0.013427734375 0.7822265625
-0.197845458984375 0.3165283203125 0.78857421875
-0.20843505859375 0.3050537109375 0.7646484375
-0.18359375 0.298095703125 0.7841796875
-0.18682861328125 0.3226318359375 0.7705078125
-0.2066650390625 0.33160400390625 0.77490234375
-0.22015380859375 0.32891845703125 0.76806640625
-0.19232177734375 0.28973388671875 0.77197265625
-0.1732177734375 0.30267333984375 0.7763671875
-0.199066162109375 0.34423828125 0.77587890625
-0.369598388671875 0.038818359375 0.759765625
-0.3485107421875 0.042724609375 0.78271484375
-0.374908447265625 0.052978515625 0.78466796875
-0.39434814453125 0.03851318359375 0.7724609375
-0.3834228515625 0.03228759765625 0.796875
-0.35406494140625 0.02728271484375 0.76611328125
-0.33966064453125 0.04925537109375 0.77880859375
-0.397430419921875 0.05303955078125 0.78076171875
-0.396392822265625 0.02813720703125 0.77880859375
0.00372314453125 0.22576904296875 0.7509765625
0.0081787109375 0.218505859375 0.71826171875
0.02117919921875 0.23681640625 0.7724609375
0.006591796875 0.23577880859375 0.76513671875
-0.013763427734375 0.22454833984375 0.73486328125
-0.0103759765625 0.2110595703125 0.74072265625
0.0311279296875 0.2191162109375 0.75537109375
0.022979736328125 0.23895263671875 0.75
-0.014007568359375 0.23419189453125 0.74658203125
-0.1927490234375 -0.08905029296875 0.77978515625
-0.187408447265625 -0.10723876953125 0.7685546875
-0.17919921875 -0.0850830078125 0.7421875
-0.198974609375 -0.0792236328125 0.75341796875
-0.20263671875 -0.09173583984375 0.77294921875
-0.20361328125 -0.11077880859375 0.76953125
-0.173583984375 -0.100341796875 0.75732421875
-0.189208984375 -0.0654296875 0.75146484375
-0.207763671875 -0.07415771484375 0.77001953125
0.098236083984375 0.2781982421875 0.724609375
0.105224609375 0.26727294921875 0.72705078125
0.127166748046875 0.30596923828125 0.72607421875
0.0963134765625 0.2825927734375 0.73583984375
0.068450927734375 0.26043701171875 0.7138671875
0.08050537109375 0.25341796875 0.73681640625
0.133331298828125 0.302001953125 0.73291015625
0.119140625 0.306396484375 0.72998046875
0.0625 0.26458740234375 0.74853515625
-0.201171875 -0.19873046875 0.7421875
-0.20849609375 -0.225830078125 0.71484375
-0.189971923828125 -0.1966552734375 0.7216796875
-0.189788818359375 -0.1622314453125 0.75634765625
-0.2109375 -0.19500732421875 0.7626953125
-0.21728515625 -0.227294921875 0.74072265625
-0.199432373046875 -0.2320556640625 0.71630859375
-0.177459716796875 -0.16552734375 0.765625
-0.203643798828125 -0.1552734375 0.7626953125
0.172607421875 0.3812255859375 0.6865234375
0.18060302734375 0.38238525390625 0.7177734375
0.18157958984375 0.4139404296875 0.6748046875
0.161529541015625 0.3829345703125 0.7041015625
0.158843994140625 0.35504150390625 0.72119140625
0.17608642578125 0.352294921875 0.70654296875
0.182525634765625 0.41156005859375 0.68359375
0.16192626953125 0.41070556640625 0.69677734375
0.149200439453125 0.36419677734375 0.6982421875
-0.258941650390625 -0.3079833984375 0.72802734375
-0.285003662109375 -0.321044921875 0.71533203125
-0.261016845703125 -0.321044921875 0.7216796875
-0.23773193359375 -0.2869873046875 0.7421875
-0.26800537109375 -0.29888916015625 0.7177734375
-0.2886962890625 -0.31878662109375 0.72705078125
-0.28558349609375 -0.33648681640625 0.689453125
-0.236846923828125 -0.29962158203125 0.705078125
-0.247711181640625 -0.2806396484375 0.72998046875
0.16473388671875 0.51788330078125 0.66357421875
0.165924072265625 0.5189208984375 0.63427734375
0.15673828125 0.5445556640625 0.66357421875
0.153961181640625 0.50592041015625 0.69384765625
0.170562744140625 0.47052001953125 0.673828125
0.182098388671875 0.47998046875 0.6669921875
0.16473388671875 0.54522705078125 0.640625
0.145355224609375 0.53564453125 0.662109375
0.16204833984375 0.47125244140625 0.681640625
-0.38604736328125 -0.36578369140625 0.69873046875
-0.4215087890625 -0.37945556640625 0.70068359375
-0.394927978515625 -0.37548828125 0.681640625
-0.34600830078125 -0.35693359375 0.697265625
-0.38916015625 -0.35577392578125 0.6923828125
-0.415008544921875 -0.36334228515625 0.6796875
-0.433074951171875 -0.38690185546875 0.6708984375
-0.3548583984375 -0.365478515625 0.6923828125
-0.35382080078125 -0.350830078125 0.7060546875
0.11468505859375 0.62054443359375 0.67724609375
0.11944580078125 0.6319580078125 0.64111328125
0.097869873046875 0.63201904296875 0.666015625
0.10760498046875 0.5982666015625 0.6572265625
0.12762451171875 0.595703125 0.6494140625
0.13671875 0.60772705078125 0.6318359375
0.095916748046875 0.6453857421875 0.6572265625
0.0906982421875 0.62091064453125 0.66455078125
0.11810302734375 0.5823974609375 0.69140625
-0.509765625 -0.3673095703125 0.6767578125
-0.542327880859375 -0.359130859375 0.6806640625
-0.521820068359375 -0.3836669921875 0.65966796875
-0.4815673828125 -0.37384033203125 0.68115234375
-0.496307373046875 -0.362060546875 0.6767578125
-0.521209716796875 -0.34527587890625 0.70556640625
-0.54730224609375 -0.37530517578125 0.66796875
-0.495758056640625 -0.39508056640625 0.66650390625
-0.48114013671875 -0.37115478515625 0.68359375
0.04266357421875 0.65625 0.66357421875
0.0362548828125 0.662353515625 0.67578125
0.01556396484375 0.65313720703125 0.66748046875
0.031463623046875 0.6396484375 0.66259765625
0.06103515625 0.64306640625 0.67919921875
0.0592041015625 0.6590576171875 0.64892578125
0.024932861328125 0.6654052734375 0.68994140625
0.0137939453125 0.6424560546875 0.68505859375
0.04669189453125 0.639892578125 0.6630859375
-0.5845947265625 -0.32080078125 0.669921875
-0.58966064453125 -0.30157470703125 0.67236328125
-0.593505859375 -0.3316650390625 0.65576171875
-0.5718994140625 -0.3355712890625 0.6689453125
-0.570281982421875 -0.31524658203125 0.68359375
-0.577423095703125 -0.2957763671875 0.67822265625
-0.600982666015625 -0.31646728515625 0.68359375
-0.5777587890625 -0.346923828125 0.6884765625
-0.558502197265625 -0.33245849609375 0.685546875
-0.0606689453125 0.60809326171875 0.72509765625
-0.068603515625 0.6278076171875 0.69677734375
-0.085906982421875 0.583984375 0.72265625
-0.053558349609375 0.59832763671875 0.72314453125
-0.028900146484375 0.63433837890625 0.66552734375
-0.033782958984375 0.6434326171875 0.69384765625
-0.0947265625 0.5963134765625 0.7080078125
-0.08404541015625 0.5823974609375 0.72412109375
-0.038299560546875 0.6224365234375 0.7138671875
-0.588958740234375 -0.2103271484375 0.7255859375
-0.57647705078125 -0.1873779296875 0.716796875
-0.595184326171875 -0.22222900390625 0.70556640625
-0.59307861328125 -0.24212646484375 0.69921875
-0.57427978515625 -0.212890625 0.73046875
-0.569854736328125 -0.18145751953125 0.72607421875
-0.59576416015625 -0.1798095703125 0.7099609375
-0.604705810546875 -0.24932861328125 0.69775390625
-0.580352783203125 -0.24932861328125 0.73291015625
-0.1551513671875 0.53448486328125 0.7373046875
-0.165802001953125 0.5406494140625 0.7568359375
-0.18145751953125 0.512451171875 0.76025390625
-0.15411376953125 0.5242919921875 0.7509765625
-0.1429443359375 0.5457763671875 0.7451171875
-0.1556396484375 0.5518798828125 0.7294921875
-0.194122314453125 0.51861572265625 0.7421875
-0.169403076171875 0.51409912109375 0.755859375
-0.131591796875 0.539306640625 0.74853515625
-0.563934326171875 -0.0892333984375 0.71875
-0.556640625 -0.0675048828125 0.751953125
-0.584686279296875 -0.0894775390625 0.7421875
-0.5660400390625 -0.1143798828125 0.7421875
-0.551513671875 -0.09832763671875 0.767578125
-0.546600341796875 -0.073486328125 0.74560546875
-0.567474365234375 -0.06231689453125 0.7236328125
-0.58380126953125 -0.114013671875 0.73193359375
-0.557861328125 -0.12005615234375 0.73583984375
-0.2154541015625 0.47174072265625 0.76220703125
-0.22998046875 0.47418212890625 0.763671875
-0.22265625 0.45452880859375 0.7578125
-0.204193115234375 0.46820068359375 0.74462890625
-0.208282470703125 0.48577880859375 0.75537109375
-0.22119140625 0.48944091796875 0.74658203125
-0.237884521484375 0.46002197265625 0.75390625
-0.21319580078125 0.45745849609375 0.76123046875
-0.19403076171875 0.48443603515625 0.74755859375
-0.5247802734375 -0.02105712890625 0.7763671875
-0.5191650390625 -0.00250244140625 0.7626953125
-0.54498291015625 -0.00262451171875 0.74609375
-0.538330078125 -0.0313720703125 0.75927734375
-0.518524169921875 -0.025146484375 0.75244140625
-0.508056640625 -0.01275634765625 0.73583984375
-0.525787353515625 0.00640869140625 0.76416015625
-0.5521240234375 -0.02117919921875 0.76513671875
-0.535614013671875 -0.0400390625 0.75537109375
-0.228271484375 0.399169921875 0.75927734375
-0.2410888671875 0.39996337890625 0.78125
-0.2294921875 0.3759765625 0.7744140625
-0.21234130859375 0.4012451171875 0.74951171875
-0.230499267578125 0.41943359375 0.77783203125
-0.250274658203125 0.41937255859375 0.75048828125
-0.237060546875 0.37237548828125 0.77734375
-0.208709716796875 0.37738037109375 0.771484375
-0.216552734375 0.41876220703125 0.75927734375
-0.46002197265625 0.02880859375 0.78662109375
-0.4400634765625 0.03570556640625 0.77099609375
-0.471221923828125 0.040771484375 0.763671875
-0.4833984375 0.02679443359375 0.78759765625
-0.459228515625 0.0157470703125 0.7626953125
-0.437652587890625 0.0234375 0.78271484375
-0.442230224609375 0.0518798828125 0.76171875
-0.4935302734375 0.02972412109375 0.76513671875
-0.47564697265625 0.00714111328125 0.74560546875
-0.1859130859375 0.40325927734375 0.78955078125
-0.191436767578125 0.4014892578125 0.7568359375
-0.185821533203125 0.3807373046875 0.7568359375
-0.18280029296875 0.4066162109375 0.755859375
-0.188629150390625 0.42138671875 0.74951171875
-0.198516845703125 0.41851806640625 0.76220703125
-0.19219970703125 0.38543701171875 0.75927734375
-0.18511962890625 0.392333984375 0.751953125
-0.18695068359375 0.41693115234375 0.7568359375
-0.446258544921875 -0.00579833984375 0.74609375
-0.434051513671875 0.00225830078125 0.7568359375
-0.451446533203125 0.001220703125 0.7646484375
-0.469024658203125 -0.01153564453125 0.77490234375
-0.4478759765625 -0.01275634765625 0.76025390625
-0.430267333984375 -0.0072021484375 0.77392578125
-0.431793212890625 0.00665283203125 0.76123046875
-0.46759033203125 -0.0098876953125 0.79248046875
-0.4599609375 -0.01611328125 0.76806640625
-0.17730712890625 0.45947265625 0.7666015625
-0.1856689453125 0.46307373046875 0.7685546875
-0.18359375 0.4407958984375 0.7509765625
-0.173431396484375 0.4559326171875 0.7666015625
-0.171844482421875 0.47332763671875 0.7646484375
-0.183441162109375 0.4775390625 0.74560546875
-0.1927490234375 0.44561767578125 0.76708984375
-0.1817626953125 0.45025634765625 0.77294921875
-0.168365478515625 0.47198486328125 0.74462890625
-0.494842529296875 -0.04461669921875 0.744140625
-0.491455078125 -0.029296875 0.74951171875
-0.505767822265625 -0.03778076171875 0.74462890625
-0.515960693359375 -0.05596923828125 0.7705078125
-0.502685546875 -0.04095458984375 0.76416015625
-0.48529052734375 -0.03363037109375 0.7607421875
-0.4952392578125 -0.027587890625 0.77294921875
-0.51678466796875 -0.0469970703125 0.75244140625
-0.503692626953125 -0.06243896484375 0.74951171875
-0.134674072265625 0.51409912109375 0.7578125
-0.14227294921875 0.52008056640625 0.7578125
-0.154022216796875 0.5074462890625 0.7470703125
-0.13128662109375 0.51116943359375 0.7431640625
-0.1142578125 0.52734375 0.75927734375
-0.125244140625 0.534423828125 0.75048828125
-0.150115966796875 0.50286865234375 0.75439453125
-0.148651123046875 0.495849609375 0.736328125
-0.11279296875 0.52642822265625 0.74755859375
-0.533233642578125 -0.10302734375 0.7724609375
-0.530517578125 -0.08734130859375 0.73291015625
-0.539031982421875 -0.1024169921875 0.76806640625
-0.543182373046875 -0.13427734375 0.76220703125
-0.531280517578125 -0.09857177734375 0.74658203125
-0.523590087890625 -0.08734130859375 0.7431640625
-0.527435302734375 -0.0816650390625 0.76318359375
-0.549346923828125 -0.13037109375 0.740234375
-0.539215087890625 -0.1185302734375 0.73779296875
-0.055206298828125 0.57891845703125 0.70947265625
-0.054656982421875 0.58642578125 0.71435546875
-0.0780029296875 0.56488037109375 0.71533203125
-0.0533447265625 0.576171875 0.701171875
-0.02685546875 0.597900390625 0.69873046875
-0.031280517578125 0.6026611328125 0.703125
-0.079681396484375 0.56768798828125 0.728515625
-0.0791015625 0.55419921875 0.72900390625
-0.030517578125 0.58721923828125 0.6953125
-0.565643310546875 -0.2095947265625 0.7265625
-0.54998779296875 -0.17596435546875 0.7412109375
-0.56427001953125 -0.21673583984375 0.7265625
-0.559417724609375 -0.2313232421875 0.70849609375
-0.5511474609375 -0.20281982421875 0.72119140625
-0.54461669921875 -0.1844482421875 0.73779296875
-0.558441162109375 -0.17291259765625 0.7431640625
-0.568572998046875 -0.23565673828125 0.712890625
-0.54931640625 -0.226806640625 0.70458984375
0.0272216796875 0.61541748046875 0.68359375
0.035247802734375 0.6202392578125 0.68994140625
0.016845703125 0.61077880859375 0.68408203125
0.02435302734375 0.60296630859375 0.67431640625
0.041534423828125 0.60601806640625 0.681640625
0.046722412109375 0.619873046875 0.67138671875
0.0167236328125 0.6187744140625 0.68359375
0.014556884765625 0.60595703125 0.6787109375
0.0390625 0.60076904296875 0.669921875
-0.54498291015625 -0.30120849609375 0.68359375
-0.5567626953125 -0.2786865234375 0.6962890625
-0.55743408203125 -0.30426025390625 0.7001953125
-0.539703369140625 -0.30596923828125 0.65869140625
-0.542510986328125 -0.28839111328125 0.68798828125
-0.5506591796875 -0.2718505859375 0.6982421875
-0.5628662109375 -0.29034423828125 0.7109375
-0.533111572265625 -0.31298828125 0.6962890625
-0.522918701171875 -0.30133056640625 0.69091796875
0.0885009765625 0.582763671875 0.6474609375
0.096466064453125 0.58880615234375 0.68603515625
0.072357177734375 0.58880615234375 0.6669921875
0.0828857421875 0.57611083984375 0.634765625
0.1075439453125 0.563720703125 0.68017578125
0.11041259765625 0.572998046875 0.67626953125
0.079803466796875 0.60400390625 0.66162109375
0.07037353515625 0.58880615234375 0.67236328125
0.09832763671875 0.56622314453125 0.673828125
-0.487701416015625 -0.33404541015625 0.689453125
-0.511871337890625 -0.331787109375 0.6845703125
-0.490509033203125 -0.34515380859375 0.68994140625
-0.4697265625 -0.339599609375 0.67431640625
-0.478668212890625 -0.33319091796875 0.6669921875
-0.50250244140625 -0.31878662109375 0.69921875
-0.513397216796875 -0.33740234375 0.68701171875
-0.47540283203125 -0.346923828125 0.6943359375
-0.470703125 -0.33642578125 0.6923828125
0.136993408203125 0.50323486328125 0.69580078125
0.147674560546875 0.50177001953125 0.70556640625
0.123138427734375 0.51995849609375 0.67236328125
0.1275634765625 0.50048828125 0.69287109375
0.1434326171875 0.46893310546875 0.689453125
0.15191650390625 0.47393798828125 0.69775390625
0.1341552734375 0.52618408203125 0.67236328125
0.12139892578125 0.5263671875 0.67041015625
