# XYZ point cloud file
0.3077392578125 0.1268157958984375 0.4619140625
0.3564453125 0.0853729248046875 0.353515625
0.3575439453125 0.1296539306640625 0.3125
0.3486328125 0.1745147705078125 0.2451171875
0.02392578125 -0.417510986328125 0.2294921875
0.052490234375 -0.3845367431640625 0.3076171875
0.0997314453125 -0.3677215576171875 0.37109375
0.0345458984375 -0.3287353515625 0.4833984375
0.0059814453125 -0.351776123046875 0.443359375
-0.0462646484375 -0.37945556640625 0.4580078125
0.1939697265625 0.720367431640625 -0.390625
0.245361328125 0.658050537109375 -0.4140625
0.282958984375 0.5947265625 -0.357421875
0.2889404296875 0.5127716064453125 -0.3671875
0.267578125 0.487823486328125 -0.4482421875
0.2529296875 0.4476165771484375 -0.4755859375
0.1875 0.4796142578125 -0.548828125
0.1256103515625 0.557281494140625 -0.5478515625
0.0828857421875 0.6287841796875 -0.568359375
-0.49365234375 -0.362640380859375 -0.53125
-0.4124755859375 -0.3828277587890625 -0.568359375
-0.325439453125 -0.3993377685546875 -0.5517578125
-0.272705078125 -0.457366943359375 -0.4541015625
-0.2965087890625 -0.490814208984375 -0.421875
-0.3096923828125 -0.527099609375 -0.3759765625
-0.3896484375 -0.5533294677734375 -0.419921875
-0.44873046875 -0.538055419921875 -0.4248046875
-0.5313720703125 -0.519927978515625 -0.4150390625
0.1988525390625 0.3981170654296875 -0.5625
0.154541015625 0.376129150390625 -0.578125
0.126953125 0.353271484375 -0.5927734375
-0.23876953125 -0.2888336181640625 -0.6162109375
-0.2537841796875 -0.330108642578125 -0.619140625
-0.2545166015625 -0.376861572265625 -0.5517578125
0.35107421875 0.4954833984375 -0.34375
0.3671875 0.4644775390625 -0.2822265625
0.3934326171875 0.4461517333984375 -0.23828125
0.34130859375 0.2899627685546875 -0.271484375
0.31591796875 0.322021484375 -0.3759765625
0.2806396484375 0.363983154296875 -0.4169921875
-0.177490234375 -0.4400634765625 -0.4296875
-0.141357421875 -0.45977783203125 -0.34375
-0.0994873046875 -0.471923828125 -0.279296875
-0.22216796875 -0.59027099609375 -0.2548828125
-0.2447509765625 -0.58489990234375 -0.2890625
-0.2672119140625 -0.573577880859375 -0.341796875
0.2783203125 0.226348876953125 -0.505859375
0.2662353515625 0.276702880859375 -0.5009765625
0.2484130859375 0.3303985595703125 -0.5087890625
-0.1793212890625 -0.407318115234375 -0.4970703125
-0.125 -0.396942138671875 -0.4755859375
-0.0772705078125 -0.3766937255859375 -0.533203125
0.1767578125 1.093048095703125 -0.2734375
0.1756591796875 1.108917236328125 -0.3330078125
0.1556396484375 1.114501953125 -0.330078125
0.1502685546875 1.0754852294921875 -0.291015625
0.1419677734375 1.03570556640625 -0.310546875
0.1466064453125 1.0038604736328125 -0.2861328125
0.1505126953125 0.9705657958984375 -0.20703125
0.1534423828125 0.9672088623046875 -0.232421875
0.1644287109375 0.96942138671875 -0.2587890625
0.1756591796875 0.9943084716796875 -0.2275390625
0.1839599609375 1.0204010009765625 -0.2666015625
0.1806640625 1.0540008544921875 -0.2822265625
-0.82568359375 -0.65460205078125 -0.287109375
-0.8126220703125 -0.6326141357421875 -0.25
-0.7806396484375 -0.624359130859375 -0.29296875
-0.7669677734375 -0.5974884033203125 -0.2255859375
-0.7735595703125 -0.586944580078125 -0.2333984375
-0.782470703125 -0.5843353271484375 -0.2734375
-0.8077392578125 -0.5861663818359375 -0.306640625
-0.8353271484375 -0.6091461181640625 -0.2998046875
-0.8651123046875 -0.6291046142578125 -0.3212890625
-0.8883056640625 -0.657745361328125 -0.365234375
-0.88818359375 -0.6567230224609375 -0.3330078125
-0.873779296875 -0.668731689453125 -0.3134765625
0.220703125 1.2382659912109375 -0.408203125
0.1951904296875 1.204254150390625 -0.3740234375
0.1805419921875 1.161346435546875 -0.34375
0.2122802734375 1.1190185546875 -0.34375
0.22021484375 1.1580810546875 -0.318359375
0.241455078125 1.1778411865234375 -0.3935546875
0.25634765625 1.2266998291015625 -0.390625
0.2430419921875 1.241363525390625 -0.3984375
0.2374267578125 1.25103759765625 -0.3916015625
-0.9854736328125 -0.80621337890625 -0.4345703125
-0.9730224609375 -0.8044586181640625 -0.4169921875
-0.949462890625 -0.8072662353515625 -0.41796875
-0.926513671875 -0.7718353271484375 -0.373046875
-0.9083251953125 -0.72894287109375 -0.3505859375
-0.8853759765625 -0.7006378173828125 -0.353515625
-0.925537109375 -0.6872711181640625 -0.3671875
-0.951416015625 -0.7220001220703125 -0.4267578125
-0.979248046875 -0.76434326171875 -0.4345703125
0.3658447265625 1.26727294921875 -0.4189453125
0.32470703125 1.28753662109375 -0.3779296875
0.2845458984375 1.277252197265625 -0.431640625
0.293212890625 1.221221923828125 -0.40625
0.335205078125 1.2140350341796875 -0.4091796875
0.361328125 1.2080535888671875 -0.4326171875
0.4012451171875 1.202850341796875 -0.3974609375
0.4111328125 1.20806884765625 -0.4501953125
0.4056396484375 1.23040771484375 -0.439453125
-0.900146484375 -0.972747802734375 -0.412109375
-0.888671875 -0.95587158203125 -0.4130859375
-0.8775634765625 -0.9483795166015625 -0.45703125
-0.889404296875 -0.909088134765625 -0.4267578125
-0.9178466796875 -0.8724212646484375 -0.3984375
-0.929443359375 -0.8389129638671875 -0.431640625
-0.9898681640625 -0.8544769287109375 -0.43359375
-0.975830078125 -0.8985748291015625 -0.443359375
-0.94287109375 -0.9427642822265625 -0.4541015625
0.5328369140625 1.114593505859375 -0.408203125
0.4952392578125 1.1630859375 -0.44921875
0.45654296875 1.2154541015625 -0.46484375
0.4395751953125 1.1591033935546875 -0.38671875
0.4642333984375 1.116790771484375 -0.421875
0.487060546875 1.081512451171875 -0.3994140625
0.5234375 1.03424072265625 -0.3740234375
0.5438232421875 1.04644775390625 -0.40625
0.5457763671875 1.0504608154296875 -0.41015625
-0.6746826171875 -1.030303955078125 -0.419921875
-0.6817626953125 -1.018707275390625 -0.4267578125
-0.6773681640625 -1.0128173828125 -0.392578125
-0.7261962890625 -0.9938812255859375 -0.416015625
-0.7763671875 -0.9842987060546875 -0.4052734375
-0.8194580078125 -0.964385986328125 -0.4326171875
-0.856201171875 -1.013763427734375 -0.4580078125
-0.8084716796875 -1.0341033935546875 -0.4716796875
-0.744140625 -1.0450592041015625 -0.4404296875
0.5789794921875 0.86724853515625 -0.37890625
0.5771484375 0.9315032958984375 -0.38671875
0.56494140625 0.9981842041015625 -0.4091796875
0.533203125 0.9792327880859375 -0.3740234375
0.534423828125 0.9312896728515625 -0.326171875
0.5421142578125 0.884674072265625 -0.296875
0.53955078125 0.82012939453125 -0.29296875
0.55322265625 0.809112548828125 -0.3203125
0.5543212890625 0.8109893798828125 -0.3408203125
-0.4619140625 -0.932586669921875 -0.3232421875
-0.4609375 -0.930755615234375 -0.318359375
-0.4781494140625 -0.9217987060546875 -0.2822265625
-0.525146484375 -0.9473724365234375 -0.330078125
-0.568359375 -0.963958740234375 -0.3388671875
-0.6226806640625 -0.9808349609375 -0.3818359375
-0.61767578125 -1.0341949462890625 -0.3955078125
-0.5638427734375 -1.012969970703125 -0.3828125
-0.5048828125 -0.9825439453125 -0.384765625
0.5205078125 0.6332855224609375 -0.2216796875
0.5360107421875 0.6868896484375 -0.2353515625
0.5531005859375 0.7415771484375 -0.3134765625
0.519775390625 0.774322509765625 -0.2802734375
0.5037841796875 0.7308807373046875 -0.228515625
0.4866943359375 0.688507080078125 -0.21484375
0.469970703125 0.636077880859375 -0.2109375
0.482421875 0.61572265625 -0.181640625
0.4796142578125 0.59185791015625 -0.1708984375
-0.2982177734375 -0.7672119140625 -0.166015625
-0.3216552734375 -0.761260986328125 -0.1689453125
-0.3441162109375 -0.75775146484375 -0.1455078125
-0.3758544921875 -0.808624267578125 -0.189453125
-0.41552734375 -0.84100341796875 -0.1904296875
-0.4471435546875 -0.8795166015625 -0.2666015625
-0.403564453125 -0.9011383056640625 -0.31640625
-0.3665771484375 -0.8574676513671875 -0.21484375
-0.322998046875 -0.803955078125 -0.1767578125
0.52197265625 0.8287200927734375 -0.302734375
0.5211181640625 0.8380126953125 -0.34375
0.51708984375 0.846405029296875 -0.3486328125
0.5037841796875 0.807373046875 -0.3154296875
0.4810791015625 0.7790985107421875 -0.27734375
0.4759521484375 0.7368621826171875 -0.2431640625
0.4537353515625 0.701141357421875 -0.2041015625
0.457763671875 0.690948486328125 -0.2041015625
0.468017578125 0.672393798828125 -0.1708984375
-0.3760986328125 -0.77276611328125 -0.185546875
-0.396484375 -0.7805938720703125 -0.197265625
-0.4149169921875 -0.7822418212890625 -0.203125
-0.4384765625 -0.81494140625 -0.23046875
-0.4559326171875 -0.843170166015625 -0.287109375
-0.487060546875 -0.87078857421875 -0.2900390625
-0.5169677734375 -0.902099609375 -0.3095703125
-0.5057373046875 -0.9076080322265625 -0.296875
-0.492919921875 -0.904815673828125 -0.26171875
0.510498046875 1.020904541015625 -0.4267578125
0.505859375 1.023468017578125 -0.3740234375
0.500244140625 1.0243988037109375 -0.4375
0.5206298828125 0.97637939453125 -0.4248046875
0.517333984375 0.9368896484375 -0.3740234375
0.5113525390625 0.887603759765625 -0.3857421875
-0.5546875 -0.9303131103515625 -0.3662109375
-0.5858154296875 -0.951904296875 -0.39453125
-0.6326904296875 -0.96905517578125 -0.4111328125
-0.67041015625 -0.97833251953125 -0.435546875
-0.6746826171875 -0.9722900390625 -0.4052734375
-0.6712646484375 -0.985443115234375 -0.392578125
0.3983154296875 1.1739501953125 -0.4365234375
0.40869140625 1.1581268310546875 -0.427734375
0.40625 1.148468017578125 -0.4208984375
0.43359375 1.11798095703125 -0.419921875
0.4588623046875 1.091644287109375 -0.416015625
0.479248046875 1.057952880859375 -0.4462890625
-0.7138671875 -0.9752044677734375 -0.4599609375
-0.7391357421875 -0.9593505859375 -0.47265625
-0.7867431640625 -0.947479248046875 -0.4619140625
-0.8289794921875 -0.93341064453125 -0.4853515625
-0.8404541015625 -0.9302215576171875 -0.4296875
-0.8431396484375 -0.9282073974609375 -0.4287109375
0.2763671875 1.187042236328125 -0.4052734375
0.278076171875 1.174957275390625 -0.408203125
0.298583984375 1.16900634765625 -0.431640625
0.3216552734375 1.1717376708984375 -0.4404296875
0.3607177734375 1.1649322509765625 -0.384765625
0.387939453125 1.15863037109375 -0.4736328125
-0.846435546875 -0.9112091064453125 -0.4482421875
-0.858642578125 -0.878662109375 -0.4833984375
-0.871337890625 -0.8532562255859375 -0.455078125
-0.882568359375 -0.8199310302734375 -0.431640625
-0.8980712890625 -0.80828857421875 -0.427734375
-0.9207763671875 -0.805145263671875 -0.4033203125
0.2159423828125 1.072967529296875 -0.326171875
0.2242431640625 1.0689239501953125 -0.31640625
0.225830078125 1.0594940185546875 -0.3251953125
0.2520751953125 1.079193115234375 -0.3935546875
0.2698974609375 1.1139068603515625 -0.3740234375
0.279541015625 1.1393585205078125 -0.421875
-0.8702392578125 -0.7916259765625 -0.427734375
-0.8447265625 -0.7633209228515625 -0.421875
-0.833740234375 -0.740570068359375 -0.4013671875
-0.8148193359375 -0.70050048828125 -0.34375
-0.83203125 -0.6933441162109375 -0.3369140625
-0.837890625 -0.6824798583984375 -0.328125
0.193359375 0.9611053466796875 -0.2373046875
0.2080078125 0.958709716796875 -0.263671875
0.220458984375 0.9539031982421875 -0.2587890625
0.232421875 0.977447509765625 -0.2900390625
0.2249755859375 0.99530029296875 -0.3359375
0.2340087890625 1.0290374755859375 -0.345703125
-0.7913818359375 -0.6938323974609375 -0.3740234375
-0.7655029296875 -0.674041748046875 -0.302734375
-0.741455078125 -0.6652984619140625 -0.2900390625
-0.7384033203125 -0.64813232421875 -0.2587890625
-0.748779296875 -0.63653564453125 -0.2724609375
-0.7515869140625 -0.6262359619140625 -0.23828125
0.3447265625 0.6219940185546875 -0.08984375
0.361083984375 0.6109466552734375 -0.0224609375
0.356201171875 0.588653564453125 0.0498046875
0.396240234375 0.4862823486328125 -0.1552734375
0.4051513671875 0.52117919921875 -0.1279296875
0.4056396484375 0.552490234375 -0.13671875
0.37890625 0.5760498046875 -0.1279296875
0.3648681640625 0.5797119140625 -0.08984375
0.35107421875 0.5970916748046875 -0.115234375
-0.3619384765625 -0.6232757568359375 -0.0888671875
-0.3408203125 -0.6286163330078125 -0.1083984375
-0.333984375 -0.639434814453125 -0.1396484375
-0.310546875 -0.6583251953125 -0.1171875
-0.28076171875 -0.6419677734375 -0.150390625
-0.2459716796875 -0.626129150390625 -0.123046875
-0.3404541015625 -0.626556396484375 0.037109375
-0.36767578125 -0.6251678466796875 0.0380859375
-0.3848876953125 -0.6289520263671875 -0.0009765625
0.4102783203125 0.4821014404296875 -0.1767578125
0.43994140625 0.5155487060546875 -0.1767578125
0.4595947265625 0.5497894287109375 -0.1513671875
0.4501953125 0.6244354248046875 -0.1845703125
0.434814453125 0.602325439453125 -0.1884765625
0.4127197265625 0.5829620361328125 -0.1884765625
-0.3250732421875 -0.681396484375 -0.1669921875
-0.334228515625 -0.7064208984375 -0.1513671875
-0.355712890625 -0.739105224609375 -0.177734375
-0.268310546875 -0.7176666259765625 -0.1611328125
-0.2574462890625 -0.672607421875 -0.1728515625
-0.237060546875 -0.6399078369140625 -0.1806640625
0.3115234375 0.673309326171875 -0.0498046875
0.2769775390625 0.72332763671875 -0.025390625
0.230224609375 0.7833251953125 -0.0458984375
-0.579345703125 -0.59033203125 -0.0390625
-0.5087890625 -0.597442626953125 -0.068359375
-0.4520263671875 -0.6151275634765625 -0.04296875
0.1370849609375 0.9343109130859375 -0.251953125
0.14599609375 0.90704345703125 -0.248046875
0.141845703125 0.890350341796875 -0.2451171875
0.1497802734375 0.8764190673828125 -0.177734375
0.166259765625 0.8734588623046875 -0.16796875
0.1854248046875 0.8642730712890625 -0.1826171875
0.1942138671875 0.88861083984375 -0.228515625
0.185791015625 0.908233642578125 -0.2373046875
0.1827392578125 0.940582275390625 -0.22265625
-0.735595703125 -0.605255126953125 -0.2421875
-0.7117919921875 -0.5902099609375 -0.2529296875
-0.6846923828125 -0.5928955078125 -0.2509765625
-0.676513671875 -0.572998046875 -0.2099609375
-0.6844482421875 -0.56036376953125 -0.20703125
-0.69970703125 -0.5494384765625 -0.2177734375
-0.708984375 -0.5457916259765625 -0.2314453125
-0.7222900390625 -0.547943115234375 -0.228515625
-0.7498779296875 -0.54986572265625 -0.2705078125
0.441650390625 0.69097900390625 -0.2138671875
0.437255859375 0.6778564453125 -0.2275390625
0.427490234375 0.66253662109375 -0.224609375
0.404052734375 0.6427001953125 -0.2509765625
0.406005859375 0.6280517578125 -0.220703125
0.39404296875 0.6093902587890625 -0.1826171875
-0.3538818359375 -0.668914794921875 -0.189453125
-0.3660888671875 -0.6895294189453125 -0.2080078125
-0.37841796875 -0.71331787109375 -0.224609375
-0.3829345703125 -0.7315673828125 -0.248046875
-0.3974609375 -0.73895263671875 -0.1884765625
-0.39892578125 -0.766754150390625 -0.2353515625
0.4078369140625 0.657958984375 -0.236328125
0.401123046875 0.6602935791015625 -0.2724609375
0.395751953125 0.6675262451171875 -0.2626953125
0.379150390625 0.6673431396484375 -0.2529296875
0.363037109375 0.66192626953125 -0.232421875
0.34765625 0.646728515625 -0.1875
0.3533935546875 0.6233062744140625 -0.15234375
0.3623046875 0.606781005859375 -0.154296875
0.3660888671875 0.59649658203125 -0.1318359375
-0.351318359375 -0.6479339599609375 -0.1435546875
-0.3775634765625 -0.637451171875 -0.16796875
-0.3763427734375 -0.6229248046875 -0.1806640625
-0.396484375 -0.640533447265625 -0.20703125
-0.4041748046875 -0.665924072265625 -0.2197265625
-0.4229736328125 -0.68475341796875 -0.2236328125
-0.4100341796875 -0.7019805908203125 -0.26171875
-0.397216796875 -0.7152252197265625 -0.236328125
-0.392822265625 -0.7139129638671875 -0.23828125
0.343505859375 0.6986083984375 -0.2998046875
0.3251953125 0.6938629150390625 -0.296875
0.3255615234375 0.68817138671875 -0.24609375
0.3212890625 0.680572509765625 -0.25390625
0.319091796875 0.679046630859375 -0.26171875
0.3267822265625 0.65753173828125 -0.1767578125
0.38037109375 0.6903533935546875 -0.27734375
0.367919921875 0.6946563720703125 -0.26171875
0.352783203125 0.7004852294921875 -0.2646484375
-0.449951171875 -0.673828125 -0.28125
-0.4405517578125 -0.69268798828125 -0.244140625
-0.4329833984375 -0.69921875 -0.2294921875
-0.4320068359375 -0.6213836669921875 -0.20703125
-0.4351806640625 -0.619781494140625 -0.224609375
-0.4581298828125 -0.618743896484375 -0.20703125
-0.453369140625 -0.6397857666015625 -0.265625
-0.4560546875 -0.6453399658203125 -0.283203125
-0.452880859375 -0.6562957763671875 -0.2734375
0.29541015625 0.702117919921875 -0.21875
0.2955322265625 0.7303466796875 -0.2802734375
0.2802734375 0.742919921875 -0.2236328125
0.2698974609375 0.770843505859375 -0.2470703125
0.2552490234375 0.7686767578125 -0.2705078125
0.2486572265625 0.771514892578125 -0.2197265625
0.2587890625 0.74066162109375 -0.171875
0.2760009765625 0.70257568359375 -0.1669921875
0.30078125 0.669769287109375 -0.1923828125
-0.4488525390625 -0.606048583984375 -0.1787109375
-0.4862060546875 -0.603790283203125 -0.16796875
-0.528076171875 -0.600860595703125 -0.2080078125
-0.5552978515625 -0.60345458984375 -0.2060546875
-0.5550537109375 -0.6122283935546875 -0.1962890625
-0.5504150390625 -0.6192626953125 -0.2431640625
-0.53076171875 -0.62188720703125 -0.251953125
-0.5025634765625 -0.6222686767578125 -0.263671875
-0.47509765625 -0.62139892578125 -0.2578125
0.231689453125 0.863800048828125 -0.2265625
0.22412109375 0.8631591796875 -0.201171875
0.210693359375 0.862945556640625 -0.2138671875
0.2010498046875 0.8473968505859375 -0.177734375
0.218994140625 0.820526123046875 -0.177734375
0.216064453125 0.804473876953125 -0.1904296875
0.264892578125 0.8037109375 -0.251953125
0.263427734375 0.825592041015625 -0.23828125
0.2496337890625 0.8438720703125 -0.2412109375
-0.6175537109375 -0.6264495849609375 -0.2666015625
-0.601318359375 -0.6269378662109375 -0.26171875
-0.5859375 -0.62554931640625 -0.26171875
-0.58984375 -0.5897064208984375 -0.1904296875
-0.61865234375 -0.585479736328125 -0.1953125
-0.640380859375 -0.588348388671875 -0.232421875
-0.662353515625 -0.600372314453125 -0.2490234375
-0.658935546875 -0.61065673828125 -0.2490234375
-0.6485595703125 -0.628875732421875 -0.265625
0.24169921875 0.8930511474609375 -0.259765625
0.2332763671875 0.915313720703125 -0.2646484375
0.2269287109375 0.9279327392578125 -0.287109375
-0.7044677734375 -0.6475372314453125 -0.3388671875
-0.693359375 -0.6408843994140625 -0.2744140625
-0.6668701171875 -0.63592529296875 -0.3125
0.2042236328125 0.814300537109375 -0.0986328125
0.215576171875 0.7976837158203125 -0.09375
0.221435546875 0.785491943359375 -0.1728515625
-0.580078125 -0.5892181396484375 -0.15234375
-0.5948486328125 -0.5758514404296875 -0.16015625
-0.62841796875 -0.57720947265625 -0.0673828125
0.3341064453125 0.6327667236328125 -0.0625
0.328369140625 0.6374359130859375 -0.0947265625
0.33056640625 0.636474609375 -0.1376953125
-0.40966796875 -0.6187591552734375 -0.1591796875
-0.4027099609375 -0.6170654296875 -0.1259765625
-0.3973388671875 -0.613128662109375 -0.072265625
0.2481689453125 0.956146240234375 -0.30859375
0.2437744140625 0.951904296875 -0.2919921875
0.23876953125 0.954193115234375 -0.30859375
0.2535400390625 0.8690338134765625 -0.279296875
0.2501220703125 0.8700103759765625 -0.2607421875
0.2625732421875 0.8654937744140625 -0.2841796875
0.266845703125 0.89093017578125 -0.2861328125
0.2637939453125 0.9040985107421875 -0.302734375
0.254638671875 0.927978515625 -0.3720703125
-0.6988525390625 -0.6815032958984375 -0.3134765625
-0.6778564453125 -0.673614501953125 -0.353515625
-0.652099609375 -0.66851806640625 -0.33203125
-0.6334228515625 -0.654449462890625 -0.326171875
-0.6510009765625 -0.6440582275390625 -0.2685546875
-0.6414794921875 -0.6433258056640625 -0.26953125
-0.7193603515625 -0.66644287109375 -0.302734375
-0.7188720703125 -0.6748046875 -0.3134765625
-0.7142333984375 -0.6826171875 -0.3154296875
0.2779541015625 0.779296875 -0.26953125
0.28564453125 0.7830352783203125 -0.3056640625
0.2908935546875 0.7813262939453125 -0.279296875
0.287841796875 0.805206298828125 -0.287109375
0.2806396484375 0.8259429931640625 -0.28125
0.27587890625 0.85125732421875 -0.3134765625
-0.6177978515625 -0.6589813232421875 -0.294921875
-0.59521484375 -0.653289794921875 -0.2890625
-0.570556640625 -0.6510772705078125 -0.30859375
-0.5531005859375 -0.640869140625 -0.283203125
-0.5572509765625 -0.6304931640625 -0.2568359375
-0.5517578125 -0.633819580078125 -0.2763671875
0.3074951171875 0.699249267578125 -0.2685546875
0.305908203125 0.6960601806640625 -0.279296875
0.3082275390625 0.7066802978515625 -0.2744140625
0.3018798828125 0.72552490234375 -0.3310546875
0.29638671875 0.738983154296875 -0.2822265625
0.2965087890625 0.7612457275390625 -0.3212890625
-0.53271484375 -0.646148681640625 -0.3271484375
-0.5111083984375 -0.6417694091796875 -0.3076171875
-0.4892578125 -0.640716552734375 -0.3037109375
-0.478515625 -0.635711669921875 -0.2900390625
-0.4713134765625 -0.6286163330078125 -0.28515625
-0.4752197265625 -0.6290283203125 -0.263671875
0.34375 0.7075653076171875 -0.2607421875
0.341064453125 0.71734619140625 -0.298828125
0.354736328125 0.7175140380859375 -0.27734375
0.3389892578125 0.7190704345703125 -0.314453125
0.3272705078125 0.71453857421875 -0.310546875
0.3067626953125 0.712005615234375 -0.3125
-0.4779052734375 -0.640106201171875 -0.29296875
-0.4725341796875 -0.656524658203125 -0.2919921875
-0.4783935546875 -0.671661376953125 -0.3076171875
-0.4735107421875 -0.6751861572265625 -0.2998046875
-0.4697265625 -0.672210693359375 -0.2734375
-0.458740234375 -0.665802001953125 -0.2578125
0.404052734375 0.6885986328125 -0.3017578125
0.399169921875 0.7005462646484375 -0.2822265625
0.4051513671875 0.6986083984375 -0.3056640625
0.393798828125 0.71923828125 -0.27734375
0.3843994140625 0.7216644287109375 -0.310546875
0.36279296875 0.721160888671875 -0.3232421875
-0.464111328125 -0.6946563720703125 -0.2978515625
-0.4644775390625 -0.70233154296875 -0.3134765625
-0.45068359375 -0.723541259765625 -0.3154296875
-0.43505859375 -0.725372314453125 -0.3076171875
-0.42236328125 -0.713470458984375 -0.3046875
-0.428466796875 -0.716888427734375 -0.267578125
0.4237060546875 0.664703369140625 -0.2705078125
0.4263916015625 0.67498779296875 -0.294921875
0.4154052734375 0.6798095703125 -0.302734375
0.4232177734375 0.6827850341796875 -0.291015625
0.421875 0.693328857421875 -0.3056640625
0.408935546875 0.70294189453125 -0.29296875
-0.4306640625 -0.7326202392578125 -0.298828125
-0.4246826171875 -0.731689453125 -0.26171875
-0.41796875 -0.7347412109375 -0.306640625
-0.400390625 -0.730987548828125 -0.294921875
-0.398193359375 -0.7267608642578125 -0.265625
-0.39404296875 -0.7258453369140625 -0.2314453125
0.463623046875 0.721099853515625 -0.2529296875
0.4638671875 0.72186279296875 -0.24609375
0.45263671875 0.72796630859375 -0.314453125
0.4364013671875 0.7206268310546875 -0.2890625
0.426025390625 0.6951751708984375 -0.2822265625
0.4212646484375 0.681549072265625 -0.2900390625
-0.41796875 -0.745513916015625 -0.29296875
-0.4156494140625 -0.7503509521484375 -0.2548828125
-0.4298095703125 -0.7718505859375 -0.3125
-0.4381103515625 -0.7910308837890625 -0.251953125
-0.4322509765625 -0.78936767578125 -0.2900390625
-0.4246826171875 -0.7872314453125 -0.2353515625
0.27001953125 1.0443115234375 -0.4287109375
0.2550048828125 1.0531463623046875 -0.3564453125
0.256591796875 1.0547332763671875 -0.3984375
0.2574462890625 0.97772216796875 -0.3671875
0.265869140625 0.9967498779296875 -0.365234375
0.260986328125 1.018707275390625 -0.349609375
-0.766357421875 -0.7229156494140625 -0.3896484375
-0.752685546875 -0.7118072509765625 -0.37890625
-0.7325439453125 -0.69842529296875 -0.3359375
-0.791748046875 -0.7181243896484375 -0.3603515625
-0.792236328125 -0.72772216796875 -0.3857421875
-0.787109375 -0.7445220947265625 -0.3994140625
0.3226318359375 1.142303466796875 -0.4892578125
0.315673828125 1.15191650390625 -0.4443359375
0.3060302734375 1.15631103515625 -0.4189453125
0.287353515625 1.072967529296875 -0.427734375
0.292236328125 1.1010589599609375 -0.4365234375
0.3045654296875 1.126007080078125 -0.455078125
-0.8402099609375 -0.80877685546875 -0.46484375
-0.8280029296875 -0.7817535400390625 -0.4541015625
-0.8092041015625 -0.7640838623046875 -0.4169921875
-0.858642578125 -0.827178955078125 -0.4306640625
-0.8648681640625 -0.8280029296875 -0.462890625
-0.8560791015625 -0.8362274169921875 -0.458984375
0.4063720703125 1.13079833984375 -0.4794921875
0.417724609375 1.1403961181640625 -0.4697265625
0.411865234375 1.1440582275390625 -0.458984375
0.354248046875 1.14251708984375 -0.4814453125
0.368408203125 1.144927978515625 -0.4775390625
0.4034423828125 1.1405029296875 -0.4921875
-0.819580078125 -0.9085693359375 -0.4794921875
-0.834228515625 -0.885589599609375 -0.5009765625
-0.844482421875 -0.86444091796875 -0.490234375
-0.81298828125 -0.9342803955078125 -0.4453125
-0.8057861328125 -0.9363555908203125 -0.4267578125
-0.8040771484375 -0.9332122802734375 -0.4609375
0.5 1.0234375 -0.42578125
0.506591796875 1.01800537109375 -0.443359375
0.499267578125 1.0205078125 -0.447265625
0.4493408203125 1.1055145263671875 -0.4619140625
0.4559326171875 1.0828094482421875 -0.4921875
0.477294921875 1.0511627197265625 -0.4384765625
-0.707275390625 -0.9642333984375 -0.4521484375
-0.7381591796875 -0.9543609619140625 -0.48828125
-0.7750244140625 -0.94683837890625 -0.47265625
-0.6741943359375 -0.971038818359375 -0.4775390625
-0.67138671875 -0.977447509765625 -0.447265625
-0.66650390625 -0.972686767578125 -0.4423828125
0.5089111328125 0.857666015625 -0.4072265625
0.502685546875 0.8622283935546875 -0.3642578125
0.5081787109375 0.8532257080078125 -0.3564453125
0.50048828125 0.977142333984375 -0.4296875
0.4989013671875 0.943023681640625 -0.4462890625
0.5003662109375 0.9050445556640625 -0.416015625
-0.57177734375 -0.913665771484375 -0.4169921875
-0.603759765625 -0.933380126953125 -0.44140625
-0.6395263671875 -0.94921875 -0.4345703125
-0.52001953125 -0.9024505615234375 -0.3466796875
-0.52197265625 -0.8961944580078125 -0.3642578125
-0.529296875 -0.9003753662109375 -0.40234375
0.484375 0.831451416015625 -0.3671875
0.479248046875 0.79864501953125 -0.3798828125
0.458740234375 0.76373291015625 -0.2666015625
-0.46728515625 -0.816192626953125 -0.3271484375
-0.4864501953125 -0.831024169921875 -0.345703125
-0.508544921875 -0.860321044921875 -0.380859375
0.350341796875 0.7751617431640625 -0.3173828125
0.353759765625 0.7526092529296875 -0.2978515625
0.3466796875 0.7373809814453125 -0.32421875
0.4088134765625 0.7286529541015625 -0.296875
0.4100341796875 0.74822998046875 -0.310546875
0.41162109375 0.7655029296875 -0.345703125
0.3958740234375 0.795074462890625 -0.2880859375
0.378173828125 0.795745849609375 -0.314453125
0.3699951171875 0.797760009765625 -0.3349609375
-0.531494140625 -0.729949951171875 -0.3154296875
-0.520751953125 -0.7476959228515625 -0.326171875
-0.5150146484375 -0.75860595703125 -0.3056640625
-0.491943359375 -0.763397216796875 -0.3564453125
-0.4700927734375 -0.746612548828125 -0.3193359375
-0.449462890625 -0.7345123291015625 -0.32421875
-0.48779296875 -0.6845245361328125 -0.310546875
-0.4979248046875 -0.6970367431640625 -0.3330078125
-0.5198974609375 -0.705810546875 -0.3359375
0.34228515625 0.8608551025390625 -0.337890625
0.345947265625 0.835693359375 -0.333984375
0.349365234375 0.81903076171875 -0.31640625
0.414794921875 0.815521240234375 -0.34765625
0.4072265625 0.826141357421875 -0.365234375
0.410400390625 0.8547210693359375 -0.3427734375
0.386474609375 0.89129638671875 -0.3623046875
0.3665771484375 0.8901824951171875 -0.34375
0.35205078125 0.890411376953125 -0.3447265625
-0.6070556640625 -0.76568603515625 -0.3798828125
-0.6082763671875 -0.77349853515625 -0.3974609375
-0.5953369140625 -0.792236328125 -0.35546875
-0.567138671875 -0.7960357666015625 -0.3759765625
-0.5377197265625 -0.793304443359375 -0.3720703125
-0.528076171875 -0.7823333740234375 -0.3505859375
-0.5592041015625 -0.72039794921875 -0.3046875
-0.5728759765625 -0.7296905517578125 -0.302734375
-0.5992431640625 -0.7275238037109375 -0.3330078125
0.3206787109375 0.953369140625 -0.36328125
0.3250732421875 0.923492431640625 -0.3369140625
0.3330078125 0.90283203125 -0.384765625
0.396240234375 0.910736083984375 -0.3662109375
0.3946533203125 0.9335784912109375 -0.37109375
0.386962890625 0.960174560546875 -0.36328125
0.3680419921875 0.973785400390625 -0.3583984375
0.347900390625 0.9694061279296875 -0.353515625
0.3394775390625 0.967041015625 -0.3837890625
-0.687255859375 -0.7707977294921875 -0.3779296875
-0.6875 -0.802886962890625 -0.4140625
-0.6793212890625 -0.815826416015625 -0.375
-0.655029296875 -0.83673095703125 -0.3994140625
-0.6387939453125 -0.8222503662109375 -0.3994140625
-0.6158447265625 -0.8208770751953125 -0.3876953125
-0.6378173828125 -0.74560546875 -0.359375
-0.6595458984375 -0.747222900390625 -0.349609375
-0.688720703125 -0.74835205078125 -0.3662109375
0.316650390625 1.0224609375 -0.384765625
0.3177490234375 1.0099639892578125 -0.37890625
0.33154296875 0.9870758056640625 -0.38671875
0.396484375 0.99749755859375 -0.3994140625
0.3857421875 1.0220489501953125 -0.37890625
0.3929443359375 1.0383758544921875 -0.421875
0.363525390625 1.0513458251953125 -0.4296875
0.355712890625 1.047454833984375 -0.3828125
0.3397216796875 1.0489349365234375 -0.3994140625
-0.770263671875 -0.8084259033203125 -0.4306640625
-0.7476806640625 -0.8332672119140625 -0.4140625
-0.7401123046875 -0.84356689453125 -0.380859375
-0.734130859375 -0.856048583984375 -0.439453125
-0.7166748046875 -0.842742919921875 -0.408203125
-0.6961669921875 -0.8437957763671875 -0.419921875
-0.70849609375 -0.7680206298828125 -0.3974609375
-0.725341796875 -0.7800140380859375 -0.39453125
-0.7557373046875 -0.77960205078125 -0.3984375
0.314697265625 1.051361083984375 -0.3740234375
0.297119140625 1.0489349365234375 -0.423828125
0.2821044921875 1.0496978759765625 -0.3525390625
0.2691650390625 0.95672607421875 -0.34375
0.29345703125 0.966064453125 -0.3623046875
0.3056640625 0.96014404296875 -0.3583984375
-0.707275390625 -0.7348175048828125 -0.3408203125
-0.7137451171875 -0.720703125 -0.376953125
-0.7099609375 -0.7025604248046875 -0.330078125
-0.7789306640625 -0.75787353515625 -0.419921875
-0.7821044921875 -0.7654571533203125 -0.404296875
-0.778564453125 -0.7772674560546875 -0.4248046875
0.2857666015625 0.873016357421875 -0.3193359375
0.29833984375 0.875457763671875 -0.3203125
0.32373046875 0.881866455078125 -0.33984375
-0.62060546875 -0.717926025390625 -0.3662109375
-0.6195068359375 -0.698394775390625 -0.349609375
-0.6334228515625 -0.67608642578125 -0.3388671875
0.3018798828125 0.782684326171875 -0.287109375
0.31640625 0.791839599609375 -0.328125
0.332275390625 0.7912445068359375 -0.3251953125
-0.539794921875 -0.69378662109375 -0.2958984375
-0.543212890625 -0.67926025390625 -0.3486328125
-0.550048828125 -0.665496826171875 -0.30859375
0.4342041015625 0.7518463134765625 -0.3466796875
0.4312744140625 0.762420654296875 -0.2734375
0.422119140625 0.7752532958984375 -0.30078125
-0.4930419921875 -0.7774658203125 -0.3134765625
-0.47265625 -0.788909912109375 -0.2705078125
-0.456298828125 -0.7949066162109375 -0.2900390625
0.4737548828125 0.87103271484375 -0.41796875
0.451171875 0.8747711181640625 -0.3623046875
0.4276123046875 0.88134765625 -0.3720703125
-0.57470703125 -0.8311767578125 -0.3984375
-0.5654296875 -0.85479736328125 -0.392578125
-0.542724609375 -0.8747711181640625 -0.3994140625
0.475341796875 1.010986328125 -0.4365234375
0.443359375 1.00341796875 -0.4111328125
0.4171142578125 0.982391357421875 -0.37890625
-0.67529296875 -0.872650146484375 -0.3984375
-0.6727294921875 -0.9016571044921875 -0.42578125
-0.66845703125 -0.93145751953125 -0.466796875
0.4173583984375 1.107879638671875 -0.453125
0.4010009765625 1.0872955322265625 -0.4501953125
0.383544921875 1.0655670166015625 -0.4169921875
-0.7659912109375 -0.8720550537109375 -0.412109375
-0.7730712890625 -0.894317626953125 -0.455078125
-0.789794921875 -0.916656494140625 -0.4931640625
0.33056640625 1.1236724853515625 -0.443359375
0.331298828125 1.103240966796875 -0.4384765625
0.325927734375 1.0769195556640625 -0.41015625
-0.792724609375 -0.8087158203125 -0.421875
-0.8189697265625 -0.8176422119140625 -0.431640625
-0.83642578125 -0.8323822021484375 -0.4541015625
0.5472412109375 0.8245391845703125 -0.4189453125
0.572265625 0.8077850341796875 -0.41796875
0.567626953125 0.803741455078125 -0.3671875
0.490478515625 0.5855712890625 -0.23046875
0.48046875 0.5948333740234375 -0.2744140625
0.4683837890625 0.610595703125 -0.2939453125
0.4522705078125 0.6805877685546875 -0.3671875
0.468994140625 0.73516845703125 -0.3515625
0.5001220703125 0.7900848388671875 -0.4287109375
-0.4737548828125 -0.858489990234375 -0.3876953125
-0.4324951171875 -0.813140869140625 -0.3779296875
-0.3895263671875 -0.7683258056640625 -0.3466796875
-0.331298828125 -0.7478179931640625 -0.3046875
-0.298583984375 -0.755401611328125 -0.25390625
-0.291259765625 -0.7610626220703125 -0.234375
-0.4453125 -0.94793701171875 -0.373046875
-0.46044921875 -0.9466400146484375 -0.3828125
-0.4803466796875 -0.934661865234375 -0.4033203125
0.5482177734375 1.084686279296875 -0.4931640625
0.5633544921875 1.070526123046875 -0.470703125
0.5595703125 1.0697174072265625 -0.4326171875
0.5174560546875 0.915740966796875 -0.451171875
0.5238037109375 0.9810333251953125 -0.4912109375
0.5147705078125 1.041748046875 -0.478515625
-0.6815185546875 -1.019927978515625 -0.5107421875
-0.6251220703125 -0.9823455810546875 -0.48828125
-0.570068359375 -0.947479248046875 -0.455078125
-0.6815185546875 -1.0556182861328125 -0.431640625
-0.69140625 -1.0655059814453125 -0.462890625
-0.703369140625 -1.0522308349609375 -0.4794921875
0.435791015625 1.25494384765625 -0.49609375
0.4232177734375 1.255462646484375 -0.48046875
0.4210205078125 1.2523651123046875 -0.45703125
0.51025390625 1.148590087890625 -0.51171875
0.4908447265625 1.191680908203125 -0.4853515625
0.458984375 1.2300262451171875 -0.486328125
-0.8690185546875 -1.017974853515625 -0.548828125
-0.826171875 -1.0338821411132812 -0.50390625
-0.7789306640625 -1.042388916015625 -0.515625
-0.913330078125 -0.99176025390625 -0.4697265625
-0.9205322265625 -0.99425506591796875 -0.4716796875
-0.9078369140625 -0.9974822998046875 -0.4912109375
0.28466796875 1.2552032470703125 -0.50390625
0.2562255859375 1.274078369140625 -0.447265625
0.2547607421875 1.2709808349609375 -0.4150390625
0.40234375 1.2635498046875 -0.494140625
0.3814697265625 1.2688140869140625 -0.5068359375
0.340087890625 1.2603607177734375 -0.5107421875
-0.9425048828125 -0.9038848876953125 -0.5244140625
-0.9466552734375 -0.94219970703125 -0.5283203125
-0.9205322265625 -0.9794921875 -0.517578125
-0.9930419921875 -0.81976318359375 -0.4794921875
-0.9947509765625 -0.82122802734375 -0.4580078125
-0.9658203125 -0.8389129638671875 -0.5029296875
0.190673828125 1.093170166015625 -0.373046875
0.17333984375 1.1158447265625 -0.4111328125
0.15771484375 1.1149749755859375 -0.37890625
0.29150390625 1.20831298828125 -0.4775390625
0.2672119140625 1.158935546875 -0.509765625
0.2481689453125 1.109466552734375 -0.4931640625
-0.8551025390625 -0.7401885986328125 -0.4970703125
-0.885498046875 -0.7728271484375 -0.5009765625
-0.916748046875 -0.820953369140625 -0.5244140625
-0.8936767578125 -0.6575927734375 -0.36328125
-0.881591796875 -0.6607513427734375 -0.431640625
-0.861083984375 -0.6777191162109375 -0.43359375
0.15771484375 0.9242706298828125 -0.322265625
0.1439208984375 0.9480133056640625 -0.2919921875
0.1400146484375 0.958587646484375 -0.30859375
0.2242431640625 1.0106201171875 -0.408203125
0.2041015625 0.970428466796875 -0.4404296875
0.1973876953125 0.9246368408203125 -0.3447265625
-0.7093505859375 -0.608642578125 -0.39453125
-0.74169921875 -0.63372802734375 -0.4150390625
-0.78076171875 -0.6650543212890625 -0.42578125
-0.769287109375 -0.560638427734375 -0.306640625
-0.7530517578125 -0.5610504150390625 -0.3544921875
-0.729248046875 -0.5705413818359375 -0.380859375
0.2969970703125 1.0126953125 -0.4658203125
0.3701171875 0.9485931396484375 -0.458984375
0.4459228515625 0.894805908203125 -0.4951171875
0.3692626953125 0.704132080078125 -0.3203125
0.30810546875 0.768707275390625 -0.3720703125
0.2435302734375 0.82330322265625 -0.3720703125
-0.5970458984375 -0.6160888671875 -0.3740234375
-0.5238037109375 -0.655914306640625 -0.365234375
-0.4447021484375 -0.6948699951171875 -0.380859375
-0.5797119140625 -0.8525238037109375 -0.427734375
-0.6546630859375 -0.796722412109375 -0.478515625
-0.74609375 -0.7484893798828125 -0.4609375
0.359130859375 1.20648193359375 -0.5068359375
0.423583984375 1.1689910888671875 -0.529296875
0.472412109375 1.136749267578125 -0.4931640625
-0.7779541015625 -0.9925384521484375 -0.5546875
-0.828125 -0.93975830078125 -0.501953125
-0.88623046875 -0.900177001953125 -0.501953125
0.1915283203125 0.8515625 -0.3486328125
0.18603515625 0.819000244140625 -0.3896484375
0.177978515625 0.799957275390625 -0.3876953125
-0.614501953125 -0.530426025390625 -0.3828125
-0.6263427734375 -0.5507965087890625 -0.3642578125
-0.6490478515625 -0.5691375732421875 -0.3896484375
0.4029541015625 0.6105499267578125 -0.3564453125
0.3765869140625 0.5938720703125 -0.3818359375
0.3441162109375 0.5655059814453125 -0.359375
-0.3406982421875 -0.604217529296875 -0.37109375
-0.336181640625 -0.642425537109375 -0.3271484375
-0.3548583984375 -0.683990478515625 -0.3232421875
0.0997314453125 0.4463958740234375 0.7568359375
-0.350341796875 -0.283782958984375 0.7626953125
0.1607666015625 0.452056884765625 0.689453125
-0.325927734375 -0.354248046875 0.6435546875
0.2139892578125 0.4718780517578125 0.6064453125
-0.322021484375 -0.4127197265625 0.595703125
0.1846923828125 0.2908782958984375 0.6484375
-0.1649169921875 -0.2963104248046875 0.6201171875
0.131103515625 0.316253662109375 0.6640625
-0.2147216796875 -0.257843017578125 0.693359375
0.0833740234375 0.3529815673828125 0.7314453125
-0.2730712890625 -0.2269439697265625 0.7353515625
0.016845703125 0.3028564453125 0.7646484375
-0.2601318359375 -0.152496337890625 0.8017578125
0.02001953125 0.23907470703125 0.7392578125
-0.1983642578125 -0.12493896484375 0.7412109375
0.0399169921875 0.18182373046875 0.6318359375
-0.1314697265625 -0.118438720703125 0.6689453125
-0.15185546875 0.2024383544921875 0.6689453125
-0.2589111328125 0.030426025390625 0.6806640625
-0.1109619140625 0.2607421875 0.68359375
-0.27783203125 -0.016510009765625 0.75
-0.0859375 0.314788818359375 0.771484375
-0.3170166015625 -0.078704833984375 0.7578125
-0.1407470703125 0.3921966552734375 0.779296875
-0.4195556640625 -0.0650634765625 0.7666015625
-0.2061767578125 0.36907958984375 0.734375
-0.4197998046875 -0.001617431640625 0.7373046875
-0.2579345703125 0.3640594482421875 0.662109375
-0.4400634765625 0.0582275390625 0.6533203125
-0.23291015625 0.54534912109375 0.654296875
-0.59326171875 -0.06072998046875 0.6474609375
-0.1717529296875 0.5117034912109375 0.6767578125
-0.5406494140625 -0.0864715576171875 0.767578125
-0.128173828125 0.482025146484375 0.7744140625
-0.478759765625 -0.1207122802734375 0.7412109375
-0.055908203125 0.5299835205078125 0.7490234375
-0.4951171875 -0.209197998046875 0.7509765625
-0.066650390625 0.5884246826171875 0.6865234375
-0.5621337890625 -0.2279052734375 0.6796875
-0.0771484375 0.651092529296875 0.5546875
-0.6256103515625 -0.2410888671875 0.638671875
0.10400390625 0.62164306640625 0.5380859375
-0.5037841796875 -0.3890380859375 0.5712890625
0.08056640625 0.5647735595703125 0.646484375
-0.474853515625 -0.3372802734375 0.701171875
0.0423583984375 0.51458740234375 0.7236328125
-0.433837890625 -0.2765960693359375 0.7314453125
0.0302734375 0.493927001953125 0.736328125
-0.4197998046875 -0.259429931640625 0.7919921875
-0.047119140625 0.5107574462890625 0.8056640625
-0.4791259765625 -0.206512451171875 0.80078125
-0.105224609375 0.46435546875 0.748046875
-0.4708251953125 -0.1263427734375 0.7802734375
-0.1085205078125 0.391204833984375 0.8193359375
-0.415771484375 -0.0831451416015625 0.7841796875
-0.06298828125 0.331146240234375 0.7978515625
-0.3228759765625 -0.0958251953125 0.8125
-0.00537109375 0.327423095703125 0.8154296875
-0.2813720703125 -0.15185546875 0.8095703125
-0.02734375 0.409820556640625 0.80078125
-0.3756103515625 -0.179595947265625 0.8349609375
0.060546875 0.362396240234375 0.779296875
-0.29541015625 -0.220245361328125 0.791015625
0.0733642578125 0.4403076171875 0.7490234375
-0.35107421875 -0.2702178955078125 0.763671875
-0.3614501953125 0.216278076171875 0.75
-0.289794921875 0.1682586669921875 0.814453125
0.5731201171875 -0.3248443603515625 0.73046875
0.2724609375 -0.138641357421875 0.7734375
0.159423828125 -0.0848236083984375 0.8017578125
0.6619873046875 -0.3724212646484375 0.71875
-0.3704833984375 0.2200775146484375 0.6064453125
-0.4771728515625 0.28887939453125 0.5439453125
-0.679443359375 0.4862060546875 -0.494140625
-0.3997802734375 0.2874755859375 -0.728515625
-0.060302734375 0.0385589599609375 -0.7119140625
0.2935791015625 -0.2091217041015625 -0.2998046875
0.2723388671875 0.0984649658203125 0.61328125
0.0440673828125 -0.2891845703125 0.5576171875
0.5277099609375 0.01171875 0.5556640625
0.2496337890625 -0.463165283203125 0.548828125
0.7257080078125 -0.06939697265625 0.5234375
0.4188232421875 -0.60009765625 0.5673828125
0.8797607421875 -0.138214111328125 0.4921875
0.5474853515625 -0.698638916015625 0.529296875
0.9461669921875 -0.2101593017578125 0.5107421875
0.648193359375 -0.7181549072265625 0.5244140625
0.9154052734375 -0.3337249755859375 0.5341796875
0.740234375 -0.623748779296875 0.5234375
0.836669921875 -0.4893646240234375 0.5556640625
0.3099365234375 0.2888031005859375 0.5458984375
-0.099853515625 -0.41552734375 0.5048828125
0.3212890625 0.5037994384765625 0.5048828125
-0.2962646484375 -0.5364837646484375 0.5078125
0.2513427734375 0.7292022705078125 0.490234375
-0.53515625 -0.57391357421875 0.4814453125
0.0950927734375 0.8618927001953125 0.56640625
-0.7349853515625 -0.5013275146484375 0.5546875
-0.046142578125 0.8153839111328125 0.6162109375
-0.76220703125 -0.352996826171875 0.59375
-0.2384033203125 0.706329345703125 0.6796875
-0.7562255859375 -0.12628173828125 0.673828125
-0.4276123046875 0.62554931640625 0.7158203125
-0.7662353515625 0.06298828125 0.7470703125
-0.4697265625 0.4871673583984375 0.7294921875
-0.662353515625 0.1724700927734375 0.7373046875
-0.3831787109375 0.3196258544921875 0.763671875
-0.4609375 0.1816864013671875 0.7451171875
-0.257080078125 0.33984375 0.80078125
-0.420166015625 0.0596466064453125 0.7822265625
-0.1949462890625 0.25518798828125 0.7734375
-0.3175048828125 0.047637939453125 0.7646484375
0.063720703125 0.2107696533203125 0.7236328125
-0.1549072265625 -0.14532470703125 0.767578125
0.17333984375 0.3122711181640625 0.6962890625
-0.202392578125 -0.29669189453125 0.7021484375
0.197998046875 0.4524993896484375 0.6728515625
-0.3056640625 -0.387359619140625 0.68359375
0.1566162109375 0.605865478515625 0.6494140625
-0.46630859375 -0.4282989501953125 0.6875
0.076904296875 0.68377685546875 0.640625
-0.5718994140625 -0.38922119140625 0.654296875
-0.0130615234375 0.67657470703125 0.6953125
-0.609375 -0.3185272216796875 0.666015625
-0.14501953125 0.5949554443359375 0.7724609375
-0.5997314453125 -0.1607818603515625 0.7392578125
-0.261962890625 0.4373626708984375 0.7861328125
-0.5269775390625 0.028472900390625 0.7548828125
0.6483154296875 -0.35931396484375 0.7470703125
0.7060546875 -0.265625 0.744140625
0.5887451171875 -0.4626312255859375 0.7373046875
0.7869873046875 -0.2989349365234375 0.6953125
0.6650390625 -0.512603759765625 0.701171875
0.7987060546875 -0.3641815185546875 0.705078125
0.7269287109375 -0.4906463623046875 0.67578125
0.778076171875 -0.4426116943359375 0.7138671875
0.162353515625 -0.0832061767578125 0.7333984375
0.12451171875 -0.068450927734375 0.736328125
0.1812744140625 0.010772705078125 0.7607421875
0.0941162109375 -0.1466827392578125 0.734375
0.259521484375 -0.010345458984375 0.724609375
0.14404296875 -0.212127685546875 0.712890625
0.3165283203125 -0.0747222900390625 0.7265625
0.2275390625 -0.2229156494140625 0.7666015625
0.24072265625 0.29925537109375 0.6328125
-0.1409912109375 -0.355804443359375 0.6708984375
0.2586669921875 0.505401611328125 0.62890625
-0.33203125 -0.47265625 0.625
0.199462890625 0.68084716796875 0.6044921875
-0.5184326171875 -0.5044403076171875 0.607421875
0.081787109375 0.78094482421875 0.6328125
-0.6640625 -0.44921875 0.5927734375
-0.0235595703125 0.758331298828125 0.6865234375
-0.7000732421875 -0.3495330810546875 0.6923828125
-0.2052001953125 0.649169921875 0.7294921875
-0.6854248046875 -0.1350250244140625 0.7763671875
-0.362060546875 0.5736541748046875 0.8125
-0.688720703125 0.026580810546875 0.7822265625
-0.3741455078125 0.4640655517578125 0.8359375
-0.6077880859375 0.116668701171875 0.798828125
-0.322998046875 0.312408447265625 0.814453125
-0.4322509765625 0.132965087890625 0.8046875
0.1749267578125 0.07647705078125 0.7392578125
0.0233154296875 -0.1679229736328125 0.748046875
0.5009765625 -0.05450439453125 0.6865234375
0.30517578125 -0.406402587890625 0.6884765625
0.7044677734375 -0.139007568359375 0.69140625
0.46826171875 -0.538665771484375 0.6669921875
0.8240966796875 -0.1829833984375 0.642578125
0.576171875 -0.612762451171875 0.6943359375
0.88330078125 -0.2530059814453125 0.634765625
0.6602783203125 -0.6393890380859375 0.640625
0.8643798828125 -0.3404541015625 0.60546875
0.729248046875 -0.5820159912109375 0.6572265625
0.812255859375 -0.466766357421875 0.64453125
-0.027587890625 0.0204315185546875 0.7412109375
-0.162841796875 0.1005096435546875 0.7744140625
-0.232666015625 0.5220794677734375 0.775390625
-0.577880859375 -0.048828125 0.7412109375
-0.02978515625 0.1852874755859375 0.7568359375
-0.1778564453125 -0.0536346435546875 0.71484375
-0.111328125 0.206939697265625 0.7490234375
-0.236572265625 0.005462646484375 0.7705078125
0.6287841796875 -0.2291107177734375 0.7099609375
0.515380859375 -0.4201202392578125 0.732421875
0.4495849609375 -0.1555633544921875 0.7548828125
0.3604736328125 -0.303741455078125 0.748046875
0.409912109375 -0.226470947265625 0.6953125
0.2947998046875 -0.16265869140625 0.7431640625
0.2852783203125 -0.0638427734375 0.7734375
0.204833984375 -0.2027587890625 0.74609375
0.2633056640625 -0.0063323974609375 0.767578125
0.1441650390625 -0.2065887451171875 0.75
0.188720703125 0.0018463134765625 0.7724609375
0.0870361328125 -0.1593017578125 0.78515625
0.1475830078125 -0.038482666015625 0.7685546875
0.109130859375 -0.103302001953125 0.7734375
0.1875 -0.093994140625 0.8037109375
0.173583984375 -0.04083251953125 0.7998046875
0.1236572265625 -0.1190032958984375 0.7919921875
0.2041015625 -0.0081787109375 0.810546875
0.1185302734375 -0.155731201171875 0.81640625
0.255859375 -0.025390625 0.8125
0.1512451171875 -0.1792449951171875 0.810546875
0.2696533203125 -0.066925048828125 0.80078125
0.1976318359375 -0.180419921875 0.787109375
0.245361328125 -0.1335601806640625 0.7744140625
0.3948974609375 0.041778564453125 0.587890625
0.1697998046875 -0.36761474609375 0.5888671875
0.2838134765625 0.0233917236328125 0.6767578125
0.128662109375 -0.25152587890625 0.6884765625
0.3741455078125 -0.003570556640625 0.6728515625
0.1875 -0.303192138671875 0.7099609375
0.319580078125 0.05474853515625 0.5419921875
0.1142578125 -0.311065673828125 0.634765625
0.7542724609375 -0.4279022216796875 0.669921875
0.7655029296875 -0.3762054443359375 0.7236328125
0.7255859375 -0.4667205810546875 0.703125
0.7523193359375 -0.330047607421875 0.68359375
0.6614990234375 -0.47235107421875 0.7275390625
0.7054443359375 -0.2978363037109375 0.7001953125
0.6240234375 -0.435089111328125 0.7099609375
0.68798828125 -0.3817901611328125 0.66015625
0.70556640625 -0.31915283203125 0.630859375
0.6429443359375 -0.44610595703125 0.681640625
0.7376708984375 -0.3284149169921875 0.6484375
0.6658935546875 -0.4711761474609375 0.6650390625
0.7501220703125 -0.3680572509765625 0.6416015625
0.7017822265625 -0.455963134765625 0.6533203125
0.7255859375 -0.417022705078125 0.6650390625
-0.09521484375 0.2542572021484375 0.830078125
-0.2674560546875 -0.0328369140625 0.77734375
-0.0299072265625 0.2338714599609375 0.7529296875
-0.2232666015625 -0.0785064697265625 0.7900390625
-0.1800537109375 0.4956512451171875 0.748046875
-0.5294189453125 -0.0727081298828125 0.7861328125
-0.219482421875 0.43353271484375 0.74609375
-0.4962158203125 -0.020782470703125 0.7685546875
-0.1214599609375 0.5638885498046875 0.73046875
-0.556884765625 -0.1685791015625 0.7119140625
-0.0103759765625 0.62689208984375 0.6845703125
