# XYZ point cloud file
0.151611328125 0.00390625 0.75439453125
0.12457275390625 0.0478515625 0.736328125
0.053802490234375 0.0184326171875 0.73193359375
0.056304931640625 -0.08837890625 0.76904296875
0.057861328125 -0.11187744140625 0.75634765625
0.076263427734375 -0.087158203125 0.736328125
0.055572509765625 -0.049560546875 0.73291015625
0.023529052734375 -0.0740966796875 0.76806640625
0.036102294921875 -0.11187744140625 0.76416015625
0.080535888671875 -0.11279296875 0.75927734375
0.084014892578125 -0.064453125 0.740234375
0.01947021484375 -0.03680419921875 0.73388671875
0.2255859375 0.0189208984375 0.7646484375
0.22412109375 0.01300048828125 0.74365234375
0.250030517578125 0.020263671875 0.736328125
0.22979736328125 0.02923583984375 0.74755859375
0.19952392578125 0.02880859375 0.76318359375
0.19677734375 0.0152587890625 0.76416015625
0.2490234375 0.01348876953125 0.76904296875
0.257354736328125 0.02239990234375 0.74560546875
0.20166015625 0.03985595703125 0.73486328125
0.096405029296875 -0.18060302734375 0.755859375
0.11846923828125 -0.20111083984375 0.744140625
0.1021728515625 -0.18048095703125 0.7490234375
0.085693359375 -0.1654052734375 0.7587890625
0.095611572265625 -0.1944580078125 0.7451171875
0.115020751953125 -0.2139892578125 0.76171875
0.1231689453125 -0.197021484375 0.755859375
0.088958740234375 -0.164794921875 0.75537109375
0.07403564453125 -0.16864013671875 0.7890625
0.305938720703125 -0.01629638671875 0.728515625
0.29248046875 -0.0211181640625 0.724609375
0.323883056640625 -0.02508544921875 0.6943359375
0.309295654296875 -0.0030517578125 0.70556640625
0.287567138671875 -0.00018310546875 0.7421875
0.27728271484375 -0.0152587890625 0.7275390625
0.3079833984375 -0.034912109375 0.7275390625
0.330413818359375 -0.0062255859375 0.705078125
0.29736328125 0.0057373046875 0.70654296875
0.1729736328125 -0.23736572265625 0.72998046875
0.188323974609375 -0.24365234375 0.69287109375
0.168853759765625 -0.2247314453125 0.7578125
0.148895263671875 -0.233642578125 0.72216796875
0.16363525390625 -0.250244140625 0.7236328125
0.183197021484375 -0.26446533203125 0.69580078125
0.194610595703125 -0.2293701171875 0.74951171875
0.155914306640625 -0.21905517578125 0.74658203125
0.144561767578125 -0.2449951171875 0.7060546875
0.39697265625 -0.06494140625 0.734375
0.3856201171875 -0.08447265625 0.7294921875
0.433837890625 -0.078857421875 0.7060546875
0.41070556640625 -0.04754638671875 0.69140625
0.367645263671875 -0.0479736328125 0.720703125
0.352630615234375 -0.06829833984375 0.7216796875
0.42071533203125 -0.10589599609375 0.72412109375
0.4466552734375 -0.06640625 0.71142578125
0.376953125 -0.03387451171875 0.712890625
0.26202392578125 -0.29559326171875 0.734375
0.29302978515625 -0.3114013671875 0.724609375
0.27862548828125 -0.2652587890625 0.73486328125
0.231842041015625 -0.2750244140625 0.74609375
0.25384521484375 -0.31597900390625 0.71630859375
0.28338623046875 -0.33709716796875 0.71337890625
0.306365966796875 -0.28662109375 0.7607421875
0.2432861328125 -0.24591064453125 0.74462890625
0.22906494140625 -0.297119140625 0.72802734375
0.446685791015625 0.00775146484375 0.61669921875
0.4493408203125 0.02294921875 0.578125
0.409088134765625 0.01513671875 0.6474609375
0.433135986328125 -0.01544189453125 0.63134765625
0.475830078125 -0.01031494140625 0.595703125
0.486480712890625 0.0096435546875 0.6015625
0.414886474609375 0.0250244140625 0.60791015625
0.4044189453125 0.00201416015625 0.6708984375
0.46881103515625 -0.020263671875 0.64453125
0.206085205078125 -0.3802490234375 0.64697265625
0.189239501953125 -0.355712890625 0.64306640625
0.198760986328125 -0.3896484375 0.62841796875
0.238677978515625 -0.39990234375 0.63720703125
0.2265625 -0.35955810546875 0.65185546875
0.203155517578125 -0.33453369140625 0.66357421875
0.1756591796875 -0.3675537109375 0.61474609375
0.230621337890625 -0.41925048828125 0.61474609375
0.2540283203125 -0.38616943359375 0.69091796875
0.344512939453125 0.030029296875 0.6171875
0.347686767578125 0.03564453125 0.59033203125
0.32757568359375 0.0389404296875 0.63916015625
0.3388671875 0.0216064453125 0.67822265625
0.3636474609375 0.02679443359375 0.6103515625
0.371734619140625 0.03924560546875 0.58154296875
0.33447265625 0.0460205078125 0.607421875
0.31719970703125 0.0274658203125 0.66943359375
0.358154296875 0.0128173828125 0.66064453125
0.140716552734375 -0.30181884765625 0.61962890625
0.13262939453125 -0.28887939453125 0.64892578125
0.138092041015625 -0.318359375 0.60791015625
0.1544189453125 -0.318603515625 0.62451171875
0.15557861328125 -0.28472900390625 0.67236328125
0.13446044921875 -0.27886962890625 0.6748046875
0.119598388671875 -0.30450439453125 0.59912109375
0.154296875 -0.3306884765625 0.6005859375
0.16522216796875 -0.29913330078125 0.70458984375
0.255889892578125 0.05517578125 0.66455078125
0.24737548828125 0.076904296875 0.6337890625
0.24542236328125 0.050537109375 0.69580078125
0.279541015625 0.0400390625 0.64990234375
0.279693603515625 0.0592041015625 0.61328125
0.261322021484375 0.07647705078125 0.60009765625
0.22308349609375 0.0714111328125 0.70263671875
0.275299072265625 0.03515625 0.6748046875
0.290008544921875 0.05279541015625 0.58349609375
0.08209228515625 -0.2451171875 0.6513671875
0.08294677734375 -0.2236328125 0.69873046875
0.058135986328125 -0.23590087890625 0.64794921875
0.07696533203125 -0.257568359375 0.61181640625
0.095123291015625 -0.2581787109375 0.63525390625
0.10223388671875 -0.23382568359375 0.7080078125
0.060699462890625 -0.21246337890625 0.69580078125
0.065521240234375 -0.25506591796875 0.60888671875
0.09912109375 -0.270751953125 0.599609375
0.66326904296875 -0.31793212890625 0.7197265625
0.663818359375 -0.31231689453125 0.712890625
0.6614990234375 -0.3360595703125 0.73583984375
0.672607421875 -0.31707763671875 0.72900390625
0.680419921875 -0.30224609375 0.70849609375
0.6768798828125 -0.29180908203125 0.7197265625
0.659942626953125 -0.33782958984375 0.73388671875
0.66436767578125 -0.34600830078125 0.72705078125
0.682281494140625 -0.30364990234375 0.73486328125
0.624542236328125 -0.40289306640625 0.70947265625
0.63824462890625 -0.3768310546875 0.73828125
0.615570068359375 -0.38836669921875 0.7412109375
0.607635498046875 -0.4124755859375 0.740234375
0.63153076171875 -0.39862060546875 0.74072265625
0.641815185546875 -0.37994384765625 0.70947265625
0.636138916015625 -0.38275146484375 0.74365234375
0.6053466796875 -0.41180419921875 0.7421875
0.61932373046875 -0.41839599609375 0.72412109375
0.719757080078125 -0.289794921875 0.7197265625
0.731231689453125 -0.2860107421875 0.69189453125
0.706878662109375 -0.2822265625 0.71728515625
0.719085693359375 -0.29534912109375 0.71484375
0.737548828125 -0.30078125 0.72412109375
0.74945068359375 -0.29443359375 0.70458984375
0.711578369140625 -0.27410888671875 0.71142578125
0.704742431640625 -0.2916259765625 0.71337890625
0.73162841796875 -0.30426025390625 0.7255859375
0.6270751953125 -0.4598388671875 0.74267578125
0.617584228515625 -0.44500732421875 0.72607421875
0.623565673828125 -0.467529296875 0.728515625
0.6419677734375 -0.4718017578125 0.732421875
0.62677001953125 -0.45068359375 0.71875
0.6160888671875 -0.4393310546875 0.72900390625
0.6082763671875 -0.447998046875 0.732421875
0.64288330078125 -0.47650146484375 0.6962890625
0.6434326171875 -0.4647216796875 0.734375
0.772552490234375 -0.3408203125 0.71875
0.775909423828125 -0.341796875 0.68603515625
0.764862060546875 -0.327392578125 0.697265625
0.75982666015625 -0.33984375 0.7197265625
0.7772216796875 -0.3538818359375 0.6923828125
0.782958984375 -0.35174560546875 0.6962890625
0.77313232421875 -0.3182373046875 0.70361328125
0.761932373046875 -0.32879638671875 0.703125
0.76837158203125 -0.35296630859375 0.68603515625
0.69366455078125 -0.47137451171875 0.7265625
0.67779541015625 -0.47393798828125 0.7197265625
0.69573974609375 -0.485595703125 0.71044921875
0.701019287109375 -0.46875 0.68505859375
0.692657470703125 -0.46759033203125 0.69287109375
0.672637939453125 -0.47039794921875 0.6904296875
0.676605224609375 -0.48101806640625 0.7216796875
0.70697021484375 -0.47369384765625 0.71142578125
0.70208740234375 -0.461181640625 0.6953125
0.76556396484375 -0.40301513671875 0.68603515625
0.774017333984375 -0.40264892578125 0.7021484375
0.767913818359375 -0.3873291015625 0.671875
0.76556396484375 -0.40423583984375 0.6923828125
0.7666015625 -0.41259765625 0.697265625
0.76251220703125 -0.4195556640625 0.7021484375
0.780059814453125 -0.3826904296875 0.69189453125
0.76629638671875 -0.3846435546875 0.6962890625
0.758575439453125 -0.41058349609375 0.68505859375
0.738494873046875 -0.44525146484375 0.69873046875
0.7359619140625 -0.45660400390625 0.6787109375
0.739898681640625 -0.45391845703125 0.69921875
0.748809814453125 -0.4342041015625 0.6787109375
0.7364501953125 -0.44110107421875 0.671875
0.730743408203125 -0.44873046875 0.65625
0.733978271484375 -0.45880126953125 0.6923828125
0.750274658203125 -0.4383544921875 0.6982421875
0.7470703125 -0.44110107421875 0.69580078125
0.746307373046875 -0.39556884765625 0.6572265625
0.7535400390625 -0.401611328125 0.6904296875
0.75457763671875 -0.39093017578125 0.681640625
0.74029541015625 -0.387451171875 0.64697265625
0.74102783203125 -0.4034423828125 0.6474609375
0.746337890625 -0.41156005859375 0.6767578125
0.758270263671875 -0.38671875 0.66748046875
0.747650146484375 -0.3800048828125 0.6435546875
0.742034912109375 -0.40667724609375 0.64208984375
0.727874755859375 -0.43975830078125 0.666015625
0.71875 -0.4443359375 0.67724609375
0.73443603515625 -0.44171142578125 0.6806640625
0.73419189453125 -0.43280029296875 0.6591796875
0.720245361328125 -0.4356689453125 0.66552734375
0.7052001953125 -0.438232421875 0.6669921875
0.7227783203125 -0.4478759765625 0.6767578125
0.744232177734375 -0.4290771484375 0.68359375
0.72540283203125 -0.4173583984375 0.64208984375
0.7476806640625 -0.350830078125 0.6787109375
0.75262451171875 -0.349853515625 0.662109375
0.74835205078125 -0.34136962890625 0.6611328125
0.7467041015625 -0.34161376953125 0.6455078125
0.7568359375 -0.36053466796875 0.6787109375
0.760772705078125 -0.36236572265625 0.67822265625
0.747161865234375 -0.333251953125 0.671875
0.73980712890625 -0.33074951171875 0.6572265625
0.75286865234375 -0.35614013671875 0.64697265625
0.6856689453125 -0.462646484375 0.66259765625
0.6719970703125 -0.46832275390625 0.67724609375
0.68902587890625 -0.462646484375 0.69873046875
0.69586181640625 -0.455322265625 0.6689453125
0.67822265625 -0.4639892578125 0.6484375
0.66754150390625 -0.46026611328125 0.70458984375
0.6715087890625 -0.46209716796875 0.66064453125
0.70367431640625 -0.45849609375 0.689453125
0.692230224609375 -0.45318603515625 0.65185546875
0.7144775390625 -0.30267333984375 0.66162109375
0.71630859375 -0.2935791015625 0.71435546875
0.709716796875 -0.30059814453125 0.68115234375
0.716827392578125 -0.30804443359375 0.64990234375
0.7259521484375 -0.31231689453125 0.6708984375
0.728485107421875 -0.3070068359375 0.6943359375
0.70416259765625 -0.29498291015625 0.69384765625
0.706695556640625 -0.30438232421875 0.68603515625
0.7265625 -0.31243896484375 0.666015625
0.630523681640625 -0.44854736328125 0.732421875
0.62127685546875 -0.43890380859375 0.68701171875
0.63348388671875 -0.4530029296875 0.71337890625
0.640289306640625 -0.4527587890625 0.701171875
0.626434326171875 -0.454833984375 0.67724609375
0.621673583984375 -0.44232177734375 0.67822265625
0.61785888671875 -0.4373779296875 0.69677734375
0.6407470703125 -0.458251953125 0.69189453125
0.63531494140625 -0.45794677734375 0.6845703125
0.675750732421875 -0.33270263671875 0.6875
0.67315673828125 -0.32684326171875 0.6943359375
0.6658935546875 -0.35003662109375 0.6650390625
0.683929443359375 -0.33709716796875 0.6767578125
0.688812255859375 -0.3193359375 0.703125
0.678924560546875 -0.318359375 0.701171875
0.66900634765625 -0.35076904296875 0.70751953125
0.6756591796875 -0.35748291015625 0.68408203125
0.686279296875 -0.31439208984375 0.689453125
0.6341552734375 -0.40533447265625 0.68115234375
0.64593505859375 -0.384765625 0.69482421875
0.630645751953125 -0.39874267578125 0.7109375
0.619232177734375 -0.4205322265625 0.69677734375
0.639678955078125 -0.4044189453125 0.68359375
0.652587890625 -0.39447021484375 0.68994140625
0.643035888671875 -0.3812255859375 0.7197265625
0.618072509765625 -0.41754150390625 0.701171875
0.624481201171875 -0.42242431640625 0.67236328125
0.71295166015625 -0.37255859375 0.646484375
0.7034912109375 -0.37939453125 0.63720703125
0.725372314453125 -0.3780517578125 0.63525390625
0.714111328125 -0.34893798828125 0.6552734375
0.70098876953125 -0.34735107421875 0.6708984375
0.696502685546875 -0.37371826171875 0.6943359375
0.719268798828125 -0.3963623046875 0.6494140625
0.73126220703125 -0.3626708984375 0.6396484375
0.7047119140625 -0.337158203125 0.63330078125
0.67974853515625 -0.423583984375 0.6435546875
0.691131591796875 -0.43060302734375 0.66015625
0.691009521484375 -0.41033935546875 0.64013671875
0.666656494140625 -0.4224853515625 0.681640625
0.668365478515625 -0.4404296875 0.6669921875
0.686309814453125 -0.4349365234375 0.6484375
0.701446533203125 -0.41455078125 0.6357421875
0.679595947265625 -0.40625 0.654296875
0.648101806640625 -0.427978515625 0.67236328125
0.721099853515625 -0.33087158203125 0.6640625
0.72222900390625 -0.3341064453125 0.63134765625
0.736724853515625 -0.33099365234375 0.626953125
0.72222900390625 -0.31866455078125 0.62255859375
0.71636962890625 -0.32440185546875 0.6669921875
0.7301025390625 -0.34246826171875 0.654296875
0.73089599609375 -0.324462890625 0.62744140625
0.6527099609375 -0.45343017578125 0.6669921875
0.665802001953125 -0.45037841796875 0.64453125
0.6531982421875 -0.44683837890625 0.6630859375
0.644378662109375 -0.45562744140625 0.64111328125
0.64727783203125 -0.4549560546875 0.67919921875
0.669525146484375 -0.4490966796875 0.6796875
0.6392822265625 -0.44683837890625 0.63720703125
-0.057525634765625 0.2254638671875 0.75830078125
-0.06561279296875 0.21051025390625 0.72998046875
-0.04547119140625 0.2255859375 0.73974609375
-0.062286376953125 0.2362060546875 0.75341796875
-0.0794677734375 0.23516845703125 0.73779296875
-0.080078125 0.220947265625 0.76171875
-0.0404052734375 0.21014404296875 0.72900390625
-0.04388427734375 0.24066162109375 0.74462890625
-0.07952880859375 0.24420166015625 0.74169921875
-0.22491455078125 -0.03704833984375 0.775390625
-0.2149658203125 -0.05316162109375 0.77490234375
-0.218719482421875 -0.03192138671875 0.77734375
-0.241302490234375 -0.02880859375 0.76171875
-0.235321044921875 -0.03778076171875 0.76806640625
-0.23175048828125 -0.05096435546875 0.763671875
-0.2015380859375 -0.03924560546875 0.751953125
-0.229248046875 -0.009521484375 0.76220703125
-0.24676513671875 -0.03094482421875 0.78125
-0.135955810546875 0.25946044921875 0.7744140625
-0.147552490234375 0.2452392578125 0.75146484375
-0.11553955078125 0.2412109375 0.79052734375
-0.12493896484375 0.2647705078125 0.76025390625
-0.147735595703125 0.2635498046875 0.7783203125
-0.162841796875 0.2584228515625 0.75341796875
-0.120635986328125 0.229248046875 0.77099609375
-0.114715576171875 0.25146484375 0.7666015625
-0.145751953125 0.28076171875 0.77197265625
-0.2894287109375 0.00982666015625 0.75244140625
-0.270660400390625 -0.00164794921875 0.76171875
-0.284149169921875 0.02044677734375 0.76318359375
-0.30926513671875 0.027587890625 0.755859375
-0.293121337890625 -0.00543212890625 0.78369140625
-0.27874755859375 -0.00628662109375 0.76220703125
-0.260711669921875 0.00726318359375 0.75732421875
-0.30206298828125 0.02947998046875 0.7666015625
-0.3115234375 0.01031494140625 0.78173828125
-0.1988525390625 0.31134033203125 0.77880859375
-0.211944580078125 0.3106689453125 0.775390625
-0.184906005859375 0.293701171875 0.748046875
-0.18988037109375 0.32257080078125 0.77197265625
-0.212921142578125 0.334228515625 0.7490234375
-0.223388671875 0.33026123046875 0.7685546875
-0.195892333984375 0.2872314453125 0.76611328125
-0.172637939453125 0.3023681640625 0.7783203125
-0.202850341796875 0.3433837890625 0.75830078125
-0.3759765625 0.0404052734375 0.77978515625
-0.346435546875 0.03326416015625 0.79931640625
-0.37261962890625 0.0513916015625 0.767578125
-0.39642333984375 0.03863525390625 0.775390625
-0.373992919921875 0.01611328125 0.77490234375
-0.354217529296875 0.01983642578125 0.78955078125
-0.345458984375 0.0465087890625 0.75
-0.39984130859375 0.05108642578125 0.77294921875
-0.396087646484375 0.03045654296875 0.76953125
0.006561279296875 0.22052001953125 0.767578125
0.00323486328125 0.21197509765625 0.76171875
0.023345947265625 0.2327880859375 0.75927734375
-0.000335693359375 0.22760009765625 0.7568359375
-0.007598876953125 0.2239990234375 0.74755859375
-0.01434326171875 0.20660400390625 0.740234375
0.027252197265625 0.2169189453125 0.77197265625
0.01593017578125 0.23907470703125 0.751953125
-0.011749267578125 0.22979736328125 0.7578125
-0.195220947265625 -0.09661865234375 0.74169921875
-0.19195556640625 -0.11224365234375 0.7705078125
-0.17669677734375 -0.09161376953125 0.77197265625
-0.198150634765625 -0.07965087890625 0.78466796875
-0.20562744140625 -0.09100341796875 0.75732421875
-0.196319580078125 -0.11248779296875 0.75244140625
-0.176544189453125 -0.11468505859375 0.76806640625
-0.185760498046875 -0.065185546875 0.77099609375
-0.210418701171875 -0.0845947265625 0.763671875
0.09576416015625 0.2802734375 0.72314453125
0.106292724609375 0.2681884765625 0.74462890625
0.125579833984375 0.29949951171875 0.70849609375
0.092742919921875 0.2857666015625 0.7333984375
0.07452392578125 0.26068115234375 0.72705078125
0.07623291015625 0.24847412109375 0.7265625
0.1298828125 0.29229736328125 0.7177734375
0.1146240234375 0.30438232421875 0.70263671875
0.06195068359375 0.2650146484375 0.7509765625
-0.197235107421875 -0.2008056640625 0.70458984375
-0.20892333984375 -0.2342529296875 0.7431640625
-0.19049072265625 -0.20037841796875 0.73681640625
-0.193817138671875 -0.171875 0.76318359375
-0.211456298828125 -0.20184326171875 0.732421875
-0.22479248046875 -0.227294921875 0.7431640625
-0.20111083984375 -0.2391357421875 0.72119140625
-0.175384521484375 -0.16845703125 0.73095703125
-0.19903564453125 -0.16558837890625 0.771484375
0.170501708984375 0.38134765625 0.7265625
0.17706298828125 0.3804931640625 0.69775390625
0.173858642578125 0.4158935546875 0.69091796875
0.162261962890625 0.39178466796875 0.69775390625
0.157257080078125 0.35595703125 0.716796875
0.16522216796875 0.354736328125 0.6767578125
0.1865234375 0.41375732421875 0.69482421875
0.168060302734375 0.4091796875 0.69140625
0.149139404296875 0.36004638671875 0.71484375
-0.261749267578125 -0.31402587890625 0.6904296875
-0.290924072265625 -0.33184814453125 0.6875
-0.25799560546875 -0.326416015625 0.716796875
-0.244110107421875 -0.29498291015625 0.7275390625
-0.26995849609375 -0.30670166015625 0.7216796875
-0.29254150390625 -0.32135009765625 0.7255859375
-0.281463623046875 -0.34185791015625 0.66064453125
-0.236419677734375 -0.2999267578125 0.68017578125
-0.249176025390625 -0.287353515625 0.71923828125
0.16595458984375 0.50970458984375 0.68310546875
0.170745849609375 0.52142333984375 0.666015625
0.154998779296875 0.54644775390625 0.66357421875
0.15447998046875 0.50421142578125 0.658203125
0.171173095703125 0.4808349609375 0.68310546875
0.180023193359375 0.48333740234375 0.66162109375
0.159881591796875 0.55291748046875 0.66796875
0.142822265625 0.54144287109375 0.6728515625
0.15966796875 0.47088623046875 0.68994140625
-0.386810302734375 -0.373779296875 0.66259765625
-0.42449951171875 -0.374755859375 0.6884765625
-0.386444091796875 -0.38934326171875 0.65869140625
-0.353118896484375 -0.3636474609375 0.6865234375
-0.384857177734375 -0.36834716796875 0.6669921875
-0.41497802734375 -0.370361328125 0.669921875
-0.424102783203125 -0.3912353515625 0.65771484375
-0.35369873046875 -0.3751220703125 0.68994140625
-0.351654052734375 -0.3570556640625 0.7109375
0.111572265625 0.61907958984375 0.65625
0.113067626953125 0.6319580078125 0.64404296875
0.08807373046875 0.62823486328125 0.65234375
0.10528564453125 0.60284423828125 0.6728515625
0.13275146484375 0.60235595703125 0.66455078125
0.13665771484375 0.60748291015625 0.6328125
0.093536376953125 0.6453857421875 0.6669921875
0.0885009765625 0.61627197265625 0.66845703125
0.117950439453125 0.59130859375 0.65234375
-0.509552001953125 -0.37615966796875 0.6572265625
-0.533782958984375 -0.367919921875 0.65576171875
-0.5185546875 -0.3907470703125 0.640625
-0.484649658203125 -0.38336181640625 0.6591796875
-0.504638671875 -0.3614501953125 0.65380859375
-0.52325439453125 -0.35894775390625 0.66162109375
-0.54376220703125 -0.3861083984375 0.65283203125
-0.490386962890625 -0.39874267578125 0.65380859375
-0.4776611328125 -0.3739013671875 0.66259765625
0.03570556640625 0.65673828125 0.6787109375
0.03656005859375 0.662841796875 0.6826171875
0.014129638671875 0.64788818359375 0.638671875
0.032989501953125 0.64031982421875 0.685546875
0.051605224609375 0.652587890625 0.65673828125
0.054534912109375 0.66278076171875 0.64111328125
0.013916015625 0.665771484375 0.66748046875
0.009490966796875 0.6451416015625 0.6611328125
0.050262451171875 0.6326904296875 0.68505859375
-0.5755615234375 -0.32415771484375 0.67919921875
-0.58648681640625 -0.3082275390625 0.68115234375
-0.59326171875 -0.3355712890625 0.65185546875
-0.56719970703125 -0.3431396484375 0.66064453125
-0.569610595703125 -0.31658935546875 0.68212890625
-0.577880859375 -0.3026123046875 0.68115234375
-0.6031494140625 -0.315185546875 0.67919921875
-0.573089599609375 -0.35272216796875 0.6748046875
-0.5576171875 -0.33544921875 0.6923828125
-0.064056396484375 0.611083984375 0.71923828125
-0.0689697265625 0.6209716796875 0.68994140625
-0.094818115234375 0.58795166015625 0.716796875
-0.05908203125 0.60205078125 0.69677734375
-0.03887939453125 0.6279296875 0.71142578125
-0.036407470703125 0.63916015625 0.67724609375
-0.09820556640625 0.59539794921875 0.70654296875
-0.08941650390625 0.5806884765625 0.7158203125
-0.0391845703125 0.61480712890625 0.7080078125
-0.589569091796875 -0.22283935546875 0.74365234375
-0.582275390625 -0.19085693359375 0.71533203125
-0.5987548828125 -0.220458984375 0.72216796875
-0.59014892578125 -0.25537109375 0.6982421875
-0.582916259765625 -0.21954345703125 0.7119140625
-0.57427978515625 -0.1875 0.73193359375
-0.593048095703125 -0.18377685546875 0.732421875
-0.598907470703125 -0.25665283203125 0.67626953125
-0.57989501953125 -0.249755859375 0.71484375
-0.166534423828125 0.53594970703125 0.73779296875
-0.178802490234375 0.5372314453125 0.72509765625
-0.18353271484375 0.5145263671875 0.75244140625
-0.15521240234375 0.5286865234375 0.74658203125
-0.142578125 0.54022216796875 0.73046875
-0.1549072265625 0.55755615234375 0.73486328125
-0.201904296875 0.5233154296875 0.75927734375
-0.17840576171875 0.5078125 0.76220703125
-0.1331787109375 0.5462646484375 0.74853515625
-0.566650390625 -0.09423828125 0.748046875
-0.556427001953125 -0.06744384765625 0.77294921875
-0.57763671875 -0.09307861328125 0.73046875
-0.56536865234375 -0.1190185546875 0.7509765625
-0.55120849609375 -0.099365234375 0.7548828125
-0.54736328125 -0.07421875 0.76806640625
-0.568695068359375 -0.06829833984375 0.75732421875
-0.583984375 -0.116455078125 0.77392578125
-0.56292724609375 -0.125732421875 0.7509765625
-0.215545654296875 0.47216796875 0.74267578125
-0.236175537109375 0.47381591796875 0.763671875
-0.228485107421875 0.458740234375 0.765625
-0.205352783203125 0.4757080078125 0.744140625
-0.210052490234375 0.49200439453125 0.740234375
-0.219085693359375 0.4920654296875 0.77294921875
-0.2403564453125 0.45843505859375 0.7783203125
-0.217132568359375 0.4560546875 0.77099609375
-0.19476318359375 0.4842529296875 0.7646484375
-0.52117919921875 -0.0250244140625 0.76318359375
-0.52020263671875 -0.013671875 0.77490234375
-0.538970947265625 -0.00823974609375 0.77783203125
-0.53875732421875 -0.036865234375 0.77587890625
-0.52069091796875 -0.0238037109375 0.75634765625
-0.51226806640625 -0.01153564453125 0.7841796875
-0.532958984375 0.00469970703125 0.7626953125
-0.5599365234375 -0.0283203125 0.75048828125
-0.528472900390625 -0.0474853515625 0.7578125
-0.2318115234375 0.39849853515625 0.79052734375
-0.2520751953125 0.39556884765625 0.78173828125
-0.22711181640625 0.37493896484375 0.775390625
-0.218597412109375 0.395263671875 0.732421875
-0.2286376953125 0.41778564453125 0.7392578125
-0.24224853515625 0.41552734375 0.76806640625
-0.24237060546875 0.36871337890625 0.76904296875
-0.217803955078125 0.37786865234375 0.755859375
-0.218017578125 0.41998291015625 0.76513671875
-0.4656982421875 0.02423095703125 0.76953125
-0.440643310546875 0.02880859375 0.791015625
-0.474517822265625 0.043212890625 0.775390625
-0.485076904296875 0.01910400390625 0.755859375
-0.460601806640625 0.015625 0.75732421875
-0.44256591796875 0.01800537109375 0.78173828125
-0.446319580078125 0.0482177734375 0.7900390625
-0.491668701171875 0.03302001953125 0.74951171875
-0.4813232421875 0.0037841796875 0.779296875
-0.1925048828125 0.4027099609375 0.73583984375
-0.19329833984375 0.39898681640625 0.765625
-0.186248779296875 0.387451171875 0.74560546875
-0.1884765625 0.40850830078125 0.74169921875
-0.190277099609375 0.421630859375 0.7666015625
-0.2034912109375 0.41876220703125 0.77197265625
-0.19677734375 0.3817138671875 0.7578125
-0.176849365234375 0.38885498046875 0.76806640625
-0.187957763671875 0.4234619140625 0.7373046875
-0.450592041015625 -0.0169677734375 0.76416015625
-0.437286376953125 -0.0042724609375 0.75732421875
-0.4560546875 0.00274658203125 0.76025390625
-0.465484619140625 -0.0147705078125 0.76513671875
-0.44647216796875 -0.02044677734375 0.74609375
-0.43756103515625 -0.00701904296875 0.7548828125
-0.43829345703125 0.00390625 0.77783203125
-0.46978759765625 -0.01422119140625 0.748046875
-0.46856689453125 -0.0216064453125 0.7685546875
-0.186798095703125 0.46307373046875 0.77587890625
-0.188751220703125 0.46734619140625 0.7705078125
-0.187744140625 0.45135498046875 0.76953125
-0.179595947265625 0.4598388671875 0.7724609375
-0.176361083984375 0.477783203125 0.78271484375
-0.184967041015625 0.4736328125 0.75341796875
-0.190948486328125 0.451416015625 0.77001953125
-0.178131103515625 0.44586181640625 0.76318359375
-0.17718505859375 0.470458984375 0.75244140625
-0.502716064453125 -0.048583984375 0.7490234375
-0.49542236328125 -0.0341796875 0.78369140625
-0.51177978515625 -0.0380859375 0.767578125
-0.512542724609375 -0.057861328125 0.77783203125
-0.50140380859375 -0.053466796875 0.77197265625
-0.489593505859375 -0.04168701171875 0.7802734375
-0.49566650390625 -0.02752685546875 0.76708984375
-0.5172119140625 -0.05816650390625 0.76220703125
-0.510009765625 -0.0609130859375 0.76025390625
-0.142120361328125 0.52032470703125 0.76220703125
-0.144287109375 0.51806640625 0.77294921875
-0.15545654296875 0.50164794921875 0.74365234375
-0.13494873046875 0.5120849609375 0.73974609375
-0.1221923828125 0.52862548828125 0.7509765625
-0.124053955078125 0.52655029296875 0.7177734375
-0.162109375 0.50390625 0.75537109375
-0.14996337890625 0.49700927734375 0.76513671875
-0.114990234375 0.52935791015625 0.732421875
-0.531829833984375 -0.10693359375 0.765625
-0.531036376953125 -0.09185791015625 0.7724609375
-0.538177490234375 -0.103515625 0.75830078125
-0.540435791015625 -0.12957763671875 0.7451171875
-0.535858154296875 -0.11077880859375 0.7451171875
-0.523193359375 -0.09088134765625 0.736328125
-0.533111572265625 -0.0850830078125 0.75341796875
-0.548309326171875 -0.1251220703125 0.76416015625
-0.5330810546875 -0.12774658203125 0.748046875
-0.055694580078125 0.57928466796875 0.72705078125
-0.05419921875 0.583740234375 0.72412109375
-0.08099365234375 0.564453125 0.7275390625
-0.055908203125 0.57916259765625 0.71435546875
-0.031768798828125 0.6004638671875 0.72314453125
-0.035552978515625 0.6026611328125 0.69091796875
-0.0853271484375 0.56744384765625 0.74609375
-0.079437255859375 0.55950927734375 0.736328125
-0.0316162109375 0.59136962890625 0.7021484375
-0.560760498046875 -0.21746826171875 0.72900390625
-0.55096435546875 -0.18255615234375 0.71630859375
-0.56597900390625 -0.21893310546875 0.72314453125
-0.559539794921875 -0.24188232421875 0.712890625
-0.552093505859375 -0.20538330078125 0.7236328125
-0.54681396484375 -0.17889404296875 0.73388671875
-0.557281494140625 -0.18896484375 0.74072265625
-0.56988525390625 -0.2459716796875 0.70947265625
-0.55169677734375 -0.2386474609375 0.73095703125
0.0240478515625 0.6175537109375 0.69580078125
0.03125 0.625 0.69677734375
0.007720947265625 0.6129150390625 0.6962890625
0.026214599609375 0.6070556640625 0.6796875
0.04571533203125 0.61639404296875 0.70361328125
0.043243408203125 0.61956787109375 0.65869140625
0.01043701171875 0.6201171875 0.69384765625
0.007843017578125 0.60723876953125 0.66455078125
0.03759765625 0.60693359375 0.673828125
-0.54913330078125 -0.2984619140625 0.6845703125
-0.551727294921875 -0.2880859375 0.720703125
-0.5626220703125 -0.30633544921875 0.6962890625
-0.530548095703125 -0.30963134765625 0.68310546875
-0.5372314453125 -0.29962158203125 0.6923828125
-0.54425048828125 -0.276123046875 0.70947265625
-0.562896728515625 -0.29083251953125 0.67822265625
-0.545257568359375 -0.32574462890625 0.68798828125
-0.535736083984375 -0.30816650390625 0.6845703125
0.088043212890625 0.5833740234375 0.693359375
0.096832275390625 0.58917236328125 0.65869140625
0.068695068359375 0.59661865234375 0.6640625
0.08197021484375 0.58203125 0.65966796875
0.097930908203125 0.57598876953125 0.6689453125
0.1080322265625 0.5751953125 0.6484375
0.076202392578125 0.600341796875 0.68505859375
0.074737548828125 0.5875244140625 0.67626953125
0.0987548828125 0.56451416015625 0.65966796875
-0.48870849609375 -0.347412109375 0.67578125
-0.509979248046875 -0.334716796875 0.6943359375
-0.491912841796875 -0.3431396484375 0.712890625
-0.46337890625 -0.343017578125 0.69580078125
-0.48443603515625 -0.33319091796875 0.68115234375
-0.500518798828125 -0.32318115234375 0.69970703125
-0.51641845703125 -0.340087890625 0.67041015625
-0.470672607421875 -0.35223388671875 0.6845703125
-0.466033935546875 -0.33929443359375 0.6865234375
0.1361083984375 0.50311279296875 0.70703125
0.13800048828125 0.502197265625 0.6953125
0.12847900390625 0.52227783203125 0.69189453125
0.125152587890625 0.49261474609375 0.7236328125
0.139373779296875 0.4698486328125 0.6904296875
0.15142822265625 0.4705810546875 0.6630859375
0.129241943359375 0.527587890625 0.6787109375
0.116973876953125 0.52001953125 0.67333984375
0.13427734375 0.4669189453125 0.6845703125
-0.389495849609375 -0.335205078125 0.701171875
-0.4183349609375 -0.34759521484375 0.666015625
-0.385009765625 -0.34423828125 0.708984375
-0.358062744140625 -0.33087158203125 0.70849609375
-0.3897705078125 -0.33026123046875 0.69140625
-0.41802978515625 -0.33837890625 0.703125
-0.418304443359375 -0.3558349609375 0.68798828125
-0.358123779296875 -0.33831787109375 0.7041015625
-0.35748291015625 -0.32379150390625 0.71142578125
0.1446533203125 0.38873291015625 0.70654296875
0.14947509765625 0.39422607421875 0.69189453125
0.144927978515625 0.4140625 0.681640625
0.13275146484375 0.39111328125 0.71240234375
0.134979248046875 0.3734130859375 0.720703125
0.135040283203125 0.36505126953125 0.73388671875
0.14910888671875 0.41607666015625 0.70947265625
0.13885498046875 0.41595458984375 0.67822265625
0.13067626953125 0.37060546875 0.71142578125
-0.283050537109375 -0.29046630859375 0.734375
-0.304412841796875 -0.30963134765625 0.71630859375
-0.277374267578125 -0.2984619140625 0.72802734375
-0.261993408203125 -0.2769775390625 0.716796875
-0.284423828125 -0.2857666015625 0.71728515625
-0.308441162109375 -0.3011474609375 0.689453125
-0.299468994140625 -0.308837890625 0.7216796875
-0.256988525390625 -0.27862548828125 0.740234375
-0.268707275390625 -0.2642822265625 0.75341796875
0.08001708984375 0.30157470703125 0.732421875
0.08306884765625 0.296630859375 0.76220703125
0.103759765625 0.321533203125 0.7197265625
0.07861328125 0.31024169921875 0.71533203125
0.057403564453125 0.2816162109375 0.755859375
0.061187744140625 0.28082275390625 0.76611328125
0.105072021484375 0.321533203125 0.7470703125
0.097320556640625 0.33282470703125 0.7236328125
0.051025390625 0.2899169921875 0.74560546875
-0.228515625 -0.20098876953125 0.75244140625
-0.238494873046875 -0.22406005859375 0.7451171875
-0.221099853515625 -0.19488525390625 0.75341796875
-0.21990966796875 -0.17413330078125 0.74462890625
-0.22991943359375 -0.186767578125 0.7392578125
-0.237335205078125 -0.22149658203125 0.734375
-0.23260498046875 -0.22515869140625 0.763671875
-0.2198486328125 -0.166748046875 0.73291015625
-0.21783447265625 -0.15887451171875 0.73876953125
0.00048828125 0.250244140625 0.75537109375
0.000701904296875 0.246826171875 0.7744140625
0.0142822265625 0.26092529296875 0.7470703125
-0.001556396484375 0.25537109375 0.77099609375
-0.0159912109375 0.25372314453125 0.75390625
-0.011199951171875 0.24261474609375 0.7314453125
0.01904296875 0.2513427734375 0.759765625
0.013214111328125 0.2659912109375 0.77490234375
-0.014404296875 0.2528076171875 0.74609375
-0.21722412109375 -0.10101318359375 0.7802734375
-0.220733642578125 -0.11456298828125 0.76953125
-0.21240234375 -0.0987548828125 0.7646484375
-0.228118896484375 -0.0877685546875 0.76025390625
-0.228546142578125 -0.103515625 0.7470703125
-0.218475341796875 -0.1175537109375 0.75927734375
-0.21612548828125 -0.11669921875 0.7265625
-0.219696044921875 -0.08050537109375 0.7666015625
-0.2266845703125 -0.0882568359375 0.75439453125
-0.166473388671875 0.335693359375 0.76416015625
-0.17840576171875 0.334716796875 0.75146484375
-0.15264892578125 0.3193359375 0.75390625
-0.1553955078125 0.337890625 0.775390625
-0.174652099609375 0.3485107421875 0.75830078125
-0.1842041015625 0.34539794921875 0.77783203125
-0.162567138671875 0.31768798828125 0.74951171875
-0.15167236328125 0.32135009765625 0.77978515625
-0.172088623046875 0.36370849609375 0.74462890625
-0.376800537109375 -0.00177001953125 0.759765625
-0.3592529296875 0.0009765625 0.7587890625
-0.375579833984375 0.0062255859375 0.77392578125
-0.39501953125 0.00244140625 0.77197265625
-0.37725830078125 -0.0064697265625 0.7607421875
-0.362060546875 -0.0111083984375 0.767578125
-0.36090087890625 0.00408935546875 0.77880859375
-0.402862548828125 0.00396728515625 0.7783203125
-0.396270751953125 -0.0001220703125 0.73583984375
-0.11480712890625 0.28741455078125 0.787109375
-0.119659423828125 0.28497314453125 0.75537109375
-0.103118896484375 0.2802734375 0.7578125
-0.120697021484375 0.293701171875 0.74658203125
-0.126861572265625 0.2999267578125 0.7626953125
-0.13311767578125 0.28851318359375 0.75927734375
-0.103240966796875 0.27349853515625 0.78369140625
-0.097869873046875 0.27996826171875 0.7763671875
-0.12677001953125 0.3001708984375 0.765625
-0.30401611328125 -0.01593017578125 0.78173828125
-0.28985595703125 -0.025634765625 0.75634765625
-0.306396484375 -0.01922607421875 0.7666015625
-0.3251953125 -0.013671875 0.78173828125
-0.312347412109375 -0.0234375 0.76611328125
-0.293609619140625 -0.02838134765625 0.75048828125
-0.28997802734375 -0.02056884765625 0.77880859375
-0.320526123046875 -0.01031494140625 0.7841796875
-0.32568359375 -0.01507568359375 0.7763671875
-0.0604248046875 0.25750732421875 0.7587890625
-0.0606689453125 0.24603271484375 0.7490234375
-0.042022705078125 0.25079345703125 0.76611328125
-0.058258056640625 0.2623291015625 0.73876953125
-0.070159912109375 0.26220703125 0.76318359375
-0.06982421875 0.25830078125 0.77587890625
-0.0394287109375 0.25054931640625 0.76123046875
-0.0457763671875 0.25567626953125 0.7333984375
-0.072784423828125 0.26702880859375 0.755859375
-0.25634765625 -0.0618896484375 0.79296875
-0.24176025390625 -0.0638427734375 0.7734375
-0.249664306640625 -0.05474853515625 0.7890625
-0.262542724609375 -0.0450439453125 0.76708984375
-0.261138916015625 -0.05694580078125 0.7421875
-0.248046875 -0.0648193359375 0.7509765625
-0.23773193359375 -0.0592041015625 0.74853515625
-0.256744384765625 -0.0396728515625 0.78173828125
-0.26220703125 -0.0419921875 0.74560546875
-0.3525390625 0.26483154296875 0.70263671875
-0.351409912109375 0.26092529296875 0.71435546875
-0.357574462890625 0.29815673828125 0.6669921875
-0.34942626953125 0.27032470703125 0.662109375
-0.35455322265625 0.245361328125 0.6728515625
-0.357879638671875 0.23931884765625 0.716796875
-0.3597412109375 0.288818359375 0.70556640625
-0.351837158203125 0.29986572265625 0.6640625
-0.352752685546875 0.2454833984375 0.6474609375
-0.395782470703125 0.19091796875 0.6904296875
-0.427642822265625 0.18304443359375 0.68505859375
-0.39483642578125 0.1904296875 0.724609375
-0.37811279296875 0.21075439453125 0.6875
-0.395965576171875 0.19091796875 0.6494140625
-0.42791748046875 0.1732177734375 0.68359375
-0.428131103515625 0.18597412109375 0.71337890625
-0.375335693359375 0.21197509765625 0.712890625
-0.380859375 0.2041015625 0.64599609375
-0.41668701171875 0.40911865234375 0.68603515625
-0.42071533203125 0.39642333984375 0.73388671875
-0.436248779296875 0.449951171875 0.70849609375
-0.402587890625 0.426025390625 0.66748046875
-0.391998291015625 0.36956787109375 0.6708984375
-0.39801025390625 0.35858154296875 0.71728515625
-0.4456787109375 0.4454345703125 0.7373046875
-0.419464111328125 0.4610595703125 0.65771484375
-0.377716064453125 0.3818359375 0.6552734375
-0.55804443359375 0.17864990234375 0.67138671875
-0.602203369140625 0.18621826171875 0.69384765625
-0.56036376953125 0.18719482421875 0.7080078125
-0.50811767578125 0.17974853515625 0.66796875
-0.569610595703125 0.1668701171875 0.66064453125
-0.606719970703125 0.16253662109375 0.66748046875
-0.605438232421875 0.18768310546875 0.72509765625
-0.50799560546875 0.1884765625 0.73291015625
-0.515594482421875 0.1602783203125 0.64306640625
-0.44482421875 0.56005859375 0.67724609375
-0.460205078125 0.56488037109375 0.67919921875
-0.42974853515625 0.5947265625 0.68701171875
-0.430572509765625 0.56182861328125 0.66064453125
-0.458404541015625 0.5234375 0.69580078125
-0.46295166015625 0.52667236328125 0.72802734375
-0.443878173828125 0.5989990234375 0.7158203125
-0.411712646484375 0.5931396484375 0.6533203125
-0.434539794921875 0.523193359375 0.6708984375
-0.723175048828125 0.13824462890625 0.67236328125
-0.740997314453125 0.1114501953125 0.6748046875
-0.729888916015625 0.14166259765625 0.71630859375
-0.69140625 0.1534423828125 0.70166015625
-0.710113525390625 0.12579345703125 0.65673828125
-0.72930908203125 0.10516357421875 0.62548828125
-0.752410888671875 0.109130859375 0.720703125
-0.69677734375 0.160400390625 0.70263671875
-0.68023681640625 0.154052734375 0.63037109375
-0.324737548828125 0.6654052734375 0.65966796875
-0.330230712890625 0.6646728515625 0.68408203125
-0.274810791015625 0.6888427734375 0.63818359375
-0.318450927734375 0.65118408203125 0.63525390625
-0.364227294921875 0.6392822265625 0.662109375
-0.3779296875 0.6512451171875 0.669921875
-0.27532958984375 0.6883544921875 0.646484375
-0.272735595703125 0.6715087890625 0.60693359375
-0.356964111328125 0.63226318359375 0.64990234375
-0.7576904296875 -0.0203857421875 0.67724609375
-0.7503662109375 -0.0689697265625 0.64892578125
-0.7672119140625 -0.018310546875 0.68798828125
-0.768157958984375 0.02960205078125 0.6484375
-0.741363525390625 -0.0169677734375 0.6171875
-0.736114501953125 -0.0626220703125 0.62109375
-0.756134033203125 -0.06707763671875 0.6669921875
-0.771575927734375 0.0283203125 0.6640625
-0.744384765625 0.02703857421875 0.61669921875
-0.12591552734375 0.7532958984375 0.58349609375
-0.12811279296875 0.76019287109375 0.6240234375
-0.078887939453125 0.7794189453125 0.57421875
-0.121246337890625 0.74969482421875 0.57763671875
-0.177520751953125 0.72784423828125 0.59228515625
-0.177581787109375 0.73333740234375 0.61767578125
-0.0806884765625 0.7833251953125 0.59814453125
-0.082061767578125 0.7777099609375 0.53857421875
-0.169952392578125 0.7139892578125 0.578125
-0.748687744140625 -0.23486328125 0.6162109375
-0.747711181640625 -0.28271484375 0.5654296875
-0.75286865234375 -0.23394775390625 0.6103515625
-0.7396240234375 -0.18109130859375 0.60009765625
-0.735626220703125 -0.23187255859375 0.56494140625
-0.744964599609375 -0.2861328125 0.53564453125
-0.7559814453125 -0.28717041015625 0.595703125
-0.74920654296875 -0.16864013671875 0.62060546875
-0.7347412109375 -0.17333984375 0.591796875
0.02337646484375 0.8511962890625 0.56689453125
0.02801513671875 0.85394287109375 0.5654296875
0.053314208984375 0.85943603515625 0.51708984375
0.01953125 0.83660888671875 0.49853515625
-0.011383056640625 0.82830810546875 0.5634765625
-0.001373291015625 0.83575439453125 0.5751953125
0.0609130859375 0.85333251953125 0.5625
0.05450439453125 0.84271240234375 0.5048828125
-0.0059814453125 0.8251953125 0.53271484375
-0.763671875 -0.4127197265625 0.52197265625
-0.7607421875 -0.4461669921875 0.52978515625
-0.771575927734375 -0.41790771484375 0.57568359375
-0.761688232421875 -0.37164306640625 0.55517578125
-0.751434326171875 -0.4058837890625 0.51416015625
-0.748748779296875 -0.43621826171875 0.50146484375
-0.760345458984375 -0.45147705078125 0.53955078125
-0.76629638671875 -0.37664794921875 0.5595703125
-0.752044677734375 -0.36529541015625 0.5185546875
0.1746826171875 0.803955078125 0.51171875
0.173309326171875 0.8118896484375 0.51025390625
0.21099853515625 0.759765625 0.4287109375
0.1634521484375 0.80340576171875 0.4443359375
0.134307861328125 0.8363037109375 0.48583984375
0.12860107421875 0.836669921875 0.51171875
0.220428466796875 0.76373291015625 0.47900390625
0.208343505859375 0.757568359375 0.4326171875
0.122222900390625 0.8226318359375 0.47900390625
-0.650543212890625 -0.52764892578125 0.43408203125
-0.599853515625 -0.54754638671875 0.4501953125
-0.653717041015625 -0.534912109375 0.486328125
-0.699981689453125 -0.5118408203125 0.4677734375
-0.6512451171875 -0.5247802734375 0.4326171875
-0.59820556640625 -0.5458984375 0.4345703125
-0.5992431640625 -0.55670166015625 0.4814453125
-0.707672119140625 -0.50830078125 0.53271484375
-0.69158935546875 -0.495361328125 0.45263671875
0.29229736328125 0.60809326171875 0.43994140625
0.295501708984375 0.61480712890625 0.4580078125
0.304473876953125 0.55322265625 0.4677734375
0.290374755859375 0.60784912109375 0.419921875
0.2703857421875 0.6630859375 0.43701171875
0.280517578125 0.67132568359375 0.4638671875
0.308624267578125 0.5458984375 0.48974609375
0.302825927734375 0.552734375 0.4072265625
0.271697998046875 0.6693115234375 0.42431640625
-0.416534423828125 -0.5498046875 0.46826171875
-0.355316162109375 -0.53240966796875 0.48095703125
-0.4105224609375 -0.546630859375 0.5244140625
-0.4757080078125 -0.555419921875 0.4482421875
-0.415008544921875 -0.54156494140625 0.4150390625
-0.361968994140625 -0.53521728515625 0.44384765625
-0.357147216796875 -0.5382080078125 0.48876953125
-0.47314453125 -0.55828857421875 0.4736328125
-0.479278564453125 -0.55657958984375 0.40234375
0.3240966796875 0.39031982421875 0.47509765625
0.32147216796875 0.3951416015625 0.5078125
0.31390380859375 0.337646484375 0.50537109375
0.3115234375 0.39306640625 0.42724609375
0.314208984375 0.44781494140625 0.4580078125
0.320953369140625 0.45361328125 0.5078125
0.31890869140625 0.34210205078125 0.5244140625
0.311126708984375 0.33837890625 0.4638671875
0.31060791015625 0.4486083984375 0.447265625
-0.202545166015625 -0.466552734375 0.50341796875
-0.154937744140625 -0.43743896484375 0.48583984375
-0.20361328125 -0.46954345703125 0.5302734375
-0.253662109375 -0.4893798828125 0.51171875
-0.20611572265625 -0.4693603515625 0.4892578125
-0.1578369140625 -0.4339599609375 0.4912109375
-0.1483154296875 -0.4339599609375 0.54248046875
-0.243255615234375 -0.4921875 0.5341796875
-0.250579833984375 -0.49945068359375 0.45654296875
0.456268310546875 -0.20928955078125 0.31494140625
0.448455810546875 -0.24932861328125 0.294921875
0.43743896484375 -0.193115234375 0.287109375
0.465667724609375 -0.16845703125 0.3134765625
0.483245849609375 -0.2330322265625 0.33251953125
0.4703369140625 -0.26043701171875 0.322265625
0.4241943359375 -0.23040771484375 0.2802734375
0.443572998046875 -0.1602783203125 0.3056640625
0.492340087890625 -0.19732666015625 0.32568359375
0.38238525390625 -0.3309326171875 0.30078125
0.359954833984375 -0.3277587890625 0.31494140625
0.411468505859375 -0.30328369140625 0.34033203125
0.410491943359375 -0.3470458984375 0.330078125
0.362884521484375 -0.359619140625 0.3037109375
0.333892822265625 -0.35028076171875 0.30712890625
0.387420654296875 -0.29345703125 0.3369140625
0.438232421875 -0.3201904296875 0.3232421875
0.390594482421875 -0.370849609375 0.32763671875
0.593292236328125 -0.30010986328125 0.34619140625
0.578460693359375 -0.32684326171875 0.34130859375
0.548583984375 -0.27392578125 0.33349609375
0.6036376953125 -0.26708984375 0.34814453125
0.63861083984375 -0.32470703125 0.3603515625
0.62640380859375 -0.35638427734375 0.35107421875
0.538360595703125 -0.3037109375 0.33251953125
0.555694580078125 -0.24273681640625 0.36767578125
0.648956298828125 -0.287841796875 0.3583984375
0.531951904296875 -0.41064453125 0.35009765625
0.48486328125 -0.38446044921875 0.3544921875
0.547607421875 -0.387451171875 0.33544921875
0.57232666015625 -0.4364013671875 0.33056640625
0.505859375 -0.43695068359375 0.36474609375
0.46331787109375 -0.40484619140625 0.39501953125
0.499298095703125 -0.36187744140625 0.32177734375
0.593048095703125 -0.41119384765625 0.37451171875
0.54730224609375 -0.46746826171875 0.36376953125
0.767822265625 -0.38763427734375 0.42822265625
0.755767822265625 -0.42218017578125 0.4091796875
0.729156494140625 -0.3701171875 0.36962890625
0.78070068359375 -0.35101318359375 0.3984375
0.807281494140625 -0.40057373046875 0.41455078125
0.786468505859375 -0.426025390625 0.42626953125
0.71478271484375 -0.40362548828125 0.38671875
0.736175537109375 -0.33465576171875 0.3779296875
0.81329345703125 -0.3695068359375 0.43359375
0.6949462890625 -0.50823974609375 0.39111328125
0.65948486328125 -0.484130859375 0.40380859375
0.71563720703125 -0.481201171875 0.41357421875
0.725433349609375 -0.5279541015625 0.431640625
0.662628173828125 -0.54229736328125 0.4130859375
0.62823486328125 -0.51531982421875 0.40478515625
0.681396484375 -0.46881103515625 0.37353515625
0.74493408203125 -0.49932861328125 0.43310546875
0.69952392578125 -0.5601806640625 0.43603515625
0.860565185546875 -0.41485595703125 0.50341796875
0.8695068359375 -0.41632080078125 0.5439453125
0.84100341796875 -0.4517822265625 0.49658203125
0.84637451171875 -0.41717529296875 0.4833984375
0.871856689453125 -0.3758544921875 0.48193359375
0.878265380859375 -0.37933349609375 0.52978515625
0.84130859375 -0.44677734375 0.5556640625
0.824951171875 -0.45074462890625 0.49365234375
0.8612060546875 -0.37939453125 0.44921875
0.778717041015625 -0.5574951171875 0.51806640625
0.798675537109375 -0.52471923828125 0.50537109375
0.780914306640625 -0.554931640625 0.5576171875
0.75164794921875 -0.59027099609375 0.509765625
0.76422119140625 -0.55206298828125 0.49755859375
0.787689208984375 -0.52362060546875 0.48828125
0.806488037109375 -0.52923583984375 0.5322265625
0.75616455078125 -0.57794189453125 0.53857421875
0.74713134765625 -0.5838623046875 0.4775390625
0.911895751953125 -0.27978515625 0.46484375
0.9114990234375 -0.279052734375 0.4853515625
0.9036865234375 -0.3087158203125 0.453125
0.898712158203125 -0.274169921875 0.40234375
0.917694091796875 -0.24365234375 0.48046875
0.924713134765625 -0.24237060546875 0.466796875
0.9041748046875 -0.306884765625 0.517578125
0.889556884765625 -0.31146240234375 0.423828125
0.8984375 -0.242431640625 0.4267578125
0.67254638671875 -0.67742919921875 0.51611328125
0.6983642578125 -0.65118408203125 0.49658203125
0.680908203125 -0.6802978515625 0.5283203125
0.648956298828125 -0.6947021484375 0.49853515625
0.66693115234375 -0.6719970703125 0.4755859375
0.684967041015625 -0.6412353515625 0.47265625
0.710113525390625 -0.6490478515625 0.54052734375
0.657989501953125 -0.69854736328125 0.533203125
0.642852783203125 -0.6944580078125 0.45751953125
0.8876953125 -0.179443359375 0.4296875
0.90191650390625 -0.18017578125 0.4677734375
0.9014892578125 -0.20391845703125 0.4443359375
0.8585205078125 -0.185791015625 0.41943359375
