# XYZ point cloud file
0.5484619140625 -0.27685546875 0.3816986083984375
0.380401611328125 -0.17401123046875 0.368743896484375
0.39459228515625 -0.15338134765625 0.378143310546875
0.40869140625 -0.13116455078125 0.378662109375
0.201995849609375 -0.39239501953125 0.4563140869140625
0.21026611328125 -0.37811279296875 0.4400482177734375
0.22576904296875 -0.36358642578125 0.42083740234375
0.383056640625 -0.4696044921875 0.4542999267578125
0.36041259765625 -0.48626708984375 0.45953369140625
0.3448486328125 -0.49786376953125 0.476318359375
0.284912109375 -0.09747314453125 0.323486328125
0.294525146484375 -0.07537841796875 0.3612213134765625
0.30194091796875 -0.0576171875 0.3774871826171875
0.334930419921875 -0.0548095703125 0.406524658203125
0.36517333984375 -0.0721435546875 0.407073974609375
0.400543212890625 -0.09375 0.413604736328125
0.169525146484375 -0.38092041015625 0.4784088134765625
0.13079833984375 -0.36065673828125 0.4651031494140625
0.107086181640625 -0.3388671875 0.4571380615234375
0.085418701171875 -0.3226318359375 0.4274444580078125
0.096923828125 -0.32373046875 0.40728759765625
0.10784912109375 -0.32550048828125 0.3667755126953125
0.33074951171875 -0.02874755859375 0.43975830078125
0.360870361328125 -0.021484375 0.463714599609375
0.385284423828125 -0.0208740234375 0.497406005859375
0.11431884765625 -0.3453369140625 0.5686187744140625
0.097503662109375 -0.33563232421875 0.5503082275390625
0.09112548828125 -0.32861328125 0.50616455078125
0.27777099609375 0.021728515625 0.502960205078125
0.27069091796875 0.01983642578125 0.47528076171875
0.255645751953125 0.01953125 0.436553955078125
0.2337646484375 0.04254150390625 0.423858642578125
0.220703125 0.0565185546875 0.4446258544921875
0.2100830078125 0.06134033203125 0.447357177734375
0.205780029296875 0.05670166015625 0.49176025390625
0.22125244140625 0.0474853515625 0.50225830078125
0.21942138671875 0.04547119140625 0.516265869140625
0.00689697265625 -0.22625732421875 0.5669708251953125
-0.00531005859375 -0.22906494140625 0.55059814453125
-0.015594482421875 -0.23040771484375 0.536041259765625
-0.03253173828125 -0.24554443359375 0.5140838623046875
-0.02069091796875 -0.25390625 0.484222412109375
-0.014678955078125 -0.2664794921875 0.4818115234375
0.019989013671875 -0.27099609375 0.503662109375
0.0257568359375 -0.27178955078125 0.5355682373046875
0.04052734375 -0.27001953125 0.5701904296875
0.29022216796875 -0.02630615234375 0.4072723388671875
0.274749755859375 -0.01531982421875 0.4095001220703125
0.2578125 -0.0028076171875 0.4124603271484375
0.0260009765625 -0.28790283203125 0.456787109375
0.048736572265625 -0.2996826171875 0.46435546875
0.06842041015625 -0.3128662109375 0.47808837890625
0.18402099609375 0.0953369140625 0.5051422119140625
0.186737060546875 0.09442138671875 0.5179901123046875
0.185638427734375 0.08892822265625 0.53057861328125
0.19354248046875 0.07354736328125 0.4811553955078125
0.18878173828125 0.0751953125 0.48052978515625
0.187774658203125 0.08880615234375 0.4795989990234375
-0.054779052734375 -0.21533203125 0.5381011962890625
-0.04522705078125 -0.21563720703125 0.5308074951171875
-0.03900146484375 -0.2242431640625 0.526458740234375
-0.047088623046875 -0.203857421875 0.5785369873046875
-0.055694580078125 -0.2100830078125 0.5628204345703125
-0.062774658203125 -0.216552734375 0.5433349609375
0.18560791015625 0.1197509765625 0.4821929931640625
0.195587158203125 0.152587890625 0.4759368896484375
0.2021484375 0.18255615234375 0.4551544189453125
-0.146087646484375 -0.26824951171875 0.51544189453125
-0.1123046875 -0.24188232421875 0.529815673828125
-0.085784912109375 -0.22930908203125 0.5345458984375
-0.04400634765625 -0.15887451171875 -0.5641937255859375
-0.067840576171875 -0.11187744140625 -0.61367034912109375
-0.09283447265625 -0.0550537109375 -0.653472900390625
-0.0760498046875 0.08441162109375 -0.68072509765625
-0.038726806640625 0.14923095703125 -0.6597900390625
0.002716064453125 0.2122802734375 -0.62804412841796875
0.050628662109375 0.1983642578125 -0.57080078125
0.0675048828125 0.14886474609375 -0.53856658935546875
0.089324951171875 0.10833740234375 -0.50989532470703125
0.088592529296875 0.0111083984375 -0.4729156494140625
0.05645751953125 -0.05828857421875 -0.494232177734375
0.021453857421875 -0.127685546875 -0.49736785888671875
-0.065765380859375 -0.25726318359375 -0.4842987060546875
-0.10467529296875 -0.3077392578125 -0.464111328125
-0.1466064453125 -0.35394287109375 -0.44049072265625
-0.204132080078125 -0.36138916015625 -0.4681396484375
-0.224853515625 -0.330078125 -0.521728515625
-0.24920654296875 -0.2999267578125 -0.534820556640625
-0.237030029296875 -0.20281982421875 -0.626678466796875
-0.201416015625 -0.13214111328125 -0.6556854248046875
-0.163970947265625 -0.06317138671875 -0.6769561767578125
0.052093505859375 -0.26300048828125 -0.288177490234375
0.033172607421875 -0.24505615234375 -0.366851806640625
0.003448486328125 -0.2235107421875 -0.43951416015625
0.129974365234375 0.045166015625 -0.39678955078125
0.149932861328125 0.01251220703125 -0.3375396728515625
0.17022705078125 -0.0111083984375 -0.25545501708984375
0.17034912109375 -0.09613037109375 -0.18309783935546875
0.151092529296875 -0.15887451171875 -0.1761627197265625
0.115875244140625 -0.21636962890625 -0.1886444091796875
0.04852294921875 -0.3182373046875 -0.1887969970703125
0.0062255859375 -0.35467529296875 -0.1579132080078125
-0.035552978515625 -0.38604736328125 -0.1357574462890625
-0.10205078125 -0.4169921875 -0.20880126953125
-0.13189697265625 -0.4134521484375 -0.2801361083984375
-0.160552978515625 -0.40423583984375 -0.3615264892578125
0.168609619140625 -0.2586669921875 0.117462158203125
0.140411376953125 -0.26593017578125 0.0090179443359375
0.11065673828125 -0.2696533203125 -0.084197998046875
0.20794677734375 -0.0517578125 -0.08740997314453125
0.2198486328125 -0.06146240234375 0.0121917724609375
0.231048583984375 -0.06982421875 0.0946502685546875
0.23870849609375 -0.126953125 0.173797607421875
0.225830078125 -0.17279052734375 0.1788482666015625
0.20965576171875 -0.21282958984375 0.182891845703125
0.154327392578125 -0.28515625 0.195831298828125
0.12335205078125 -0.31121826171875 0.209808349609375
0.084716796875 -0.33160400390625 0.204437255859375
0.015838623046875 -0.3651123046875 0.1434783935546875
-0.01605224609375 -0.38580322265625 0.057861328125
-0.0426025390625 -0.40106201171875 -0.0320281982421875
0.227783203125 -0.24932861328125 0.3087310791015625
0.21600341796875 -0.24945068359375 0.284881591796875
0.1998291015625 -0.24822998046875 0.241668701171875
0.255828857421875 -0.0953369140625 0.2439117431640625
0.2672119140625 -0.10601806640625 0.2891998291015625
0.267303466796875 -0.11822509765625 0.2970123291015625
0.11181640625 -0.3175048828125 0.3286895751953125
0.09906005859375 -0.32244873046875 0.30999755859375
0.07470703125 -0.3292236328125 0.2926177978515625
0.251678466796875 -0.043212890625 0.255950927734375
0.250946044921875 -0.02001953125 0.3064117431640625
0.24603271484375 0.00238037109375 0.35595703125
0.014312744140625 -0.29736328125 0.410064697265625
0.01885986328125 -0.31524658203125 0.3586578369140625
0.024322509765625 -0.33001708984375 0.30010986328125
0.197296142578125 0.677001953125 0.20343017578125
0.203399658203125 0.66119384765625 0.259521484375
0.200653076171875 0.64300537109375 0.2981719970703125
0.2467041015625 0.43572998046875 0.312469482421875
0.251800537109375 0.44580078125 0.2469635009765625
0.2606201171875 0.45526123046875 0.17424774169921875
0.258697509765625 0.5382080078125 0.11116790771484375
0.238922119140625 0.60052490234375 0.10890960693359375
0.220489501953125 0.654052734375 0.131805419921875
-0.54736328125 -0.488037109375 0.1785888671875
-0.507598876953125 -0.500732421875 0.1822967529296875
-0.4619140625 -0.5079345703125 0.1827392578125
-0.394744873046875 -0.472900390625 0.260406494140625
-0.3890380859375 -0.44635009765625 0.3222503662109375
-0.374603271484375 -0.4176025390625 0.3917236328125
-0.547149658203125 -0.43408203125 0.363922119140625
-0.5562744140625 -0.44659423828125 0.289703369140625
-0.568115234375 -0.4603271484375 0.242095947265625
-0.148162841796875 0.0926513671875 -0.7277984619140625
-0.1771240234375 0.18414306640625 -0.7442779541015625
-0.205535888671875 0.2802734375 -0.73857879638671875
-0.1871337890625 0.46087646484375 -0.7057647705078125
-0.134796142578125 0.52978515625 -0.6806182861328125
-0.08929443359375 0.58551025390625 -0.64670562744140625
-0.02410888671875 0.5325927734375 -0.62468719482421875
-0.003173828125 0.43756103515625 -0.6200408935546875
0.014373779296875 0.3458251953125 -0.612152099609375
-0.304046630859375 -0.21142578125 -0.6219635009765625
-0.34197998046875 -0.15802001953125 -0.62921142578125
-0.378448486328125 -0.0986328125 -0.6441497802734375
-0.36810302734375 0.06085205078125 -0.68418121337890625
-0.330352783203125 0.1639404296875 -0.70654296875
-0.2806396484375 0.268310546875 -0.727630615234375
-0.42303466796875 0.59307861328125 0.02376556396484375
-0.433807373046875 0.56304931640625 0.10108184814453125
-0.435455322265625 0.5294189453125 0.1999053955078125
-0.3822021484375 0.57659912109375 0.27791595458984375
-0.3255615234375 0.65753173828125 0.27379608154296875
-0.274932861328125 0.7252197265625 0.2686614990234375
-0.2335205078125 0.8148193359375 0.18175506591796875
-0.2373046875 0.84759521484375 0.10990142822265625
-0.22503662109375 0.87957763671875 0.0323638916015625
-0.266876220703125 0.843994140625 -0.0461578369140625
-0.3134765625 0.7789306640625 -0.0706634521484375
-0.3614501953125 0.7008056640625 -0.06829833984375
-0.45477294921875 0.51947021484375 -0.09259033203125
-0.5003662109375 0.4227294921875 -0.11328887939453125
-0.545074462890625 0.32666015625 -0.1175537109375
-0.589385986328125 0.221435546875 -0.0615081787109375
-0.596923828125 0.20245361328125 0.0157318115234375
-0.597015380859375 0.1802978515625 0.09942626953125
-0.56640625 0.2265625 0.2073211669921875
-0.523284912109375 0.3160400390625 0.2388916015625
-0.47930908203125 0.40362548828125 0.25177001953125
-0.360137939453125 0.635009765625 -0.39495849609375
-0.382476806640625 0.638427734375 -0.2948150634765625
-0.398223876953125 0.62847900390625 -0.18845367431640625
-0.209014892578125 0.91119384765625 -0.1080322265625
-0.193023681640625 0.91705322265625 -0.198944091796875
-0.17498779296875 0.91143798828125 -0.28473663330078125
-0.198089599609375 0.8438720703125 -0.37713623046875
-0.239044189453125 0.7828369140625 -0.433685302734375
-0.288421630859375 0.70355224609375 -0.459136962890625
-0.380889892578125 0.51605224609375 -0.49245452880859375
-0.431915283203125 0.410400390625 -0.48511505126953125
-0.478057861328125 0.3084716796875 -0.478546142578125
-0.52972412109375 0.24053955078125 -0.38677978515625
-0.551025390625 0.2501220703125 -0.3138885498046875
-0.564849853515625 0.2469482421875 -0.226348876953125
-0.257293701171875 0.44647216796875 -0.69934844970703125
-0.288116455078125 0.51861572265625 -0.6429290771484375
-0.3089599609375 0.57537841796875 -0.57049560546875
-0.132080078125 0.84686279296875 -0.43244171142578125
-0.105743408203125 0.79412841796875 -0.50736236572265625
-0.076385498046875 0.71710205078125 -0.564788818359375
-0.44403076171875 0.03253173828125 -0.6205902099609375
-0.468841552734375 0.10235595703125 -0.5900115966796875
-0.4935302734375 0.16082763671875 -0.54268646240234375
-0.001495361328125 0.72039794921875 0.37964630126953125
3.0517578125e-05 0.71087646484375 0.42980194091796875
0.00701904296875 0.7144775390625 0.46253204345703125
0.10516357421875 0.7421875 0.41591644287109375
0.0953369140625 0.7447509765625 0.37659454345703125
0.088134765625 0.7474365234375 0.33983612060546875
0.055023193359375 0.76446533203125 0.3148956298828125
0.030517578125 0.7548828125 0.31288909912109375
0.01141357421875 0.75042724609375 0.34383392333984375
-0.6241455078125 -0.22088623046875 0.302520751953125
-0.628997802734375 -0.25140380859375 0.3171539306640625
-0.6312255859375 -0.286865234375 0.2999420166015625
-0.6317138671875 -0.32611083984375 0.3517913818359375
-0.634429931640625 -0.33575439453125 0.381195068359375
-0.6390380859375 -0.3369140625 0.4316558837890625
-0.622406005859375 -0.21673583984375 0.458526611328125
-0.614715576171875 -0.21337890625 0.409515380859375
-0.618499755859375 -0.20196533203125 0.3673248291015625
-0.060333251953125 0.8406982421875 0.1909027099609375
-0.04400634765625 0.80255126953125 0.24962615966796875
-0.029083251953125 0.762451171875 0.29085540771484375
0.067657470703125 0.7886962890625 0.257843017578125
0.05975341796875 0.81854248046875 0.22170257568359375
0.053558349609375 0.8538818359375 0.18077850341796875
0.019744873046875 0.89349365234375 0.1341552734375
-0.01214599609375 0.893798828125 0.1383514404296875
-0.041259765625 0.8907470703125 0.147064208984375
-0.65679931640625 -0.14654541015625 0.059112548828125
-0.67022705078125 -0.1961669921875 0.058807373046875
-0.670684814453125 -0.24102783203125 0.069091796875
-0.664825439453125 -0.29901123046875 0.13330078125
-0.65386962890625 -0.30389404296875 0.188629150390625
-0.642547607421875 -0.313720703125 0.2463226318359375
-0.619110107421875 -0.1658935546875 0.2624359130859375
-0.629791259765625 -0.14404296875 0.20806884765625
-0.640625 -0.11724853515625 0.124420166015625
-0.072967529296875 0.9588623046875 -0.02806854248046875
-0.0791015625 0.9429931640625 0.03570556640625
-0.07672119140625 0.9150390625 0.09375762939453125
0.04058837890625 0.9114990234375 0.0787506103515625
0.042236328125 0.93231201171875 0.0391082763671875
0.041961669921875 0.94671630859375 -0.02251434326171875
0.01837158203125 0.97308349609375 -0.0837860107421875
-0.00689697265625 0.980712890625 -0.08336639404296875
-0.041412353515625 0.97467041015625 -0.09735870361328125
-0.649688720703125 -0.10479736328125 -0.2282257080078125
-0.65704345703125 -0.164306640625 -0.2047119140625
-0.66558837890625 -0.21722412109375 -0.191558837890625
-0.6798095703125 -0.272216796875 -0.1097259521484375
-0.675384521484375 -0.27496337890625 -0.036346435546875
-0.683990478515625 -0.28167724609375 0.00579833984375
-0.6556396484375 -0.0775146484375 -0.014007568359375
-0.644317626953125 -0.0611572265625 -0.07763671875
-0.64361572265625 -0.05291748046875 -0.1467437744140625
-0.039581298828125 0.97650146484375 -0.28427886962890625
-0.05596923828125 0.98095703125 -0.222320556640625
-0.058074951171875 0.98291015625 -0.15335845947265625
0.045745849609375 0.9593505859375 -0.137298583984375
0.057586669921875 0.95452880859375 -0.19640350341796875
0.059844970703125 0.94403076171875 -0.24411773681640625
0.052642822265625 0.9434814453125 -0.28595733642578125
0.035369873046875 0.9481201171875 -0.312347412109375
0.00762939453125 0.9486083984375 -0.32582855224609375
-0.60064697265625 -0.15496826171875 -0.4446868896484375
-0.61102294921875 -0.21124267578125 -0.419769287109375
-0.61810302734375 -0.2596435546875 -0.389678955078125
-0.6331787109375 -0.2841796875 -0.335113525390625
-0.652313232421875 -0.27911376953125 -0.29193115234375
-0.656524658203125 -0.27459716796875 -0.244049072265625
-0.63409423828125 -0.0426025390625 -0.2866973876953125
-0.6131591796875 -0.04913330078125 -0.3529052734375
-0.60235595703125 -0.06634521484375 -0.3973846435546875
0.08026123046875 0.9091796875 -0.2928466796875
0.09893798828125 0.86773681640625 -0.3107757568359375
0.126708984375 0.8203125 -0.34040069580078125
0.1356201171875 0.74188232421875 -0.38930511474609375
0.1160888671875 0.7191162109375 -0.42502593994140625
0.095245361328125 0.71063232421875 -0.459228515625
0.04766845703125 0.775390625 -0.47113037109375
0.018280029296875 0.8468017578125 -0.42996978759765625
-0.0006103515625 0.90277099609375 -0.389678955078125
-0.56787109375 -0.1346435546875 -0.495269775390625
-0.545440673828125 -0.184326171875 -0.5115966796875
-0.515167236328125 -0.2371826171875 -0.53289794921875
-0.50665283203125 -0.33489990234375 -0.4850006103515625
-0.51947021484375 -0.37982177734375 -0.459564208984375
-0.539520263671875 -0.419677734375 -0.4239501953125
-0.57958984375 -0.40313720703125 -0.382415771484375
-0.602752685546875 -0.36309814453125 -0.376861572265625
-0.614532470703125 -0.32012939453125 -0.3710174560546875
0.045257568359375 0.6873779296875 -0.5179901123046875
0.01336669921875 0.67987060546875 -0.54062652587890625
-0.012298583984375 0.65625 -0.56887054443359375
-0.11822509765625 0.91766357421875 -0.34606170654296875
-0.08489990234375 0.9349365234375 -0.35131072998046875
-0.053375244140625 0.94757080078125 -0.3368377685546875
-0.573028564453125 -0.02886962890625 -0.466339111328125
-0.561065673828125 0.04229736328125 -0.467132568359375
-0.5416259765625 0.12286376953125 -0.460784912109375
-0.438232421875 -0.114013671875 -0.6119537353515625
-0.45758056640625 -0.1824951171875 -0.5932464599609375
-0.47381591796875 -0.23614501953125 -0.564361572265625
-0.179779052734375 0.93408203125 -0.0530242919921875
-0.1380615234375 0.95513916015625 -0.0604705810546875
-0.10198974609375 0.966552734375 -0.08562469482421875
-0.629730224609375 0.01849365234375 -0.20037841796875
-0.616058349609375 0.0894775390625 -0.1949920654296875
-0.59796142578125 0.158203125 -0.1533050537109375
-0.181060791015625 0.8221435546875 0.21318817138671875
-0.141204833984375 0.8509521484375 0.19336700439453125
-0.10577392578125 0.86602783203125 0.165252685546875
-0.641448974609375 -0.040771484375 0.0799102783203125
-0.636322021484375 0.01513671875 0.102447509765625
-0.618896484375 0.07635498046875 0.1451568603515625
-0.2115478515625 0.735595703125 0.300323486328125
-0.1939697265625 0.69158935546875 0.3536224365234375
-0.17010498046875 0.64923095703125 0.3941497802734375
-0.1083984375 0.66510009765625 0.405517578125
-0.07281494140625 0.6939697265625 0.380126953125
-0.0423583984375 0.71636962890625 0.348876953125
-0.595672607421875 -0.150634765625 0.325531005859375
-0.5926513671875 -0.10321044921875 0.3513641357421875
-0.57757568359375 -0.05255126953125 0.389556884765625
-0.561309814453125 0.04132080078125 0.3654327392578125
-0.5772705078125 0.07281494140625 0.303436279296875
-0.586639404296875 0.11236572265625 0.23883056640625
-0.135467529296875 0.60467529296875 0.4692840576171875
-0.13079833984375 0.59820556640625 0.51023101806640625
-0.12872314453125 0.60113525390625 0.52916717529296875
-0.5577392578125 -0.03094482421875 0.513702392578125
-0.54412841796875 -0.0250244140625 0.476104736328125
-0.54254150390625 -0.01019287109375 0.452850341796875
-0.42095947265625 0.44989013671875 0.3428497314453125
-0.406707763671875 0.40826416015625 0.422393798828125
-0.382110595703125 0.3594970703125 0.475677490234375
-0.29937744140625 0.4141845703125 0.51422119140625
-0.251861572265625 0.4971923828125 0.4882354736328125
-0.19830322265625 0.56085205078125 0.459075927734375
-0.51531982421875 0.0802001953125 0.44415283203125
-0.473419189453125 0.15625 0.4823760986328125
-0.417388916015625 0.2352294921875 0.51885986328125
-0.1749267578125 0.54931640625 0.57733154296875
-0.209808349609375 0.48907470703125 0.5896759033203125
-0.236724853515625 0.42620849609375 0.600006103515625
-0.43011474609375 0.1424560546875 0.5970001220703125
-0.47705078125 0.09600830078125 0.5716400146484375
-0.52423095703125 0.0335693359375 0.5670623779296875
-0.303802490234375 0.34710693359375 0.5666961669921875
-0.279998779296875 0.35516357421875 0.585845947265625
-0.265228271484375 0.36065673828125 0.5956268310546875
-0.38446044921875 0.1827392578125 0.5968780517578125
-0.38519287109375 0.2061767578125 0.5763092041015625
-0.37506103515625 0.24151611328125 0.5652618408203125
-0.3310546875 0.28436279296875 0.5801544189453125
-0.321929931640625 0.26751708984375 0.59637451171875
-0.305694580078125 0.25885009765625 0.6155853271484375
0.170654296875 0.73394775390625 0.1837921142578125
0.14178466796875 0.74932861328125 0.2331390380859375
0.111572265625 0.76007080078125 0.2701873779296875
-0.629730224609375 -0.3599853515625 0.2706146240234375
-0.6214599609375 -0.39825439453125 0.240386962890625
-0.6075439453125 -0.43377685546875 0.2028961181640625
0.191009521484375 0.72613525390625 0.096160888671875
0.184051513671875 0.74462890625 0.0707855224609375
0.180389404296875 0.7637939453125 0.04676055908203125
0.142486572265625 0.824462890625 0.0334930419921875
0.109375 0.8486328125 0.06446075439453125
0.075469970703125 0.86871337890625 0.10108184814453125
-0.671539306640625 -0.3377685546875 0.0582733154296875
-0.661285400390625 -0.38494873046875 0.0458984375
-0.6417236328125 -0.42913818359375 0.018646240234375
-0.6146240234375 -0.467041015625 0.04425048828125
-0.60333251953125 -0.46844482421875 0.097686767578125
-0.590972900390625 -0.46807861328125 0.1268463134765625
0.15740966796875 0.8121337890625 -0.03549957275390625
0.151947021484375 0.82672119140625 -0.067718505859375
0.150115966796875 0.83837890625 -0.10976409912109375
0.123443603515625 0.8621826171875 -0.13407135009765625
0.101531982421875 0.89422607421875 -0.10880279541015625
0.071197509765625 0.9334716796875 -0.09783935546875
-0.65911865234375 -0.3212890625 -0.1706390380859375
-0.6510009765625 -0.36993408203125 -0.1708984375
-0.638763427734375 -0.41180419921875 -0.1793365478515625
-0.62518310546875 -0.4432373046875 -0.1327362060546875
-0.63531494140625 -0.4466552734375 -0.091033935546875
-0.626861572265625 -0.45379638671875 -0.0501708984375
0.149658203125 0.8419189453125 -0.19634246826171875
0.15008544921875 0.83770751953125 -0.250152587890625
0.14947509765625 0.81170654296875 -0.2932586669921875
-0.59136962890625 -0.44244384765625 -0.3341064453125
-0.607879638671875 -0.44085693359375 -0.28314208984375
-0.615966796875 -0.44390869140625 -0.2347259521484375
0.231719970703125 0.09796142578125 0.1704864501953125
0.23876953125 0.04290771484375 0.1609039306640625
0.240570068359375 -0.01495361328125 0.179351806640625
0.19775390625 0.01959228515625 -0.16678619384765625
0.202117919921875 0.0760498046875 -0.16756439208984375
0.205810546875 0.12811279296875 -0.1599578857421875
0.221923828125 0.16650390625 -0.0770263671875
0.231658935546875 0.1627197265625 0.0106048583984375
0.22821044921875 0.16644287109375 0.0994110107421875
-0.1829833984375 -0.4093017578125 0.1720123291015625
-0.190460205078125 -0.42828369140625 0.0736541748046875
-0.2069091796875 -0.4490966796875 -0.00494384765625
-0.19354248046875 -0.44580078125 -0.1025390625
-0.15008544921875 -0.4407958984375 -0.1034393310546875
-0.113616943359375 -0.42694091796875 -0.1150360107421875
-0.018096923828125 -0.3560791015625 0.2275848388671875
-0.064483642578125 -0.3609619140625 0.2287445068359375
-0.1124267578125 -0.3687744140625 0.2236328125
0.26531982421875 0.35992431640625 -0.07996368408203125
0.2703857421875 0.38232421875 -0.026397705078125
0.27490234375 0.4117431640625 0.0233612060546875
0.261138916015625 0.38067626953125 0.11077880859375
0.25274658203125 0.3114013671875 0.13568115234375
0.237762451171875 0.2418212890625 0.159088134765625
0.221710205078125 0.22247314453125 -0.15628814697265625
0.233154296875 0.26910400390625 -0.14550018310546875
0.249603271484375 0.313720703125 -0.141998291015625
-0.313568115234375 -0.516845703125 -0.0484161376953125
-0.284088134765625 -0.49072265625 -0.0689239501953125
-0.25225830078125 -0.4755859375 -0.0666961669921875
-0.235015869140625 -0.41131591796875 0.2389984130859375
-0.28985595703125 -0.44781494140625 0.213134765625
-0.347930908203125 -0.4775390625 0.1844940185546875
-0.37432861328125 -0.52020263671875 0.1079864501953125
-0.355621337890625 -0.5245361328125 0.057769775390625
-0.34515380859375 -0.53173828125 0.00653076171875
0.218658447265625 0.224365234375 0.38232421875
0.227783203125 0.21575927734375 0.3153076171875
0.22320556640625 0.200439453125 0.259613037109375
-0.185333251953125 -0.35382080078125 0.3291015625
-0.19207763671875 -0.3380126953125 0.3809814453125
-0.19403076171875 -0.32305908203125 0.446868896484375
0.213470458984375 0.17730712890625 0.4313812255859375
0.205230712890625 0.134033203125 0.44873809814453125
0.2039794921875 0.09442138671875 0.4589996337890625
0.23187255859375 0.04962158203125 0.3502197265625
0.23065185546875 0.08428955078125 0.31548309326171875
0.22576904296875 0.11871337890625 0.25899505615234375
-0.11529541015625 -0.33807373046875 0.32196044921875
-0.0711669921875 -0.3104248046875 0.373931884765625
-0.034454345703125 -0.29315185546875 0.4170379638671875
-0.06304931640625 -0.246826171875 0.507232666015625
-0.105743408203125 -0.260009765625 0.48614501953125
-0.14251708984375 -0.2801513671875 0.495849609375
0.170745849609375 0.679931640625 -0.37078094482421875
0.186187744140625 0.60101318359375 -0.37703704833984375
0.20379638671875 0.526123046875 -0.36382293701171875
0.19757080078125 0.43792724609375 -0.36795806884765625
0.17474365234375 0.41656494140625 -0.4024200439453125
0.153961181640625 0.38201904296875 -0.41750335693359375
0.12103271484375 0.43524169921875 -0.48858642578125
0.10205078125 0.524658203125 -0.488433837890625
0.08349609375 0.61431884765625 -0.49212646484375
-0.454803466796875 -0.32977294921875 -0.518829345703125
-0.417236328125 -0.36346435546875 -0.5003662109375
-0.379638671875 -0.392822265625 -0.461944580078125
-0.3585205078125 -0.44970703125 -0.3827362060546875
-0.380615234375 -0.470947265625 -0.35040283203125
-0.395660400390625 -0.5081787109375 -0.311798095703125
-0.4437255859375 -0.521484375 -0.325897216796875
-0.482421875 -0.501953125 -0.3664703369140625
-0.523284912109375 -0.47735595703125 -0.376800537109375
0.106353759765625 0.341064453125 -0.50301361083984375
0.085205078125 0.3280029296875 -0.5380401611328125
0.06060791015625 0.298828125 -0.560882568359375
-0.303802490234375 -0.30426025390625 -0.557281494140625
-0.31793212890625 -0.3433837890625 -0.523406982421875
-0.329254150390625 -0.37750244140625 -0.4739532470703125
0.234832763671875 0.41046142578125 -0.3020782470703125
0.250335693359375 0.373779296875 -0.2578277587890625
0.258880615234375 0.3526611328125 -0.189544677734375
0.199371337890625 0.197998046875 -0.23760986328125
0.181304931640625 0.2357177734375 -0.30770111083984375
0.1591796875 0.28204345703125 -0.38625335693359375
-0.299102783203125 -0.444580078125 -0.3486175537109375
-0.266754150390625 -0.4522705078125 -0.2550506591796875
-0.24493408203125 -0.45709228515625 -0.1661834716796875
-0.345184326171875 -0.545166015625 -0.13018798828125
-0.359527587890625 -0.54376220703125 -0.1773834228515625
-0.384979248046875 -0.54541015625 -0.2386322021484375
0.126800537109375 0.1383056640625 -0.4541168212890625
0.131011962890625 0.19189453125 -0.4392547607421875
0.133697509765625 0.26116943359375 -0.44921112060546875
-0.28900146484375 -0.41748046875 -0.411376953125
-0.2537841796875 -0.41925048828125 -0.402740478515625
-0.21826171875 -0.40631103515625 -0.4077606201171875
0.226409912109375 1.058837890625 -0.2406158447265625
0.224578857421875 1.07403564453125 -0.25037384033203125
0.215301513671875 1.08306884765625 -0.25853729248046875
0.203216552734375 1.04833984375 -0.2637786865234375
0.189910888671875 1.0113525390625 -0.22489166259765625
0.18389892578125 0.967529296875 -0.2164154052734375
0.178680419921875 0.9305419921875 -0.1904754638671875
0.187591552734375 0.9302978515625 -0.191162109375
0.18853759765625 0.92852783203125 -0.1699066162109375
0.2066650390625 0.95013427734375 -0.19696807861328125
0.2125244140625 0.9791259765625 -0.20862579345703125
0.224700927734375 1.01025390625 -0.2258758544921875
-0.715301513671875 -0.56915283203125 -0.2830810546875
-0.6964111328125 -0.55462646484375 -0.2624969482421875
-0.68389892578125 -0.54058837890625 -0.2552337646484375
-0.6719970703125 -0.51708984375 -0.222930908203125
-0.668243408203125 -0.50408935546875 -0.2312164306640625
-0.670654296875 -0.49652099609375 -0.2414398193359375
-0.681610107421875 -0.50067138671875 -0.2823333740234375
-0.696380615234375 -0.5216064453125 -0.30615234375
-0.7218017578125 -0.5418701171875 -0.337677001953125
-0.739715576171875 -0.57080078125 -0.350830078125
-0.7392578125 -0.5758056640625 -0.3155517578125
-0.73321533203125 -0.58489990234375 -0.3085784912109375
0.282989501953125 1.2183837890625 -0.3250274658203125
0.25732421875 1.1826171875 -0.315948486328125
0.229736328125 1.1376953125 -0.28878021240234375
0.25054931640625 1.08502197265625 -0.26802825927734375
0.26544189453125 1.1219482421875 -0.28951263427734375
0.28448486328125 1.150390625 -0.30336761474609375
0.302642822265625 1.1893310546875 -0.32134246826171875
0.300537109375 1.209228515625 -0.33099365234375
0.30621337890625 1.2244873046875 -0.33660888671875
-0.81201171875 -0.72515869140625 -0.4578094482421875
-0.804046630859375 -0.71942138671875 -0.4384002685546875
-0.801666259765625 -0.7197265625 -0.422607421875
-0.775421142578125 -0.688232421875 -0.4050140380859375
-0.764404296875 -0.65557861328125 -0.3856658935546875
-0.743804931640625 -0.62103271484375 -0.3478546142578125
-0.76165771484375 -0.60003662109375 -0.400726318359375
-0.780853271484375 -0.64208984375 -0.44091796875
-0.80303955078125 -0.68115234375 -0.4615325927734375
0.385589599609375 1.22271728515625 -0.37609100341796875
0.360443115234375 1.24267578125 -0.3745574951171875
0.332366943359375 1.2518310546875 -0.3706817626953125
0.3271484375 1.17529296875 -0.34699249267578125
0.346405029296875 1.172607421875 -0.3412933349609375
0.370574951171875 1.15283203125 -0.3671722412109375
0.394683837890625 1.14080810546875 -0.36252593994140625
0.398956298828125 1.15966796875 -0.370330810546875
0.40618896484375 1.1754150390625 -0.371307373046875
-0.824615478515625 -0.89727783203125 -0.4054412841796875
-0.81103515625 -0.88720703125 -0.4112091064453125
-0.806396484375 -0.8756103515625 -0.4090423583984375
-0.80169677734375 -0.8372802734375 -0.4148406982421875
-0.80279541015625 -0.802001953125 -0.4177093505859375
-0.800140380859375 -0.76104736328125 -0.4245452880859375
-0.829620361328125 -0.779296875 -0.474609375
-0.83575439453125 -0.822265625 -0.46142578125
-0.832855224609375 -0.867431640625 -0.45428466796875
0.463134765625 1.024658203125 -0.41094970703125
0.453582763671875 1.08935546875 -0.4038543701171875
0.43035888671875 1.140869140625 -0.3988494873046875
0.411529541015625 1.08758544921875 -0.38434600830078125
0.42376708984375 1.03631591796875 -0.38191986083984375
0.436431884765625 0.98944091796875 -0.38881683349609375
0.4520263671875 0.93798828125 -0.3704833984375
0.455352783203125 0.94451904296875 -0.38516998291015625
0.46588134765625 0.95123291015625 -0.3854522705078125
-0.731170654296875 -0.9586181640625 -0.3170013427734375
-0.720855712890625 -0.94775390625 -0.3120574951171875
-0.7215576171875 -0.93218994140625 -0.314605712890625
-0.741912841796875 -0.91998291015625 -0.3384552001953125
-0.757537841796875 -0.91156005859375 -0.3545684814453125
-0.78277587890625 -0.89154052734375 -0.382476806640625
-0.819580078125 -0.9412841796875 -0.4201812744140625
-0.794158935546875 -0.96063232421875 -0.3837738037109375
-0.7701416015625 -0.97454833984375 -0.3650054931640625
0.455718994140625 0.7449951171875 -0.350372314453125
0.468353271484375 0.81439208984375 -0.37065887451171875
0.473297119140625 0.89019775390625 -0.39007568359375
0.441925048828125 0.876708984375 -0.36920928955078125
0.434967041015625 0.82000732421875 -0.34291839599609375
0.43023681640625 0.76220703125 -0.323486328125
0.425048828125 0.6981201171875 -0.27951812744140625
0.431304931640625 0.69134521484375 -0.28739166259765625
0.440155029296875 0.67938232421875 -0.29454803466796875
-0.57391357421875 -0.85516357421875 -0.1815185546875
-0.57489013671875 -0.84649658203125 -0.1769256591796875
-0.58062744140625 -0.8389892578125 -0.1700439453125
-0.616668701171875 -0.86322021484375 -0.2237701416015625
-0.65185546875 -0.8922119140625 -0.2570343017578125
-0.682891845703125 -0.91082763671875 -0.2725067138671875
-0.69403076171875 -0.9586181640625 -0.3123626708984375
-0.655242919921875 -0.93609619140625 -0.279876708984375
-0.609161376953125 -0.90386962890625 -0.2346954345703125
0.3740234375 0.5137939453125 -0.1966705322265625
0.39971923828125 0.5634765625 -0.24929046630859375
0.42156982421875 0.61962890625 -0.28350067138671875
0.40789794921875 0.658203125 -0.26348876953125
0.389678955078125 0.61370849609375 -0.2017364501953125
0.370758056640625 0.57489013671875 -0.182098388671875
0.354705810546875 0.519287109375 -0.1501617431640625
0.352874755859375 0.50164794921875 -0.1480560302734375
0.352630615234375 0.478759765625 -0.1555328369140625
-0.43084716796875 -0.67730712890625 -0.0486297607421875
-0.44384765625 -0.67852783203125 -0.0391387939453125
-0.458221435546875 -0.679443359375 -0.0345001220703125
-0.49822998046875 -0.7183837890625 -0.071044921875
-0.52642822265625 -0.75543212890625 -0.1039886474609375
-0.551483154296875 -0.7945556640625 -0.137298583984375
-0.5302734375 -0.8155517578125 -0.15765380859375
-0.48834228515625 -0.7718505859375 -0.115936279296875
-0.451171875 -0.72314453125 -0.081024169921875
0.415618896484375 0.71588134765625 -0.2918548583984375
0.41180419921875 0.7266845703125 -0.30977630615234375
0.40985107421875 0.73675537109375 -0.3149566650390625
0.391326904296875 0.705322265625 -0.3006134033203125
0.3770751953125 0.665283203125 -0.2642822265625
0.3631591796875 0.6348876953125 -0.23918914794921875
0.35418701171875 0.59771728515625 -0.19394683837890625
0.352325439453125 0.58013916015625 -0.1804962158203125
0.34942626953125 0.55908203125 -0.1746063232421875
-0.4854736328125 -0.687255859375 -0.0745391845703125
-0.494842529296875 -0.69647216796875 -0.0795440673828125
-0.508941650390625 -0.7027587890625 -0.10797119140625
-0.531646728515625 -0.7391357421875 -0.1522216796875
-0.549560546875 -0.76983642578125 -0.165679931640625
-0.583587646484375 -0.79876708984375 -0.209503173828125
-0.599365234375 -0.8231201171875 -0.227813720703125
-0.59466552734375 -0.8284912109375 -0.2087860107421875
-0.591552734375 -0.82891845703125 -0.186920166015625
0.44073486328125 0.92864990234375 -0.38721466064453125
0.42889404296875 0.92791748046875 -0.3874969482421875
0.429901123046875 0.92962646484375 -0.40186309814453125
0.42767333984375 0.88165283203125 -0.404144287109375
0.424774169921875 0.83001708984375 -0.37557220458984375
0.417633056640625 0.78857421875 -0.36446380615234375
-0.629119873046875 -0.8609619140625 -0.27142333984375
-0.6583251953125 -0.880859375 -0.313507080078125
-0.682952880859375 -0.90020751953125 -0.32275390625
-0.708465576171875 -0.90625 -0.3361358642578125
-0.71209716796875 -0.90985107421875 -0.3253173828125
-0.717010498046875 -0.91522216796875 -0.3154449462890625
0.387664794921875 1.10687255859375 -0.37656402587890625
0.38800048828125 1.095703125 -0.37876129150390625
0.39117431640625 1.08740234375 -0.40102386474609375
0.404693603515625 1.05218505859375 -0.4193572998046875
0.42022705078125 1.015625 -0.40325927734375
0.4259033203125 0.97174072265625 -0.4128875732421875
-0.731353759765625 -0.9083251953125 -0.37725830078125
-0.749664306640625 -0.89923095703125 -0.3926849365234375
-0.763671875 -0.8863525390625 -0.4183807373046875
-0.778472900390625 -0.86358642578125 -0.4011383056640625
-0.78350830078125 -0.85772705078125 -0.3963775634765625
-0.7913818359375 -0.8626708984375 -0.4010009765625
0.3062744140625 1.15643310546875 -0.3353271484375
0.31671142578125 1.138916015625 -0.335174560546875
0.3184814453125 1.12469482421875 -0.35221099853515625
0.33831787109375 1.1240234375 -0.39040374755859375
0.363525390625 1.1180419921875 -0.39191436767578125
0.37445068359375 1.10638427734375 -0.404144287109375
-0.780609130859375 -0.84246826171875 -0.4281768798828125
-0.779632568359375 -0.8175048828125 -0.4336090087890625
-0.7794189453125 -0.7880859375 -0.439239501953125
-0.773284912109375 -0.74560546875 -0.4272003173828125
-0.780242919921875 -0.73809814453125 -0.4188385009765625
-0.784149169921875 -0.7313232421875 -0.417266845703125
0.23699951171875 1.03704833984375 -0.245361328125
0.245269775390625 1.02691650390625 -0.264129638671875
0.258514404296875 1.02020263671875 -0.2886810302734375
0.272064208984375 1.044189453125 -0.32125091552734375
0.291259765625 1.0740966796875 -0.3476104736328125
0.3094482421875 1.10235595703125 -0.36516571044921875
-0.7578125 -0.7218017578125 -0.41802978515625
-0.742523193359375 -0.690185546875 -0.4028472900390625
-0.727783203125 -0.6602783203125 -0.3750762939453125
-0.71990966796875 -0.62872314453125 -0.3414154052734375
-0.723388671875 -0.61279296875 -0.324981689453125
-0.7286376953125 -0.6058349609375 -0.322784423828125
0.20703125 0.91583251953125 -0.1988983154296875
0.21734619140625 0.91461181640625 -0.21282958984375
0.2281494140625 0.91448974609375 -0.2256011962890625
0.237213134765625 0.93194580078125 -0.2506256103515625
0.24169921875 0.95318603515625 -0.2699432373046875
0.24951171875 0.98468017578125 -0.28156280517578125
-0.6986083984375 -0.62103271484375 -0.3248443603515625
-0.6898193359375 -0.60101318359375 -0.3053741455078125
-0.6746826171875 -0.590576171875 -0.2831878662109375
-0.667755126953125 -0.5709228515625 -0.2556915283203125
-0.663299560546875 -0.553466796875 -0.2386322021484375
-0.667633056640625 -0.54559326171875 -0.2306060791015625
0.26104736328125 0.532958984375 -0.03604888916015625
0.266357421875 0.517333984375 0.0009002685546875
0.268402099609375 0.49737548828125 0.030517578125
0.27545166015625 0.391357421875 -0.11582183837890625
0.28070068359375 0.42431640625 -0.1061859130859375
0.280517578125 0.4580078125 -0.12682342529296875
0.271026611328125 0.4820556640625 -0.1214141845703125
0.265045166015625 0.48681640625 -0.0932464599609375
0.265655517578125 0.5057373046875 -0.06258392333984375
-0.445404052734375 -0.545166015625 0.0104522705078125
-0.432373046875 -0.5560302734375 -0.0003814697265625
-0.4281005859375 -0.5667724609375 -0.024658203125
-0.41015625 -0.5743408203125 -0.0269317626953125
-0.390777587890625 -0.56951904296875 -0.021942138671875
-0.3653564453125 -0.55999755859375 -0.0250396728515625
-0.433135986328125 -0.5313720703125 0.126739501953125
-0.44384765625 -0.5338134765625 0.0718994140625
-0.455078125 -0.5343017578125 0.0484619140625
0.285675048828125 0.386474609375 -0.15948486328125
0.31024169921875 0.40911865234375 -0.15544891357421875
0.330291748046875 0.435302734375 -0.16378021240234375
0.332122802734375 0.52044677734375 -0.14337158203125
0.316070556640625 0.49786376953125 -0.14421844482421875
0.300933837890625 0.4874267578125 -0.14238739013671875
-0.4324951171875 -0.60394287109375 -0.0590972900390625
-0.436004638671875 -0.62310791015625 -0.03704833984375
-0.45697021484375 -0.65234375 -0.040771484375
-0.401702880859375 -0.6419677734375 -0.06109619140625
-0.380279541015625 -0.605712890625 -0.0423583984375
-0.365570068359375 -0.57635498046875 -0.053558349609375
0.242431640625 0.58941650390625 -0.03549957275390625
0.2244873046875 0.65325927734375 -0.0273590087890625
0.201263427734375 0.7159423828125 -0.00984954833984375
-0.57708740234375 -0.497802734375 0.0002288818359375
-0.53167724609375 -0.513671875 0.0091552734375
-0.497894287109375 -0.53009033203125 0.0205841064453125
0.17132568359375 0.89996337890625 -0.19037628173828125
0.16912841796875 0.87054443359375 -0.1866912841796875
0.15966796875 0.8504638671875 -0.17620086669921875
0.165008544921875 0.83209228515625 -0.1416778564453125
0.178131103515625 0.8204345703125 -0.143798828125
0.189453125 0.81683349609375 -0.15012359619140625
0.192169189453125 0.84124755859375 -0.1743011474609375
0.199371337890625 0.86669921875 -0.170562744140625
0.1971435546875 0.8896484375 -0.17200469970703125
-0.659271240234375 -0.52099609375 -0.21099853515625
-0.644073486328125 -0.51458740234375 -0.1930694580078125
-0.63494873046875 -0.510986328125 -0.1806488037109375
-0.621551513671875 -0.4949951171875 -0.1585235595703125
-0.617889404296875 -0.48260498046875 -0.166168212890625
-0.62152099609375 -0.46783447265625 -0.16436767578125
-0.629669189453125 -0.4638671875 -0.20458984375
-0.641845703125 -0.47222900390625 -0.21783447265625
-0.655059814453125 -0.48040771484375 -0.246063232421875
0.342742919921875 0.58465576171875 -0.2109222412109375
0.33074951171875 0.5723876953125 -0.2104339599609375
0.317352294921875 0.56390380859375 -0.22336578369140625
0.298858642578125 0.55078125 -0.20954132080078125
0.296142578125 0.5355224609375 -0.18483734130859375
0.28753662109375 0.51336669921875 -0.168212890625
-0.44525146484375 -0.60552978515625 -0.0672760009765625
-0.463348388671875 -0.61956787109375 -0.0943450927734375
-0.47625732421875 -0.6407470703125 -0.1175384521484375
-0.48345947265625 -0.658203125 -0.1307830810546875
-0.486602783203125 -0.67010498046875 -0.118743896484375
-0.501129150390625 -0.68438720703125 -0.11578369140625
0.304534912109375 0.56610107421875 -0.22377777099609375
0.29962158203125 0.5721435546875 -0.23736572265625
0.296417236328125 0.5833740234375 -0.23578643798828125
0.282501220703125 0.5860595703125 -0.22602081298828125
0.27227783203125 0.5682373046875 -0.20316314697265625
0.26129150390625 0.55828857421875 -0.18627166748046875
0.255615234375 0.535888671875 -0.13483428955078125
0.266845703125 0.51776123046875 -0.1564483642578125
0.271026611328125 0.505859375 -0.14067840576171875
-0.442840576171875 -0.57415771484375 -0.055938720703125
-0.455230712890625 -0.5711669921875 -0.0677032470703125
-0.462554931640625 -0.5665283203125 -0.0844268798828125
-0.475067138671875 -0.57586669921875 -0.1090240478515625
-0.48431396484375 -0.5980224609375 -0.1265716552734375
-0.49346923828125 -0.6199951171875 -0.1448516845703125
-0.492767333984375 -0.64447021484375 -0.1720733642578125
-0.487091064453125 -0.6441650390625 -0.164215087890625
-0.4866943359375 -0.6458740234375 -0.151275634765625
0.2623291015625 0.617431640625 -0.22723388671875
0.258758544921875 0.61517333984375 -0.2391357421875
0.2498779296875 0.614990234375 -0.22796630859375
0.241851806640625 0.609375 -0.215301513671875
0.242889404296875 0.597900390625 -0.2004241943359375
0.24420166015625 0.5810546875 -0.18914794921875
0.291015625 0.60308837890625 -0.24102783203125
0.279327392578125 0.61273193359375 -0.2369842529296875
0.27581787109375 0.61920166015625 -0.24713134765625
-0.51312255859375 -0.6148681640625 -0.1759033203125
-0.5120849609375 -0.62506103515625 -0.1699371337890625
-0.506744384765625 -0.63043212890625 -0.17431640625
-0.486328125 -0.555419921875 -0.117034912109375
-0.498138427734375 -0.555419921875 -0.1455535888671875
-0.503204345703125 -0.56158447265625 -0.15008544921875
-0.50927734375 -0.57452392578125 -0.1702880859375
-0.509124755859375 -0.58331298828125 -0.1760711669921875
-0.511077880859375 -0.59844970703125 -0.1891937255859375
0.236114501953125 0.63238525390625 -0.22800445556640625
0.234161376953125 0.6566162109375 -0.223388671875
0.231903076171875 0.68597412109375 -0.22637939453125
0.2232666015625 0.7117919921875 -0.211212158203125
0.215423583984375 0.70867919921875 -0.1950836181640625
0.2110595703125 0.7069091796875 -0.18630218505859375
0.2177734375 0.6741943359375 -0.14225006103515625
0.22283935546875 0.6319580078125 -0.15116119384765625
0.234893798828125 0.59423828125 -0.15847015380859375
-0.501495361328125 -0.5404052734375 -0.0965728759765625
-0.517974853515625 -0.53045654296875 -0.107086181640625
-0.545501708984375 -0.5228271484375 -0.1165771484375
-0.561309814453125 -0.52691650390625 -0.1599578857421875
-0.560028076171875 -0.5390625 -0.1762237548828125
-0.55999755859375 -0.5533447265625 -0.183013916015625
-0.547088623046875 -0.556884765625 -0.1927642822265625
-0.53387451171875 -0.5599365234375 -0.196075439453125
-0.521881103515625 -0.56024169921875 -0.1786346435546875
0.219085693359375 0.809814453125 -0.21407318115234375
0.21160888671875 0.81146240234375 -0.1876220703125
0.207977294921875 0.81353759765625 -0.17340087890625
0.200408935546875 0.7938232421875 -0.17059326171875
0.197906494140625 0.7698974609375 -0.16022491455078125
0.20050048828125 0.741943359375 -0.15477752685546875
0.2349853515625 0.74041748046875 -0.22612762451171875
0.22430419921875 0.76751708984375 -0.22235107421875
0.225677490234375 0.79266357421875 -0.22503662109375
-0.60186767578125 -0.56170654296875 -0.21209716796875
-0.59271240234375 -0.56048583984375 -0.2064056396484375
-0.578338623046875 -0.5615234375 -0.20623779296875
-0.584625244140625 -0.51422119140625 -0.1455841064453125
-0.599090576171875 -0.50897216796875 -0.1529541015625
-0.60205078125 -0.50970458984375 -0.170135498046875
-0.616790771484375 -0.5238037109375 -0.1884002685546875
-0.617706298828125 -0.54034423828125 -0.187347412109375
-0.61767578125 -0.55072021484375 -0.2156982421875
0.22723388671875 0.83233642578125 -0.228973388671875
0.223114013671875 0.85467529296875 -0.2257843017578125
0.232696533203125 0.8841552734375 -0.2392730712890625
-0.650787353515625 -0.5736083984375 -0.258453369140625
-0.642181396484375 -0.56793212890625 -0.2336578369140625
-0.62823486328125 -0.56591796875 -0.22747802734375
0.187774658203125 0.75518798828125 -0.059967041015625
0.195587158203125 0.73895263671875 -0.1010284423828125
0.200836181640625 0.72052001953125 -0.1209716796875
-0.569580078125 -0.50946044921875 -0.10577392578125
-0.5809326171875 -0.49822998046875 -0.0830230712890625
-0.596923828125 -0.48828125 -0.042510986328125
0.24951171875 0.54522705078125 -0.07708740234375
0.24542236328125 0.5533447265625 -0.1020050048828125
0.246063232421875 0.550537109375 -0.1277313232421875
-0.4725341796875 -0.54571533203125 -0.060760498046875
-0.469451904296875 -0.53900146484375 -0.0416412353515625
-0.47064208984375 -0.54052734375 -0.0103759765625
0.248016357421875 0.90447998046875 -0.29134368896484375
0.23931884765625 0.9072265625 -0.2702484130859375
0.2374267578125 0.904296875 -0.26062774658203125
0.233428955078125 0.8121337890625 -0.23443603515625
0.23760986328125 0.81658935546875 -0.2431793212890625
0.2412109375 0.80908203125 -0.2578277587890625
0.24737548828125 0.83831787109375 -0.26485443115234375
0.248687744140625 0.85980224609375 -0.27553558349609375
0.250518798828125 0.8831787109375 -0.2850341796875
-0.6531982421875 -0.61041259765625 -0.295562744140625
-0.63702392578125 -0.60736083984375 -0.2884063720703125
-0.63116455078125 -0.600341796875 -0.266937255859375
-0.614227294921875 -0.58740234375 -0.2603607177734375
-0.617706298828125 -0.58184814453125 -0.2457427978515625
-0.618896484375 -0.57080078125 -0.234710693359375
-0.661102294921875 -0.58758544921875 -0.2809295654296875
-0.666351318359375 -0.59979248046875 -0.3045196533203125
-0.66473388671875 -0.60888671875 -0.3001708984375
0.23291015625 0.7158203125 -0.23451995849609375
0.236907958984375 0.72052001953125 -0.250335693359375
0.235626220703125 0.71966552734375 -0.26700592041015625
0.245758056640625 0.74627685546875 -0.26728057861328125
0.2457275390625 0.77215576171875 -0.2657623291015625
0.248779296875 0.79168701171875 -0.2725830078125
-0.603729248046875 -0.59368896484375 -0.2637176513671875
-0.592437744140625 -0.59735107421875 -0.249237060546875
-0.579071044921875 -0.587890625 -0.2394256591796875
-0.571258544921875 -0.5771484375 -0.235076904296875
-0.568267822265625 -0.5721435546875 -0.216949462890625
-0.564208984375 -0.5699462890625 -0.2232666015625
0.237030029296875 0.62554931640625 -0.239654541015625
0.238555908203125 0.62933349609375 -0.252471923828125
0.239227294921875 0.637451171875 -0.27117156982421875
0.245269775390625 0.65338134765625 -0.27614593505859375
0.24462890625 0.67034912109375 -0.26190948486328125
0.251434326171875 0.6937255859375 -0.27004241943359375
-0.555938720703125 -0.585693359375 -0.241973876953125
-0.541595458984375 -0.58233642578125 -0.2226715087890625
-0.531005859375 -0.5791015625 -0.222900390625
-0.519439697265625 -0.577392578125 -0.21575927734375
-0.513885498046875 -0.57086181640625 -0.2074737548828125
-0.512359619140625 -0.56890869140625 -0.198822021484375
0.267791748046875 0.62811279296875 -0.24798583984375
0.268280029296875 0.630859375 -0.25760650634765625
0.271697998046875 0.63775634765625 -0.2628936767578125
0.2628173828125 0.64202880859375 -0.2748260498046875
0.256103515625 0.64129638671875 -0.26590728759765625
0.251068115234375 0.6429443359375 -0.275665283203125
-0.52191162109375 -0.58807373046875 -0.21893310546875
-0.525299072265625 -0.59735107421875 -0.223236083984375
-0.52825927734375 -0.611083984375 -0.2342071533203125
-0.525146484375 -0.620849609375 -0.212371826171875
-0.52032470703125 -0.6153564453125 -0.1876068115234375
-0.517974853515625 -0.60986328125 -0.18865966796875
0.301971435546875 0.60064697265625 -0.24549102783203125
