# XYZ point cloud file
-0.8348388671875 -0.7747802734375 -0.40673828125
-0.852020263671875 -0.810546875 -0.40966796875
-0.8289794921875 -0.78662109375 -0.42236328125
-0.812042236328125 -0.7655029296875 -0.470703125
-0.82470703125 -0.74755859375 -0.39453125
-0.86065673828125 -0.7890625 -0.41455078125
-0.847747802734375 -0.7994384765625 -0.4423828125
0.3743896484375 1.17578125 -0.43798828125
0.367462158203125 1.1678466796875 -0.4423828125
0.33740234375 1.1619873046875 -0.47216796875
0.3541259765625 1.1617431640625 -0.46435546875
0.388397216796875 1.1563720703125 -0.47802734375
0.3824462890625 1.1568603515625 -0.486328125
0.332733154296875 1.17138671875 -0.4130859375
0.3323974609375 1.168701171875 -0.50830078125
0.403411865234375 1.1624755859375 -0.44580078125
-0.842620849609375 -0.9189453125 -0.41748046875
-0.865325927734375 -0.87353515625 -0.45849609375
-0.85345458984375 -0.885009765625 -0.46044921875
-0.840972900390625 -0.9178466796875 -0.470703125
-0.83697509765625 -0.898681640625 -0.51953125
-0.8524169921875 -0.871826171875 -0.52294921875
-0.8648681640625 -0.859130859375 -0.4267578125
-0.831268310546875 -0.9171142578125 -0.4560546875
-0.82672119140625 -0.915283203125 -0.50244140625
0.475006103515625 1.1187744140625 -0.47265625
0.46563720703125 1.1082763671875 -0.466796875
0.44683837890625 1.1375732421875 -0.4482421875
0.464141845703125 1.11962890625 -0.52392578125
0.491851806640625 1.074951171875 -0.4541015625
0.4906005859375 1.0748291015625 -0.41064453125
0.445343017578125 1.1324462890625 -0.48974609375
0.446380615234375 1.13720703125 -0.5302734375
0.488250732421875 1.07275390625 -0.53125
-0.7481689453125 -0.991455078125 -0.4765625
-0.772735595703125 -0.9468994140625 -0.47314453125
-0.74090576171875 -0.947998046875 -0.50634765625
-0.704071044921875 -0.970703125 -0.43212890625
-0.74151611328125 -0.9591064453125 -0.44677734375
-0.764617919921875 -0.9520263671875 -0.51708984375
-0.777496337890625 -0.9638671875 -0.482421875
-0.707550048828125 -0.9808349609375 -0.4921875
-0.69354248046875 -0.969482421875 -0.45703125
0.51214599609375 0.9637451171875 -0.4853515625
0.519927978515625 0.95556640625 -0.357421875
0.506805419921875 1.0125732421875 -0.50244140625
0.51568603515625 0.9742431640625 -0.4013671875
0.503814697265625 0.9083251953125 -0.42626953125
0.51446533203125 0.9100341796875 -0.412109375
0.512847900390625 1.0052490234375 -0.447265625
0.509918212890625 0.994140625 -0.4501953125
0.50689697265625 0.9302978515625 -0.4169921875
-0.583343505859375 -0.9527587890625 -0.392578125
-0.635101318359375 -0.95849609375 -0.4228515625
-0.5782470703125 -0.9407958984375 -0.443359375
-0.542205810546875 -0.91357421875 -0.39794921875
-0.58392333984375 -0.9423828125 -0.4326171875
-0.612548828125 -0.9521484375 -0.3779296875
-0.615997314453125 -0.9503173828125 -0.47705078125
-0.560455322265625 -0.9114990234375 -0.40234375
-0.552032470703125 -0.9107666015625 -0.39306640625
0.493194580078125 0.8214111328125 -0.3310546875
0.489227294921875 0.8077392578125 -0.3076171875
0.496917724609375 0.8365478515625 -0.30712890625
0.480499267578125 0.81103515625 -0.3203125
0.4886474609375 0.7685546875 -0.26416015625
0.4832763671875 0.7584228515625 -0.27099609375
0.489593505859375 0.8238525390625 -0.3046875
0.499755859375 0.8524169921875 -0.353515625
0.4593505859375 0.7774658203125 -0.3154296875
-0.455657958984375 -0.8477783203125 -0.3046875
-0.485931396484375 -0.8724365234375 -0.37646484375
-0.456573486328125 -0.8309326171875 -0.3193359375
-0.438873291015625 -0.8223876953125 -0.2646484375
-0.46820068359375 -0.8455810546875 -0.302734375
-0.5045166015625 -0.873779296875 -0.38818359375
-0.47509765625 -0.8658447265625 -0.3466796875
-0.427764892578125 -0.81689453125 -0.32568359375
-0.4466552734375 -0.8116455078125 -0.32470703125
0.383758544921875 0.765380859375 -0.34814453125
0.37652587890625 0.7432861328125 -0.291015625
0.3896484375 0.7593994140625 -0.32763671875
0.379669189453125 0.7916259765625 -0.33447265625
0.368194580078125 0.7633056640625 -0.27392578125
0.366973876953125 0.758056640625 -0.3232421875
0.391021728515625 0.745361328125 -0.36767578125
0.3931884765625 0.7777099609375 -0.38134765625
0.36651611328125 0.788818359375 -0.337890625
-0.479278564453125 -0.7298583984375 -0.24755859375
-0.4698486328125 -0.7275390625 -0.298828125
-0.46514892578125 -0.71435546875 -0.27099609375
-0.492218017578125 -0.7025146484375 -0.28857421875
-0.50250244140625 -0.7198486328125 -0.29248046875
-0.498931884765625 -0.7392578125 -0.32568359375
-0.46002197265625 -0.729736328125 -0.34326171875
-0.469940185546875 -0.7030029296875 -0.25634765625
-0.50555419921875 -0.719482421875 -0.2978515625
0.376800537109375 0.8541259765625 -0.37548828125
0.37738037109375 0.8355712890625 -0.318359375
0.3935546875 0.8466796875 -0.404296875
0.375244140625 0.883056640625 -0.37255859375
0.352203369140625 0.8531494140625 -0.3388671875
0.361846923828125 0.824462890625 -0.3193359375
0.385406494140625 0.826171875 -0.31298828125
0.382232666015625 0.879638671875 -0.37353515625
0.353790283203125 0.8656005859375 -0.3798828125
-0.566925048828125 -0.7413330078125 -0.34130859375
-0.55633544921875 -0.7940673828125 -0.32763671875
-0.547760009765625 -0.764892578125 -0.3291015625
-0.56695556640625 -0.7486572265625 -0.33203125
-0.585662841796875 -0.76416015625 -0.31005859375
-0.574310302734375 -0.774658203125 -0.3720703125
-0.532989501953125 -0.754638671875 -0.3984375
-0.548065185546875 -0.733154296875 -0.28076171875
-0.582916259765625 -0.7568359375 -0.373046875
0.35516357421875 0.941650390625 -0.40478515625
0.363128662109375 0.9227294921875 -0.3740234375
0.378814697265625 0.921630859375 -0.40771484375
0.35345458984375 0.961181640625 -0.39599609375
0.34283447265625 0.94091796875 -0.3818359375
0.337493896484375 0.9197998046875 -0.310546875
0.383209228515625 0.9168701171875 -0.37158203125
0.36669921875 0.9693603515625 -0.43212890625
0.333648681640625 0.9581298828125 -0.380859375
-0.643829345703125 -0.78515625 -0.3349609375
-0.63580322265625 -0.80078125 -0.38818359375
-0.630096435546875 -0.7825927734375 -0.392578125
-0.651275634765625 -0.7567138671875 -0.30078125
-0.65777587890625 -0.7869873046875 -0.37158203125
-0.661376953125 -0.809326171875 -0.43603515625
-0.62957763671875 -0.799072265625 -0.3291015625
-0.630126953125 -0.7564697265625 -0.3876953125
-0.667877197265625 -0.7750244140625 -0.38525390625
0.345367431640625 1.031982421875 -0.4345703125
0.342926025390625 1.0035400390625 -0.3515625
0.369293212890625 1.0115966796875 -0.35595703125
0.351409912109375 1.047607421875 -0.4033203125
0.3343505859375 1.0096435546875 -0.39111328125
0.322784423828125 0.9931640625 -0.39404296875
0.358062744140625 0.99169921875 -0.3828125
0.359527587890625 1.0394287109375 -0.40673828125
0.33868408203125 1.029541015625 -0.37841796875
-0.7130126953125 -0.807861328125 -0.4013671875
-0.6993408203125 -0.828125 -0.33935546875
-0.690887451171875 -0.781494140625 -0.35498046875
-0.730133056640625 -0.80517578125 -0.38427734375
-0.73858642578125 -0.8228759765625 -0.42578125
-0.72991943359375 -0.827392578125 -0.43896484375
-0.698089599609375 -0.835205078125 -0.41650390625
-0.7174072265625 -0.7879638671875 -0.4150390625
-0.743927001953125 -0.796875 -0.38720703125
0.28155517578125 1.0233154296875 -0.34375
0.266143798828125 1.007568359375 -0.421875
0.28900146484375 0.991943359375 -0.29833984375
0.292938232421875 1.0142822265625 -0.3388671875
0.28338623046875 1.041015625 -0.37841796875
0.268524169921875 1.034912109375 -0.3740234375
0.269287109375 0.9803466796875 -0.34423828125
0.295013427734375 0.9912109375 -0.3857421875
0.309783935546875 1.0321044921875 -0.38037109375
-0.742095947265625 -0.73388671875 -0.3544921875
-0.734130859375 -0.722412109375 -0.37548828125
-0.74908447265625 -0.7144775390625 -0.33349609375
-0.754791259765625 -0.7559814453125 -0.38134765625
-0.734619140625 -0.768310546875 -0.40771484375
-0.723968505859375 -0.755859375 -0.38671875
-0.72723388671875 -0.7049560546875 -0.3681640625
-0.76983642578125 -0.7279052734375 -0.3857421875
-0.758636474609375 -0.76953125 -0.4150390625
0.295196533203125 0.9288330078125 -0.3505859375
0.296417236328125 0.9061279296875 -0.37939453125
0.30230712890625 0.9224853515625 -0.3388671875
0.277557373046875 0.93798828125 -0.373046875
0.26995849609375 0.9259033203125 -0.3115234375
0.269317626953125 0.903076171875 -0.28564453125
0.309112548828125 0.902587890625 -0.3212890625
0.302978515625 0.9393310546875 -0.35791015625
0.2589111328125 0.938232421875 -0.35791015625
-0.66180419921875 -0.7064208984375 -0.333984375
-0.66845703125 -0.7249755859375 -0.3037109375
-0.6434326171875 -0.69775390625 -0.326171875
-0.673248291015625 -0.6810302734375 -0.34765625
-0.690765380859375 -0.7294921875 -0.3603515625
-0.67535400390625 -0.7320556640625 -0.32373046875
-0.64044189453125 -0.7056884765625 -0.32080078125
-0.65740966796875 -0.6807861328125 -0.3388671875
-0.68560791015625 -0.7095947265625 -0.3330078125
0.311737060546875 0.8492431640625 -0.3330078125
0.284698486328125 0.8387451171875 -0.34765625
0.320526123046875 0.831298828125 -0.30908203125
0.328094482421875 0.848876953125 -0.35107421875
0.29827880859375 0.8658447265625 -0.36474609375
0.281463623046875 0.86669921875 -0.3125
0.304290771484375 0.8131103515625 -0.3330078125
0.325592041015625 0.8387451171875 -0.35595703125
0.3192138671875 0.886474609375 -0.345703125
-0.56878662109375 -0.686767578125 -0.34716796875
-0.56268310546875 -0.687255859375 -0.3115234375
-0.589263916015625 -0.68115234375 -0.30810546875
-0.6124267578125 -0.6953125 -0.3662109375
-0.577423095703125 -0.7108154296875 -0.32666015625
-0.555694580078125 -0.714111328125 -0.365234375
-0.5579833984375 -0.6534423828125 -0.28857421875
-0.60235595703125 -0.681640625 -0.28271484375
-0.586090087890625 -0.7060546875 -0.341796875
0.32537841796875 0.7530517578125 -0.3310546875
0.334320068359375 0.764404296875 -0.33154296875
0.320953369140625 0.7926025390625 -0.3232421875
0.29827880859375 0.7579345703125 -0.33203125
0.3333740234375 0.7364501953125 -0.365234375
0.32989501953125 0.74365234375 -0.32373046875
0.33660888671875 0.77685546875 -0.326171875
0.30255126953125 0.772705078125 -0.2998046875
0.3123779296875 0.729248046875 -0.38720703125
-0.4932861328125 -0.67529296875 -0.28857421875
-0.513214111328125 -0.66064453125 -0.28955078125
-0.505706787109375 -0.6768798828125 -0.3466796875
-0.47869873046875 -0.656005859375 -0.28857421875
-0.498046875 -0.649169921875 -0.30712890625
-0.518218994140625 -0.6517333984375 -0.33154296875
-0.5130615234375 -0.6953125 -0.25927734375
-0.4854736328125 -0.662353515625 -0.263671875
-0.482452392578125 -0.64599609375 -0.28076171875
0.42626953125 0.734130859375 -0.3349609375
0.433074951171875 0.7222900390625 -0.3212890625
0.4376220703125 0.7735595703125 -0.27099609375
0.42071533203125 0.740234375 -0.33642578125
0.424346923828125 0.7103271484375 -0.3212890625
0.421905517578125 0.7174072265625 -0.28125
0.44366455078125 0.744140625 -0.326171875
0.416168212890625 0.7650146484375 -0.33984375
0.415069580078125 0.7169189453125 -0.388671875
-0.427978515625 -0.7462158203125 -0.314453125
-0.454193115234375 -0.7723388671875 -0.30810546875
-0.427703857421875 -0.755615234375 -0.27978515625
-0.420867919921875 -0.739501953125 -0.28662109375
-0.4434814453125 -0.755615234375 -0.3955078125
-0.459716796875 -0.7791748046875 -0.3046875
-0.43157958984375 -0.76806640625 -0.30908203125
-0.4114990234375 -0.739501953125 -0.267578125
-0.433319091796875 -0.7310791015625 -0.28857421875
0.436798095703125 0.8248291015625 -0.3193359375
0.44866943359375 0.8704833984375 -0.35205078125
0.42669677734375 0.857666015625 -0.33154296875
0.429656982421875 0.7998046875 -0.29541015625
0.455902099609375 0.828125 -0.38232421875
0.46527099609375 0.854736328125 -0.3173828125
0.4293212890625 0.871337890625 -0.37646484375
0.422576904296875 0.8253173828125 -0.3369140625
0.44793701171875 0.799072265625 -0.3076171875
-0.50555419921875 -0.8392333984375 -0.33740234375
-0.52679443359375 -0.795166015625 -0.32080078125
-0.527618408203125 -0.83154296875 -0.35595703125
-0.48883056640625 -0.8192138671875 -0.3271484375
-0.486541748046875 -0.7923583984375 -0.337890625
-0.501617431640625 -0.7952880859375 -0.341796875
-0.54803466796875 -0.80810546875 -0.34130859375
-0.516326904296875 -0.834716796875 -0.35595703125
-0.4605712890625 -0.810546875 -0.32080078125
0.4471435546875 0.9464111328125 -0.43359375
0.43756103515625 0.9964599609375 -0.4404296875
0.416412353515625 0.944580078125 -0.44091796875
0.452301025390625 0.9228515625 -0.34130859375
0.49072265625 0.9591064453125 -0.40283203125
0.479705810546875 0.9945068359375 -0.51611328125
0.426055908203125 0.986572265625 -0.4287109375
0.429229736328125 0.9173583984375 -0.34912109375
0.48046875 0.9227294921875 -0.38037109375
-0.60064697265625 -0.8848876953125 -0.43310546875
-0.614227294921875 -0.853759765625 -0.40869140625
-0.64373779296875 -0.9052734375 -0.4521484375
-0.595977783203125 -0.90771484375 -0.4697265625
-0.578399658203125 -0.875732421875 -0.4384765625
-0.6015625 -0.8494873046875 -0.36474609375
-0.646209716796875 -0.8404541015625 -0.3408203125
-0.62493896484375 -0.940185546875 -0.45849609375
-0.568817138671875 -0.8994140625 -0.38720703125
0.42108154296875 1.063720703125 -0.50537109375
0.412445068359375 1.0787353515625 -0.45654296875
0.395263671875 1.036865234375 -0.36181640625
0.43975830078125 1.039306640625 -0.419921875
0.4552001953125 1.0816650390625 -0.43505859375
0.4215087890625 1.12060546875 -0.47265625
0.3995361328125 1.0557861328125 -0.4443359375
0.4149169921875 1.016845703125 -0.4482421875
0.455718994140625 1.0748291015625 -0.44140625
-0.715179443359375 -0.8951416015625 -0.45361328125
-0.7098388671875 -0.8812255859375 -0.37158203125
-0.739654541015625 -0.8822021484375 -0.46728515625
-0.72479248046875 -0.92919921875 -0.44091796875
-0.689483642578125 -0.90478515625 -0.4755859375
-0.697723388671875 -0.8717041015625 -0.45361328125
-0.731048583984375 -0.89111328125 -0.41748046875
-0.759735107421875 -0.9200439453125 -0.4521484375
-0.702789306640625 -0.941162109375 -0.4677734375
0.35162353515625 1.0946044921875 -0.42236328125
0.349151611328125 1.1226806640625 -0.43896484375
0.344482421875 1.095947265625 -0.466796875
0.379119873046875 1.0970458984375 -0.49658203125
0.37457275390625 1.1414794921875 -0.43017578125
0.340423583984375 1.1455078125 -0.4345703125
0.34527587890625 1.078369140625 -0.42578125
0.370086669921875 1.087646484375 -0.421875
0.380645751953125 1.135986328125 -0.39794921875
-0.79248046875 -0.8621826171875 -0.46630859375
-0.761016845703125 -0.8548583984375 -0.3759765625
-0.80322265625 -0.842041015625 -0.3974609375
-0.8172607421875 -0.8834228515625 -0.49462890625
-0.76568603515625 -0.8804931640625 -0.4345703125
-0.770416259765625 -0.856201171875 -0.40771484375
-0.7906494140625 -0.82421875 -0.36572265625
-0.82501220703125 -0.858642578125 -0.50146484375
-0.804718017578125 -0.897216796875 -0.4599609375
0.29736328125 1.0955810546875 -0.4013671875
0.30389404296875 1.091796875 -0.42724609375
0.2979736328125 1.097412109375 -0.44091796875
0.29119873046875 1.0966796875 -0.451171875
0.284515380859375 1.0848388671875 -0.4228515625
0.30194091796875 1.1041259765625 -0.3828125
0.30621337890625 1.1304931640625 -0.46826171875
-0.8099365234375 -0.8011474609375 -0.41162109375
-0.81121826171875 -0.826171875 -0.44970703125
-0.79046630859375 -0.76611328125 -0.39404296875
-0.8330078125 -0.792724609375 -0.4736328125
-0.842864990234375 -0.8111572265625 -0.47705078125
-0.7926025390625 -0.8079833984375 -0.3896484375
-0.801422119140625 -0.7779541015625 -0.3916015625
0.544830322265625 0.72607421875 -0.326171875
0.550628662109375 0.7080078125 -0.30322265625
0.51611328125 0.6663818359375 -0.27734375
0.5242919921875 0.7122802734375 -0.3173828125
0.555572509765625 0.7569580078125 -0.39306640625
0.56304931640625 0.76025390625 -0.29833984375
0.51953125 0.6513671875 -0.24072265625
0.5091552734375 0.6820068359375 -0.2666015625
0.530242919921875 0.7808837890625 -0.37548828125
-0.34820556640625 -0.8408203125 -0.24462890625
-0.316192626953125 -0.80615234375 -0.28955078125
-0.35015869140625 -0.8448486328125 -0.275390625
-0.390960693359375 -0.90185546875 -0.35986328125
-0.3717041015625 -0.8349609375 -0.36083984375
-0.34515380859375 -0.7857666015625 -0.36474609375
-0.314178466796875 -0.804443359375 -0.18505859375
-0.390594482421875 -0.8834228515625 -0.3427734375
-0.414337158203125 -0.90380859375 -0.3408203125
0.57635498046875 0.961669921875 -0.49169921875
0.5882568359375 0.95361328125 -0.40380859375
0.587371826171875 0.901123046875 -0.51171875
0.574188232421875 0.99169921875 -0.44873046875
0.578369140625 1.029296875 -0.443359375
0.58258056640625 1.0203857421875 -0.41943359375
0.587188720703125 0.8836669921875 -0.4091796875
0.57672119140625 0.9178466796875 -0.474609375
0.565216064453125 1.0506591796875 -0.4833984375
-0.558502197265625 -1.0048828125 -0.4521484375
-0.493255615234375 -0.9801025390625 -0.41845703125
-0.543914794921875 -1.020751953125 -0.4404296875
-0.616973876953125 -1.0338134765625 -0.45556640625
-0.5770263671875 -0.9970703125 -0.45556640625
-0.517608642578125 -0.9583740234375 -0.4775390625
-0.48974609375 -0.9757080078125 -0.37939453125
-0.614776611328125 -1.033447265625 -0.46875
-0.63653564453125 -1.031494140625 -0.53271484375
0.512664794921875 1.195556640625 -0.46484375
0.507904052734375 1.2032470703125 -0.50244140625
0.54290771484375 1.1612548828125 -0.45263671875
0.509979248046875 1.214111328125 -0.50146484375
0.46746826171875 1.252197265625 -0.45263671875
0.46234130859375 1.2322998046875 -0.4599609375
0.53851318359375 1.1334228515625 -0.4619140625
0.5343017578125 1.159423828125 -0.51416015625
0.469818115234375 1.2335205078125 -0.49462890625
-0.803741455078125 -1.0421142578125 -0.5078125
-0.738128662109375 -1.052490234375 -0.4853515625
-0.81036376953125 -1.04150390625 -0.52685546875
-0.866058349609375 -1.0125732421875 -0.49951171875
-0.81121826171875 -1.0325927734375 -0.52734375
-0.7457275390625 -1.0565185546875 -0.533203125
-0.741851806640625 -1.0538330078125 -0.505859375
-0.853179931640625 -1.0228271484375 -0.45458984375
-0.863128662109375 -1.01708984375 -0.51904296875
0.322357177734375 1.289794921875 -0.52099609375
0.327789306640625 1.3052978515625 -0.52734375
0.38446044921875 1.2950439453125 -0.5
0.352386474609375 1.2965087890625 -0.49853515625
0.2938232421875 1.2833251953125 -0.44921875
0.284393310546875 1.2816162109375 -0.439453125
0.372833251953125 1.274658203125 -0.46533203125
0.3826904296875 1.281005859375 -0.55224609375
0.31195068359375 1.295654296875 -0.48486328125
-0.965667724609375 -0.9144287109375 -0.51025390625
-0.9483642578125 -0.96923828125 -0.46484375
-0.970062255859375 -0.907958984375 -0.4873046875
-0.991912841796875 -0.8983154296875 -0.5263671875
-0.965576171875 -0.927001953125 -0.5322265625
-0.941131591796875 -0.957763671875 -0.50634765625
-0.9361572265625 -0.948486328125 -0.48779296875
-0.99176025390625 -0.8687744140625 -0.474609375
-0.977294921875 -0.887451171875 -0.5009765625
0.20074462890625 1.2158203125 -0.41845703125
0.1806640625 1.2061767578125 -0.40478515625
0.220703125 1.2440185546875 -0.44775390625
0.21588134765625 1.1962890625 -0.46435546875
0.17352294921875 1.1705322265625 -0.4443359375
0.17083740234375 1.174560546875 -0.39501953125
0.2073974609375 1.2608642578125 -0.42919921875
0.248199462890625 1.236328125 -0.47412109375
0.186553955078125 1.1400146484375 -0.38720703125
-0.96063232421875 -0.7440185546875 -0.501953125
-0.98309326171875 -0.806640625 -0.482421875
-0.961151123046875 -0.7403564453125 -0.423828125
-0.930450439453125 -0.71240234375 -0.3603515625
-0.93603515625 -0.7518310546875 -0.47509765625
-0.969329833984375 -0.7918701171875 -0.55517578125
-0.991729736328125 -0.7584228515625 -0.4443359375
-0.930084228515625 -0.703857421875 -0.37646484375
-0.90478515625 -0.724609375 -0.4326171875
0.14788818359375 1.0289306640625 -0.3583984375
0.12872314453125 1.0264892578125 -0.33349609375
0.1441650390625 1.0556640625 -0.38427734375
0.15826416015625 1.0086669921875 -0.36767578125
0.131317138671875 0.9967041015625 -0.32763671875
0.134063720703125 1.01025390625 -0.3291015625
0.138153076171875 1.091064453125 -0.37841796875
0.167877197265625 1.06884765625 -0.4208984375
0.154052734375 0.96728515625 -0.37548828125
-0.8343505859375 -0.6156005859375 -0.37158203125
-0.869873046875 -0.6427001953125 -0.404296875
-0.8309326171875 -0.619873046875 -0.31591796875
-0.796600341796875 -0.5985107421875 -0.3251953125
-0.78240966796875 -0.623046875 -0.39208984375
-0.843231201171875 -0.6385498046875 -0.44482421875
-0.865325927734375 -0.6400146484375 -0.3681640625
-0.801849365234375 -0.5892333984375 -0.33349609375
-0.752685546875 -0.5933837890625 -0.44091796875
0.350494384765625 0.8626708984375 -0.400390625
0.35235595703125 0.9024658203125 -0.4404296875
0.413909912109375 0.7989501953125 -0.314453125
0.329437255859375 0.8055419921875 -0.37939453125
0.259124755859375 0.91357421875 -0.37939453125
0.274566650390625 0.95654296875 -0.49853515625
0.42266845703125 0.8629150390625 -0.435546875
0.396820068359375 0.75048828125 -0.39013671875
0.24749755859375 0.8748779296875 -0.373046875
-0.59173583984375 -0.720458984375 -0.458984375
-0.49896240234375 -0.76611328125 -0.3916015625
-0.615570068359375 -0.7442626953125 -0.4169921875
-0.6729736328125 -0.6768798828125 -0.4287109375
-0.544189453125 -0.6849365234375 -0.4501953125
-0.455291748046875 -0.7274169921875 -0.36083984375
-0.516510009765625 -0.8135986328125 -0.4580078125
-0.7010498046875 -0.70263671875 -0.4541015625
-0.631378173828125 -0.6265869140625 -0.35888671875
0.39111328125 1.084228515625 -0.48095703125
0.31964111328125 1.1328125 -0.466796875
0.407196044921875 1.1307373046875 -0.55029296875
0.473846435546875 1.0308837890625 -0.5205078125
0.373687744140625 1.02685546875 -0.5615234375
0.301055908203125 1.083740234375 -0.49267578125
0.353240966796875 1.192138671875 -0.56103515625
0.47186279296875 1.0938720703125 -0.50830078125
0.444580078125 0.9840087890625 -0.48095703125
-0.747344970703125 -0.86962890625 -0.517578125
-0.779327392578125 -0.92431640625 -0.52783203125
-0.826416015625 -0.80908203125 -0.5029296875
-0.701141357421875 -0.83837890625 -0.53564453125
-0.673675537109375 -0.9405517578125 -0.529296875
-0.72491455078125 -0.9638671875 -0.5224609375
-0.85980224609375 -0.8587646484375 -0.5263671875
-0.79278564453125 -0.7869873046875 -0.4990234375
-0.61541748046875 -0.8919677734375 -0.47705078125
0.43280029296875 1.23095703125 -0.53564453125
0.407196044921875 1.263427734375 -0.5244140625
0.461761474609375 1.2261962890625 -0.462890625
0.416748046875 1.2259521484375 -0.5390625
0.38494873046875 1.25244140625 -0.513671875
0.4376220703125 1.2589111328125 -0.52392578125
0.4686279296875 1.1910400390625 -0.53662109375
-0.864959716796875 -0.974365234375 -0.5400390625
-0.846954345703125 -1.00390625 -0.533203125
-0.916717529296875 -0.9525146484375 -0.513671875
-0.855682373046875 -0.9620361328125 -0.59619140625
-0.8197021484375 -1 -0.56103515625
-0.8922119140625 -0.9862060546875 -0.5849609375
-0.903167724609375 -0.941162109375 -0.54833984375
0.146240234375 0.885498046875 -0.30810546875
0.12994384765625 0.8634033203125 -0.26318359375
0.1363525390625 0.9002685546875 -0.3056640625
0.1346435546875 0.918212890625 -0.287109375
0.158050537109375 0.859130859375 -0.3251953125
0.1497802734375 0.8433837890625 -0.3515625
0.124114990234375 0.86962890625 -0.26708984375
0.133941650390625 0.9190673828125 -0.23876953125
0.148651123046875 0.8885498046875 -0.2880859375
-0.70404052734375 -0.545654296875 -0.39404296875
-0.728790283203125 -0.572021484375 -0.22265625
-0.689910888671875 -0.54541015625 -0.2685546875
-0.677581787109375 -0.558837890625 -0.3720703125
-0.7347412109375 -0.544921875 -0.3310546875
-0.75018310546875 -0.5623779296875 -0.2705078125
-0.710174560546875 -0.5474853515625 -0.26611328125
-0.668121337890625 -0.544921875 -0.369140625
-0.70513916015625 -0.572021484375 -0.3818359375
0.2705078125 0.70947265625 -0.4033203125
0.218231201171875 0.7857666015625 -0.39794921875
0.298309326171875 0.7359619140625 -0.3505859375
0.329620361328125 0.665283203125 -0.39404296875
0.26007080078125 0.6846923828125 -0.3681640625
0.211456298828125 0.749267578125 -0.36376953125
0.228515625 0.79296875 -0.33447265625
0.351776123046875 0.6812744140625 -0.35498046875
0.310028076171875 0.6444091796875 -0.427734375
-0.482696533203125 -0.596435546875 -0.3994140625
-0.49041748046875 -0.6236572265625 -0.3798828125
-0.562530517578125 -0.5826416015625 -0.421875
-0.466064453125 -0.5494384765625 -0.42919921875
-0.40234375 -0.6221923828125 -0.3935546875
-0.41448974609375 -0.64892578125 -0.3193359375
-0.589385986328125 -0.603515625 -0.39599609375
-0.546356201171875 -0.556884765625 -0.4423828125
-0.39508056640625 -0.5806884765625 -0.41552734375
0.435760498046875 0.5423583984375 -0.2705078125
0.402984619140625 0.513671875 -0.263671875
0.411224365234375 0.5587158203125 -0.29736328125
0.45831298828125 0.5875244140625 -0.29443359375
0.44000244140625 0.54248046875 -0.16455078125
0.422698974609375 0.4949951171875 -0.2392578125
0.38494873046875 0.53466796875 -0.3193359375
0.439208984375 0.592041015625 -0.29248046875
0.46466064453125 0.57080078125 -0.25244140625
-0.2542724609375 -0.664306640625 -0.2412109375
-0.284271240234375 -0.648681640625 -0.31103515625
-0.252655029296875 -0.60888671875 -0.2900390625
-0.24432373046875 -0.6746826171875 -0.19775390625
-0.2713623046875 -0.7049560546875 -0.19287109375
-0.294647216796875 -0.699951171875 -0.3291015625
-0.284210205078125 -0.614013671875 -0.3095703125
-0.222259521484375 -0.636474609375 -0.15771484375
-0.260528564453125 -0.70654296875 -0.22705078125
0.0609130859375 0.556640625 0.64892578125
0.047943115234375 0.5289306640625 0.68310546875
0.046478271484375 0.5362548828125 0.72998046875
0.0516357421875 0.5118408203125 0.73828125
0.0751953125 0.4820556640625 0.7568359375
0.08514404296875 0.46630859375 0.7197265625
0.105682373046875 0.451904296875 0.77392578125
0.115478515625 0.457763671875 0.70751953125
0.12725830078125 0.44091796875 0.689453125
0.13812255859375 0.491455078125 0.66162109375
0.104583740234375 0.51904296875 0.6875
0.101959228515625 0.5430908203125 0.63671875
-0.4322509765625 -0.3521728515625 0.67578125
-0.385223388671875 -0.3682861328125 0.70947265625
-0.350555419921875 -0.36962890625 0.69970703125
-0.32696533203125 -0.324951171875 0.6865234375
-0.336090087890625 -0.30615234375 0.73193359375
-0.3333740234375 -0.2889404296875 0.76025390625
-0.370208740234375 -0.2979736328125 0.6796875
-0.389068603515625 -0.2938232421875 0.75634765625
-0.409942626953125 -0.2803955078125 0.74755859375
-0.437896728515625 -0.29248046875 0.6884765625
-0.441192626953125 -0.301513671875 0.68896484375
-0.46124267578125 -0.31201171875 0.66650390625
0.092010498046875 0.6036376953125 0.5771484375
0.07855224609375 0.5909423828125 0.59619140625
0.071258544921875 0.58984375 0.61865234375
0.1663818359375 0.447021484375 0.6357421875
0.185546875 0.4639892578125 0.64892578125
0.19866943359375 0.473388671875 0.626953125
0.198974609375 0.5194091796875 0.60302734375
0.166259765625 0.54736328125 0.5732421875
0.131011962890625 0.59423828125 0.5341796875
-0.4520263671875 -0.4212646484375 0.5810546875
-0.404022216796875 -0.439208984375 0.57421875
-0.352935791015625 -0.4281005859375 0.59765625
-0.307891845703125 -0.3994140625 0.6181640625
-0.31201171875 -0.3900146484375 0.5947265625
-0.319976806640625 -0.367919921875 0.67431640625
-0.483551025390625 -0.3607177734375 0.67919921875
-0.471832275390625 -0.3594970703125 0.61962890625
-0.48760986328125 -0.3720703125 0.6103515625
0.1610107421875 0.4244384765625 0.634765625
0.148681640625 0.3773193359375 0.69091796875
0.14556884765625 0.34033203125 0.7119140625
0.133087158203125 0.2989501953125 0.66259765625
0.1552734375 0.3076171875 0.65625
0.160980224609375 0.296142578125 0.6005859375
0.19879150390625 0.3419189453125 0.6240234375
0.209014892578125 0.3790283203125 0.56787109375
0.21282958984375 0.4256591796875 0.55712890625
-0.2738037109375 -0.405029296875 0.59130859375
-0.225982666015625 -0.350830078125 0.615234375
-0.1988525390625 -0.33154296875 0.62646484375
-0.1688232421875 -0.3037109375 0.5791015625
-0.184417724609375 -0.28759765625 0.609375
-0.205963134765625 -0.279541015625 0.67724609375
-0.233734130859375 -0.3017578125 0.69287109375
-0.260833740234375 -0.3253173828125 0.64892578125
-0.28643798828125 -0.3414306640625 0.72021484375
0.085540771484375 0.435791015625 0.7548828125
0.087738037109375 0.3948974609375 0.79443359375
0.0672607421875 0.3851318359375 0.70947265625
0.087127685546875 0.3448486328125 0.7431640625
0.097808837890625 0.34814453125 0.76123046875
0.115753173828125 0.3338623046875 0.74755859375
-0.2303466796875 -0.2489013671875 0.68701171875
-0.244842529296875 -0.2425537109375 0.75927734375
-0.250732421875 -0.245849609375 0.75390625
-0.2862548828125 -0.248779296875 0.7568359375
-0.29840087890625 -0.263916015625 0.7666015625
-0.325469970703125 -0.2930908203125 0.75390625
0.0672607421875 0.3447265625 0.77294921875
0.050567626953125 0.31982421875 0.71728515625
0.013031005859375 0.306396484375 0.82275390625
0.0064697265625 0.294921875 0.80712890625
0.00604248046875 0.28662109375 0.78369140625
0.019622802734375 0.243408203125 0.74755859375
0.053680419921875 0.252197265625 0.77294921875
0.085723876953125 0.275146484375 0.70263671875
0.105224609375 0.29736328125 0.7265625
-0.203369140625 -0.23681640625 0.69580078125
-0.2044677734375 -0.19677734375 0.7314453125
-0.18292236328125 -0.17724609375 0.7392578125
-0.2135009765625 -0.1280517578125 0.724609375
-0.24530029296875 -0.14111328125 0.798828125
-0.242889404296875 -0.14306640625 0.78662109375
-0.2586669921875 -0.1702880859375 0.8388671875
-0.259765625 -0.197265625 0.77880859375
-0.25506591796875 -0.224853515625 0.8046875
0.03857421875 0.231689453125 0.68896484375
0.017303466796875 0.2025146484375 0.68359375
0.03033447265625 0.1968994140625 0.67431640625
0.0740966796875 0.19677734375 0.66552734375
0.11993408203125 0.2064208984375 0.62548828125
0.1531982421875 0.2723388671875 0.64404296875
-0.145660400390625 -0.2586669921875 0.6337890625
-0.128204345703125 -0.2056884765625 0.70263671875
-0.122589111328125 -0.1522216796875 0.70263671875
-0.158203125 -0.1087646484375 0.6845703125
-0.162841796875 -0.1317138671875 0.70458984375
-0.18145751953125 -0.1214599609375 0.7529296875
-0.01873779296875 0.24609375 0.74609375
-0.0587158203125 0.23681640625 0.70849609375
-0.084869384765625 0.2491455078125 0.6845703125
-0.13623046875 0.2420654296875 0.66650390625
-0.135650634765625 0.22802734375 0.7421875
-0.1458740234375 0.2188720703125 0.6865234375
-0.121734619140625 0.1837158203125 0.65087890625
-0.06170654296875 0.1651611328125 0.58349609375
-0.017547607421875 0.181640625 0.6396484375
-0.159942626953125 -0.07861328125 0.65869140625
-0.17578125 -0.029296875 0.60498046875
-0.211944580078125 0.0057373046875 0.6162109375
-0.25189208984375 0.02099609375 0.64697265625
-0.255767822265625 0.0074462890625 0.70458984375
-0.277252197265625 0.007568359375 0.71142578125
-0.243896484375 -0.0330810546875 0.751953125
-0.226318359375 -0.0518798828125 0.72265625
-0.206634521484375 -0.0963134765625 0.72607421875
-0.018218994140625 0.301513671875 0.74462890625
-0.045379638671875 0.3079833984375 0.73095703125
-0.063140869140625 0.301513671875 0.7119140625
-0.09295654296875 0.3079833984375 0.76171875
-0.09600830078125 0.29296875 0.7236328125
-0.0980224609375 0.279052734375 0.68212890625
-0.287750244140625 -0.02978515625 0.73828125
-0.300994873046875 -0.046875 0.7646484375
-0.293731689453125 -0.0653076171875 0.82080078125
-0.2960205078125 -0.093994140625 0.76416015625
-0.27496337890625 -0.111572265625 0.80908203125
-0.262451171875 -0.1226806640625 0.73583984375
-0.09771728515625 0.34375 0.81689453125
-0.124481201171875 0.3568115234375 0.8291015625
-0.132781982421875 0.3759765625 0.79931640625
-0.138885498046875 0.391357421875 0.76611328125
-0.15716552734375 0.391357421875 0.69775390625
-0.173583984375 0.3837890625 0.7109375
-0.1865234375 0.341064453125 0.74951171875
-0.16937255859375 0.315185546875 0.76171875
-0.146728515625 0.2822265625 0.708984375
-0.311187744140625 -0.001708984375 0.74267578125
-0.351593017578125 0.015380859375 0.68310546875
-0.3795166015625 0.0025634765625 0.787109375
-0.419189453125 -0.02294921875 0.74609375
-0.4102783203125 -0.0340576171875 0.7373046875
-0.407440185546875 -0.05712890625 0.73876953125
-0.391632080078125 -0.072509765625 0.77490234375
-0.359222412109375 -0.0550537109375 0.8212890625
-0.3428955078125 -0.062744140625 0.73388671875
-0.218719482421875 0.35888671875 0.66552734375
-0.224639892578125 0.369384765625 0.673828125
-0.250213623046875 0.3546142578125 0.7060546875
-0.239837646484375 0.3131103515625 0.63037109375
-0.225189208984375 0.260009765625 0.671875
-0.18524169921875 0.2349853515625 0.64990234375
-0.28228759765625 0.0428466796875 0.61083984375
-0.335968017578125 0.060791015625 0.68505859375
-0.395294189453125 0.0677490234375 0.68994140625
-0.429229736328125 0.0455322265625 0.65869140625
-0.420867919921875 0.0411376953125 0.71533203125
-0.447601318359375 0.026123046875 0.68212890625
-0.2064208984375 0.4190673828125 0.70068359375
-0.20648193359375 0.447021484375 0.67822265625
-0.20245361328125 0.487060546875 0.7041015625
-0.197052001953125 0.5113525390625 0.673828125
-0.210968017578125 0.5382080078125 0.6748046875
-0.219024658203125 0.53271484375 0.68115234375
-0.246246337890625 0.503173828125 0.625
-0.268707275390625 0.44580078125 0.63134765625
-0.261688232421875 0.3995361328125 0.68994140625
-0.49066162109375 0.0469970703125 0.67529296875
-0.523895263671875 0.0015869140625 0.64794921875
-0.564056396484375 -0.0235595703125 0.63818359375
-0.57794189453125 -0.08154296875 0.6611328125
-0.5771484375 -0.0711669921875 0.67138671875
-0.5491943359375 -0.0806884765625 0.7412109375
-0.508941650390625 -0.0638427734375 0.6826171875
-0.479522705078125 -0.033935546875 0.73876953125
-0.454833984375 -0.021728515625 0.75634765625
-0.135711669921875 0.4173583984375 0.79443359375
-0.1490478515625 0.4456787109375 0.80419921875
-0.13397216796875 0.4605712890625 0.78466796875
-0.1402587890625 0.5001220703125 0.8271484375
-0.152801513671875 0.496337890625 0.7412109375
-0.151092529296875 0.500244140625 0.6904296875
-0.51873779296875 -0.08740234375 0.73974609375
-0.49761962890625 -0.100341796875 0.72509765625
-0.486358642578125 -0.12939453125 0.7880859375
-0.47772216796875 -0.0931396484375 0.77783203125
-0.434906005859375 -0.084716796875 0.72119140625
-0.43548583984375 -0.0775146484375 0.74951171875
-0.113250732421875 0.5162353515625 0.775390625
-0.1175537109375 0.5206298828125 0.71630859375
-0.080841064453125 0.5301513671875 0.78125
-0.048858642578125 0.5341796875 0.716796875
-0.06219482421875 0.5675048828125 0.74072265625
-0.061492919921875 0.5770263671875 0.70166015625
-0.109466552734375 0.586181640625 0.69970703125
-0.132080078125 0.559814453125 0.662109375
-0.16229248046875 0.546142578125 0.68701171875
-0.548095703125 -0.1378173828125 0.6953125
-0.5545654296875 -0.1678466796875 0.669921875
-0.56781005859375 -0.201416015625 0.6826171875
-0.536376953125 -0.2225341796875 0.6640625
-0.516387939453125 -0.220703125 0.72509765625
-0.50836181640625 -0.22314453125 0.7109375
-0.49713134765625 -0.1895751953125 0.8310546875
-0.48046875 -0.182861328125 0.7880859375
-0.490264892578125 -0.1448974609375 0.8115234375
-0.069183349609375 0.6229248046875 0.6640625
-0.07708740234375 0.6142578125 0.6640625
-0.074981689453125 0.65771484375 0.583984375
-0.131561279296875 0.6395263671875 0.6064453125
-0.169342041015625 0.60498046875 0.583984375
-0.211395263671875 0.591796875 0.61669921875
-0.619110107421875 -0.10888671875 0.578125
-0.6248779296875 -0.156982421875 0.625
-0.632598876953125 -0.2205810546875 0.58984375
-0.5966796875 -0.247314453125 0.625
-0.58489990234375 -0.2457275390625 0.66650390625
-0.57391357421875 -0.2418212890625 0.62109375
-0.0203857421875 0.5977783203125 0.69140625
-0.001708984375 0.6058349609375 0.64404296875
0.044708251953125 0.5848388671875 0.67236328125
0.055938720703125 0.648193359375 0.509765625
0.00689697265625 0.6661376953125 0.52978515625
-0.03302001953125 0.6549072265625 0.61083984375
-0.60516357421875 -0.294921875 0.56787109375
-0.5762939453125 -0.3355712890625 0.54833984375
-0.53607177734375 -0.36181640625 0.54150390625
-0.49993896484375 -0.330078125 0.65966796875
-0.52215576171875 -0.2987060546875 0.61376953125
-0.541107177734375 -0.2659912109375 0.68701171875
-0.02825927734375 0.53369140625 0.73583984375
-0.004791259765625 0.5338134765625 0.7333984375
0.019805908203125 0.5364990234375 0.72119140625
-0.45172119140625 -0.2628173828125 0.73974609375
-0.473388671875 -0.25634765625 0.71728515625
-0.488616943359375 -0.21728515625 0.73876953125
0.03173828125 0.5098876953125 0.7626953125
0.037750244140625 0.5059814453125 0.71875
0.017822265625 0.50439453125 0.7392578125
-0.05035400390625 0.5224609375 0.76611328125
-0.0517578125 0.5240478515625 0.74365234375
-0.058135986328125 0.5263671875 0.71142578125
-0.032501220703125 0.5252685546875 0.7138671875
-0.00787353515625 0.5025634765625 0.6875
0.006988525390625 0.5228271484375 0.728515625
-0.438385009765625 -0.247802734375 0.7822265625
-0.457611083984375 -0.2537841796875 0.728515625
-0.4705810546875 -0.20654296875 0.8046875
-0.484222412109375 -0.2095947265625 0.7529296875
-0.49407958984375 -0.2003173828125 0.75146484375
-0.487823486328125 -0.214111328125 0.7900390625
-0.43865966796875 -0.2672119140625 0.7958984375
-0.4334716796875 -0.26171875 0.779296875
-0.417724609375 -0.2620849609375 0.74169921875
-0.126312255859375 0.478515625 0.7314453125
-0.113555908203125 0.4788818359375 0.8017578125
-0.11663818359375 0.48388671875 0.76123046875
-0.09918212890625 0.4942626953125 0.78759765625
-0.07757568359375 0.50439453125 0.77880859375
-0.068115234375 0.507568359375 0.78076171875
-0.476104736328125 -0.1904296875 0.7607421875
-0.472869873046875 -0.158935546875 0.77197265625
-0.478485107421875 -0.14990234375 0.7919921875
-0.471099853515625 -0.1119384765625 0.73193359375
-0.4722900390625 -0.111083984375 0.76953125
-0.472015380859375 -0.12548828125 0.7333984375
-0.1268310546875 0.3931884765625 0.7578125
-0.120147705078125 0.3990478515625 0.75537109375
-0.124420166015625 0.4039306640625 0.8212890625
-0.114959716796875 0.4193115234375 0.80517578125
-0.11993408203125 0.427978515625 0.80322265625
-0.1094970703125 0.4541015625 0.7626953125
-0.4471435546875 -0.09716796875 0.84619140625
-0.43878173828125 -0.0958251953125 0.8271484375
-0.421478271484375 -0.095703125 0.755859375
-0.40399169921875 -0.067626953125 0.79248046875
-0.402435302734375 -0.0811767578125 0.80419921875
-0.415283203125 -0.0789794921875 0.787109375
-0.0826416015625 0.326171875 0.802734375
-0.077972412109375 0.338134765625 0.7978515625
-0.0750732421875 0.3411865234375 0.7666015625
-0.086181640625 0.3526611328125 0.81298828125
-0.097198486328125 0.3712158203125 0.8173828125
-0.120849609375 0.388671875 0.81884765625
-0.376251220703125 -0.088623046875 0.81494140625
-0.370361328125 -0.088134765625 0.8037109375
-0.3526611328125 -0.0850830078125 0.7041015625
-0.3125 -0.079833984375 0.85986328125
-0.329864501953125 -0.0859375 0.78662109375
-0.319732666015625 -0.0654296875 0.78759765625
0.000762939453125 0.313720703125 0.76904296875
-0.00360107421875 0.311279296875 0.78076171875
-0.01361083984375 0.3372802734375 0.84228515625
-0.014007568359375 0.3123779296875 0.81103515625
-0.050384521484375 0.3192138671875 0.81005859375
-0.05560302734375 0.3369140625 0.81640625
-0.307708740234375 -0.099853515625 0.80029296875
-0.294769287109375 -0.1142578125 0.8037109375
-0.29290771484375 -0.1351318359375 0.78515625
-0.285797119140625 -0.1490478515625 0.8251953125
-0.275634765625 -0.1483154296875 0.79248046875
-0.276947021484375 -0.1392822265625 0.79150390625
0.0650634765625 0.35791015625 0.74169921875
0.05731201171875 0.351806640625 0.81396484375
0.070037841796875 0.35400390625 0.77880859375
0.044281005859375 0.3516845703125 0.7841796875
0.038543701171875 0.3223876953125 0.7421875
0.02093505859375 0.3265380859375 0.76806640625
-0.275115966796875 -0.160400390625 0.85888671875
-0.27093505859375 -0.180908203125 0.771484375
-0.273956298828125 -0.2083740234375 0.80322265625
-0.2860107421875 -0.222900390625 0.8125
-0.276458740234375 -0.2159423828125 0.80322265625
-0.26727294921875 -0.2340087890625 0.8134765625
0.083831787109375 0.4649658203125 0.77392578125
0.088714599609375 0.458740234375 0.728515625
0.07659912109375 0.438232421875 0.84716796875
0.0843505859375 0.4410400390625 0.80859375
0.0804443359375 0.421142578125 0.78369140625
0.068084716796875 0.3819580078125 0.7646484375
-0.286590576171875 -0.2481689453125 0.8134765625
-0.30816650390625 -0.2528076171875 0.82568359375
-0.322357177734375 -0.266357421875 0.80322265625
-0.35357666015625 -0.277099609375 0.74853515625
-0.348297119140625 -0.272705078125 0.76611328125
-0.33990478515625 -0.294921875 0.72021484375
0.0328369140625 0.4818115234375 0.767578125
0.057708740234375 0.4766845703125 0.83203125
0.053985595703125 0.45458984375 0.72265625
-0.362060546875 -0.2659912109375 0.79150390625
-0.378509521484375 -0.271728515625 0.740234375
-0.39617919921875 -0.287353515625 0.7587890625
0.027587890625 0.503662109375 0.79638671875
0.01348876953125 0.459716796875 0.775390625
-0.013671875 0.4560546875 0.7822265625
0.01690673828125 0.4263916015625 0.76220703125
0.0355224609375 0.431396484375 0.775390625
0.050018310546875 0.4461669921875 0.791015625
-0.3919677734375 -0.2049560546875 0.79150390625
-0.39959716796875 -0.2247314453125 0.8017578125
-0.419464111328125 -0.2406005859375 0.796875
-0.342193603515625 -0.2490234375 0.79248046875
-0.36041259765625 -0.2578125 0.8388671875
-0.372772216796875 -0.2032470703125 0.8740234375
0.004364013671875 0.410400390625 0.7294921875
0.027862548828125 0.38671875 0.74169921875
0.0479736328125 0.3748779296875 0.76025390625
-0.30126953125 -0.2275390625 0.806640625
-0.319488525390625 -0.2069091796875 0.767578125
-0.334075927734375 -0.19677734375 0.84521484375
-0.02850341796875 0.3773193359375 0.81005859375
-0.01922607421875 0.36328125 0.77978515625
-0.001007080078125 0.34228515625 0.775390625
-0.2979736328125 -0.14404296875 0.7822265625
-0.305206298828125 -0.174560546875 0.79443359375
-0.329498291015625 -0.171142578125 0.7734375
-0.044525146484375 0.3856201171875 0.76123046875
-0.058502197265625 0.36083984375 0.806640625
-0.066680908203125 0.3499755859375 0.7666015625
-0.326995849609375 -0.0989990234375 0.83935546875
-0.342498779296875 -0.119873046875 0.806640625
-0.356719970703125 -0.1314697265625 0.80859375
-0.06646728515625 0.408935546875 0.78369140625
-0.076934814453125 0.4036865234375 0.82275390625
-0.11090087890625 0.4053955078125 0.78564453125
-0.40380859375 -0.095703125 0.8291015625
-0.4017333984375 -0.1197509765625 0.83984375
-0.389312744140625 -0.1466064453125 0.80322265625
-0.06048583984375 0.4503173828125 0.79052734375
-0.0911865234375 0.4569091796875 0.74169921875
-0.095184326171875 0.454833984375 0.80029296875
-0.443389892578125 -0.1473388671875 0.8115234375
-0.429046630859375 -0.134521484375 0.81787109375
-0.4058837890625 -0.164794921875 0.8447265625
-0.031219482421875 0.4554443359375 0.833984375
-0.040191650390625 0.4910888671875 0.75732421875
-0.050262451171875 0.495361328125 0.72998046875
-0.465789794921875 -0.2005615234375 0.7158203125
-0.424957275390625 -0.188720703125 0.78369140625
-0.417724609375 -0.181884765625 0.78369140625
0.855377197265625 -0.44873046875 0.5771484375
0.89385986328125 -0.4063720703125 0.5849609375
0.898773193359375 -0.359130859375 0.54150390625
0.908966064453125 -0.3310546875 0.541015625
0.899627685546875 -0.3101806640625 0.56396484375
0.890533447265625 -0.333740234375 0.6572265625
0.85931396484375 -0.3480224609375 0.59033203125
0.85711669921875 -0.400634765625 0.61279296875
0.835601806640625 -0.4166259765625 0.59716796875
0.82818603515625 -0.4703369140625 0.61376953125
0.837493896484375 -0.463623046875 0.5400390625
0.837738037109375 -0.4815673828125 0.556640625
0.800994873046875 -0.5042724609375 0.62841796875
0.78167724609375 -0.5093994140625 0.625
0.756500244140625 -0.560791015625 0.64697265625
0.738311767578125 -0.6005859375 0.56884765625
0.74664306640625 -0.6146240234375 0.60693359375
0.737518310546875 -0.6070556640625 0.5390625
0.768646240234375 -0.5997314453125 0.54052734375
0.793487548828125 -0.5640869140625 0.5283203125
0.82513427734375 -0.5208740234375 0.56005859375
0.939788818359375 -0.2938232421875 0.5166015625
0.945281982421875 -0.2523193359375 0.505859375
0.943389892578125 -0.225341796875 0.51904296875
0.945037841796875 -0.209228515625 0.54150390625
0.92333984375 -0.2225341796875 0.51806640625
0.917083740234375 -0.2261962890625 0.59375
0.897613525390625 -0.2554931640625 0.630859375
0.8973388671875 -0.272705078125 0.59814453125
0.897918701171875 -0.311767578125 0.658203125
0.72125244140625 -0.6124267578125 0.6083984375
0.70135498046875 -0.60302734375 0.6640625
0.68450927734375 -0.641845703125 0.61083984375
0.66607666015625 -0.672119140625 0.56884765625
0.66278076171875 -0.696044921875 0.57373046875
0.660125732421875 -0.705078125 0.552734375
0.679168701171875 -0.7147216796875 0.55615234375
0.695892333984375 -0.675048828125 0.5166015625
0.730712890625 -0.6533203125 0.57763671875
0.948394775390625 -0.18017578125 0.45751953125
0.935516357421875 -0.1529541015625 0.5654296875
0.906646728515625 -0.1412353515625 0.50439453125
0.886962890625 -0.1380615234375 0.53466796875
0.88763427734375 -0.143310546875 0.55322265625
0.8642578125 -0.16796875 0.62255859375
0.842010498046875 -0.1925048828125 0.64453125
0.866607666015625 -0.2205810546875 0.59765625
0.882659912109375 -0.2308349609375 0.6298828125
0.647430419921875 -0.6348876953125 0.65966796875
0.6298828125 -0.630859375 0.70458984375
0.6131591796875 -0.631591796875 0.67919921875
0.578826904296875 -0.65234375 0.7099609375
0.5894775390625 -0.6866455078125 0.59375
0.5819091796875 -0.701904296875 0.62158203125
0.59844970703125 -0.72607421875 0.52685546875
0.6116943359375 -0.73046875 0.5751953125
0.634063720703125 -0.720947265625 0.5302734375
0.8485107421875 -0.116943359375 0.5478515625
0.818511962890625 -0.1063232421875 0.5478515625
0.77923583984375 -0.0621337890625 0.470703125
0.7431640625 -0.0797119140625 0.55712890625
0.741302490234375 -0.0948486328125 0.61376953125
0.720184326171875 -0.1163330078125 0.6728515625
0.7501220703125 -0.1435546875 0.61669921875
0.780731201171875 -0.1546630859375 0.68603515625
0.804718017578125 -0.179443359375 0.67333984375
0.55792236328125 -0.5985107421875 0.67041015625
0.53106689453125 -0.5975341796875 0.63037109375
0.512664794921875 -0.54541015625 0.67578125
0.46478271484375 -0.5648193359375 0.6435546875
0.467315673828125 -0.5943603515625 0.6064453125
0.43646240234375 -0.60498046875 0.5791015625
0.45404052734375 -0.6424560546875 0.55615234375
0.49853515625 -0.6689453125 0.556640625
0.523651123046875 -0.6856689453125 0.56103515625
0.6722412109375 -0.02294921875 0.46484375
0.623199462890625 -0.0205078125 0.57861328125
0.566131591796875 -0.0101318359375 0.53173828125
0.53973388671875 -0.0081787109375 0.63037109375
0.529541015625 -0.014892578125 0.630859375
0.520111083984375 -0.0283203125 0.6494140625
0.552459716796875 -0.065673828125 0.66650390625
0.61065673828125 -0.0916748046875 0.61865234375
0.659912109375 -0.115234375 0.7099609375
0.435638427734375 -0.5081787109375 0.6826171875
0.394073486328125 -0.472900390625 0.65673828125
0.33685302734375 -0.44287109375 0.71435546875
0.29876708984375 -0.4293212890625 0.63623046875
0.286285400390625 -0.451171875 0.62255859375
0.26507568359375 -0.463623046875 0.61767578125
0.284271240234375 -0.4993896484375 0.5478515625
0.33856201171875 -0.534912109375 0.57373046875
0.372650146484375 -0.567138671875 0.55029296875
0.21160888671875 0.06689453125 0.70166015625
0.2305908203125 0.0916748046875 0.62548828125
0.259124755859375 0.0948486328125 0.58447265625
0.278778076171875 0.1297607421875 0.60986328125
0.28155517578125 0.171875 0.580078125
0.29083251953125 0.2432861328125 0.57763671875
0.298492431640625 0.29345703125 0.65478515625
0.279937744140625 0.296630859375 0.62353515625
0.25750732421875 0.3087158203125 0.68408203125
0.2135009765625 0.2591552734375 0.66455078125
