# XYZ point cloud file
0.20283889770507812 -0.13128662109375 0.69842529296875
0.2109527587890625 -0.122650146484375 0.69671630859375
0.1614227294921875 -0.1673583984375 0.71728515625
0.1714630126953125 -0.159942626953125 0.71600341796875
0.18084335327148438 -0.153167724609375 0.7147216796875
0.11788177490234375 -0.104888916015625 0.70599365234375
0.10812759399414062 -0.109039306640625 0.71624755859375
0.095668792724609375 -0.114532470703125 0.71759033203125
0.093982696533203125 -0.131317138671875 0.71270751953125
0.1110382080078125 -0.143829345703125 0.7227783203125
0.12911605834960938 -0.1588134765625 0.7213134765625
0.29536819458007812 -0.207763671875 0.70294189453125
0.30440521240234375 -0.19818115234375 0.698486328125
0.31409835815429688 -0.190338134765625 0.6788330078125
0.21067428588867188 -0.16400146484375 0.70635986328125
0.23743820190429688 -0.183502197265625 0.7047119140625
0.26200485229492188 -0.201629638671875 0.70709228515625
0.25519180297851562 -0.24493408203125 0.72119140625
0.26488113403320312 -0.23394775390625 0.71636962890625
0.27571868896484375 -0.225616455078125 0.712158203125
0.30218124389648438 -0.229248046875 0.70562744140625
0.315826416015625 -0.2384033203125 0.71038818359375
0.324615478515625 -0.244354248046875 0.70843505859375
0.3396453857421875 -0.23919677734375 0.70196533203125
0.34783172607421875 -0.22808837890625 0.6951904296875
0.35428619384765625 -0.22039794921875 0.6971435546875
0.29804229736328125 -0.271759033203125 0.7152099609375
0.3094024658203125 -0.264556884765625 0.71697998046875
0.32175064086914062 -0.256011962890625 0.7138671875
0.14355087280273438 -0.037261962890625 0.69073486328125
0.13915252685546875 -0.026153564453125 0.6854248046875
0.13494110107421875 -0.016998291015625 0.68621826171875
0.127899169921875 -0.008514404296875 0.6900634765625
0.12998580932617188 -0.009185791015625 0.6966552734375
0.1307220458984375 -0.007781982421875 0.70123291015625
0.13758468627929688 -0.01519775390625 0.698974609375
0.14092636108398438 -0.02337646484375 0.70306396484375
0.140899658203125 -0.0311279296875 0.71148681640625
0.1399688720703125 -0.04290771484375 0.7093505859375
0.13959503173828125 -0.04595947265625 0.69683837890625
0.14105987548828125 -0.04852294921875 0.69427490234375
0.07752227783203125 -0.109649658203125 0.7252197265625
0.077053070068359375 -0.104705810546875 0.72821044921875
0.07675933837890625 -0.10174560546875 0.7279052734375
0.066661834716796875 -0.098876953125 0.7496337890625
0.05806732177734375 -0.09991455078125 0.75067138671875
0.05046844482421875 -0.097503662109375 0.74334716796875
0.040035247802734375 -0.092987060546875 0.74530029296875
0.039249420166015625 -0.096038818359375 0.73828125
0.0366363525390625 -0.096954345703125 0.7286376953125
0.041957855224609375 -0.105010986328125 0.7166748046875
0.051395416259765625 -0.109954833984375 0.72149658203125
0.06301116943359375 -0.113983154296875 0.7230224609375
0.1194000244140625 -0.000762939453125 0.68865966796875
0.10988235473632812 0.0047607421875 0.681396484375
0.09963226318359375 0.009857177734375 0.68328857421875
0.088863372802734375 0.010223388671875 0.69415283203125
0.091228485107421875 0.009613037109375 0.7010498046875
0.093059539794921875 0.01153564453125 0.69781494140625
0.10528182983398438 0.009765625 0.7071533203125
0.11562728881835938 0.00640869140625 0.701416015625
0.12586212158203125 -0.0008544921875 0.70556640625
0.0344696044921875 -0.085418701171875 0.74462890625
0.027378082275390625 -0.077850341796875 0.74267578125
0.0223541259765625 -0.06744384765625 0.734375
0.016918182373046875 -0.0599365234375 0.72979736328125
0.017887115478515625 -0.06036376953125 0.72698974609375
0.016185760498046875 -0.060302734375 0.7222900390625
0.01660919189453125 -0.07086181640625 0.7197265625
0.020904541015625 -0.08062744140625 0.7236328125
0.02535247802734375 -0.092071533203125 0.725830078125
0.075542449951171875 0.009185791015625 0.6917724609375
0.063465118408203125 0.00433349609375 0.69232177734375
0.052524566650390625 -0.0047607421875 0.69537353515625
0.056171417236328125 -0.015533447265625 0.7109375
0.06109619140625 -0.010650634765625 0.709716796875
0.06488037109375 -0.00927734375 0.70782470703125
0.072093963623046875 0.00048828125 0.71002197265625
0.078887939453125 0.005584716796875 0.70831298828125
0.087192535400390625 0.010650634765625 0.7059326171875
0.021038055419921875 -0.051055908203125 0.730224609375
0.023960113525390625 -0.0440673828125 0.7357177734375
0.030712127685546875 -0.0390625 0.7293701171875
0.038547515869140625 -0.03472900390625 0.72784423828125
0.03934478759765625 -0.032501220703125 0.71343994140625
0.04126739501953125 -0.028289794921875 0.70806884765625
0.029296875 -0.026763916015625 0.7012939453125
0.020763397216796875 -0.036041259765625 0.7093505859375
0.015567779541015625 -0.047271728515625 0.714111328125
0.051906585693359375 -0.02508544921875 0.7030029296875
0.0574798583984375 -0.02978515625 0.703857421875
0.0595245361328125 -0.032562255859375 0.70947265625
0.061092376708984375 -0.03082275390625 0.70648193359375
0.062313079833984375 -0.032073974609375 0.7158203125
0.065418243408203125 -0.032745361328125 0.72320556640625
0.069828033447265625 -0.026519775390625 0.729248046875
0.069301605224609375 -0.021392822265625 0.71649169921875
0.069988250732421875 -0.01214599609375 0.71429443359375
0.046108245849609375 -0.033721923828125 0.7275390625
0.056659698486328125 -0.034454345703125 0.72833251953125
0.063404083251953125 -0.03411865234375 0.72735595703125
0.12126922607421875 -0.084564208984375 0.7198486328125
0.12191009521484375 -0.087188720703125 0.71551513671875
0.123291015625 -0.09271240234375 0.714111328125
0.13810348510742188 -0.0513916015625 0.7119140625
0.1348724365234375 -0.0638427734375 0.71466064453125
0.12784957885742188 -0.075164794921875 0.72503662109375
0.10982894897460938 -0.08953857421875 0.73004150390625
0.09972381591796875 -0.0948486328125 0.73138427734375
0.088863372802734375 -0.09844970703125 0.74102783203125
0.1164398193359375 -0.072662353515625 0.73846435546875
0.11761093139648438 -0.07806396484375 0.73175048828125
0.12122726440429688 -0.081207275390625 0.7327880859375
0.1391754150390625 -0.03973388671875 0.71337890625
0.1365203857421875 -0.03985595703125 0.72265625
0.13568496704101562 -0.039764404296875 0.71710205078125
0.13064956665039062 -0.04345703125 0.727783203125
0.1261749267578125 -0.05255126953125 0.729248046875
0.11965560913085938 -0.0609130859375 0.7352294921875
0.10430145263671875 -0.076385498046875 0.74151611328125
0.095195770263671875 -0.080352783203125 0.74163818359375
0.085361480712890625 -0.08465576171875 0.752685546875
0.079494476318359375 -0.090911865234375 0.74951171875
0.076732635498046875 -0.09307861328125 0.74871826171875
0.0769195556640625 -0.096527099609375 0.74481201171875
0.069911956787109375 -0.0321044921875 0.7353515625
0.0729217529296875 -0.034759521484375 0.74267578125
0.079105377197265625 -0.03607177734375 0.7391357421875
0.087390899658203125 -0.029022216796875 0.736083984375
0.0870819091796875 -0.020477294921875 0.73370361328125
0.08544921875 -0.01324462890625 0.73626708984375
0.08038330078125 -0.0074462890625 0.72711181640625
0.0772857666015625 -0.006256103515625 0.72021484375
0.07289886474609375 -0.004150390625 0.72357177734375
0.040557861328125 -0.036102294921875 0.7337646484375
0.042102813720703125 -0.0364990234375 0.73895263671875
0.045108795166015625 -0.04010009765625 0.7425537109375
0.051853179931640625 -0.043060302734375 0.74359130859375
0.061573028564453125 -0.044189453125 0.74676513671875
0.07263946533203125 -0.0450439453125 0.7508544921875
0.087726593017578125 -0.0047607421875 0.72857666015625
0.093021392822265625 -0.00244140625 0.7265625
0.098430633544921875 0.000885009765625 0.7220458984375
0.10126495361328125 0.005462646484375 0.71881103515625
0.10018157958984375 0.0081787109375 0.717529296875
0.097759246826171875 0.012908935546875 0.709228515625
0.021533966064453125 -0.059051513671875 0.7401123046875
0.026653289794921875 -0.057952880859375 0.7474365234375
0.03173065185546875 -0.058380126953125 0.75311279296875
0.03649139404296875 -0.054046630859375 0.75018310546875
0.03932952880859375 -0.049713134765625 0.75494384765625
0.04462432861328125 -0.045379638671875 0.75189208984375
0.10724639892578125 0.0009765625 0.7171630859375
0.1134185791015625 -0.0035400390625 0.725341796875
0.12224960327148438 -0.0098876953125 0.72503662109375
0.13225173950195312 -0.011749267578125 0.72076416015625
0.13551712036132812 -0.00927734375 0.7191162109375
0.13336944580078125 -0.00823974609375 0.71044921875
0.044483184814453125 -0.09088134765625 0.7529296875
0.049106597900390625 -0.088134765625 0.76239013671875
0.0528717041015625 -0.0843505859375 0.7615966796875
0.051731109619140625 -0.074981689453125 0.762939453125
0.044643402099609375 -0.067413330078125 0.75469970703125
0.03815460205078125 -0.0626220703125 0.75164794921875
0.13127899169921875 -0.02105712890625 0.72479248046875
0.13190841674804688 -0.027862548828125 0.72979736328125
0.13283538818359375 -0.0340576171875 0.7208251953125
0.075794219970703125 -0.085845947265625 0.75238037109375
0.06915283203125 -0.08447265625 0.7530517578125
0.0653533935546875 -0.082855224609375 0.760498046875
0.1004180908203125 -0.034423828125 0.74053955078125
0.11131668090820312 -0.028289794921875 0.7408447265625
0.120819091796875 -0.020751953125 0.73583984375
0.063907623291015625 -0.073699951171875 0.75543212890625
0.07144927978515625 -0.064239501953125 0.76251220703125
0.07804107666015625 -0.0548095703125 0.74755859375
0.096027374267578125 -0.050445556640625 0.746826171875
0.10309219360351562 -0.0577392578125 0.74346923828125
0.10869216918945312 -0.064544677734375 0.74102783203125
0.003520965576171875 0.02423095703125 0.6959228515625
0.02115631103515625 0.0084228515625 0.69818115234375
0.03234100341796875 -0.00653076171875 0.70343017578125
0.085994720458984375 0.014739990234375 0.69195556640625
0.08533477783203125 0.0235595703125 0.6907958984375
0.084575653076171875 0.03436279296875 0.68829345703125
-0.00439453125 -0.05389404296875 0.7276611328125
0.0042266845703125 -0.053802490234375 0.7213134765625
0.010929107666015625 -0.05609130859375 0.72259521484375
0.12979888916015625 -0.007171630859375 0.6759033203125
0.1316986083984375 -0.003082275390625 0.66607666015625
0.13509368896484375 -0.001434326171875 0.65911865234375
0.12759017944335938 0.010345458984375 0.6568603515625
0.11728286743164062 0.01959228515625 0.66754150390625
0.10375595092773438 0.03192138671875 0.67828369140625
-0.010143280029296875 -0.079132080078125 0.71514892578125
-0.00226593017578125 -0.09564208984375 0.71417236328125
0.004364013671875 -0.1102294921875 0.708740234375
0.018344879150390625 -0.113189697265625 0.70855712890625
0.02614593505859375 -0.108917236328125 0.7174072265625
0.029689788818359375 -0.102783203125 0.72625732421875
0.15797805786132812 -0.0465087890625 0.6773681640625
0.16411209106445312 -0.039306640625 0.6697998046875
0.17151260375976562 -0.032196044921875 0.65386962890625
0.16542434692382812 -0.019744873046875 0.64129638671875
0.15472030639648438 -0.011474609375 0.63946533203125
0.14676666259765625 -0.004241943359375 0.64111328125
0.016551971435546875 -0.1334228515625 0.70452880859375
0.021968841552734375 -0.1422119140625 0.70343017578125
0.028919219970703125 -0.151397705078125 0.69439697265625
0.04984283447265625 -0.14935302734375 0.7161865234375
0.060337066650390625 -0.138946533203125 0.71319580078125
0.07039642333984375 -0.12933349609375 0.71734619140625
0.22643280029296875 -0.058013916015625 0.63592529296875
0.20650482177734375 -0.0462646484375 0.63525390625
0.19129180908203125 -0.035400390625 0.63470458984375
0.048858642578125 -0.17205810546875 0.70025634765625
0.0617828369140625 -0.188140869140625 0.7064208984375
0.0771942138671875 -0.203155517578125 0.71160888671875
0.21312332153320312 -0.029296875 0.55047607421875
0.19498443603515625 -0.0206298828125 0.54931640625
0.18083572387695312 -0.012115478515625 0.55145263671875
0.175567626953125 -0.008575439453125 0.57635498046875
0.17769622802734375 -0.013916015625 0.5927734375
0.17833709716796875 -0.020263671875 0.6231689453125
0.02414703369140625 -0.17181396484375 0.6842041015625
0.008453369140625 -0.183258056640625 0.66864013671875
-0.008152008056640625 -0.193115234375 0.6539306640625
-0.013713836669921875 -0.21246337890625 0.62664794921875
-0.00754547119140625 -0.226470947265625 0.6328125
0.00518798828125 -0.241424560546875 0.63421630859375
0.15619659423828125 0.000518798828125 0.5506591796875
0.14712905883789062 0.005096435546875 0.5484619140625
0.13988113403320312 0.010040283203125 0.553955078125
0.1380615234375 0.011932373046875 0.57281494140625
0.13739013671875 0.009521484375 0.6021728515625
0.13891220092773438 0.006072998046875 0.62322998046875
-0.000797271728515625 -0.1328125 0.6839599609375
-0.014469146728515625 -0.144500732421875 0.66424560546875
-0.027088165283203125 -0.153106689453125 0.64263916015625
-0.0344085693359375 -0.173065185546875 0.62249755859375
-0.030368804931640625 -0.1820068359375 0.61907958984375
-0.0266876220703125 -0.19049072265625 0.62030029296875
0.12459564208984375 0.0205078125 0.558349609375
0.118408203125 0.027618408203125 0.560791015625
0.11516189575195312 0.03582763671875 0.56011962890625
-0.054111480712890625 -0.139801025390625 0.62261962890625
-0.045452117919921875 -0.14630126953125 0.62213134765625
-0.042713165283203125 -0.154327392578125 0.62225341796875
0.36333465576171875 -0.22772216796875 0.68475341796875
0.36397171020507812 -0.222747802734375 0.68621826171875
0.36452484130859375 -0.21942138671875 0.681396484375
0.33559417724609375 -0.251800537109375 0.7059326171875
0.3374786376953125 -0.253997802734375 0.705810546875
0.33747482299804688 -0.254913330078125 0.698486328125
0.34264373779296875 -0.250335693359375 0.69232177734375
0.34978485107421875 -0.240234375 0.69268798828125
0.35506439208984375 -0.23297119140625 0.6859130859375
0.30839157104492188 -0.277618408203125 0.71234130859375
0.31708145141601562 -0.271209716796875 0.7066650390625
0.325897216796875 -0.264984130859375 0.7015380859375
0.30002975463867188 -0.2811279296875 0.72601318359375
0.30443572998046875 -0.280364990234375 0.72418212890625
0.30560684204101562 -0.2806396484375 0.72308349609375
0.39515304565429688 -0.246917724609375 0.67486572265625
0.40010452270507812 -0.246551513671875 0.6776123046875
0.406524658203125 -0.246734619140625 0.67047119140625
0.36886978149414062 -0.2314453125 0.67694091796875
0.37717819213867188 -0.233245849609375 0.675537109375
0.38452911376953125 -0.24163818359375 0.672607421875
0.3209991455078125 -0.301605224609375 0.71429443359375
0.31292724609375 -0.2958984375 0.713134765625
0.30698013305664062 -0.287994384765625 0.71221923828125
0.3341217041015625 -0.3153076171875 0.7147216796875
0.33452224731445312 -0.30963134765625 0.7113037109375
0.33378219604492188 -0.3087158203125 0.715087890625
0.4025421142578125 -0.2813720703125 0.679931640625
0.40729141235351562 -0.280364990234375 0.6820068359375
0.41244888305664062 -0.280975341796875 0.6712646484375
0.39507293701171875 -0.2578125 0.67962646484375
0.39796829223632812 -0.2657470703125 0.678466796875
0.39831924438476562 -0.27288818359375 0.67498779296875
0.3565216064453125 -0.313232421875 0.69464111328125
0.34853363037109375 -0.31243896484375 0.69708251953125
0.34185028076171875 -0.3111572265625 0.7091064453125
0.37225341796875 -0.32061767578125 0.7001953125
0.37069320678710938 -0.314971923828125 0.69647216796875
0.3676910400390625 -0.313507080078125 0.6951904296875
0.39062881469726562 -0.3026123046875 0.68292236328125
0.39544296264648438 -0.30377197265625 0.69146728515625
0.39787673950195312 -0.304840087890625 0.69012451171875
0.3964385986328125 -0.287078857421875 0.6787109375
0.39324569702148438 -0.293060302734375 0.68267822265625
0.38954925537109375 -0.297698974609375 0.68206787109375
0.38108062744140625 -0.3038330078125 0.68682861328125
0.3759918212890625 -0.308135986328125 0.6849365234375
0.37099075317382812 -0.310546875 0.68890380859375
0.36581039428710938 -0.3004150390625 0.666015625
0.3731842041015625 -0.302215576171875 0.67681884765625
0.38094711303710938 -0.30169677734375 0.67291259765625
0.38951873779296875 -0.28082275390625 0.66754150390625
0.38411712646484375 -0.280181884765625 0.66143798828125
0.37656402587890625 -0.278411865234375 0.66265869140625
0.367523193359375 -0.282989501953125 0.65838623046875
0.36481475830078125 -0.2864990234375 0.6651611328125
0.36013031005859375 -0.29058837890625 0.6622314453125
0.35171890258789062 -0.302215576171875 0.67498779296875
0.34396743774414062 -0.304046630859375 0.67486572265625
0.3399810791015625 -0.308013916015625 0.67730712890625
0.34210205078125 -0.31085205078125 0.68292236328125
0.35260391235351562 -0.311981201171875 0.6827392578125
0.35901260375976562 -0.31201171875 0.69061279296875
0.38350677490234375 -0.249176025390625 0.6671142578125
0.37796783447265625 -0.251861572265625 0.6636962890625
0.37408065795898438 -0.252899169921875 0.6533203125
0.37015533447265625 -0.2576904296875 0.65399169921875
0.36948776245117188 -0.26422119140625 0.65313720703125
0.3688201904296875 -0.270172119140625 0.65673828125
0.32667160034179688 -0.311737060546875 0.67852783203125
0.32174301147460938 -0.312408447265625 0.685546875
0.31702423095703125 -0.310943603515625 0.6839599609375
0.31622695922851562 -0.307159423828125 0.69195556640625
0.3196868896484375 -0.30780029296875 0.69921875
0.32689666748046875 -0.306640625 0.70068359375
0.35697555541992188 -0.23193359375 0.67657470703125
0.35390472412109375 -0.23553466796875 0.67279052734375
0.35135269165039062 -0.23870849609375 0.6640625
0.3550262451171875 -0.243438720703125 0.65655517578125
0.36002731323242188 -0.245635986328125 0.64813232421875
0.3655242919921875 -0.250335693359375 0.65106201171875
0.30762100219726562 -0.3055419921875 0.68896484375
0.30093002319335938 -0.3037109375 0.68499755859375
0.2981414794921875 -0.297515869140625 0.6903076171875
0.29822921752929688 -0.2904052734375 0.69732666015625
0.30056381225585938 -0.286224365234375 0.699951171875
0.30332183837890625 -0.284576416015625 0.70751953125
0.33235931396484375 -0.260650634765625 0.692138671875
0.32782745361328125 -0.263824462890625 0.682861328125
0.329742431640625 -0.268035888671875 0.6817626953125
0.33527374267578125 -0.264739990234375 0.6639404296875
0.33983612060546875 -0.255401611328125 0.66754150390625
0.34524154663085938 -0.2490234375 0.66021728515625
0.3044586181640625 -0.287994384765625 0.68597412109375
0.31187057495117188 -0.2841796875 0.68023681640625
0.321136474609375 -0.279022216796875 0.68072509765625
0.33248138427734375 -0.279510498046875 0.67083740234375
0.33880233764648438 -0.28570556640625 0.669677734375
0.34716415405273438 -0.29180908203125 0.6636962890625
0.36240005493164062 -0.27001953125 0.6597900390625
0.35540771484375 -0.261077880859375 0.6572265625
0.35202407836914062 -0.25299072265625 0.66290283203125
0.30366134643554688 -0.2972412109375 0.6846923828125
0.31373977661132812 -0.302215576171875 0.67877197265625
0.32418060302734375 -0.3060302734375 0.67608642578125
-0.005519866943359375 0.192291259765625 0.6705322265625
-0.009075164794921875 0.186798095703125 0.67535400390625
-0.01448822021484375 0.179351806640625 0.673828125
0.016185760498046875 0.158660888671875 0.674072265625
0.017475128173828125 0.167327880859375 0.6690673828125
0.018856048583984375 0.172515869140625 0.67388916015625
0.014469146728515625 0.179779052734375 0.67071533203125
0.007568359375 0.18341064453125 0.67620849609375
0.002498626708984375 0.18914794921875 0.6751708984375
-0.1313323974609375 0.04949951171875 0.70867919921875
-0.12849044799804688 0.040374755859375 0.7161865234375
-0.1257476806640625 0.032379150390625 0.71588134765625
-0.12245941162109375 0.02587890625 0.712158203125
-0.11897659301757812 0.0263671875 0.71746826171875
-0.11169815063476562 0.028167724609375 0.71807861328125
-0.12163925170898438 0.068267822265625 0.70391845703125
-0.12647628784179688 0.0633544921875 0.7071533203125
-0.13178634643554688 0.060394287109375 0.71759033203125
-0.0254669189453125 0.228851318359375 0.66790771484375
-0.03058624267578125 0.224609375 0.6746826171875
-0.039447784423828125 0.220428466796875 0.67529296875
-0.008472442626953125 0.203948974609375 0.68310546875
-0.01384735107421875 0.211181640625 0.680908203125
-0.018810272216796875 0.220458984375 0.6741943359375
-0.148284912109375 0.079681396484375 0.70526123046875
-0.1441650390625 0.072235107421875 0.70745849609375
-0.13887405395507812 0.06439208984375 0.706787109375
-0.14346694946289062 0.105194091796875 0.7030029296875
-0.14744949340820312 0.09625244140625 0.70965576171875
-0.15216445922851562 0.089141845703125 0.7076416015625
-0.03151702880859375 0.278656005859375 0.666259765625
-0.0366973876953125 0.277679443359375 0.67010498046875
-0.0433197021484375 0.277191162109375 0.674560546875
-0.02404022216796875 0.241180419921875 0.6717529296875
-0.026996612548828125 0.25457763671875 0.66839599609375
-0.02783966064453125 0.267486572265625 0.6708984375
-0.17641067504882812 0.097991943359375 0.69757080078125
-0.16970062255859375 0.0963134765625 0.70098876953125
-0.16191482543945312 0.0924072265625 0.70849609375
-0.17687606811523438 0.126556396484375 0.6990966796875
-0.18027877807617188 0.116424560546875 0.69134521484375
-0.1825714111328125 0.10833740234375 0.69775390625
0.054744720458984375 0.159759521484375 0.6602783203125
0.053737640380859375 0.166534423828125 0.666015625
0.0544586181640625 0.17266845703125 0.66217041015625
0.04395294189453125 0.174102783203125 0.668701171875
0.034641265869140625 0.1729736328125 0.67279052734375
0.028835296630859375 0.173004150390625 0.672607421875
-0.12446975708007812 0.015869140625 0.7183837890625
-0.12308502197265625 0.008697509765625 0.72216796875
-0.1268463134765625 -0.0018310546875 0.72528076171875
-0.12792587280273438 -0.016204833984375 0.72332763671875
-0.1240386962890625 -0.01751708984375 0.72265625
-0.12163543701171875 -0.018585205078125 0.716552734375
0.1195831298828125 0.2032470703125 0.6099853515625
0.11713409423828125 0.20648193359375 0.6129150390625
0.113861083984375 0.208892822265625 0.62005615234375
0.099147796630859375 0.201507568359375 0.6356201171875
0.086086273193359375 0.1907958984375 0.6446533203125
0.069530487060546875 0.179718017578125 0.65496826171875
-0.13877487182617188 -0.03057861328125 0.72479248046875
-0.14887619018554688 -0.047607421875 0.72296142578125
-0.16105270385742188 -0.064300537109375 0.7196044921875
-0.1699066162109375 -0.083160400390625 0.71331787109375
-0.16862106323242188 -0.086578369140625 0.7142333984375
-0.1678924560546875 -0.093536376953125 0.70367431640625
0.15203857421875 0.2767333984375 0.57354736328125
0.14807510375976562 0.2762451171875 0.57537841796875
0.14576339721679688 0.27606201171875 0.584228515625
0.13616561889648438 0.258331298828125 0.5980224609375
0.1315155029296875 0.24273681640625 0.598876953125
0.12275314331054688 0.227081298828125 0.61798095703125
-0.18555450439453125 -0.091094970703125 0.71099853515625
-0.19981765747070312 -0.100341796875 0.7093505859375
-0.21429061889648438 -0.108184814453125 0.69879150390625
-0.23006820678710938 -0.118621826171875 0.69097900390625
-0.23079681396484375 -0.12506103515625 0.68585205078125
-0.23376083374023438 -0.1328125 0.680908203125
0.1624908447265625 0.3740234375 0.52044677734375
0.15520858764648438 0.3643798828125 0.5360107421875
0.15016937255859375 0.35943603515625 0.542724609375
0.14881134033203125 0.340087890625 0.55474853515625
0.14732742309570312 0.3182373046875 0.55987548828125
0.14585494995117188 0.29705810546875 0.5777587890625
-0.24546432495117188 -0.118682861328125 0.68524169921875
-0.26175308227539062 -0.122406005859375 0.6754150390625
-0.27814102172851562 -0.123199462890625 0.669921875
-0.29405975341796875 -0.129058837890625 0.6673583984375
-0.29772758483886719 -0.135284423828125 0.65240478515625
-0.30488967895507812 -0.14361572265625 0.6458740234375
0.14159774780273438 0.429168701171875 0.5267333984375
0.13684844970703125 0.419464111328125 0.529541015625
0.13294219970703125 0.41070556640625 0.5377197265625
0.13450241088867188 0.397735595703125 0.5430908203125
0.14055633544921875 0.385101318359375 0.5401611328125
0.14611434936523438 0.37286376953125 0.5445556640625
-0.30084609985351562 -0.1217041015625 0.65081787109375
-0.30869293212890625 -0.115509033203125 0.6490478515625
-0.3126373291015625 -0.11041259765625 0.63665771484375
-0.32193183898925781 -0.10565185546875 0.63824462890625
-0.32871246337890625 -0.112945556640625 0.62896728515625
-0.33547592163085938 -0.118133544921875 0.62322998046875
0.10647201538085938 0.438873291015625 0.5528564453125
0.10333633422851562 0.429168701171875 0.54962158203125
0.10051727294921875 0.42303466796875 0.55987548828125
0.10962295532226562 0.41925048828125 0.55877685546875
0.117431640625 0.416961669921875 0.54705810546875
0.12362289428710938 0.411956787109375 0.5457763671875
-0.31842803955078125 -0.09423828125 0.6363525390625
-0.31925201416015625 -0.085357666015625 0.633544921875
-0.31659317016601562 -0.07293701171875 0.63909912109375
-0.31666374206542969 -0.060943603515625 0.63702392578125
-0.32149887084960938 -0.065399169921875 0.63592529296875
-0.32697296142578125 -0.068634033203125 0.6253662109375
0.04380035400390625 0.4012451171875 0.607421875
0.045063018798828125 0.395111083984375 0.60614013671875
0.044994354248046875 0.38861083984375 0.620361328125
0.06031036376953125 0.392059326171875 0.602783203125
0.07282257080078125 0.402923583984375 0.592529296875
0.08679962158203125 0.41082763671875 0.5802001953125
-0.30419349670410156 -0.041412353515625 0.64996337890625
-0.29470634460449219 -0.021331787109375 0.65625
-0.28359794616699219 -0.003204345703125 0.67181396484375
-0.27554893493652344 0.016265869140625 0.6683349609375
-0.2780914306640625 0.017852783203125 0.6650390625
-0.28160476684570312 0.021240234375 0.6593017578125
-0.003772735595703125 0.371612548828125 0.63336181640625
0.001781463623046875 0.36474609375 0.63299560546875
0.00408935546875 0.359771728515625 0.64178466796875
0.014240264892578125 0.363800048828125 0.6298828125
0.0246124267578125 0.368621826171875 0.63775634765625
0.034091949462890625 0.37445068359375 0.62933349609375
-0.26468086242675781 0.032440185546875 0.6746826171875
-0.25620460510253906 0.04754638671875 0.68145751953125
-0.24913787841796875 0.058624267578125 0.6800537109375
-0.24364089965820312 0.072906494140625 0.67681884765625
-0.24521636962890625 0.077728271484375 0.6700439453125
-0.24657440185546875 0.084625244140625 0.67041015625
-0.02901458740234375 0.334320068359375 0.64971923828125
-0.023532867431640625 0.330322265625 0.6522216796875
-0.01946258544921875 0.326019287109375 0.6536865234375
-0.01140594482421875 0.33270263671875 0.64825439453125
-0.006748199462890625 0.342529296875 0.643798828125
0.000164031982421875 0.350860595703125 0.63958740234375
-0.23644638061523438 0.077911376953125 0.68389892578125
-0.22994613647460938 0.084564208984375 0.678955078125
-0.2247161865234375 0.0902099609375 0.68316650390625
-0.21649551391601562 0.101104736328125 0.68109130859375
-0.21490097045898438 0.1082763671875 0.676025390625
-0.2154541015625 0.11651611328125 0.67901611328125
-0.0252685546875 0.29052734375 0.66650390625
-0.022403717041015625 0.302581787109375 0.66253662109375
-0.020030975341796875 0.315093994140625 0.664306640625
-0.20798873901367188 0.0987548828125 0.6943359375
-0.19893264770507812 0.101776123046875 0.69647216796875
-0.1914215087890625 0.103271484375 0.69189453125
-0.00701904296875 0.318817138671875 0.6461181640625
-0.00974273681640625 0.32171630859375 0.65142822265625
-0.011440277099609375 0.32293701171875 0.6563720703125
-0.022022247314453125 0.27984619140625 0.66717529296875
-0.0207061767578125 0.280059814453125 0.66217041015625
-0.016567230224609375 0.28155517578125 0.65777587890625
-0.012149810791015625 0.2919921875 0.65814208984375
-0.011959075927734375 0.3009033203125 0.65313720703125
-0.00812530517578125 0.308197021484375 0.65179443359375
-0.2107391357421875 0.081634521484375 0.68804931640625
-0.20343780517578125 0.08489990234375 0.6849365234375
-0.19649887084960938 0.0845947265625 0.69097900390625
-0.19060134887695312 0.08709716796875 0.6861572265625
-0.18831634521484375 0.092437744140625 0.6929931640625
-0.18639373779296875 0.096923828125 0.6953125
-0.21636199951171875 0.090423583984375 0.68109130859375
-0.21647262573242188 0.085662841796875 0.6898193359375
-0.2148284912109375 0.08203125 0.6900634765625
0.012714385986328125 0.34942626953125 0.63519287109375
0.009063720703125 0.351287841796875 0.63519287109375
0.007930755615234375 0.354583740234375 0.64105224609375
-0.00174713134765625 0.32550048828125 0.64154052734375
0.002655029296875 0.333984375 0.64208984375
0.006328582763671875 0.339813232421875 0.64105224609375
-0.23395156860351562 0.065277099609375 0.6754150390625
-0.22713088989257812 0.070404052734375 0.6839599609375
-0.220550537109375 0.073974609375 0.6859130859375
-0.24220657348632812 0.064788818359375 0.68096923828125
-0.23992156982421875 0.060394287109375 0.6837158203125
-0.23962020874023438 0.060699462890625 0.6785888671875
0.04685211181640625 0.3756103515625 0.61676025390625
0.047481536865234375 0.376861572265625 0.6263427734375
0.046051025390625 0.3809814453125 0.62200927734375
0.0199127197265625 0.353363037109375 0.6282958984375
0.02756500244140625 0.3609619140625 0.63153076171875
0.03688812255859375 0.36590576171875 0.6160888671875
-0.25992393493652344 0.027679443359375 0.675048828125
-0.252777099609375 0.039825439453125 0.67681884765625
-0.2472076416015625 0.04931640625 0.68035888671875
-0.27082443237304688 0.01678466796875 0.67535400390625
-0.26938438415527344 0.0150146484375 0.67034912109375
-0.26787567138671875 0.01483154296875 0.67523193359375
0.094600677490234375 0.40240478515625 0.56195068359375
0.09569549560546875 0.406646728515625 0.5703125
0.0982208251953125 0.41143798828125 0.56561279296875
0.05840301513671875 0.38006591796875 0.6025390625
0.069976806640625 0.38812255859375 0.59393310546875
0.0808868408203125 0.394287109375 0.5755615234375
-0.29423332214355469 -0.037322998046875 0.64764404296875
-0.2858428955078125 -0.019439697265625 0.6580810546875
-0.2760009765625 -0.00250244140625 0.65985107421875
-0.308929443359375 -0.057464599609375 0.64495849609375
-0.30405235290527344 -0.054473876953125 0.64801025390625
-0.30252456665039062 -0.053436279296875 0.6396484375
0.12155914306640625 0.39288330078125 0.54864501953125
0.123931884765625 0.396820068359375 0.545654296875
0.1263580322265625 0.400115966796875 0.55450439453125
0.09981536865234375 0.39984130859375 0.557373046875
0.10774612426757812 0.397674560546875 0.55548095703125
0.11338043212890625 0.393402099609375 0.54888916015625
-0.30492401123046875 -0.083770751953125 0.6348876953125
-0.30446243286132812 -0.0750732421875 0.63531494140625
-0.30433845520019531 -0.065185546875 0.6334228515625
-0.3115386962890625 -0.09796142578125 0.64031982421875
-0.3101806640625 -0.096343994140625 0.64324951171875
-0.30447959899902344 -0.091766357421875 0.64031982421875
0.13649368286132812 0.35150146484375 0.55523681640625
0.13906097412109375 0.3531494140625 0.5540771484375
0.14320755004882812 0.355712890625 0.5550537109375
0.12300872802734375 0.383392333984375 0.544677734375
0.12693405151367188 0.37353515625 0.54815673828125
0.12957763671875 0.362579345703125 0.550537109375
-0.29178047180175781 -0.103546142578125 0.6446533203125
-0.29791641235351562 -0.10089111328125 0.642333984375
-0.30062675476074219 -0.09686279296875 0.63568115234375
-0.28838348388671875 -0.118194580078125 0.65789794921875
-0.28524398803710938 -0.11431884765625 0.6590576171875
-0.28416633605957031 -0.1097412109375 0.65753173828125
0.13185501098632812 0.278533935546875 0.58612060546875
0.13540267944335938 0.278350830078125 0.583984375
0.1383209228515625 0.27789306640625 0.58123779296875
0.13369369506835938 0.333221435546875 0.55322265625
0.13208770751953125 0.314056396484375 0.56915283203125
0.13143157958984375 0.296661376953125 0.5770263671875
-0.24344635009765625 -0.1058349609375 0.68109130859375
-0.25653839111328125 -0.107879638671875 0.6744384765625
-0.26970672607421875 -0.1085205078125 0.66204833984375
-0.22954940795898438 -0.10870361328125 0.696044921875
-0.22921371459960938 -0.105621337890625 0.695068359375
-0.2286834716796875 -0.105224609375 0.691162109375
0.10552597045898438 0.22174072265625 0.62176513671875
0.10825347900390625 0.218902587890625 0.62152099609375
0.10987091064453125 0.21710205078125 0.6280517578125
0.12451934814453125 0.2633056640625 0.5938720703125
0.11890792846679688 0.24835205078125 0.603271484375
0.11417388916015625 0.236328125 0.61004638671875
-0.1919708251953125 -0.0833740234375 0.69915771484375
-0.20462417602539062 -0.090118408203125 0.6986083984375
-0.21728134155273438 -0.096710205078125 0.69384765625
-0.1741485595703125 -0.075714111328125 0.716552734375
-0.17742538452148438 -0.075103759765625 0.715087890625
-0.1791534423828125 -0.07220458984375 0.7098388671875
0.055400848388671875 0.1864013671875 0.65545654296875
0.05559539794921875 0.183929443359375 0.65875244140625
0.055027008056640625 0.18011474609375 0.66485595703125
0.093280792236328125 0.212554931640625 0.630126953125
0.0794677734375 0.204620361328125 0.633544921875
0.06671905517578125 0.197174072265625 0.6455078125
-0.1500091552734375 -0.029144287109375 0.7193603515625
-0.15875244140625 -0.042388916015625 0.7095947265625
-0.16855621337890625 -0.058837890625 0.70806884765625
-0.13512039184570312 -0.01416015625 0.7227783203125
-0.13762283325195312 -0.014892578125 0.71844482421875
-0.14017868041992188 -0.015625 0.72161865234375
0.02172088623046875 0.188201904296875 0.660400390625
0.0213623046875 0.18450927734375 0.65936279296875
0.02191162109375 0.18072509765625 0.67120361328125
0.04470062255859375 0.18707275390625 0.65570068359375
0.03502655029296875 0.186187744140625 0.65850830078125
0.028163909912109375 0.186492919921875 0.66021728515625
-0.136322021484375 0.01544189453125 0.706787109375
-0.13747787475585938 0.00738525390625 0.7066650390625
-0.13914871215820312 -0.002716064453125 0.70953369140625
-0.12786483764648438 0.024078369140625 0.7181396484375
-0.13015365600585938 0.02349853515625 0.7115478515625
-0.13356399536132812 0.02374267578125 0.7103271484375
-0.0182952880859375 0.235015869140625 0.6724853515625
-0.016643524169921875 0.23699951171875 0.67010498046875
-0.01413726806640625 0.2384033203125 0.670166015625
-0.0149688720703125 0.250030517578125 0.65582275390625
-0.015865325927734375 0.26177978515625 0.65753173828125
-0.015636444091796875 0.2703857421875 0.65716552734375
-0.18363189697265625 0.08349609375 0.68658447265625
-0.17724609375 0.08123779296875 0.689697265625
-0.17191696166992188 0.077362060546875 0.69061279296875
-0.16236114501953125 0.076416015625 0.70269775390625
-0.161041259765625 0.0791015625 0.70458984375
-0.15867996215820312 0.082763671875 0.70556640625
-0.00034332275390625 0.198638916015625 0.6673583984375
0.000377655029296875 0.203155517578125 0.66766357421875
0.000972747802734375 0.206298828125 0.66607666015625
-0.001811981201171875 0.21514892578125 0.6553955078125
-0.005596160888671875 0.223968505859375 0.65814208984375
-0.010822296142578125 0.232269287109375 0.6578369140625
-0.16040420532226562 0.068115234375 0.6964111328125
-0.15654373168945312 0.062225341796875 0.689208984375
-0.15248489379882812 0.057159423828125 0.7003173828125
-0.14391326904296875 0.049835205078125 0.70477294921875
-0.14181900024414062 0.053375244140625 0.70965576171875
-0.13702392578125 0.055694580078125 0.7138671875
0.015361785888671875 0.1942138671875 0.6572265625
0.011623382568359375 0.197845458984375 0.654052734375
0.00749969482421875 0.203125 0.65777587890625
-0.14393997192382812 0.0416259765625 0.695556640625
-0.14204788208007812 0.03631591796875 0.6949462890625
-0.1389007568359375 0.029754638671875 0.7017822265625
-0.1225738525390625 0.219451904296875 0.57904052734375
-0.12295913696289062 0.218505859375 0.60760498046875
-0.12142562866210938 0.218719482421875 0.62054443359375
-0.10066604614257812 0.284942626953125 0.623291015625
-0.0985565185546875 0.288116455078125 0.59210205078125
-0.09333038330078125 0.295318603515625 0.56756591796875
-0.097858428955078125 0.2752685546875 0.5538330078125
-0.10756683349609375 0.250732421875 0.56304931640625
-0.11746597290039062 0.2354736328125 0.56146240234375
-0.13297271728515625 0.213623046875 0.56195068359375
-0.145599365234375 0.206298828125 0.5628662109375
-0.15949249267578125 0.1971435546875 0.5579833984375
-0.16971969604492188 0.1981201171875 0.5802001953125
-0.16389083862304688 0.207244873046875 0.6016845703125
-0.16107559204101562 0.211273193359375 0.621826171875
-0.08675384521484375 0.405120849609375 0.6055908203125
-0.08449554443359375 0.40728759765625 0.58489990234375
-0.077861785888671875 0.40948486328125 0.56719970703125
-0.073760986328125 0.394622802734375 0.5462646484375
-0.075511932373046875 0.370635986328125 0.5408935546875
-0.07746124267578125 0.3428955078125 0.5452880859375
-0.1971282958984375 0.18682861328125 0.5484619140625
-0.20780181884765625 0.196014404296875 0.54534912109375
-0.215606689453125 0.203521728515625 0.54876708984375
-0.21796798706054688 0.21917724609375 0.5587158203125
-0.21440887451171875 0.23193359375 0.57879638671875
-0.21382904052734375 0.23828125 0.59674072265625
-0.041477203369140625 0.487823486328125 0.582275390625
-0.038913726806640625 0.488189697265625 0.5552978515625
-0.033935546875 0.484344482421875 0.53607177734375
-0.044040679931640625 0.466064453125 0.528076171875
-0.054248809814453125 0.4473876953125 0.53131103515625
-0.065036773681640625 0.426422119140625 0.53936767578125
-0.22988510131835938 0.202484130859375 0.53424072265625
-0.24353218078613281 0.187835693359375 0.531005859375
-0.25624847412109375 0.174560546875 0.52459716796875
-0.26700592041015625 0.168548583984375 0.52447509765625
-0.26679801940917969 0.175506591796875 0.54595947265625
-0.26571846008300781 0.181671142578125 0.567626953125
0.03247833251953125 0.513946533203125 0.53106689453125
0.035247802734375 0.513671875 0.50604248046875
0.032566070556640625 0.507781982421875 0.4879150390625
0.00382232666015625 0.484344482421875 0.4906005859375
-0.0128631591796875 0.48223876953125 0.50213623046875
-0.024662017822265625 0.4801025390625 0.51666259765625
-0.27085113525390625 0.14324951171875 0.51055908203125
-0.279754638671875 0.118621826171875 0.50677490234375
-0.29227828979492188 0.085784912109375 0.49530029296875
-0.31903266906738281 0.04071044921875 0.4993896484375
-0.32302474975585938 0.04205322265625 0.5242919921875
-0.32216072082519531 0.04644775390625 0.55029296875
0.12276458740234375 0.5584716796875 0.46905517578125
0.12136077880859375 0.5606689453125 0.44488525390625
0.11913681030273438 0.56121826171875 0.41778564453125
0.098217010498046875 0.548614501953125 0.40594482421875
0.07909393310546875 0.53460693359375 0.42718505859375
0.053203582763671875 0.516021728515625 0.4500732421875
-0.33378219604492188 -0.002532958984375 0.46875
-0.35410308837890625 -0.042938232421875 0.4473876953125
-0.37164115905761719 -0.0806884765625 0.436279296875
-0.39036750793457031 -0.109832763671875 0.45965576171875
-0.39029693603515625 -0.10382080078125 0.48699951171875
-0.39056205749511719 -0.098297119140625 0.511474609375
0.186004638671875 0.578155517578125 0.4100341796875
0.181793212890625 0.581329345703125 0.38916015625
0.17810821533203125 0.58154296875 0.36669921875
0.16297149658203125 0.584259033203125 0.3564453125
0.14995574951171875 0.5811767578125 0.36810302734375
0.13402175903320312 0.5726318359375 0.3800048828125
-0.4022064208984375 -0.138885498046875 0.42242431640625
-0.41441726684570312 -0.16314697265625 0.41943359375
-0.42209243774414062 -0.187835693359375 0.409912109375
-0.43211555480957031 -0.207916259765625 0.435791015625
-0.43389129638671875 -0.205841064453125 0.46136474609375
-0.43475914001464844 -0.201263427734375 0.48358154296875
0.22027969360351562 0.478271484375 0.36395263671875
0.21673583984375 0.4810791015625 0.33740234375
0.21147918701171875 0.486175537109375 0.3287353515625
0.20081710815429688 0.52685546875 0.3009033203125
0.19445419311523438 0.552520751953125 0.31085205078125
0.18612289428710938 0.571807861328125 0.3284912109375
-0.43342018127441406 -0.23480224609375 0.40631103515625
-0.43259429931640625 -0.258758544921875 0.396240234375
-0.42570877075195312 -0.27685546875 0.40081787109375
-0.40706825256347656 -0.284088134765625 0.437255859375
-0.40326690673828125 -0.27978515625 0.4678955078125
-0.40116500854492188 -0.2747802734375 0.483642578125
0.207275390625 0.31103515625 0.42596435546875
0.20121002197265625 0.31475830078125 0.4041748046875
0.19596099853515625 0.319976806640625 0.38397216796875
0.19899749755859375 0.37054443359375 0.3280029296875
0.20342254638671875 0.41510009765625 0.3162841796875
0.20663833618164062 0.456634521484375 0.298828125
-0.39531326293945312 -0.29656982421875 0.41046142578125
-0.37092399597167969 -0.294921875 0.43145751953125
-0.34303855895996094 -0.289215087890625 0.450439453125
-0.30385971069335938 -0.2659912109375 0.514404296875
-0.29626846313476562 -0.259185791015625 0.5350341796875
-0.28954315185546875 -0.252655029296875 0.55657958984375
0.1638641357421875 0.1669921875 0.48663330078125
0.16022491455078125 0.16900634765625 0.4686279296875
0.1524505615234375 0.168701171875 0.4527587890625
0.15642547607421875 0.205963134765625 0.411376953125
0.17020797729492188 0.24517822265625 0.38995361328125
0.18109512329101562 0.2860107421875 0.36474609375
-0.28623199462890625 -0.26666259765625 0.48150634765625
-0.25712966918945312 -0.252593994140625 0.5040283203125
-0.22468948364257812 -0.23699951171875 0.52154541015625
-0.18727493286132812 -0.21136474609375 0.55999755859375
-0.18019485473632812 -0.2086181640625 0.5684814453125
-0.17678070068359375 -0.20404052734375 0.59259033203125
0.14046096801757812 -0.19805908203125 0.4627685546875
0.12884521484375 -0.216888427734375 0.4635009765625
0.116729736328125 -0.23480224609375 0.47613525390625
0.086605072021484375 -0.237060546875 0.46044921875
0.0709228515625 -0.227569580078125 0.45355224609375
0.057506561279296875 -0.220947265625 0.4378662109375
0.061954498291015625 -0.194488525390625 0.41998291015625
0.0752716064453125 -0.171173095703125 0.41339111328125
0.086200714111328125 -0.146087646484375 0.4017333984375
0.10644912719726562 -0.131561279296875 0.42889404296875
0.1212615966796875 -0.145660400390625 0.4368896484375
0.13484954833984375 -0.1595458984375 0.44842529296875
0.02819061279296875 -0.276763916015625 0.48626708984375
0.009792327880859375 -0.270233154296875 0.47308349609375
-0.011310577392578125 -0.265228271484375 0.461181640625
-0.012195587158203125 -0.258544921875 0.44622802734375
0.00658416748046875 -0.24859619140625 0.43682861328125
0.026309967041015625 -0.234588623046875 0.42730712890625
0.091335296630859375 -0.26312255859375 0.47528076171875
0.0789642333984375 -0.274871826171875 0.48162841796875
0.063121795654296875 -0.28265380859375 0.4884033203125
0.23940658569335938 -0.2730712890625 0.49560546875
0.22969436645507812 -0.292755126953125 0.50433349609375
0.21922683715820312 -0.3082275390625 0.5115966796875
0.17724609375 -0.30499267578125 0.50244140625
0.15060806274414062 -0.28546142578125 0.4869384765625
0.12633895874023438 -0.26812744140625 0.47674560546875
0.17232894897460938 -0.1966552734375 0.47308349609375
0.194244384765625 -0.2164306640625 0.4803466796875
0.22002029418945312 -0.235443115234375 0.487548828125
0.12198638916015625 -0.343353271484375 0.52618408203125
0.0962982177734375 -0.323638916015625 0.52581787109375
0.072357177734375 -0.304534912109375 0.51092529296875
0.19370269775390625 -0.335357666015625 0.520751953125
0.17956924438476562 -0.3460693359375 0.5250244140625
0.16414642333984375 -0.3538818359375 0.53607177734375
0.35753250122070312 -0.3172607421875 0.548583984375
0.34809112548828125 -0.33526611328125 0.5518798828125
0.33860397338867188 -0.349761962890625 0.5609130859375
0.300506591796875 -0.358612060546875 0.558837890625
0.27109909057617188 -0.3511962890625 0.5421142578125
0.2371826171875 -0.338653564453125 0.52703857421875
0.27845001220703125 -0.270294189453125 0.507080078125
0.30847930908203125 -0.2838134765625 0.51556396484375
0.337005615234375 -0.293212890625 0.52734375
0.23151397705078125 -0.405181884765625 0.57135009765625
0.20447158813476562 -0.3955078125 0.55816650390625
0.1766204833984375 -0.378662109375 0.551025390625
0.313323974609375 -0.380035400390625 0.5789794921875
0.29662704467773438 -0.389129638671875 0.58258056640625
0.27721405029296875 -0.40130615234375 0.5860595703125
0.38632583618164062 -0.303070068359375 0.5521240234375
0.40589141845703125 -0.300628662109375 0.5635986328125
0.42161178588867188 -0.29913330078125 0.57757568359375
0.38121795654296875 -0.359130859375 0.61871337890625
0.3678741455078125 -0.363739013671875 0.6024169921875
0.35167312622070312 -0.36651611328125 0.5906982421875
0.31301116943359375 -0.410888671875 0.64013671875
0.29829025268554688 -0.412567138671875 0.61834716796875
0.27933883666992188 -0.415740966796875 0.6016845703125
0.39876174926757812 -0.23992919921875 0.51947021484375
0.41601943969726562 -0.23931884765625 0.51727294921875
0.4352264404296875 -0.238128662109375 0.5347900390625
0.37067413330078125 -0.2818603515625 0.52392578125
0.37435150146484375 -0.265411376953125 0.5107421875
0.37872695922851562 -0.250946044921875 0.51123046875
0.20370864868164062 -0.4365234375 0.60137939453125
0.21922683715820312 -0.4322509765625 0.5941162109375
0.23708343505859375 -0.423248291015625 0.58770751953125
0.23740768432617188 -0.439910888671875 0.64263916015625
0.22025680541992188 -0.44329833984375 0.62420654296875
0.20621490478515625 -0.442169189453125 0.61566162109375
0.33174514770507812 -0.181060791015625 0.49334716796875
0.36199951171875 -0.180084228515625 0.506103515625
0.39186477661132812 -0.183349609375 0.5191650390625
0.37048721313476562 -0.231109619140625 0.500732421875
0.35036849975585938 -0.21875 0.4923095703125
0.3282623291015625 -0.202911376953125 0.490966796875
0.13262557983398438 -0.41217041015625 0.58013916015625
0.15496444702148438 -0.4263916015625 0.58953857421875
0.17901992797851562 -0.434814453125 0.59521484375
0.16904830932617188 -0.4146728515625 0.6361083984375
0.14419937133789062 -0.41064453125 0.61322021484375
0.12232208251953125 -0.401519775390625 0.59783935546875
0.24222946166992188 -0.10888671875 0.4869384765625
0.27608871459960938 -0.108428955078125 0.50738525390625
0.30855178833007812 -0.110870361328125 0.5308837890625
0.27925491333007812 -0.16845703125 0.4808349609375
0.25669479370117188 -0.150390625 0.48101806640625
0.23457717895507812 -0.13116455078125 0.47601318359375
0.046550750732421875 -0.335418701171875 0.564697265625
0.06568145751953125 -0.35528564453125 0.5570068359375
0.087001800537109375 -0.375335693359375 0.57733154296875
0.08347320556640625 -0.341949462890625 0.63629150390625
0.05864715576171875 -0.33502197265625 0.60687255859375
0.040538787841796875 -0.324249267578125 0.58074951171875
0.28339385986328125 -0.1988525390625 0.483154296875
0.26784896850585938 -0.2130126953125 0.48291015625
0.25806045532226562 -0.23309326171875 0.48638916015625
0.162322998046875 -0.159576416015625 0.46136474609375
0.17537307739257812 -0.13995361328125 0.466552734375
0.19187164306640625 -0.123992919921875 0.46258544921875
0.025943756103515625 -0.307281494140625 0.537109375
0.028484344482421875 -0.301116943359375 0.52142333984375
0.03827667236328125 -0.29541015625 0.51397705078125
0.13207626342773438 -0.370330810546875 0.53924560546875
0.11621856689453125 -0.377899169921875 0.55218505859375
0.10844039916992188 -0.384674072265625 0.5670166015625
0.10793304443359375 -0.097808837890625 0.41607666015625
0.12010574340820312 -0.079315185546875 0.42266845703125
0.13418197631835938 -0.063079833984375 0.448486328125
0.16222381591796875 -0.064239501953125 0.46392822265625
0.17891311645507812 -0.078094482421875 0.46771240234375
0.19505691528320312 -0.096099853515625 0.4732666015625
0.00907135009765625 -0.296234130859375 0.54656982421875
-0.005584716796875 -0.28076171875 0.5428466796875
