# XYZ point cloud file
0.128814697265625 0.3905029296875 0.7529296875
-0.27667236328125 -0.3074951171875 0.7568359375
-0.29583740234375 -0.31103515625 0.734375
-0.27471923828125 -0.3052978515625 0.7421875
-0.260650634765625 -0.2928466796875 0.7548828125
-0.285430908203125 -0.3052978515625 0.74609375
-0.305999755859375 -0.306884765625 0.74609375
-0.291412353515625 -0.3206787109375 0.7548828125
-0.2586669921875 -0.2783203125 0.767578125
-0.265380859375 -0.2706298828125 0.7529296875
0.085479736328125 0.31396484375 0.802734375
0.083404541015625 0.3101806640625 0.759765625
0.100250244140625 0.3421630859375 0.771484375
0.072479248046875 0.3101806640625 0.748046875
0.05010986328125 0.2962646484375 0.734375
0.06689453125 0.28369140625 0.7646484375
0.104339599609375 0.3367919921875 0.7958984375
0.0992431640625 0.3468017578125 0.7470703125
0.06268310546875 0.298095703125 0.75390625
-0.223541259765625 -0.184326171875 0.7705078125
-0.230621337890625 -0.2220458984375 0.7451171875
-0.218048095703125 -0.19384765625 0.8046875
-0.220672607421875 -0.1673583984375 0.75390625
-0.231719970703125 -0.198486328125 0.791015625
-0.240264892578125 -0.2364501953125 0.72265625
-0.2164306640625 -0.236083984375 0.7802734375
-0.21783447265625 -0.1676025390625 0.7353515625
-0.224609375 -0.173095703125 0.7734375
-0.012542724609375 0.2652587890625 0.796875
-0.001251220703125 0.2559814453125 0.7919921875
0.01165771484375 0.271240234375 0.763671875
0.003570556640625 0.2720947265625 0.7724609375
-0.017730712890625 0.276123046875 0.8115234375
-0.016082763671875 0.2698974609375 0.7763671875
0.021484375 0.2603759765625 0.767578125
0.015350341796875 0.2705078125 0.7666015625
-0.021484375 0.2508544921875 0.7890625
-0.21142578125 -0.097900390625 0.7880859375
-0.2076416015625 -0.118408203125 0.7451171875
-0.218963623046875 -0.093017578125 0.771484375
-0.22686767578125 -0.08154296875 0.8046875
-0.22393798828125 -0.0958251953125 0.8017578125
-0.216888427734375 -0.117431640625 0.78515625
-0.211883544921875 -0.1171875 0.80078125
-0.21337890625 -0.077880859375 0.7685546875
-0.229278564453125 -0.0810546875 0.787109375
-0.169677734375 0.35205078125 0.8115234375
-0.176025390625 0.3516845703125 0.78515625
-0.16156005859375 0.3228759765625 0.7822265625
-0.174713134765625 0.3543701171875 0.7509765625
-0.185638427734375 0.362548828125 0.798828125
-0.18939208984375 0.35205078125 0.78515625
-0.165191650390625 0.329345703125 0.79296875
-0.158294677734375 0.3331298828125 0.80078125
-0.17364501953125 0.3720703125 0.8056640625
-0.37127685546875 0.0015869140625 0.7861328125
-0.361053466796875 -0.01123046875 0.7685546875
-0.3839111328125 0.0101318359375 0.794921875
-0.394622802734375 0.0003662109375 0.7939453125
-0.379119873046875 -0.00732421875 0.765625
-0.35333251953125 -0.003173828125 0.7880859375
-0.36627197265625 -0.0062255859375 0.78515625
-0.39654541015625 0.009521484375 0.78125
-0.397491455078125 -0.013427734375 0.775390625
-0.11749267578125 0.3006591796875 0.76171875
-0.116851806640625 0.28564453125 0.818359375
-0.0997314453125 0.2884521484375 0.802734375
-0.125030517578125 0.291259765625 0.763671875
-0.12701416015625 0.3072509765625 0.78125
-0.1402587890625 0.3037109375 0.75
-0.10394287109375 0.2869873046875 0.791015625
-0.100067138671875 0.3096923828125 0.748046875
-0.131744384765625 0.3060302734375 0.783203125
-0.317108154296875 -0.0194091796875 0.765625
-0.298492431640625 -0.0203857421875 0.75
-0.307830810546875 -0.0108642578125 0.7783203125
-0.324310302734375 -0.0106201171875 0.828125
-0.305694580078125 -0.0272216796875 0.775390625
-0.289031982421875 -0.0283203125 0.7666015625
-0.2965087890625 -0.029541015625 0.7724609375
-0.316131591796875 -0.0035400390625 0.8291015625
-0.32501220703125 -0.026123046875 0.7431640625
-0.066009521484375 0.2750244140625 0.7802734375
-0.0712890625 0.2574462890625 0.759765625
-0.045196533203125 0.2637939453125 0.7822265625
-0.058258056640625 0.2803955078125 0.7822265625
-0.08154296875 0.2781982421875 0.7353515625
-0.073577880859375 0.2647705078125 0.783203125
-0.049774169921875 0.262939453125 0.7978515625
-0.052459716796875 0.2763671875 0.767578125
-0.071990966796875 0.2772216796875 0.7353515625
-0.247894287109375 -0.040771484375 0.79296875
-0.238616943359375 -0.059326171875 0.7578125
-0.23779296875 -0.0614013671875 0.78515625
-0.258880615234375 -0.044677734375 0.771484375
-0.264617919921875 -0.0587158203125 0.78125
-0.25360107421875 -0.0675048828125 0.765625
-0.239959716796875 -0.06103515625 0.7509765625
-0.248504638671875 -0.0477294921875 0.802734375
-0.270263671875 -0.0443115234375 0.78125
-0.351837158203125 0.265625 0.67578125
-0.36077880859375 0.2783203125 0.7548828125
-0.356414794921875 0.2940673828125 0.642578125
-0.347320556640625 0.2821044921875 0.650390625
-0.366546630859375 0.252197265625 0.72265625
-0.35748291015625 0.2596435546875 0.732421875
-0.363800048828125 0.2978515625 0.7470703125
-0.351776123046875 0.309326171875 0.6474609375
-0.35491943359375 0.244384765625 0.6162109375
-0.399200439453125 0.19091796875 0.720703125
-0.431060791015625 0.197021484375 0.716796875
-0.39483642578125 0.2027587890625 0.7353515625
-0.376220703125 0.2117919921875 0.6728515625
-0.39532470703125 0.19189453125 0.63671875
-0.43548583984375 0.179443359375 0.6865234375
-0.43841552734375 0.193115234375 0.724609375
-0.36444091796875 0.20654296875 0.74609375
-0.380767822265625 0.21435546875 0.66015625
-0.41961669921875 0.41259765625 0.6962890625
-0.432220458984375 0.4072265625 0.73828125
-0.44110107421875 0.45263671875 0.7197265625
-0.4093017578125 0.434814453125 0.6748046875
-0.402740478515625 0.356201171875 0.720703125
-0.40966796875 0.3701171875 0.72265625
-0.446502685546875 0.452392578125 0.71875
-0.435333251953125 0.481689453125 0.666015625
-0.388885498046875 0.3846435546875 0.6787109375
-0.567474365234375 0.17919921875 0.7021484375
-0.61346435546875 0.172119140625 0.6865234375
-0.56268310546875 0.1942138671875 0.73046875
-0.511688232421875 0.169189453125 0.7412109375
-0.565826416015625 0.1688232421875 0.677734375
-0.6138916015625 0.158447265625 0.6689453125
-0.614349365234375 0.1773681640625 0.720703125
-0.5125732421875 0.18359375 0.7353515625
-0.513275146484375 0.172119140625 0.6376953125
-0.457122802734375 0.581298828125 0.70703125
-0.470001220703125 0.57763671875 0.7470703125
-0.44268798828125 0.6226806640625 0.6787109375
-0.441497802734375 0.5892333984375 0.6572265625
-0.47119140625 0.5523681640625 0.69921875
-0.47637939453125 0.5439453125 0.765625
-0.4537353515625 0.6190185546875 0.7021484375
-0.42138671875 0.6187744140625 0.6552734375
-0.452362060546875 0.5447998046875 0.67578125
-0.73748779296875 0.12158203125 0.701171875
-0.74981689453125 0.0885009765625 0.7060546875
-0.735504150390625 0.142333984375 0.7216796875
-0.696380615234375 0.1607666015625 0.7021484375
-0.71649169921875 0.1136474609375 0.685546875
-0.732940673828125 0.0872802734375 0.701171875
-0.756591796875 0.1107177734375 0.7431640625
-0.706207275390625 0.160888671875 0.6875
-0.680694580078125 0.140380859375 0.6552734375
-0.337432861328125 0.6844482421875 0.6376953125
-0.33624267578125 0.693359375 0.6591796875
-0.30084228515625 0.710205078125 0.7041015625
-0.3289794921875 0.6728515625 0.6025390625
-0.3692626953125 0.658935546875 0.6748046875
-0.386993408203125 0.6656494140625 0.703125
-0.29931640625 0.703857421875 0.6435546875
-0.28082275390625 0.6966552734375 0.59765625
-0.377899169921875 0.6492919921875 0.6484375
-0.759429931640625 -0.02392578125 0.66796875
-0.748687744140625 -0.092529296875 0.583984375
-0.767852783203125 -0.0166015625 0.681640625
-0.757598876953125 0.025634765625 0.6904296875
-0.7457275390625 -0.0172119140625 0.6669921875
-0.73590087890625 -0.0791015625 0.6640625
-0.759979248046875 -0.0828857421875 0.6162109375
-0.767120361328125 0.021240234375 0.7041015625
-0.74139404296875 0.0191650390625 0.6591796875
-0.138336181640625 0.7735595703125 0.5966796875
-0.148834228515625 0.783935546875 0.62890625
-0.097564697265625 0.8060302734375 0.6181640625
-0.135955810546875 0.762939453125 0.5439453125
-0.18865966796875 0.7413330078125 0.6513671875
-0.18975830078125 0.7523193359375 0.6455078125
-0.094268798828125 0.8040771484375 0.6240234375
-0.0869140625 0.799072265625 0.587890625
-0.18603515625 0.734130859375 0.6083984375
-0.7523193359375 -0.244873046875 0.6298828125
-0.7525634765625 -0.295654296875 0.6259765625
-0.7479248046875 -0.255615234375 0.6142578125
-0.744110107421875 -0.19287109375 0.6376953125
-0.7344970703125 -0.2349853515625 0.58203125
-0.739898681640625 -0.2908935546875 0.546875
-0.753204345703125 -0.2994384765625 0.6376953125
-0.753326416015625 -0.1890869140625 0.6533203125
-0.726165771484375 -0.1787109375 0.560546875
0.012542724609375 0.8665771484375 0.5693359375
0.026336669921875 0.8673095703125 0.576171875
0.053375244140625 0.880615234375 0.5615234375
0.018157958984375 0.87353515625 0.5048828125
-0.014251708984375 0.847900390625 0.5927734375
-0.015380859375 0.861083984375 0.541015625
0.04962158203125 0.890380859375 0.6025390625
0.048095703125 0.865966796875 0.5029296875
-0.01055908203125 0.8402099609375 0.5146484375
-0.7620849609375 -0.424072265625 0.58203125
-0.752777099609375 -0.4600830078125 0.5107421875
-0.758880615234375 -0.4189453125 0.580078125
-0.75689697265625 -0.3873291015625 0.548828125
-0.745361328125 -0.4322509765625 0.541015625
-0.736297607421875 -0.4652099609375 0.5029296875
-0.753570556640625 -0.46826171875 0.55859375
-0.770751953125 -0.393310546875 0.58984375
-0.749847412109375 -0.3853759765625 0.4765625
0.167327880859375 0.8370361328125 0.4228515625
0.1748046875 0.8441162109375 0.5009765625
0.205535888671875 0.7904052734375 0.4580078125
0.1639404296875 0.8231201171875 0.4541015625
0.127410888671875 0.860595703125 0.5361328125
0.127471923828125 0.8681640625 0.5556640625
0.206146240234375 0.802978515625 0.48828125
0.216796875 0.7789306640625 0.4423828125
0.122894287109375 0.8489990234375 0.462890625
-0.64697265625 -0.544189453125 0.42578125
-0.58123779296875 -0.561767578125 0.4326171875
-0.65057373046875 -0.552978515625 0.466796875
-0.69775390625 -0.5211181640625 0.5087890625
-0.633636474609375 -0.5372314453125 0.44140625
-0.57843017578125 -0.5596923828125 0.4345703125
-0.5831298828125 -0.5587158203125 0.453125
-0.7054443359375 -0.5233154296875 0.505859375
-0.69036865234375 -0.5126953125 0.470703125
0.296966552734375 0.643798828125 0.48046875
0.300048828125 0.64697265625 0.5302734375
0.321075439453125 0.5758056640625 0.5107421875
0.3048095703125 0.6376953125 0.4169921875
0.282867431640625 0.6849365234375 0.45703125
0.277313232421875 0.68603515625 0.47265625
0.321380615234375 0.57666015625 0.48046875
0.29949951171875 0.593017578125 0.408203125
0.27349853515625 0.693359375 0.4404296875
-0.403717041015625 -0.5557861328125 0.4560546875
-0.336334228515625 -0.5384521484375 0.4453125
-0.4093017578125 -0.5675048828125 0.47265625
-0.46136474609375 -0.5677490234375 0.4638671875
-0.40521240234375 -0.5628662109375 0.4560546875
-0.348541259765625 -0.543212890625 0.4677734375
-0.3465576171875 -0.5411376953125 0.4677734375
-0.467376708984375 -0.5748291015625 0.501953125
-0.469879150390625 -0.5526123046875 0.4892578125
0.323760986328125 0.4111328125 0.5224609375
0.326416015625 0.42041015625 0.564453125
0.3231201171875 0.35693359375 0.4921875
0.31646728515625 0.427490234375 0.451171875
0.3223876953125 0.468994140625 0.490234375
0.323394775390625 0.4736328125 0.515625
0.321044921875 0.3558349609375 0.5830078125
0.3271484375 0.352783203125 0.474609375
0.324127197265625 0.4700927734375 0.4345703125
-0.190704345703125 -0.470458984375 0.4365234375
-0.138397216796875 -0.441650390625 0.517578125
-0.192535400390625 -0.4849853515625 0.54296875
-0.243560791015625 -0.50341796875 0.501953125
-0.20623779296875 -0.468994140625 0.4560546875
-0.15179443359375 -0.4307861328125 0.5029296875
-0.140594482421875 -0.4443359375 0.4921875
-0.24102783203125 -0.50537109375 0.5341796875
-0.23565673828125 -0.501953125 0.48046875
0.479644775390625 -0.181884765625 0.3408203125
0.464874267578125 -0.2296142578125 0.3359375
0.45733642578125 -0.1832275390625 0.287109375
0.48486328125 -0.1519775390625 0.34765625
0.492584228515625 -0.212890625 0.3291015625
0.491912841796875 -0.244384765625 0.2802734375
0.45416259765625 -0.2093505859375 0.28125
0.47149658203125 -0.129150390625 0.291015625
0.50714111328125 -0.16552734375 0.3662109375
0.40704345703125 -0.3238525390625 0.3291015625
0.375457763671875 -0.3134765625 0.26953125
0.4322509765625 -0.290283203125 0.333984375
0.430908203125 -0.32177734375 0.3505859375
0.3731689453125 -0.3447265625 0.2978515625
0.339385986328125 -0.340576171875 0.3046875
0.41326904296875 -0.281005859375 0.283203125
0.453033447265625 -0.308349609375 0.3388671875
0.4033203125 -0.353759765625 0.267578125
0.610595703125 -0.27587890625 0.3798828125
0.586639404296875 -0.3011474609375 0.3818359375
0.563507080078125 -0.2568359375 0.3134765625
0.6219482421875 -0.2562255859375 0.3720703125
0.665283203125 -0.299560546875 0.3671875
0.654876708984375 -0.3289794921875 0.318359375
0.55908203125 -0.280029296875 0.3798828125
0.573577880859375 -0.2125244140625 0.3173828125
0.66595458984375 -0.26806640625 0.34765625
0.53875732421875 -0.3955078125 0.3447265625
0.503387451171875 -0.365234375 0.4169921875
0.5755615234375 -0.3660888671875 0.3544921875
0.586578369140625 -0.4190673828125 0.369140625
0.523345947265625 -0.415283203125 0.2978515625
0.48504638671875 -0.3907470703125 0.36328125
0.525665283203125 -0.338134765625 0.3515625
0.60699462890625 -0.39501953125 0.3779296875
0.573455810546875 -0.4478759765625 0.3779296875
0.7916259765625 -0.3629150390625 0.41796875
0.77276611328125 -0.4066162109375 0.404296875
0.7486572265625 -0.3419189453125 0.3828125
0.80340576171875 -0.3331298828125 0.390625
0.82489013671875 -0.3724365234375 0.40625
0.800994873046875 -0.415771484375 0.447265625
0.73980712890625 -0.3897705078125 0.3935546875
0.751800537109375 -0.309326171875 0.380859375
0.837677001953125 -0.335693359375 0.4189453125
0.709991455078125 -0.4915771484375 0.3896484375
0.672088623046875 -0.479248046875 0.361328125
0.723236083984375 -0.48388671875 0.4384765625
0.74322509765625 -0.5106201171875 0.4013671875
0.678680419921875 -0.533447265625 0.4130859375
0.6488037109375 -0.505615234375 0.435546875
0.6951904296875 -0.443359375 0.408203125
0.75738525390625 -0.4912109375 0.4609375
0.7208251953125 -0.545166015625 0.423828125
0.87152099609375 -0.39453125 0.5419921875
0.88519287109375 -0.4010009765625 0.552734375
0.86236572265625 -0.4180908203125 0.5126953125
0.864501953125 -0.412841796875 0.4775390625
0.905120849609375 -0.3460693359375 0.4599609375
0.900390625 -0.350830078125 0.521484375
0.862762451171875 -0.431396484375 0.5693359375
0.849853515625 -0.4371337890625 0.4716796875
0.881011962890625 -0.3563232421875 0.4638671875
0.795074462890625 -0.5465087890625 0.51171875
0.81878662109375 -0.522216796875 0.5048828125
0.7958984375 -0.54296875 0.5009765625
0.75543212890625 -0.5823974609375 0.48046875
0.781890869140625 -0.533935546875 0.478515625
0.802886962890625 -0.5032958984375 0.4921875
0.814453125 -0.50537109375 0.4892578125
0.76690673828125 -0.5850830078125 0.5068359375
0.760528564453125 -0.58154296875 0.49609375
0.9354248046875 -0.240966796875 0.486328125
0.9466552734375 -0.246826171875 0.4697265625
0.926300048828125 -0.271728515625 0.54296875
0.926788330078125 -0.2313232421875 0.4931640625
0.9393310546875 -0.2161865234375 0.48046875
0.945220947265625 -0.207763671875 0.4833984375
0.93585205078125 -0.279052734375 0.4677734375
0.91162109375 -0.276123046875 0.4365234375
0.93133544921875 -0.208740234375 0.4482421875
0.6822509765625 -0.6829833984375 0.505859375
0.721923828125 -0.649169921875 0.5048828125
0.68896484375 -0.6668701171875 0.5126953125
0.6490478515625 -0.6953125 0.4833984375
0.676483154296875 -0.6802978515625 0.4990234375
0.700042724609375 -0.6392822265625 0.458984375
0.727996826171875 -0.6444091796875 0.5810546875
0.67303466796875 -0.69970703125 0.4765625
0.6563720703125 -0.6827392578125 0.4638671875
0.914459228515625 -0.1531982421875 0.42578125
0.931915283203125 -0.1434326171875 0.4716796875
0.923736572265625 -0.17138671875 0.478515625
0.883331298828125 -0.1529541015625 0.4580078125
0.872833251953125 -0.117919921875 0.4638671875
0.900665283203125 -0.124755859375 0.4638671875
0.9412841796875 -0.1644287109375 0.5048828125
0.903076171875 -0.1640625 0.3798828125
0.852783203125 -0.1275634765625 0.400390625
0.5941162109375 -0.6951904296875 0.5439453125
0.60675048828125 -0.70068359375 0.49609375
0.596649169921875 -0.712890625 0.4970703125
0.55609130859375 -0.688232421875 0.4873046875
0.578887939453125 -0.689453125 0.4052734375
0.6004638671875 -0.7076416015625 0.4599609375
0.624176025390625 -0.7247314453125 0.5087890625
0.574737548828125 -0.7054443359375 0.548828125
0.5423583984375 -0.669921875 0.4560546875
0.75494384765625 -0.0858154296875 0.4619140625
0.80615234375 -0.0777587890625 0.533203125
0.801513671875 -0.089599609375 0.482421875
0.726806640625 -0.0703125 0.4306640625
0.711883544921875 -0.0543212890625 0.4931640625
0.742889404296875 -0.0560302734375 0.4765625
0.83404541015625 -0.0823974609375 0.4921875
0.77587890625 -0.1016845703125 0.38671875
0.670684814453125 -0.057373046875 0.4375
0.44940185546875 -0.6126708984375 0.4951171875
0.48724365234375 -0.64208984375 0.470703125
0.476409912109375 -0.6309814453125 0.556640625
0.4178466796875 -0.5721435546875 0.4794921875
0.433074951171875 -0.565673828125 0.4541015625
0.487579345703125 -0.6123046875 0.4287109375
0.51165771484375 -0.65576171875 0.548828125
0.429168701171875 -0.6263427734375 0.5205078125
0.40423583984375 -0.5418701171875 0.5029296875
0.6451416015625 -0.141357421875 0.4091796875
0.688690185546875 -0.162353515625 0.3896484375
0.642425537109375 -0.1695556640625 0.3447265625
0.60028076171875 -0.1285400390625 0.4140625
0.658355712890625 -0.1142578125 0.4228515625
0.71063232421875 -0.134521484375 0.43359375
0.686370849609375 -0.1961669921875 0.3837890625
0.592010498046875 -0.1502685546875 0.3818359375
0.61480712890625 -0.0889892578125 0.3984375
0.445556640625 -0.5 0.3916015625
0.466461181640625 -0.4698486328125 0.3876953125
0.484893798828125 -0.520751953125 0.40234375
0.433929443359375 -0.513916015625 0.3994140625
0.407196044921875 -0.459228515625 0.3828125
0.437225341796875 -0.4368896484375 0.3896484375
0.512908935546875 -0.494140625 0.3818359375
0.4703369140625 -0.550537109375 0.4169921875
0.397186279296875 -0.4769287109375 0.421875
0.831878662109375 -0.2144775390625 0.38671875
0.855804443359375 -0.1766357421875 0.4140625
0.8775634765625 -0.2200927734375 0.4287109375
0.818450927734375 -0.2376708984375 0.34765625
0.788665771484375 -0.1844482421875 0.357421875
0.79925537109375 -0.162353515625 0.4013671875
0.879608154296875 -0.190185546875 0.3837890625
0.853729248046875 -0.26416015625 0.4306640625
0.77490234375 -0.230224609375 0.3779296875
0.6136474609375 -0.61376953125 0.380859375
0.632904052734375 -0.64599609375 0.4501953125
0.59124755859375 -0.650390625 0.4541015625
0.569122314453125 -0.5867919921875 0.365234375
0.631866455078125 -0.5943603515625 0.3974609375
0.6629638671875 -0.6142578125 0.4423828125
0.618377685546875 -0.651123046875 0.3857421875
0.551666259765625 -0.612060546875 0.38671875
0.591766357421875 -0.5546875 0.3603515625
0.499420166015625 -0.0567626953125 0.357421875
0.503021240234375 -0.045166015625 0.4150390625
0.523681640625 -0.08544921875 0.375
0.485626220703125 -0.0908203125 0.376953125
0.46539306640625 -0.0302734375 0.3818359375
0.4761962890625 -0.01953125 0.35546875
0.533538818359375 -0.046875 0.4169921875
0.52581787109375 -0.1175537109375 0.349609375
0.47235107421875 -0.0667724609375 0.34765625
0.301513671875 -0.4041748046875 0.404296875
0.332275390625 -0.4212646484375 0.4189453125
0.284820556640625 -0.4036865234375 0.4033203125
0.274169921875 -0.3848876953125 0.3486328125
0.318511962890625 -0.3759765625 0.37890625
0.357574462890625 -0.396484375 0.380859375
0.317291259765625 -0.4281005859375 0.3876953125
0.25 -0.392333984375 0.42578125
0.2882080078125 -0.3779296875 0.34765625
0.573638916015625 -0.0003662109375 0.4990234375
0.606658935546875 0.00341796875 0.546875
0.618316650390625 -0.0150146484375 0.4765625
0.541778564453125 -0.006103515625 0.4150390625
0.536865234375 0.010009765625 0.52734375
0.55963134765625 0.0118408203125 0.5029296875
0.660980224609375 -0.025634765625 0.52734375
0.590118408203125 -0.036376953125 0.4765625
0.508514404296875 -0.0001220703125 0.4384765625
0.293182373046875 -0.4840087890625 0.498046875
0.3388671875 -0.5147705078125 0.4990234375
0.30963134765625 -0.5118408203125 0.5439453125
0.263916015625 -0.4627685546875 0.4912109375
0.2916259765625 -0.45263671875 0.4697265625
0.315216064453125 -0.502197265625 0.48046875
0.359588623046875 -0.5340576171875 0.5556640625
0.272125244140625 -0.4718017578125 0.501953125
0.24298095703125 -0.4276123046875 0.4365234375
0.35076904296875 0.0589599609375 0.5390625
0.372039794921875 0.0682373046875 0.4951171875
0.34442138671875 0.0892333984375 0.5029296875
0.337677001953125 0.06982421875 0.5048828125
0.35260009765625 0.0771484375 0.55078125
0.379302978515625 0.0645751953125 0.54296875
0.36236572265625 0.0665283203125 0.412109375
0.3330078125 0.0814208984375 0.51953125
0.33544921875 0.0821533203125 0.572265625
0.12823486328125 -0.3297119140625 0.5380859375
0.112823486328125 -0.3226318359375 0.4814453125
0.135284423828125 -0.3485107421875 0.548828125
0.126495361328125 -0.336181640625 0.544921875
0.112945556640625 -0.3060302734375 0.5146484375
0.100860595703125 -0.3212890625 0.4912109375
0.1300048828125 -0.3387451171875 0.49609375
0.14581298828125 -0.344482421875 0.53515625
0.123687744140625 -0.307373046875 0.5458984375
0.434051513671875 0.0439453125 0.5068359375
0.463958740234375 0.036376953125 0.5029296875
0.42498779296875 0.04833984375 0.4873046875
0.402099609375 0.054443359375 0.5146484375
0.452911376953125 0.045654296875 0.5107421875
0.474151611328125 0.0504150390625 0.5458984375
0.43902587890625 0.0391845703125 0.474609375
0.392791748046875 0.048095703125 0.4482421875
0.423095703125 0.048583984375 0.5615234375
0.189971923828125 -0.3720703125 0.515625
0.183013916015625 -0.3624267578125 0.45703125
0.208770751953125 -0.4056396484375 0.515625
0.190948486328125 -0.3919677734375 0.521484375
0.168365478515625 -0.3724365234375 0.4921875
0.162322998046875 -0.35888671875 0.4765625
0.203125 -0.37646484375 0.44921875
0.21685791015625 -0.41943359375 0.5693359375
0.1600341796875 -0.3837890625 0.5625
0.292724609375 0.0845947265625 0.544921875
0.293914794921875 0.08984375 0.5400390625
0.307464599609375 0.081298828125 0.5556640625
0.296844482421875 0.103759765625 0.53125
0.28515625 0.0924072265625 0.5244140625
0.27734375 0.0972900390625 0.5859375
0.30181884765625 0.0740966796875 0.5263671875
0.310882568359375 0.0848388671875 0.5576171875
0.287567138671875 0.11328125 0.5107421875
0.083251953125 -0.283935546875 0.5546875
0.092681884765625 -0.291748046875 0.5126953125
0.0843505859375 -0.2767333984375 0.587890625
0.06707763671875 -0.2830810546875 0.572265625
0.063934326171875 -0.2821044921875 0.5595703125
0.08441162109375 -0.2984619140625 0.5283203125
0.10894775390625 -0.291748046875 0.5537109375
0.064422607421875 -0.27734375 0.57421875
0.0592041015625 -0.294677734375 0.55078125
0.293304443359375 0.2125244140625 0.5322265625
0.289703369140625 0.16015625 0.5576171875
0.292236328125 0.1954345703125 0.5439453125
0.30523681640625 0.2667236328125 0.5341796875
0.293060302734375 0.1976318359375 0.58203125
0.28271484375 0.1612548828125 0.5498046875
0.29302978515625 0.1611328125 0.5595703125
0.305267333984375 0.2413330078125 0.53515625
0.29852294921875 0.2574462890625 0.529296875
-0.01715087890625 -0.3402099609375 0.51171875
-0.02642822265625 -0.346435546875 0.529296875
0.013153076171875 -0.318115234375 0.5595703125
-0.02130126953125 -0.344482421875 0.5634765625
-0.064971923828125 -0.382568359375 0.5556640625
-0.056121826171875 -0.377685546875 0.513671875
0.0120849609375 -0.309326171875 0.52734375
0.013397216796875 -0.3150634765625 0.5791015625
-0.063934326171875 -0.3729248046875 0.5703125
0.130035400390625 0.1180419921875 -0.6416015625
0.086700439453125 0.16455078125 -0.6123046875
0.17327880859375 0.1956787109375 -0.669921875
0.18817138671875 0.0828857421875 -0.591796875
0.089996337890625 0.0482177734375 -0.65625
0.033447265625 0.09326171875 -0.6611328125
0.111297607421875 0.2171630859375 -0.6767578125
0.211578369140625 0.155029296875 -0.5869140625
0.142120361328125 0.031982421875 -0.6494140625
-0.02777099609375 -0.160888671875 -0.6533203125
-0.0653076171875 -0.223876953125 -0.6162109375
-0.0859375 -0.1259765625 -0.6953125
0.018646240234375 -0.0906982421875 -0.67578125
0.026092529296875 -0.1920166015625 -0.591796875
-0.018310546875 -0.257568359375 -0.609375
-0.12567138671875 -0.1968994140625 -0.6552734375
-0.048797607421875 -0.0596923828125 -0.693359375
0.067840576171875 -0.1341552734375 -0.630859375
0.30413818359375 0.0028076171875 -0.427734375
0.267364501953125 0.0438232421875 -0.4794921875
0.314788818359375 0.07421875 -0.4345703125
0.337554931640625 -0.0218505859375 -0.349609375
0.2586669921875 -0.0699462890625 -0.40625
0.244171142578125 -0.0335693359375 -0.53515625
0.28253173828125 0.092041015625 -0.4658203125
0.34869384765625 0.044189453125 -0.302734375
0.30657958984375 -0.085693359375 -0.390625
0.146728515625 -0.2587890625 -0.4091796875
0.095977783203125 -0.32470703125 -0.4130859375
0.105438232421875 -0.2435302734375 -0.5380859375
0.187164306640625 -0.204345703125 -0.5048828125
0.186920166015625 -0.2874755859375 -0.357421875
0.13604736328125 -0.33203125 -0.322265625
0.056640625 -0.3057861328125 -0.4482421875
0.147552490234375 -0.180908203125 -0.5322265625
0.220306396484375 -0.22509765625 -0.353515625
0.389556884765625 -0.0885009765625 -0.0458984375
0.38165283203125 -0.0687255859375 -0.16796875
0.41363525390625 -0.0247802734375 -0.017578125
0.419189453125 -0.09765625 0.078125
0.37493896484375 -0.126708984375 -0.029296875
0.35498046875 -0.1226806640625 -0.1513671875
0.39215087890625 -0.0115966796875 -0.0615234375
0.416656494140625 -0.045166015625 0.060546875
0.38946533203125 -0.1663818359375 0.0673828125
0.269989013671875 -0.3111572265625 -0.041015625
0.22210693359375 -0.348388671875 0.0029296875
0.242919921875 -0.302978515625 -0.1318359375
0.29638671875 -0.24853515625 -0.0419921875
0.287200927734375 -0.2999267578125 0.068359375
0.247039794921875 -0.350341796875 0.03125
0.19696044921875 -0.3419189453125 -0.111328125
0.282562255859375 -0.25537109375 -0.197265625
0.336578369140625 -0.2696533203125 0.111328125
0.4251708984375 -0.1326904296875 0.1953125
0.41180419921875 -0.123779296875 0.1962890625
0.428131103515625 -0.0966796875 0.228515625
0.42706298828125 -0.15087890625 0.275390625
0.414703369140625 -0.1856689453125 0.21484375
0.4068603515625 -0.172119140625 0.16796875
0.42681884765625 -0.0902099609375 0.21875
0.44873046875 -0.1019287109375 0.263671875
0.424591064453125 -0.202392578125 0.2392578125
0.331268310546875 -0.3096923828125 0.2138671875
0.296875 -0.32470703125 0.2724609375
0.3240966796875 -0.3017578125 0.16796875
0.362457275390625 -0.279052734375 0.2412109375
0.331817626953125 -0.29443359375 0.244140625
0.31536865234375 -0.3349609375 0.2294921875
0.277587890625 -0.3304443359375 0.1826171875
0.356597900390625 -0.27392578125 0.1796875
0.369964599609375 -0.274658203125 0.20703125
0.4141845703125 -0.0103759765625 0.3798828125
0.428436279296875 -0.019775390625 0.3720703125
0.425537109375 -0.02783203125 0.326171875
0.4185791015625 0.015869140625 0.2919921875
0.406768798828125 0.01171875 0.361328125
0.4326171875 -0.000732421875 0.39453125
0.4312744140625 -0.041748046875 0.302734375
0.42535400390625 -0.0035400390625 0.279296875
0.392181396484375 0.0277099609375 0.3828125
0.209320068359375 -0.3558349609375 0.3408203125
0.239898681640625 -0.3526611328125 0.333984375
0.2259521484375 -0.3699951171875 0.3642578125
0.191009521484375 -0.36767578125 0.400390625
0.201019287109375 -0.364013671875 0.3359375
0.222625732421875 -0.3680419921875 0.2705078125
0.25177001953125 -0.3519287109375 0.2861328125
0.218231201171875 -0.3831787109375 0.4013671875
0.172576904296875 -0.361328125 0.3447265625
0.29833984375 0.6685791015625 0.2587890625
0.29742431640625 0.6513671875 0.2724609375
0.313690185546875 0.59716796875 0.2802734375
0.30096435546875 0.685302734375 0.1689453125
0.273529052734375 0.7197265625 0.26171875
0.264801025390625 0.703857421875 0.3017578125
0.3140869140625 0.59765625 0.302734375
0.33441162109375 0.621826171875 0.173828125
0.258514404296875 0.7481689453125 0.2255859375
-0.438446044921875 -0.573974609375 0.2373046875
-0.36962890625 -0.5625 0.2490234375
-0.42999267578125 -0.5697021484375 0.349609375
-0.501190185546875 -0.57763671875 0.24609375
-0.44647216796875 -0.58642578125 0.1630859375
-0.379791259765625 -0.590087890625 0.173828125
-0.368896484375 -0.5635986328125 0.3427734375
-0.478668212890625 -0.568603515625 0.3056640625
-0.504547119140625 -0.5791015625 0.1708984375
-0.119476318359375 0.3131103515625 -0.728515625
-0.203033447265625 0.4088134765625 -0.748046875
-0.075469970703125 0.4061279296875 -0.6767578125
-0.04876708984375 0.265869140625 -0.7509765625
-0.180999755859375 0.266357421875 -0.7763671875
-0.260498046875 0.3193359375 -0.7265625
-0.1466064453125 0.474365234375 -0.689453125
0.00018310546875 0.339599609375 -0.6484375
-0.09747314453125 0.2021484375 -0.763671875
-0.30810546875 -0.0115966796875 -0.705078125
-0.355377197265625 -0.08740234375 -0.6728515625
-0.411468505859375 0.044677734375 -0.705078125
-0.27978515625 0.0924072265625 -0.720703125
-0.228607177734375 -0.0601806640625 -0.7197265625
-0.261199951171875 -0.125 -0.6689453125
-0.43939208984375 -0.0274658203125 -0.724609375
-0.370513916015625 0.1436767578125 -0.748046875
-0.19134521484375 0.045166015625 -0.7822265625
-0.6346435546875 0.6856689453125 0.0751953125
-0.61395263671875 0.669189453125 0.17578125
-0.574005126953125 0.7626953125 0.0673828125
-0.641510009765625 0.7081298828125 0.0234375
-0.70538330078125 0.595947265625 0.1240234375
-0.6766357421875 0.5845947265625 0.1708984375
-0.54766845703125 0.753173828125 0.2021484375
-0.576080322265625 0.7823486328125 0.0205078125
-0.705902099609375 0.6083984375 0.044921875
-0.871307373046875 0.288818359375 0.080078125
-0.9130859375 0.194091796875 0.03515625
-0.849639892578125 0.2794189453125 0.14453125
-0.826324462890625 0.3956298828125 0.0947265625
-0.893768310546875 0.294677734375 -0.009765625
-0.9329833984375 0.2127685546875 0.0068359375
-0.8897705078125 0.1802978515625 0.181640625
-0.80609130859375 0.3759765625 0.189453125
-0.8330078125 0.4014892578125 0.029296875
-0.623199462890625 0.700927734375 -0.279296875
-0.6470947265625 0.7000732421875 -0.19140625
-0.561309814453125 0.78076171875 -0.2490234375
-0.604217529296875 0.68701171875 -0.365234375
-0.697021484375 0.604736328125 -0.3115234375
-0.713836669921875 0.609375 -0.1943359375
-0.5794677734375 0.797607421875 -0.1455078125
-0.5340576171875 0.7724609375 -0.34375
-0.65997314453125 0.590087890625 -0.4013671875
-0.87384033203125 0.3021240234375 -0.2421875
-0.9046630859375 0.203125 -0.25
-0.885986328125 0.3138427734375 -0.1787109375
-0.815185546875 0.406005859375 -0.3271484375
-0.843963623046875 0.2857666015625 -0.39453125
-0.88116455078125 0.1927490234375 -0.4140625
-0.919219970703125 0.2110595703125 -0.171875
-0.83160400390625 0.4083251953125 -0.1884765625
-0.782867431640625 0.3934326171875 -0.3681640625
-0.44476318359375 0.5841064453125 -0.6025390625
-0.507568359375 0.6129150390625 -0.51953125
-0.37493896484375 0.6502685546875 -0.564453125
-0.360809326171875 0.5191650390625 -0.6416015625
-0.503662109375 0.4927978515625 -0.5732421875
-0.563140869140625 0.5303955078125 -0.5546875
-0.44061279296875 0.70556640625 -0.5146484375
-0.30194091796875 0.591552734375 -0.6591796875
-0.43170166015625 0.444091796875 -0.6884765625
-0.67559814453125 0.1951904296875 -0.6298828125
-0.717376708984375 0.08740234375 -0.5947265625
-0.748260498046875 0.2335205078125 -0.5576171875
-0.629302978515625 0.281982421875 -0.6376953125
-0.59503173828125 0.1484375 -0.6953125
-0.6240234375 0.04052734375 -0.6220703125
-0.782073974609375 0.13427734375 -0.5146484375
-0.693389892578125 0.34619140625 -0.5703125
-0.550445556640625 0.2376708984375 -0.70703125
-0.001922607421875 0.8267822265625 0.41796875
0.013671875 0.8414306640625 0.43359375
0.036102294921875 0.839599609375 0.4091796875
-0.006805419921875 0.8302001953125 0.3408203125
-0.028961181640625 0.8121337890625 0.421875
-0.01812744140625 0.8323974609375 0.4462890625
0.046295166015625 0.8577880859375 0.443359375
0.01336669921875 0.8345947265625 0.3896484375
-0.028717041015625 0.8167724609375 0.4033203125
-0.720733642578125 -0.3895263671875 0.4150390625
-0.71331787109375 -0.4251708984375 0.4072265625
-0.7254638671875 -0.4033203125 0.4228515625
-0.73382568359375 -0.354248046875 0.4619140625
-0.722900390625 -0.3741455078125 0.3759765625
-0.713958740234375 -0.3944091796875 0.345703125
-0.71844482421875 -0.4273681640625 0.5009765625
-0.7220458984375 -0.3603515625 0.4501953125
-0.73077392578125 -0.357421875 0.38671875
-0.078338623046875 0.8907470703125 0.208984375
-0.0455322265625 0.847412109375 0.2490234375
-0.037689208984375 0.90234375 0.2041015625
-0.1060791015625 0.9149169921875 0.193359375
-0.121307373046875 0.8736572265625 0.224609375
-0.083099365234375 0.8466796875 0.2646484375
-0.02178955078125 0.8740234375 0.2548828125
-0.063018798828125 0.919921875 0.162109375
-0.148193359375 0.890625 0.1962890625
-0.7958984375 -0.3304443359375 0.2490234375
-0.79644775390625 -0.365966796875 0.2392578125
-0.7730712890625 -0.337158203125 0.3046875
-0.806182861328125 -0.27978515625 0.2421875
-0.83050537109375 -0.301513671875 0.154296875
-0.83123779296875 -0.369384765625 0.1611328125
-0.754913330078125 -0.3704833984375 0.30859375
-0.771575927734375 -0.31298828125 0.3193359375
-0.84808349609375 -0.2769775390625 0.11328125
-0.16876220703125 0.9700927734375 0.001953125
-0.151947021484375 0.95166015625 0.0166015625
-0.111907958984375 0.9847412109375 -0.009765625
-0.171356201171875 0.97900390625 -0.072265625
-0.222320556640625 0.96044921875 -0.0361328125
-0.201629638671875 0.9521484375 0.0595703125
-0.099029541015625 0.970947265625 0.0439453125
-0.1319580078125 0.9935302734375 -0.099609375
-0.210845947265625 0.9677734375 -0.0732421875
-0.910614013671875 -0.2799072265625 0.015625
-0.894561767578125 -0.32568359375 -0.0029296875
-0.894317626953125 -0.276123046875 0.0478515625
-0.936614990234375 -0.2254638671875 -0.00390625
-0.9122314453125 -0.2724609375 -0.1123046875
-0.90264892578125 -0.3419189453125 -0.1162109375
-0.883575439453125 -0.3380126953125 0.0400390625
-0.9022216796875 -0.2410888671875 0.037109375
-0.934417724609375 -0.2242431640625 -0.07421875
-0.155426025390625 0.9808349609375 -0.2783203125
-0.16082763671875 0.9803466796875 -0.2001953125
-0.105499267578125 0.9686279296875 -0.2109375
-0.137298583984375 0.9610595703125 -0.3349609375
-0.20361328125 0.963623046875 -0.3037109375
-0.213775634765625 0.977294921875 -0.2109375
-0.109832763671875 0.9901123046875 -0.173828125
-0.08746337890625 0.9598388671875 -0.298828125
-0.17559814453125 0.940185546875 -0.3203125
-0.899139404296875 -0.2760009765625 -0.2724609375
-0.88232421875 -0.3270263671875 -0.2744140625
-0.91766357421875 -0.2725830078125 -0.244140625
-0.912994384765625 -0.2239990234375 -0.306640625
-0.872222900390625 -0.2823486328125 -0.341796875
-0.85394287109375 -0.329833984375 -0.265625
-0.8946533203125 -0.3118896484375 -0.203125
-0.92913818359375 -0.2249755859375 -0.2177734375
-0.889984130859375 -0.2315673828125 -0.30078125
-0.00433349609375 0.8602294921875 -0.400390625
0.037109375 0.797607421875 -0.4208984375
-0.0556640625 0.8397216796875 -0.447265625
-0.050445556640625 0.8858642578125 -0.361328125
0.0103759765625 0.86328125 -0.353515625
0.076171875 0.8104248046875 -0.4248046875
0.006256103515625 0.7994384765625 -0.4736328125
-0.08935546875 0.89453125 -0.431640625
-0.038726806640625 0.907470703125 -0.416015625
-0.731658935546875 -0.350341796875 -0.408203125
-0.735595703125 -0.3123779296875 -0.494140625
-0.66259765625 -0.3914794921875 -0.4638671875
-0.7264404296875 -0.4083251953125 -0.380859375
-0.7950439453125 -0.32763671875 -0.4189453125
-0.790863037109375 -0.2723388671875 -0.390625
-0.652801513671875 -0.3353271484375 -0.4521484375
-0.6666259765625 -0.43603515625 -0.3818359375
-0.777435302734375 -0.3692626953125 -0.392578125
-0.199798583984375 0.7784423828125 -0.51171875
-0.247833251953125 0.7579345703125 -0.5439453125
-0.255859375 0.8248291015625 -0.4892578125
-0.13720703125 0.8173828125 -0.5234375
-0.12091064453125 0.713134765625 -0.6044921875
-0.179351806640625 0.69921875 -0.5458984375
-0.313995361328125 0.7999267578125 -0.4521484375
-0.207763671875 0.843994140625 -0.50390625
-0.0712890625 0.752685546875 -0.51953125
-0.747650146484375 -0.146484375 -0.48046875
-0.825653076171875 -0.1029052734375 -0.4658203125
-0.750946044921875 -0.082275390625 -0.521484375
-0.6680908203125 -0.1875 -0.55859375
-0.74517822265625 -0.207763671875 -0.48828125
-0.8153076171875 -0.1715087890625 -0.4482421875
-0.8187255859375 -0.0323486328125 -0.484375
-0.660308837890625 -0.12939453125 -0.5859375
-0.66375732421875 -0.24169921875 -0.48828125
-0.366180419921875 0.9114990234375 -0.279296875
-0.43450927734375 0.8826904296875 -0.2529296875
-0.383026123046875 0.9173583984375 -0.173828125
-0.324554443359375 0.943603515625 -0.294921875
-0.341888427734375 0.9105224609375 -0.33984375
-0.4063720703125 0.8702392578125 -0.3408203125
-0.439971923828125 0.8897705078125 -0.1748046875
-0.318023681640625 0.9468994140625 -0.181640625
-0.2952880859375 0.9232177734375 -0.3681640625
-0.94140625 -0.0421142578125 -0.2880859375
-0.95819091796875 -0.0357666015625 -0.1904296875
-0.94378662109375 0.0228271484375 -0.251953125
-0.911956787109375 -0.0576171875 -0.3447265625
-0.937835693359375 -0.103271484375 -0.271484375
-0.94830322265625 -0.0897216796875 -0.2021484375
-0.96124267578125 0.0362548828125 -0.189453125
-0.91632080078125 0.0079345703125 -0.3232421875
-0.907684326171875 -0.1175537109375 -0.3271484375
-0.383544921875 0.9168701171875 0.06640625
-0.426788330078125 0.875 0.0185546875
-0.367095947265625 0.8916015625 0.044921875
-0.322601318359375 0.9296875 0
-0.379180908203125 0.913330078125 -0.0849609375
-0.435394287109375 0.8939208984375 -0.0439453125
-0.414031982421875 0.859130859375 0.0869140625
-0.30462646484375 0.9224853515625 0.0498046875
-0.3310546875 0.94775390625 -0.0830078125
-0.95379638671875 -0.046630859375 0.01953125
-0.928009033203125 -0.072265625 0.0732421875
-0.9530029296875 0.0263671875 0.0556640625
-0.967620849609375 -0.03466796875 -0.0224609375
-0.940185546875 -0.111572265625 -0.00390625
-0.93084716796875 -0.1219482421875 0.044921875
-0.928985595703125 0.0067138671875 0.1435546875
-0.98419189453125 0.0291748046875 -0.009765625
-0.962890625 -0.1015625 -0.1162109375
-0.240966796875 0.797607421875 0.2978515625
-0.29071044921875 0.781494140625 0.271484375
-0.19415283203125 0.777099609375 0.341796875
-0.19451904296875 0.8319091796875 0.2587890625
-0.297119140625 0.8482666015625 0.25
-0.33563232421875 0.819580078125 0.2490234375
-0.24896240234375 0.732421875 0.353515625
-0.156982421875 0.8106689453125 0.3193359375
-0.243377685546875 0.8829345703125 0.17578125
-0.80877685546875 -0.1485595703125 0.2412109375
-0.76141357421875 -0.1746826171875 0.3251953125
-0.799163818359375 -0.0723876953125 0.2958984375
-0.863861083984375 -0.115234375 0.2216796875
-0.81439208984375 -0.18896484375 0.2177734375
-0.769927978515625 -0.215087890625 0.28515625
-0.746856689453125 -0.111328125 0.3388671875
-0.849853515625 -0.04736328125 0.2294921875
-0.865631103515625 -0.1561279296875 0.1650390625
-0.138427734375 0.7357177734375 0.4580078125
-0.1373291015625 0.7490234375 0.490234375
-0.083282470703125 0.7769775390625 0.4873046875
-0.1427001953125 0.7347412109375 0.431640625
-0.1768798828125 0.6981201171875 0.51953125
-0.17205810546875 0.70751953125 0.50390625
-0.088775634765625 0.77001953125 0.4912109375
-0.100311279296875 0.7606201171875 0.3828125
-0.18634033203125 0.7073974609375 0.421875
-0.7091064453125 -0.2288818359375 0.4453125
-0.72064208984375 -0.26904296875 0.439453125
-0.7049560546875 -0.2276611328125 0.4814453125
-0.696502685546875 -0.164306640625 0.5224609375
-0.710845947265625 -0.21533203125 0.439453125
-0.718536376953125 -0.259033203125 0.384765625
-0.719573974609375 -0.2864990234375 0.455078125
-0.69683837890625 -0.1817626953125 0.482421875
-0.705657958984375 -0.15966796875 0.43359375
-0.47113037109375 0.5780029296875 0.3671875
-0.427001953125 0.5400390625 0.4306640625
-0.404693603515625 0.6624755859375 0.3515625
-0.529449462890625 0.610595703125 0.33984375
-0.53594970703125 0.474365234375 0.439453125
-0.483917236328125 0.4337158203125 0.490234375
-0.354248046875 0.622802734375 0.4267578125
-0.467498779296875 0.6861572265625 0.318359375
-0.597259521484375 0.5235595703125 0.306640625
-0.698822021484375 0.177978515625 0.388671875
-0.749267578125 0.086669921875 0.3564453125
-0.65496826171875 0.123779296875 0.427734375
-0.661224365234375 0.2711181640625 0.388671875
-0.767791748046875 0.2064208984375 0.3271484375
-0.79937744140625 0.1168212890625 0.314453125
-0.710235595703125 0.04736328125 0.3916015625
-0.59686279296875 0.2430419921875 0.458984375
-0.71197509765625 0.312744140625 0.326171875
-0.35064697265625 0.54638671875 0.6552734375
-0.378662109375 0.4931640625 0.6650390625
-0.39251708984375 0.5767822265625 0.5732421875
-0.33905029296875 0.6026611328125 0.5859375
-0.316619873046875 0.5362548828125 0.5947265625
-0.349945068359375 0.476318359375 0.6240234375
-0.3992919921875 0.5323486328125 0.6259765625
-0.3697509765625 0.607421875 0.6005859375
-0.30865478515625 0.6011962890625 0.6240234375
-0.638427734375 0.0733642578125 0.6611328125
-0.656158447265625 0.074462890625 0.6162109375
-0.6153564453125 0.1015625 0.640625
-0.62005615234375 0.0318603515625 0.6376953125
-0.6895751953125 0.02978515625 0.61328125
-0.70379638671875 0.054931640625 0.5986328125
-0.646026611328125 0.11083984375 0.6044921875
-0.564483642578125 0.094970703125 0.6025390625
-0.671539306640625 -0.004150390625 0.59765625
-0.310821533203125 0.5042724609375 0.5810546875
-0.3046875 0.5130615234375 0.552734375
-0.261444091796875 0.5889892578125 0.52734375
-0.3336181640625 0.4962158203125 0.5
-0.351409912109375 0.42333984375 0.54296875
-0.33404541015625 0.435546875 0.6083984375
-0.2647705078125 0.5689697265625 0.546875
-0.28765869140625 0.589111328125 0.4404296875
-0.38214111328125 0.4056396484375 0.5302734375
-0.57147216796875 0.0399169921875 0.5908203125
-0.64404296875 -0.0247802734375 0.529296875
-0.578094482421875 0.0347900390625 0.5478515625
-0.5306396484375 0.1220703125 0.5830078125
-0.589447021484375 0.063232421875 0.529296875
-0.63201904296875 -0.0123291015625 0.5263671875
-0.634033203125 -0.042236328125 0.5595703125
-0.5325927734375 0.0946044921875 0.6279296875
-0.532958984375 0.15869140625 0.5380859375
-0.378662109375 0.2852783203125 0.5859375
-0.368408203125 0.2757568359375 0.65234375
-0.382171630859375 0.3023681640625 0.615234375
-0.3992919921875 0.270263671875 0.6533203125
-0.374420166015625 0.2523193359375 0.595703125
-0.3642578125 0.3070068359375 0.666015625
-0.4107666015625 0.287109375 0.6240234375
-0.42584228515625 0.214599609375 0.62109375
-0.452850341796875 0.208740234375 0.57421875
-0.419158935546875 0.19970703125 0.625
-0.419189453125 0.2255859375 0.6396484375
-0.44677734375 0.238525390625 0.603515625
-0.439788818359375 0.1866455078125 0.6240234375
-0.402191162109375 0.22802734375 0.6240234375
0.14691162109375 0.8218994140625 0.322265625
0.15509033203125 0.82275390625 0.3740234375
0.189483642578125 0.80078125 0.3291015625
0.124298095703125 0.83349609375 0.23046875
0.107269287109375 0.838134765625 0.3232421875
0.112945556640625 0.830810546875 0.40234375
0.1927490234375 0.78515625 0.3828125
0.172088623046875 0.8067626953125 0.220703125
0.08551025390625 0.8447265625 0.2646484375
-0.645599365234375 -0.5145263671875 0.2900390625
-0.6109619140625 -0.5584716796875 0.294921875
-0.638092041015625 -0.5242919921875 0.3525390625
-0.677032470703125 -0.481201171875 0.3642578125
-0.65960693359375 -0.5087890625 0.2861328125
-0.630950927734375 -0.5419921875 0.2587890625
-0.59991455078125 -0.5443115234375 0.37890625
-0.67327880859375 -0.4962158203125 0.3857421875
-0.6917724609375 -0.489013671875 0.2880859375
0.09063720703125 0.8916015625 0.1328125
0.13983154296875 0.860595703125 0.072265625
0.0726318359375 0.895751953125 0.0927734375
0.056732177734375 0.8873291015625 0.1884765625
0.11407470703125 0.8697509765625 0.21484375
0.14508056640625 0.836181640625 0.115234375
0.1356201171875 0.8782958984375 0.0498046875
0.02801513671875 0.90625 0.11328125
0.067474365234375 0.8677978515625 0.224609375
-0.7218017578125 -0.491943359375 0.146484375
-0.7315673828125 -0.4874267578125 0.080078125
-0.67486572265625 -0.5286865234375 0.1181640625
-0.69537353515625 -0.5115966796875 0.1865234375
-0.75091552734375 -0.455322265625 0.1572265625
-0.784698486328125 -0.4508056640625 0.1123046875
-0.699310302734375 -0.5325927734375 0.0537109375
-0.656097412109375 -0.5487060546875 0.1552734375
-0.727203369140625 -0.469970703125 0.228515625
0.038726806640625 0.937744140625 -0.0791015625
0.092498779296875 0.9111328125 -0.0859375
0.028533935546875 0.9344482421875 -0.1044921875
-0.016021728515625 0.9541015625 -0.021484375
0.05206298828125 0.9329833984375 -0.025390625
0.108245849609375 0.90673828125 -0.0322265625
0.086883544921875 0.9188232421875 -0.1337890625
-0.018157958984375 0.9447021484375 -0.0966796875
0.00433349609375 0.9442138671875 0.0029296875
-0.792755126953125 -0.4708251953125 -0.033203125
-0.7862548828125 -0.456787109375 -0.0927734375
-0.746429443359375 -0.502197265625 -0.111328125
-0.781402587890625 -0.482666015625 0.015625
-0.838043212890625 -0.4189453125 0.015625
-0.835418701171875 -0.408447265625 -0.0859375
-0.7545166015625 -0.491455078125 -0.140625
-0.7376708984375 -0.50634765625 -0.0078125
-0.812530517578125 -0.4307861328125 0.015625
0.043853759765625 0.917724609375 -0.2470703125
0.036407470703125 0.90673828125 -0.318359375
-0.017486572265625 0.939208984375 -0.2119140625
0.039276123046875 0.917236328125 -0.2216796875
0.09039306640625 0.8963623046875 -0.271484375
0.08526611328125 0.863037109375 -0.3466796875
-0.0068359375 0.9332275390625 -0.3134765625
-0.0133056640625 0.963623046875 -0.1796875
0.089111328125 0.8968505859375 -0.20703125
-0.768310546875 -0.4407958984375 -0.2509765625
-0.81378173828125 -0.411865234375 -0.2919921875
-0.741973876953125 -0.4417724609375 -0.322265625
-0.728973388671875 -0.4715576171875 -0.2294921875
-0.782745361328125 -0.4527587890625 -0.208984375
-0.832000732421875 -0.4189453125 -0.2529296875
-0.797271728515625 -0.4144287109375 -0.306640625
-0.707672119140625 -0.474365234375 -0.3173828125
-0.74249267578125 -0.4840087890625 -0.2353515625
0.396148681640625 0.1527099609375 -0.0224609375
0.402923583984375 0.09423828125 -0.0361328125
0.38262939453125 0.180419921875 -0.0703125
0.389556884765625 0.2071533203125 -0.0048828125
0.399505615234375 0.1312255859375 0.041015625
0.41827392578125 0.0653076171875 0.103515625
0.398406982421875 0.1075439453125 -0.1044921875
0.3765869140625 0.2237548828125 -0.0908203125
0.382354736328125 0.2069091796875 0.1064453125
0.063934326171875 -0.4237060546875 -0.0185546875
0.053619384765625 -0.423095703125 -0.1123046875
0.117340087890625 -0.3956298828125 -0.0380859375
0.079315185546875 -0.4154052734375 0.080078125
0.008270263671875 -0.4390869140625 -0.021484375
-0.015625 -0.457275390625 -0.123046875
0.089263916015625 -0.42236328125 -0.111328125
0.145355224609375 -0.409912109375 0.0849609375
0.01873779296875 -0.4356689453125 0.103515625
0.386962890625 0.3775634765625 -0.0283203125
0.375518798828125 0.39111328125 0.1083984375
0.3770751953125 0.33642578125 -0.0283203125
0.376922607421875 0.367919921875 -0.1015625
0.386138916015625 0.440185546875 0.0087890625
0.388824462890625 0.4625244140625 0.0830078125
0.377655029296875 0.3260498046875 0.046875
0.361572265625 0.3372802734375 -0.0615234375
0.39013671875 0.427978515625 -0.0859375
-0.1512451171875 -0.5341796875 -0.03125
