# XYZ point cloud file
1.2933045488263955 48.940274863177223 73.684912501351235
1.1011428001001229 48.939546945150909 73.292049619602082
2.0647058175195627 49.364969990966955 73.951393264904254
99.12607859858548 49.229435966897078 73.23218138179061
99.008055084831369 49.350107203012612 73.114762889357024
2.0641992643170797 49.705937987314364 73.677518713516832
2.0624327927042705 49.894317128854972 73.282829703367568
98.665488903930708 49.541599938369167 72.77504400635388
69.070758312062992 -9.3846911026650588 41.008782916476449
75.773033282252698 -9.412749935750659 39.507855428857667
77.144870373891337 -9.4163947578555973 39.797518811826222
66.199833941549542 -9.3271301175823726 54.606297241497387
65.520367520426049 -9.3291320740372967 53.379847789344353
65.022356648387301 -9.3320469006499351 52.069180589664754
83.34778260565821 -9.4188165022162931 45.106321797254779
84.260785282079581 -9.4075881648688018 49.183060933286896
67.953497089291119 -9.3779154019633015 41.855863053603301
79.696203618163878 -9.4210371839971714 40.943880194465763
75.89209162213379 -9.3447661522492531 58.961229577163664
64.988469117593496 -9.3513970995455722 46.532173974650689
77.260280692141038 -9.3504940397912311 58.654829469178111
82.733345858055259 -9.383685711396188 54.505306657398194
78.57094623942541 -9.3566999341509192 58.156838185199334
81.899990692984119 -9.3768891054779662 55.632845880234939
97.922484842553047 49.312680354534074 0.52230724451353117
98.528549436231344 48.350616518174007 -0.027685236408322628
98.214933102332935 48.398607982121696 -0.19223429869940539
97.914552396127817 48.351963085784561 -0.23833061655302595
98.185881267564014 48.489065615838101 -0.19237261860977289
97.91544648191342 48.570718574896638 -0.21446174377230426
97.963368426980679 48.651897322173852 -0.19157984642465942
98.130296018786737 48.566122501024182 -0.19230171734447049
98.384139595777725 48.690531056149062 -0.054705042314715568
98.465633955861279 48.529231357958423 -0.054640108564416867
97.917947149286761 48.96540494217659 -0.026096738122160457
98.053624701630667 48.622228899816335 -0.19202854959331034
98.48108879912246 48.91360925282406 0.16133076811276642
98.626607393409728 48.711882174424517 0.16114514313039288
98.803314655236107 48.350878699124294 0.31256728480862017
98.702664415063708 48.475057613962683 0.16150729145788209
98.80852600929569 48.640098294270068 0.43423361899314028
98.256791936901493 48.818751778827163 -0.054373743952104092
98.676666458512756 48.901086564795598 0.43412854771601628
97.919428346047908 49.121547238591582 0.12895399406254476
97.920966630593284 49.239275881857367 0.31486273694647127
98.096053775231496 48.901345288171377 -0.05367863577585652
98.280361332626853 49.060502011882043 0.16204591157804515
98.142486008090572 49.312696550968631 0.73963641493139365
98.044063925782751 49.13817330401104 0.16322065835947586
98.210528467912241 49.242191796249081 0.43578933883964194
98.470604412132303 49.108553798257006 0.43466464996705889
97.923906855361395 49.338080582122544 0.74088545113421145
98.362938423976772 49.588773033746172 72.475846443555753
0.475799607215182 1.5193736567805269 1.5043985763748686
0.49909895186307396 1.5185252109788534 1.2855832691483629
0.63613535873409366 48.688174608703363 1.338576296098771
0.65943470338198562 48.687326162901691 1.1197609888722653
0.68643773247142792 1.5164991546032831 0.89040389029724953
0.84108323599207324 1.5154231387583998 0.73385572234786733
0.84677348399033958 48.685300106526121 0.72458161002115196
1.2339423980364732 1.5134122062448645 0.54169875515278743
1.0266871192689211 1.5143766644416965 0.61564482449253566
1.1870228707878325 48.683177616364539 0.44982254421643802
1.6136863353465194 48.900134566968319 0.37377208435190257
1.6148371496197087 49.108089421717352 0.44571929871316879
97.916597296186609 48.778673429645671 -0.14251452941103798
1.6176681994810242 49.450963230663262 0.71718782218675159
78.985586187981113 26.522039948495124 -0.046192634096615059
78.44827346685986 28.134859477081399 -0.048540505100193448
79.23226641321682 26.000769253920495 1.1300201253598217
79.132319545943574 26.556366077530289 1.128690172731591
79.740408311741533 24.837483459593265 2.2385373016480505
79.391477347924535 27.265730036518026 2.2321868224280079
79.549605597850586 26.64912680556683 2.2333738932908163
80.213199038523896 26.794932504206848 3.2036583031421402
80.326787979170604 26.163473774539387 3.205169878596422
79.654798911758007 26.064373521984749 2.2347736298663214
81.310633394559858 24.838300690325582 3.9892731615622026
78.973826985397409 28.377406148242894 2.2308579429702386
78.585247467878531 28.198473712415709 1.1262996775829441
78.982071387218298 27.142225644115406 1.127562314221203
77.999909248385592 29.256077000295942 1.1261860481295138
81.084518915112795 26.985309554515453 3.9831538647068023
81.209182061852459 26.29231017463054 3.9848127302726164
82.362805972745349 24.836636761734411 4.533321671723745
82.250695422053923 26.443392810583777 4.5283926728475041
77.697973745397718 29.684592770521 1.1265364149262975
81.905845841850805 28.016708258881746 4.5250049459788171
82.112934595874918 27.209193308938019 4.5265595492079749
80.897111958315691 27.716057249325129 3.9817470839750362
84.699081742952984 24.829641704629772 4.8025259974719123
83.514601497358399 24.833693413909 4.8097610817335408
80.402151998260877 29.033523110188362 3.9801721796694838
79.591429059893272 28.661253229233651 3.2009414149422923
80.042432859088592 27.460786053821131 3.2023764635219738
77.576818848082183 29.594469966794598 -0.048307944073513104
76.411977926020711 30.832622183410464 -0.045505872116513607
83.390809746865244 26.607943093742875 4.8043182333618706
84.563250969921569 26.776398228727682 4.7965539698515798
77.288878815015778 30.183418026220526 1.127296906909012
78.357773656859166 29.490506917843209 2.2307383485418359
83.238685604587005 27.453574071990669 4.8022940320479197
84.39633679168972 27.704249057661176 4.7943329523261093
77.609429777527623 30.466511654816195 2.2319075074252903
85.699888093941865 26.938969164573095 4.5055510667787839
87.774629826177545 24.813428154022539 3.1643056834825605
78.118056408726517 30.917221766182376 3.202074792890206
78.582999416585494 30.350286832778032 3.2012105232393533
78.039990383266769 29.941509017567242 2.2311071236363196
79.295445367370434 30.887169550919534 3.9804674886400813
79.672053337550949 30.352677990816975 3.9800304661911463
78.926165958828562 29.863261154994412 3.2008122894663806
87.607443493161782 27.209549110910793 3.156955162178313
86.734663677947879 27.086204447047255 3.9482213092076597
83.482721811293459 30.446580069738452 4.7903408142853898
84.145422529431983 28.682638319471312 4.7924494143877139
83.010005945749242 28.345266456582529 4.8005773940383092
82.406032347929425 29.952900911270877 4.7986556205432072
76.511969497653723 30.945234504632932 1.1293894162452716
75.502367171066794 31.680532168395168 1.1329987263436605
85.518618090424553 27.946648573435038 4.5031389323735054
81.515130158625198 31.562596473075338 4.7984827014960398
81.358882932865299 29.472577195863142 4.5232646318081375
80.552093411839877 30.930313318743988 4.5231079805274836
88.267500554824267 27.301836040715724 2.1777376969211995
88.441521175550236 24.807719873530072 2.1853888553369014
84.526394019195408 30.924922563512755 4.4988033460224823
85.246112929724319 29.009217144213061 4.5010933530654729
80.1359107688954 31.520953073210865 4.5235909861639181
79.572053905952458 32.208506603254726 4.5246391010844951
86.540295994991169 28.166684974378526 3.9456349167286664
86.248101539879002 29.306020825935953 3.9434415607178139
81.055567672176039 32.214808662155107 4.7990160225728777
77.816135469020963 32.459574790131171 3.9840260550245215
78.785181733967221 31.509357654990321 3.9814160356422468
77.235061895509972 31.783055962490241 3.2044530526185722
88.053655548221599 28.490564564314933 2.1748922146572824
87.402001610483353 28.351572162779259 3.1542214729986013
75.008209029524835 31.791424490159752 -0.040265270400142883
73.431155819602935 32.426043013373317 -0.032831209466198885
88.676476756926604 27.35770136665429 1.0674776905763894
88.810605502139651 27.373897041835217 -0.10930060434855565
75.729169386438855 32.04218711904457 2.2379085384129551
75.287489796153039 32.295744412722456 2.2397255936112312
87.093166378009386 29.555802159532082 3.1519031758761487
85.476394674789248 31.360129270063098 3.9409860522205542
76.791751225722464 31.268302971923013 2.2341098319830861
88.257701642338532 29.896363487230097 -0.11473200130036587
75.082709077304969 31.921446673875209 1.1347251886078413
75.610650738226894 32.892562210186128 3.210517361166501
73.477010489273852 32.567592918044753 1.1422942787175563
76.08761111630119 32.618750055913999 3.208555165595929
82.000962734168638 32.928409209079078 4.7907362028113676
83.464777870915839 32.843087045466852 4.4985972212327381
82.505203336922847 32.212785164059639 4.7901510488512997
88.128039534948329 29.859806555722916 1.0620901135167666
88.457392794503505 28.575584450260685 1.0645623851598118
87.732197380608255 29.744044828440135 2.1724790571883297
82.917149921100872 33.620281676424781 4.4992327430169636
74.637324092320853 32.608273151267895 2.2426125356305686
74.464961093723588 32.218393707180226 1.1374681814768262
73.597532149595196 32.975793320090858 2.247691885371117
77.109631737208616 34.272032765100334 4.5324981788205774
78.501204111658978 33.258543279821595 4.5275233376315631
81.317779009523832 33.761450574771033 4.7920061838464685
80.432928411450121 32.974033784453937 4.8001734259216207
76.556854836812789 33.376716687708296 3.9885279519521446
76.033412110814851 33.677213524015713 3.9906813732454585
75.262886924346844 34.047595042896212 3.9941027597893837
87.258196635514679 32.175134666732745 1.0593223307630282
72.211931825248769 32.815659701809196 1.1491698801436532
82.955318188091638 35.220294354837279 3.9429253843656542
83.750885043615256 34.250217819591676 3.9414464946002186
79.250456445443035 34.133531463479571 4.8033582775352874
77.713811113302768 35.252671503933485 4.808851775331501
80.020337231537439 35.033685810378223 4.7955006881335285
84.453709229747346 34.781608827150919 3.1497945070899758
84.338072671824364 33.416875045560133 3.9407650812176347
71.769968642413005 32.853451264407994 1.1517427083350777
71.754558049534069 32.70680022621449 -0.023551276422079354
86.277503345688928 31.72690741479019 3.1493078182422036
85.074353286634903 33.900801993829475 3.1490742068531028
77.075082887313272 35.619352081420722 4.8114794731713593
72.266064419598052 33.23688145394042 2.2549282947106533
73.785716911130351 33.62693015567443 3.2191199037976506
74.030616371255348 34.483152446244262 4.0001223451441419
74.908553805030323 33.230051131925322 3.2136349037095062
71.800911406984881 33.276652923487248 2.2576361298705394
86.883173420805889 32.003943047351001 2.1697775696378576
85.630813576483035 34.266741033911231 2.1695344403796186
85.975114191332835 34.49343203497817 1.0590732757352017
82.175191302229138 34.52499648304611 4.5006119600964762
83.612836755791676 35.806942230411757 3.1513575694392117
76.531198865363564 34.604097930362002 4.5348778282735767
75.67973044372809 35.013390256777036 4.5386586210179409
78.33429625964709 36.261636337561946 4.8015282551458291
71.037188579931751 33.286001746398149 2.2622775870736507
81.444443224601855 36.701813908614099 3.9469947535003054
76.134856848082194 36.071311885421359 4.8156543691692537
72.347896278078139 33.908868640175235 3.2269343472750669
85.313254095931057 35.432750598887203 1.0598413447699366
84.98478625731596 35.183573319611995 2.1702841927057959
84.109523877684353 36.250837170353847 2.1719111933006694
80.766112345416985 35.906689023763271 4.5044071842176461
78.935005925763988 37.240293829116311 4.5109533488642048
78.173876176878451 37.67724231309262 4.5140846017119696
71.84559009207922 33.951818626288826 3.2298584589292214
82.447281201053471 37.880782542164702 2.1763882572597995
77.633461864906025 36.663969409312692 4.8044114596067358
71.044322870760567 32.86233245701731 1.156152760965796
69.981624157694597 33.184251991064833 2.2690934268388334
72.574287223237263 35.836626214448835 4.5547875566420473
74.318002587144662 35.494704571262794 4.5453106027685619
72.452667658972075 34.79256827745845 4.0086983738550952
74.951944314694487 37.743031128564809 4.8170518544148164
76.601821001601422 37.159869086510753 4.8089922748198761
74.631181241128644 36.602796801150532 4.8229997666796809
82.015902537016075 37.372842874347171 3.1556587506115275
84.416518537386196 36.526189982504071 1.0615082895548233
68.750836879714143 32.446801434738816 1.1716414881857715
70.041384059872399 32.765658340823236 1.1626287841508618
70.056807574470639 32.620573742156402 -0.012859385435353365
77.463583439164012 39.177757328278034 3.9627056812611872
78.664925155231685 38.600279365959828 3.9573713565940762
77.053477695978273 38.215809467876284 4.5190595201786419
79.481045049964337 38.131762553029269 3.9540138755866261
72.705695712810979 36.98036041645112 4.8334646302984012
68.417299203815986 32.171391717711089 -0.0012555250143800045
80.287184233491416 39.453988937035426 2.1841105698438747
79.940674509379193 38.884239322915697 3.1630776566481154
71.901403520861493 34.839704320560443 4.0119074884330672
71.965115991718676 35.888713668432466 4.5583337699008499
69.880988124556183 33.852038783567025 3.2422308966447004
71.020864493482463 33.961912180883502 3.2348706620489844
79.07807226672287 39.379440817881544 3.1666263633783074
77.808294800198865 39.989811402986405 3.1722645778409082
80.500430152424599 39.807904945559137 1.0740068710618595
82.713506619941029 38.196108318689589 1.066095175324675
68.414227025404955 33.489647651469866 3.2524742025213724
69.582543922018175 35.767706520532563 4.5733384470733167
70.964931539828513 35.900955614976276 4.5644123064915698
70.996303011034115 34.850781311847399 4.0174081644357127
79.389301203046642 39.969445292595516 2.1878044169463631
75.26164576151632 38.849142136819111 4.5278125613279592
72.83924173638465 38.157304979211467 4.8285342304880112
68.623349740094341 32.848667714834903 2.2785790916205499
68.372098775334223 32.308316075678945 1.1744434025585733
67.673827189284566 31.993457327341176 1.1798172952316255
75.542294201210126 39.856846908358563 3.9720911188063672
66.840164634401361 31.502817370693979 1.1866341095993695
66.912688975203196 31.380260091805241 0.010717745811942681
72.101162393045598 38.220415916926186 4.8328308620314688
72.033018558056597 37.037879521053412 4.8373805298429104
72.165595249406266 39.367600522268354 4.5449491191809823
68.135621466125798 34.332489756510228 4.0367273536770636
69.745333150036288 34.730199323499164 4.0254857356315252
78.226406700130383 40.98691466289101 1.083804036029679
78.275496012161597 41.114015495630611 -0.092841382125473049
79.58052560634232 40.335998466357829 1.077791330865999
69.402078958930559 36.904256685441872 4.8539493515017744
70.889338756534528 38.235248654248963 4.8401956165309485
70.92857387735009 37.051396534195334 4.8440927028307401
73.082062304050822 40.339268517446271 3.9854622839927583
67.983775942851082 33.332254639549014 3.2556586867791504
67.663223488368942 34.159758169684267 4.0402221646686804
68.22474165046907 32.702914151521654 2.2815280142942962
70.849503886893956 39.383708351834585 4.5529475558721417
72.967180528723446 39.299061682574468 4.5402827881734469
67.803724193103932 35.328215296504972 4.5857610529541768
69.214424190807307 38.073801703721045 4.8510106206822012
73.177219436590349 41.21748204146111 3.1963172920996885
75.777586897423305 40.707579311375163 3.1821845090635605
67.190165349376485 32.974402232189576 3.2617663223724787
76.060797513534737 41.752362435455055 1.0943829616888872
78.067600004343177 40.604776035248776 2.1936731861380614
66.612413029322425 31.855146644703574 2.2943584677527404
66.242668907818654 32.416769084554645 3.269513943088973
67.489827213272235 32.371532844484449 2.2871839096182911
72.2687691117535 41.295158349025044 3.2016057247118717
65.613329576710584 30.284170131936673 0.022500581718749191
69.030489517742438 39.208370621351563 4.564693022318111
73.247119289320352 41.882655904946233 2.2187096306768881
75.953832156023424 41.351902849854397 2.2039988592974509
66.319247026645826 34.703353242455265 4.5970300426913502
67.281700066760891 35.13733739850754 4.5896230013740347
66.792264946326384 33.76703018842764 4.0469250641852099
65.489861857886154 30.950961754525142 2.3043885523660519
72.222562446883046 40.412762542306638 3.9904657462973248
70.811394639492875 40.430035301484381 3.9990419977819873
70.777218895947783 41.313414570540402 3.2106704948739888
72.3015157910977 41.96351072907693 2.2242143397833396
67.059195182186699 37.541311172456858 4.8660619278020745
65.220030640476466 30.68058506412191 2.3069848570889264
65.773583893946892 30.643713870109458 1.1961640984477484
65.517203630282665 30.386820165772093 1.1986309617375221
64.579973176606615 28.934372198075788 0.033542063076719086
73.287695568117243 42.296133091992523 1.1094545541601346
66.42670390959816 37.310044216904629 4.8707411039103938
67.437823421474178 36.418953591607881 4.8676669586284955
66.8613839281808 36.208176386329882 4.8719314816038732
65.798598556294877 35.728951447157328 4.8801106789671076
72.318902252859544 42.378971571710743 1.1150942570566773
65.260590190946061 36.784224222329456 4.879715526280326
68.860962513528847 40.242030464905881 4.0116360336138914
66.351189651362347 39.621946406796646 4.0291633298149483
66.689824700579663 38.630068220280975 4.5810393306838444
65.030459782954892 31.440365112440794 3.2803451356953954
68.603125226281321 41.775670864043136 2.2475056363030124
70.748962803748356 41.982511682276062 2.2336498558621081
64.666046466286076 30.037800284020445 2.312621687830573
64.990843377579637 29.776082102301594 1.2039867350524736
64.112700067103106 29.234155456675882 2.3188167735108958
66.002918061040816 38.378901957448193 4.5861210813476854
63.700063855847368 32.84294929615703 4.6195615015492599
64.422075085274884 32.083488338738242 4.0673145560882986
65.170173007926707 34.027081543997028 4.6064259630294808
65.752427311655879 33.155053360914792 4.0554277455924694
64.736472023360193 37.807844928392228 4.5958676465851633
68.529801536850897 42.186527472124155 1.1389568073450598
70.728272210109509 42.39844015521146 1.1247611777078383
64.739075480018755 31.148394759661461 3.2831488128473056
63.84318495135016 27.747365048953153 1.218100387821641
64.465088197384944 29.0125081596012 1.2098729213599373
63.346683372340202 32.488857909118728 4.622961701710147
63.224459981880948 36.917973942636841 4.6082312827412837
68.71569327791218 41.114701142930151 3.2239818673059886
66.062969830986418 40.459298649929146 3.2425074756759114
65.284490147658431 40.174647501019763 3.2482666905018305
64.102291844483574 31.763059535772008 4.0703914939851664
63.445756615556526 31.001284347967328 4.0770717928825837
62.789975361216371 30.04887105133373 4.084413701064693
64.140840320517725 30.454267562092959 3.2892358945621734
63.849201650594956 39.527454974631475 3.2593126746416687
65.614664360422211 39.352633807147015 4.0346121721124568
62.906384008087819 33.674609907918139 4.9049908961181874
62.516167677033643 33.283611283726124 4.9087455185209325
62.087163765204657 34.530143870692804 4.9070148414816561
63.868358048548608 35.964853599034875 4.8910997088378645
64.529740915386185 34.982186896339954 4.8904860494443625
64.256716314741794 38.740316880301279 4.0450629381236638
62.635467914698637 37.786158520879489 4.0583197868539127
63.860951811164362 27.393982481753167 0.043325816251869154
65.841915110546893 41.093465263814409 2.2667888725895202
61.659009464537448 34.101128420459659 4.9111345090070344
61.7150357926309 32.354057951761291 4.9168971113216058
63.458167945089208 27.90262419482691 2.3274759418172533
62.621178618101077 31.64705746366015 4.6303437717693665
61.896505957599715 30.594591302757962 4.6384569635652273
65.031599918732894 40.797170892012566 2.2727836163832711
64.870678993872758 41.184028177055197 1.1648547696514402
65.700871668117088 41.487590727465047 1.1587129717621738
63.537607780949081 40.123511039586901 2.2842813734086413
61.290017968802658 35.359826970991953 4.6255156971823794
63.502727669045335 26.629517747918793 1.2240905963502191
63.35518531982391 25.755059190369799 1.228049557290912
63.489873173255511 25.735027554012532 0.05139444424638881
60.825027807846091 34.893900534965589 4.6299898001279862
63.543296737797768 29.586435270644021 3.295925791573894
62.836488234221704 28.148549004081229 3.3052765805068827
63.340047753534272 40.493845753107415 1.176634506430468
63.099843944123506 26.726116763613923 2.3337804978418748
59.943266255810407 36.753073952143914 3.2929133804927915
62.135608296104309 38.51894919951495 3.2733246201383372
62.449546358847449 26.878071885951531 3.3120846795875503
63.484094725632126 24.035079518861227 0.05737062455733162
62.281854087482493 25.884215473204108 3.3165842220303161
59.416283662875301 36.22502646903591 3.2979839835500897
60.561268963179621 36.115440574931668 4.0768529424973297
59.039056530346073 34.428139630707136 4.0920657886101566
60.062681565878393 35.615853429152985 4.0816503011177705
60.779984839444452 33.081194627671039 4.9200786731096935
61.039319443179295 28.850794575943354 4.6497971609438302
60.570053404529595 27.310022864561979 4.6580536991027817
62.014277908293508 28.470850992526177 4.0946758295526315
61.589623709629777 27.076552669303787 4.1021474536601348
58.334354809324488 34.969664693176554 3.3089927111223103
59.901966922831349 31.806020805887712 4.9299086643033423
60.914818798217482 31.191878835607714 4.9258560630691672
59.870368555404546 33.786213881316058 4.6397035327666707
63.324688420806716 24.305463414692881 1.2333021121828143
63.843886656886063 22.373624528263484 0.060974923009923535
61.059199933976345 39.279236911063251 0.01893762358627965
61.5126280095539 39.418346761357803 1.1915772124813171
59.068712798285496 37.634184748111508 0.036868752724359966
61.753935930185236 39.073762052433153 2.2988663454117
59.471932175129055 37.235663987309863 2.319256249834921
62.94455837557377 25.805770822562298 2.3379472115741011
62.9124608937651 24.280106621704313 2.3434753989623469
60.366686362620229 26.104722181473857 4.6635105130354262
57.338962355298101 35.716832288243033 0.054155732767744685
58.923396496667472 36.686022841825761 2.3245342253212549
59.174653836258258 37.535171055280117 1.2124671994910998
58.612667216793568 36.972050672369647 1.2178746032321639
57.797216664177206 35.379320522819121 2.335993197277511
57.788876661369592 30.106749688432828 4.6653012960479208
58.916810053471849 32.401327091458668 4.6503792610147352
63.715626379545107 22.332609366058289 1.2378040385576787
63.490896010706344 23.148789764071346 1.2363271221820016
59.968276669363561 29.266302980740345 4.9383783979949536
59.450092261872257 27.564913836367733 4.947495636228215
59.225526935632161 26.233967955127767 4.9535212804524855
57.458867198666034 35.633297875269861 1.2296146228962008
56.807184175023522 30.482847779867999 4.1195128978066364
58.016602860917352 32.943196240764323 4.1035128365476279
62.247194415069579 24.236692223904871 3.322553951809164
63.323911855019098 22.203726249123928 2.3482135757240745
63.087391415234613 23.062736320114649 2.3466591397916474
58.863392900126229 29.693224392411697 4.9436485323028734
61.405588010798482 25.985833709389212 4.1070855269054789
56.306391210055502 33.959516992890926 1.2425173632218478
56.672331900926082 33.745612399404109 2.3485870316411144
61.574866002114511 22.735017099724836 4.1174101551390461
61.367552320172472 24.177743419576039 4.1136370528271113
64.316140642502404 20.968887312319335 1.2388945822069781
62.691508217296544 21.99446453625206 3.3276705890177039
62.436099213814018 22.922087637617317 3.3259919724497053
56.90379526926467 26.493327088753773 4.6833460042945836
57.171395966045964 28.079322984649021 4.6761656511452738
58.294826818680562 27.826413260122052 4.9536522168123884
55.341747871380946 31.038771392909702 2.3661900662600734
57.253663481017924 33.400144046688595 3.3210917570518008
55.975359581627401 30.799658032085329 3.3380031481468437
63.955937556580331 20.768440882658599 2.3493613559834912
56.145091633342737 28.308945813605458 4.1311621735446238
64.552419266531842 20.828351629035136 0.06203884034467029
54.943170813717494 31.186289735160695 1.2605521388908467
54.80279537929848 31.233640657013865 0.085344983252058818
55.906816676919931 33.56805276508949 0.070430084271825358
60.32465373133401 24.106686671415218 4.6707503033037892
60.553745361907815 22.512397824261264 4.6749197866020857
59.432084212610263 22.2671678057748 4.9661199028915117
59.179112655574706 24.027651857458135 4.9615157662349745
61.855169785122101 21.716989945706011 4.1192523463341004
55.275554723028321 28.501936735049838 3.350315942322482
58.048424406230005 26.366062562378652 4.9602637396700722
57.997498571336209 23.945230387146907 4.9690355072078169
55.858155844890923 26.608368207359341 4.1388612902785189
58.275067882612007 22.01357792171223 4.9740872838743453
62.604194441293252 20.016010062987707 4.120612594473652
60.863498512186503 21.387423094140146 4.6769554921999985
65.576575301648347 19.471515635859276 0.060512551245060914
54.050432829544469 28.763348579471518 0.098582524255696899
56.848484030636001 23.86421246441396 4.6928724968329254
54.297642961861236 26.776127896706004 2.3874768634306709
54.613321383409705 28.647078547460424 2.3790064329782288
64.631043689662761 19.740415030455956 2.3488222243964261
65.180645135774398 19.093855254431311 2.3477180942968059
64.95758581742129 19.992118011976363 1.2383823355946799
65.479781847703634 19.377793189471799 1.2373332802190089
58.650366455709744 20.650551281579549 4.9765537600018739
57.149937023337195 21.766366655946978 4.6983588973712234
65.734409708222756 19.119151497891735 1.236678785554022
54.972275507110162 26.704496581636576 3.3584535898589549
54.909591309608196 23.724869696537361 3.3692501428868122
53.873455966208589 26.819098725275747 1.2823610363490208
54.19688135567781 28.73593674671012 1.2736828302077601
64.103041785151646 19.334404561687467 3.3283278579335653
63.374016979763191 20.444540446104238 3.3289100317689115
64.696544146248272 18.636200830138286 3.3271355262421412
66.630054105039676 18.368592894059937 1.2338202520699659
55.798851414194516 23.789308349951384 4.1490760242663063
60.688122548304534 18.949305376068033 4.9700276569630848
59.774126840026682 21.024921282973555 4.9683678209616291
56.122082355527461 21.539900014181647 4.1549588057909652
64.985936770365896 18.342243834463677 3.326391681162193
67.625432849717868 17.756439390942749 1.2298676406061364
66.868452932868792 18.366561924014242 0.056467501189602032
53.806608995310903 23.641544366554211 1.2938747642638235
53.656986908475716 23.627500997028289 0.1189387547644794
53.665764724703699 26.209826289595789 0.10986057046073518
61.691210660222389 19.507751727692604 4.6784586317974215
62.575338404270752 18.161431823258646 4.6777525917841141
63.295103466715666 17.314685720606064 4.6763066200210028
63.404274231271252 18.797678422108355 4.1199736627918782
64.05561541454577 18.031429428163712 4.1186651445846891
65.448631975823901 18.821638869003998 2.3470292796792651
66.391277844754455 18.031695143428202 2.3440207276107854
54.588006926968042 21.19987762195694 2.4051871247537084
58.646669521965727 17.812698961475817 4.7030155086795782
57.557525073572663 20.286068223134169 4.7010375859709566
55.251234882731197 21.347339614381301 3.3754679831855792
63.646068524864837 16.958188752608145 4.6754044986535499
67.438893350691643 17.387418552956436 2.3398606779396096
68.367649813774648 17.565153408050961 0.050092817404428058
66.003873188774207 17.489203390597019 3.3231428409998336
54.23239282516257 23.674641975988219 2.3987149817464157
57.72694797107053 17.300595147021383 4.1599518392681514
59.810049681763196 16.041145064912421 4.7020864578232455
59.653227343860841 18.373126560379177 4.9783749863064628
61.596514880822255 15.715992529619076 4.9757675947560749
61.664417029021926 17.462641892116299 4.9692479983002116
62.459210892281249 16.527627559594173 4.9676513073756636
64.37321285332942 17.708822234208771 4.1178488046499728
68.321547686296611 17.436809040420016 1.2267242992097767
56.947511165132667 16.866573027677227 3.3807454032673494
56.559116024441572 19.952654018089216 4.1578310316908436
54.759837712293326 18.596024747089857 0.12977261857764286
54.02428645116413 21.071406478272838 0.12562360550498583
54.663556860361638 19.316990596633939 1.3037431159231991
54.170946028686245 21.106083361554809 1.3005056381012299
62.021742648104237 15.284057945819711 4.9746746036559175
65.490355475554423 16.772645275868271 4.1142833412075426
66.731902360085314 16.009101664218242 4.1093531976428679
68.171537860947581 17.051015345091532 2.3365523841818914
67.135163258798741 16.793465430361955 3.318650529376538
67.926322614566828 16.430193931369601 3.3150780103878223
68.699335524248738 17.295737734425714 1.2249051684297338
70.004066389256565 17.104767418464697 0.041686550288967172
60.724444518767328 16.741917167670756 4.9775195279078188
64.209955727123798 14.991599789504665 4.962304379206552
62.846760015696653 16.133966586543909 4.966655161784483
68.355693681808901 16.269859756524532 3.3130104984836337
55.713159582577909 19.669689578457984 3.3785038066097983
58.265994266775657 14.858836048256522 3.3796924829384638
55.068823939105251 19.453614542836409 2.4083471059162131
60.757156341817449 14.926952171345841 4.700183759715495
61.218968177551261 14.45785451965401 4.6989967410970168
64.88056902090932 15.923663823496796 4.6714644798038849
66.252543192263545 15.079907710805458 4.666016415447543
67.600170767832651 15.610425308611687 4.1054324861215949
68.569145810623638 16.902540068346454 2.3346378252442768
56.353658582565437 16.535859268373169 2.4106803650655562
59.98990662097745 14.206362047468989 4.1569155317112054
58.974379827159666 15.401051099760959 4.1589556637721845
68.071383475358004 15.434465009239425 4.1031635041210954
69.828861344561517 16.996305339064616 1.2190386837258622
70.989943281752346 16.864527940697556 1.2123931650204014
59.862744149351073 13.064463172394076 3.3761908727503283
65.179771356784755 13.008319811696138 4.9632998999644533
65.724941274384321 14.059887397595235 4.9562884392584827
67.212023498451657 14.639350203157022 4.6616838320334306
69.639441871152968 15.92954524477523 3.3063430145206625
71.71563255575586 16.868444603342247 1.2079381214317184
71.70119118353648 17.006926331459603 0.031641750255214263
73.379658643625305 17.276208866816312 0.020428148272135932
55.847963296695234 16.254114040454773 0.13129736819549095
55.979902948796934 16.327673883764071 1.3061336050934738
57.265467611499759 14.09558494698681 0.13016539305558941
57.72606035332884 14.446011319578464 2.4095844057829816
58.843330632901953 13.131633036543818 2.4073398627171465
59.339363624992629 13.596099846426666 3.3775361480536179
60.485086072891185 13.703373684574302 4.1556427349545828
71.743724011350764 16.45282632167897 2.3167804208802898
70.979955388325209 16.448702534225816 2.3214692411481126
70.959059936185639 15.779773553422711 3.2987901093670264
69.757944140149135 16.58739661969642 2.3284634870206804
62.843389442679637 13.096574498001763 4.6938122454898261
63.517479946812905 14.030620690787208 4.9699007997905431
64.648699728928278 11.986318251207127 4.6866434209828451
69.289612946786264 14.032187079440037 4.6510904458810174
67.732737836410053 14.444904509759366 4.6591764916443026
58.982143097297218 12.166446232525274 0.12640078213579975
57.385965674538305 14.186568445949815 1.3050107641307254
66.342283280820538 12.474536244879982 4.9580505220135578
66.784444021803438 13.573404697579802 4.9515041944820952
59.088782899748487 12.273000432611008 1.3012765534037536
58.530637611791512 12.83995241073815 1.3027111791220045
62.226865215024624 12.243746629311078 4.1500836806455643
71.833629759915624 14.901499587469077 4.0820003995677538
69.078609444232228 12.902948339821362 4.9398065134012121
69.480245856011749 15.06098246292763 4.0958462100359494
70.928474993201604 14.896614871763774 4.0875571890733333
73.307657389808384 17.11153088652323 1.1973451128631947
72.157842372966769 16.903209832591386 1.2051102192839724
64.162602788096621 11.05327788147514 4.1423969353469161
65.51635654580349 10.431687007444875 4.1362839816409291
65.911234094195009 11.406609492023973 4.6809423816696745
68.85950338068622 11.738892961579451 4.9452155130019779
67.359437182974943 13.35868882773744 4.948735495664514
72.385201526800643 14.944864136343051 4.0784731294669596
71.783834975064281 15.784224720089174 3.2937267741684995
72.286421470259143 15.823738242862923 3.2905127614185501
74.41487964276547 17.485048403663882 1.1892633695040642
61.052067764474927 10.627754997193735 1.2950105233417901
59.388116931771798 12.578252940784308 2.4059395668352277
61.30440032438463 10.972392627111031 2.3998235553576879
66.251033834187524 10.157340043326121 4.1327463786952503
70.889978011455895 13.850551840648015 4.6419306695000904
72.209136591814854 16.489416513072882 2.3138041357177044
73.41928932446649 16.708668509388019 2.3056315506232234
63.43406553064343 9.6626578080793699 2.3913667357682327
61.70373323752252 11.521697715514589 3.3703151788531391
66.973187612743345 12.238944825585973 4.9550125900903907
75.034631990165508 17.777760489435352 1.1844474254949708
65.957109366639884 9.3164554341331396 3.3519903790379857
73.593228583782974 16.060502411314896 3.2816874333216846
74.960989508284683 17.900023618409428 0.0085700555419109536
76.371243988600298 18.84920009588026 -0.0033780601738144789
60.961400373100545 10.50781209510933 0.12008378743802997
63.161056249059385 9.1550344608285652 0.11134903357006667
63.749727625100867 10.263423316263673 3.3621906016131113
65.180582937602026 9.6064276112645661 3.3557295011691375
66.596417249330955 11.15074789628526 4.677643091318056
72.499733600484745 13.903869742197807 4.6318923296608903
72.623370354896025 12.761255294857929 4.9186070794694645
71.950317810785066 12.708339479781568 4.9229112138182014
71.890222425615718 13.855950054432723 4.6357901187909034
74.584614584565713 17.101785945373923 2.2971257099250413
75.236889833867735 17.409859470660145 2.2920570359036976
74.851634247026254 16.485019058093471 3.2725021919538984
72.010420817861046 11.525363457344968 4.926677522993864
70.798524530894582 11.518823326556811 4.9341174139745485
70.845806920876356 12.702378562079955 4.929691861620789
68.645030168154932 10.607672974681984 4.6670030777296239
70.750876233152866 10.368668826355311 4.65495014909727
74.084568339734659 14.191006091630447 4.6211893838958584
63.233965980214698 9.2858961664702981 1.2863462917368675
64.759869560497663 8.5852593001788904 1.2794559908032521
65.534230822661641 8.1369450241013048 0.10038267619148621
72.748912044620425 11.583423542837751 4.9219549137921623
76.408580004405735 18.692477683313896 1.172841937233096
75.455918140940867 18.015800281309119 1.1810371957376073
64.923443182656086 8.9787928491475846 2.3846413675932832
65.587979218825438 8.2760242541966988 1.2754684875479541
72.067046493053112 10.375771635415022 4.646870115228614
75.680282918561375 17.660391102185535 2.2884678522359203
68.148414931749727 8.036312896288953 2.3681976171620089
65.731725232075036 8.6769617995615214 2.3807493382901286
75.556009211292348 16.817698785978582 3.2670286664007775
75.200419991510955 15.670593699771263 4.0587072484737554
75.97344522840703 16.035696188008323 4.0527002622812169
73.819375762680409 15.20470342778219 4.0687876496976383
72.116893885372804 9.3263747745449415 4.0997501801003233
70.70564147521165 9.3187584417604761 4.1084139293780169
68.278849206495977 8.7009775939598395 3.3399318036492414
68.447651985549044 9.575030263360663 4.1213376592232525
70.665442267945309 8.43010896103379 3.3262720070841882
72.869079089054452 10.438827848219081 4.6417411608081895
74.373411762592923 13.078323001827318 4.906788436322179
76.49891865027061 16.332605034304745 4.0484466567445025
75.61070120225358 14.705838633840829 4.6100499739669401
76.682937331345101 18.372575587747939 2.2798425431013287
76.034819955626944 17.088241568102138 3.2631527868905881
77.252566074800626 19.500657637467818 1.1648522327081925
72.976873386543076 9.3939861005947574 4.0942506608561091
76.464932316257773 15.109296334763522 4.6034119522893038
77.045609216236244 15.437396574619628 4.5987114863087104
77.665042656750046 19.9966725728328 1.1605943724298373
77.544475155855423 20.079354552790953 -0.014857483107830971
70.632614808462819 7.7543661889010513 2.353979162963185
68.063941422934505 7.6196628918953797 1.2626089178419988
68.030335036512611 7.4752427085692439 0.087418498615549178
74.954477584453485 10.81665510085271 4.6276577320462664
77.643114644859509 14.454642265819567 4.8819674060855718
77.001908466846231 14.092339914242634 4.8871578489844563
78.07678553455429 18.775839507388781 3.2447579150223329
77.117558666134585 17.857312031886238 3.2538385470099431
72.157081906312357 8.4381597543716182 3.3171147544102801
73.066039181987804 8.5096221321670136 3.311302023609791
76.518184683006496 12.555095498688445 4.8954905444317838
76.058631736047914 13.646823878079774 4.894487828158204
74.669111368757399 11.931319412289277 4.9089871366179212
73.177067819294166 7.2695149572149065 0.056638475291245577
70.596178699173748 7.1840301946665255 0.072732750210423733
70.609070617004022 7.3308013717236848 1.2480417298868822
77.571211496717012 19.223164720631523 2.2714335795097194
78.256726113913828 13.441456001967454 4.8817527735391835
78.739888599791897 18.184676102894443 4.0282590554843978
77.687181340614131 17.17662932789144 4.0382246486453379
78.545248449749039 21.44018477072181 1.1501626982295656
77.969884318120393 20.423112762079288 1.1572384014227683
72.185260869054105 7.7627462357719361 2.3444473887693866
73.169129969127255 7.4155959346634779 1.2320773491423267
72.199796020246197 7.3393866690832832 1.2382761856031301
77.553172834971349 13.043926868982476 4.8874478996944992
77.366188941370694 10.525497076239082 4.0634329211776734
75.212939882497153 9.7991103855765331 4.0791497203039029
79.093094225041654 15.484559757503254 4.8694939992818451
78.326173148910556 20.194027154054705 2.2634201942080687
78.005331216602372 19.745209576767678 2.2669522922547589
75.591480057049807 8.2828430564730073 2.3217830968017852
73.131392056274791 7.8371310077872929 2.3383969336761266
78.850761832559812 12.456720445888605 4.598080190523496
78.086679275582526 12.0249892011828 4.604265293597102
79.522002609743566 17.484032455115827 4.5764031024971983
78.358702988949659 16.370086939581064 4.5874156266363668
76.962645506823549 11.494099495648598 4.612999895830499
77.705352927573699 9.7055818816543571 3.2787290181973741
78.545571925437827 19.339580465981605 3.2399187456309657
78.892041435294658 19.82424713034818 3.2361045200021392
78.966394217883845 22.530195745474245 1.1437759405814263
78.425832382758074 21.532969261615197 -0.025331509586890372
78.974097043759741 23.142075394415574 -0.034310342872356014
75.689555687305074 7.8722393943124231 1.215056031946985
79.254370190066453 18.803358897571457 4.0229482173532221
79.545969202514755 20.980190269328986 3.2280626789685409
78.9792503432557 10.307249534580787 3.2688298740448909
75.42946530311292 8.9378215657813076 3.2953409771797006
79.634603037613459 19.335261559315018 4.0187622778665189
80.377659585454808 16.714626711966673 4.8573334957619636
78.571428587237818 11.094741994458918 4.0540672834591787
79.390714622329938 11.557664632724405 4.0474353199416928
79.84519905587689 10.79653823701914 3.261820184500881
77.960448081469053 9.0820016459788526 2.3044917404444458
78.164822714768803 8.5552961460155785 0.021619044607137705
75.718003709216021 7.7298739597848227 0.03947864723174721
80.57860143530192 13.684002178755129 4.58321649808118
79.120621733151154 23.115013802993928 1.1407882729563266
80.090520550826369 18.167710636762244 4.5705344120133127
80.510708863246407 18.755489446968273 4.5659086669056563
79.374977507590728 22.411680474458883 2.2492512707648284
78.93173028126597 21.264470846821908 2.255973185887739
79.847679909187207 14.57151060811173 4.8680666282282514
81.303752269565166 20.157359531737235 4.5561559699028837
79.475139255822427 9.3326336919288799 1.1867838967013591
78.116626723644856 8.690999308403331 1.1973405733087057
79.286437718115792 9.7082764643094013 2.2941877872601637
79.64646013287836 23.611207603399876 2.2433977534036145
79.313607872348712 24.835049806612396 1.1335961445589122
80.419231666864334 24.838588501850499 3.209234187489606
79.537293935537974 23.027187571743308 2.2461068483512223
79.224343391429045 23.669913944951219 1.1382142650141431
81.005445802513265 17.46957267414383 4.8508530123923421
81.945967613651248 16.749522913058126 4.8476132012465909
81.257136505913763 15.921173812338932 4.8547238131650179
80.465373991651518 9.7281897428467978 0.0034403185158111416
81.243385310627559 12.873613374125549 4.0314977726316066
82.109331268832648 15.149786796265632 4.5687256578426654
82.345149284630963 19.666630936780923 4.8349757047630204
81.469431537684585 18.118625714801102 4.8457450834542852
80.317783158143328 23.514366469274151 3.2144828355762463
80.187804090377909 10.21757631734592 2.2868914018737416
82.22607555267922 11.66536301809696 2.2693572079828379
80.199904011553571 22.883699514227139 3.2174082726134992
81.069928157745181 22.692888659669354 3.9982439031712871
80.877557715207899 21.963440055848025 4.0019704536882106
80.024615129427076 22.219029702804583 3.2208038980387688
82.455061519125735 17.461680680910657 4.8420086694102773
80.352258198476335 20.603861430384136 4.0099367111686686
81.884237380516424 21.659765394283255 4.5473528272079164
82.884700005403943 14.445295820653293 4.0159600505040256
82.857423155360891 16.04940370316092 4.5610032988330724
83.415927585521104 19.16019666232123 4.8301921763065847
82.486876576808555 11.337720106085564 1.1613443095889462
82.570637866590801 11.223555177630644 -0.01467015523798898
80.398612562002796 9.8544253846170236 1.179308557404523
81.199299624852785 23.385019072422057 3.9950333343639945
82.096811049603929 22.465844819962062 4.5432348270762395
84.386019743457183 14.868196658554611 3.2198002597746815
84.031830841631916 13.39450401825864 2.2522628071967628
81.803393724010363 12.187440808222878 3.2449748689722742
83.538196309915293 13.848643465765601 3.2285521365821999
85.012637371431083 15.744740777052483 3.2129019788345663
83.686843233924662 15.409907126067402 4.0076797508471742
83.410321980771585 16.822835675819341 4.5549165373717875
84.453847393424695 18.667486845731482 4.5420834541687443
84.279682533024101 16.239216235638867 4.0011532720594847
82.239774815589271 23.230685053728347 4.5396869715227135
83.220881279867882 22.215761289728437 4.8207076029186151
84.119241568339021 20.980522410668836 4.8195262617353967
82.986144944397864 21.325654095680072 4.8252548949467071
84.376801381761453 21.957172353365507 4.8145368444072174
83.378750739683767 23.06033188393118 4.8167898876857453
85.566573648879483 15.368146493436385 2.2359725939360153
84.33691996392389 13.109271222136782 1.1438306464415726
84.914328449728146 14.455755162178715 2.2431529958690817
84.435732296610382 13.009521914322541 -0.03232631194936858
86.195285926738961 17.835320741427175 3.1983579872785919
84.550019489004228 22.883859703935943 4.8102382187876804
85.497401902048182 21.705107575853091 4.525081117457046
85.909298682860282 15.131321031771593 1.1271409249591693
85.241068203955336 14.196551324022801 1.1344973656373076
85.398603688318047 18.2171375936055 3.9873930127569475
85.217679415871999 20.644427990467118 4.5304998332708255
86.797592842237634 17.544226841184553 2.2208337663721802
85.847407557588753 24.824717109525572 4.5120369046891602
86.892842359578765 24.819205827455324 3.9551757147046911
85.685518199565365 22.711523438185591 4.5204126845419221
87.170510873759611 17.360772126484569 1.1116307955627993
87.292382455768717 17.295618322108787 -0.064788190850647159
86.020912308953029 15.048025889298488 -0.0491518822123167
86.21761380780012 20.33690600106862 3.9749725524390906
86.517547017711422 21.474216382666722 3.9691623412159869
86.719255614106345 22.553342066012799 3.9641566215546282
87.377956902806289 21.277915666201061 3.179088966479048
87.060942132484229 20.07582649220419 3.1852301027938053
87.591157826090239 22.418506681572591 3.1737981084584646
88.250548845605095 22.314852224697159 2.1952694766438827
88.093674741838441 19.75010818465914 1.0976308354126241
87.698655245755361 19.876362372154841 2.2071689702859612
88.7930966977857 22.223022706863802 -0.091192666253814503
88.22305720581997 19.704397473692872 -0.07890206687858925
88.431750872648564 21.032047238239144 1.0910817478868819
88.02862747588685 21.127614311580551 2.2007767225486816
88.659109277873199 22.248403192380636 1.0854394673604146
88.854765312132997 24.802412710065507 1.0753165081639158
88.990345323234664 24.797815098890947 -0.10139800240357044
2.0644446038779924 49.157523109173056 74.024801125598856
1.1750913876579037 48.940024196921811 73.49930763154164
1.125259336667457 48.987253450384344 73.373001298578615
1.1253062860516172 49.154178741930288 73.287207946052519
1.2668091054436923 49.118636294126723 73.621089502174186
1.1253867956033596 49.077508056003239 73.343324680641132
1.1250257041002785 49.209753617725575 73.210150513350655
1.4498546202767888 48.940286379158579 73.839558598039346
1.12457250599025 49.238797194671633 73.119691257422588
1.2665066403441454 49.406705706985989 73.410250568807726
1.2668543293774501 49.279368643882464 73.538481770847099
1.2658000647054055 49.48818572438681 73.248945159433333
1.4858005099059577 49.300883424418537 73.778142969098468
1.6368915386876868 48.940058185614141 73.955496510407528
1.4854667963551922 49.064590386953569 73.855835717878961
1.7605974356466008 49.228453301529747 73.957210416745241
1.4855897313841777 49.501599458147595 73.631232999130191
2.0646226354856547 49.550883222725609 73.83366224596962
1.7606706157976593 49.488523590570445 73.823549394276071
1.2916374611017014 49.55082634586595 73.070073831258469
1.7601079925748002 49.694560969103016 73.61605773317423
1.4848551767979816 49.647100676312498 73.429494639263552
1.7589647491316427 49.826397326035696 73.355063970452775
2.0634569194911099 49.822364363023063 73.490787148308712
1.8424296479149613 49.894300946191954 73.06550253655297
1.6344825212433687 49.82233279580084 73.067026719793034
1.4836686622593445 49.723136078359566 73.192665831997587
1.0751669273494888 48.938867060326992 73.073537288520328
1.100547841101948 49.157452171288504 73.072618062262706
1.1739312682420386 49.364904435052395 73.071443957522703
1.4477641613835197 49.705892626436054 73.068576395493793
2.0611782774098768 49.918189025817853 73.06408027167997
1.6221467087944821 49.667496574194224 1.3291192792584183
1.31332459599659 48.730075854057517 0.39966354445863039
1.3942781495553853 48.682213158167706 0.37587647487668996
1.3429903620947248 48.820332634573404 0.39916656361533986
1.1478070857387903 49.023143906531615 0.53923737387878035
0.83048428899371829 48.809845485579764 0.75933361461956184
1.0014189875109847 48.684224090681241 0.56803344207176976
1.3990950113886216 48.897007466113507 0.39855523668247417
1.0652177637928395 48.862405483532783 0.54030456939735871
1.5666028988091973 48.981638295761819 0.39723429694226586
1.2760247550122519 49.150490426017761 0.5380076190365024
1.4373200887011506 49.231982366883969 0.53673567079061524
1.4761466181324181 48.952588030389208 0.39788942861576304
0.66151627248655309 48.906759719664876 1.337657069841159
0.73084095219318423 48.686351707827797 0.91161704830360379
0.72909532132734478 48.975595100483481 1.03332587739028
0.90815022052549765 49.046144211424959 0.75803249029531616
0.7348996996266437 49.114211983428767 1.3364829651011505
1.6161870027198511 49.294820934248271 0.56213709000204626
1.6192064840263907 49.568691873929055 0.90309656507067793
1.0087325927681248 49.455200174812433 1.3336154030722425
0.85260589248630647 49.300133894242322 1.3351128388369191
1.0550340796361648 49.246871079193639 0.75643205223737353
