# XYZ point cloud file
17.056146644861037 5.8324421452540314 50.575999900539983
27.883586345993564 5.5980540302999771 54.27128169283381
27.367621768344016 8.4670371660391339 53.373507393446644
15.831177029420232 0.86249737643909996 50.576269400205845
15.312280602294766 0.0052191878406082637 50.227303848116222
23.737252831130689 6.2723908996353224 53.374435841458848
22.301619118322538 8.6995274504365234 52.136111847012117
29.822917769854772 3.0124488181790161 54.814803181008969
27.224909370141603 5.3016053780697519 54.271451199166648
26.606766093633965 4.9279236020653538 54.271609286110035
29.461760159578521 2.9685957590374956 54.814897351239381
17.962917768884168 0.0052073647551731383 51.908472854835992
20.803361461907141 0.0051995174562300406 53.244176047671175
16.037841852643535 2.5645581623937037 50.576232872045139
29.108522087871755 2.881529714400024 54.814988999221484
19.719117651267933 5.4031924667491555 52.136754347318984
19.143454878120416 4.1241141342114132 52.136891932247039
22.419533136128145 4.5904388882278591 53.37476367683081
23.027522891581203 5.4712685070828542 53.374613499768046
28.768354148729671 2.7525202285738199 54.815076788628616
28.446218149568644 2.5834487291269612 54.815159438930479
18.72616402107176 2.7849733304512752 52.136987401626655
18.473331934445245 1.4052976666553627 52.137039362823231
28.146808927478215 2.3767803996212269 54.81523574558625
23.788814464718786 0.0051957697230848865 54.213346044950626
27.874493327786247 2.1355293781534415 54.815304595672089
26.038174339743843 4.4824572747325675 54.271753647372236
24.708277072749411 2.7849638217798183 54.272084512423518
24.411832159216296 2.1262848592994166 54.272155363530857
21.922148818704443 3.6427466129215702 53.374884182887072
27.63324346188028 1.8632132294474206 54.815364984896561
25.527421578363452 3.9717028207229239 54.271882178862498
25.081958138568591 3.403107740367294 54.271993005667838
24.196942556369507 1.4366755523880106 54.272204526780939
21.542621935070827 2.6420109232207132 53.374973260943378
27.426577592726204 1.5638032455696982 54.815416032574277
26.872194674885861 0.0051961807060472154 54.800694038092942
21.157481483448848 0.5403419992117211 53.375052413690653
21.286486342521819 1.6028247912403066 53.375029612171843
27.128498454565722 0.90149689649345288 54.815487274304289
27.257506741173366 1.2416652120463472 54.815456995001995
24.066743223016598 0.72619241938853474 54.27223128490489
27.041434854601327 0.54825856505126147 54.815506428705888
26.99758212672937 0.18710120457668022 54.815514179782511
84.799676312324493 0.0053478029045987974 51.934191391757594
84.587050782134639 -9.9924258415951606 52.800370674178254
84.231233670074232 0.0053271896862594481 53.80985176047534
84.889901459943133 -9.9924107741485599 51.406426501482201
84.088901000518774 -9.9924407271671214 54.137028677228301
82.064843595099489 0.0052890468729742679 57.053926312974895
81.542647949659994 -9.9924813174198128 57.540278209568413
80.400930675355681 -9.992492573327608 58.395427707794099
80.55014260850615 0.005272983049208424 58.297674619462285
76.946542441904938 0.0052499335347166998 59.79144142012332
73.573287680703316 -9.9925223414425393 59.882564080136945
74.996145218936931 -9.9925203956050197 59.983952287477223
74.996124171697602 0.0052438336116380491 59.984055782732483
72.179347320774099 -9.9925221408570266 59.57970958747012
70.842685504799505 -9.9925197980629505 59.081563620694212
69.441222825589165 0.0052495664815084275 58.300585183030279
69.59052811004895 -9.9925153606488308 58.398260059136703
67.925870316874892 0.0052592432348670393 57.057630757809918
67.439435972229091 -9.9925006041614317 56.535310569892047
68.448362890055023 -9.9925089189525078 57.543708943590104
66.682122010290641 0.0052723048448384269 55.542929771267268
65.097895671617977 -9.9924524938524115 51.411612054363204
64.995740846812794 0.00532624899429468 49.98891133470724
64.995761894052123 -9.9924379802223608 49.988807839451979
65.097150101366594 -9.992423037586935 48.565950301293654
65.898150560790953 -9.9923930845683699 45.835348125547569
65.755775796756836 0.0053674570115611608 46.16273203281105
67.436005237921847 -9.9923650614404806 43.441025510959562
67.922165871731551 0.0054055998248454529 42.918657480311467
66.581454123355513 -9.9923786839879227 44.58319454472047
66.679211446480394 0.0053872964772425647 44.434009988920835
70.837920054453349 -9.9923315228866656 40.892989490812425
69.436866858324919 0.0054216636486112968 41.674909173824091
71.165104779280369 0.0054348705992905977 40.750563978482091
72.174320656042283 -9.9923235455261032 40.394143175286175
73.568102127390716 -9.9923174686827512 40.090558292828248
74.990906342372824 -9.9923134161304716 39.988424515298647
74.990885295133467 0.0054508130861816717 39.988528010553907
76.941404228416275 0.0054529359752124584 40.180120318280373
79.144366056510222 -9.9923140136725426 40.890813182081644
80.545786641241904 0.0054450802163108492 41.671998610256097
78.817064596243512 0.0054510002175245376 40.748559146698057
81.538688671254732 -9.9923248927829871 42.428667859185751
82.061139149956148 0.0054354034629526815 42.914953035476444
83.304887456540428 0.0054223418529808498 44.429654022019108
83.402765088374366 -9.9923432262319309 44.578787320992376
82.547615589080635 -9.9923332075740596 43.437066232883808
84.585574820032889 -9.9923675287380949 47.166979462285695
84.798654257356731 0.0053881826305932634 48.033254188467794
84.889155889691779 -9.9923813178830834 48.560764748412652
99.949853198427945 48.994954082139344 0.76874276413970866
99.74807275253869 0.23275237578463281 0.35663201071671558
99.756691370870783 48.994957824809696 0.3679141570256127
99.628277994100529 0.35251519939208364 0.23388336527869302
99.489267256736525 0.49150155370156812 0.13341682786155645
99.408750324657973 48.994959963159182 0.090588279404481664
99.197413469002385 48.994960283121863 0.016701136201211386
99.979641888218708 49.165069240938422 74.959951956326307
99.994359914154842 48.99418600805388 74.974660143457058
99.974976070867598 48.994951832109706 0.99120738639635686
99.949911018067837 49.217424763888516 0.99121625638219757
99.935931062321913 49.330926065857405 74.916266095011991
99.875967760774984 49.428738283960925 0.99123781706136405
99.864501604475947 49.486870937650799 74.844875999176352
99.756853377902047 49.618301354279048 0.99127098753933929
99.598547997258635 49.776606073392216 0.99131410258916608
99.508644605977565 49.851607064424108 74.489209965723191
99.408984431597361 49.895719661697555 0.99136500168025643
99.149286074720777 49.981890950226976 74.13004131352973
0.99697953022110308 0.57169749972127315 0.11587115785543062
0.94863603219561465 0.70034037714994746 0.065808699214601252
0.85670665022688652 0.73020985506066838 0.065833094122260127
0.77850681248862674 0.78702512596563379 0.065854170779849008
0.69182134987265642 0.95715398628963988 0.065878643633291156
0.72169121406732328 0.86522472701453523 0.065869866070463912
0.81540887739283452 0.44659086627490208 0.2078487565022471
0.651589431410454 0.53006061716427189 0.20789254161217063
0.42512838729251645 0.43354628328011291 0.42913316486712361
0.56342981126440561 0.10470655280339747 1.0167473745597653
0.70330867462207491 0.10117120793386247 0.7077627652627414
0.77474548295404277 0.030764486809674363 1.0166912439478204
0.87053251013861166 0.20660271356301907 0.42901411875297879
0.62985827354273272 0.28480195685070342 0.42907798544709785
0.52158152370957955 0.66006798158502811 0.20792794974167073
0.43824329452934019 0.23622806344832803 0.70783361104490106
0.43811108549343825 0.82388708151336498 0.20795151493680641
0.21555927089622062 0.38212284901154892 1.0168413890975121
0.37386588806207266 0.22381689338113153 1.016798273710914
0.096333569379502437 1.0054774872766199 0.58309234396581533
0.022505181995807755 0.78300164428835495 1.0168961193470369
0.096448135749306996 0.57168627688443019 1.0168745587282764
0.092828058230720156 0.71164927323438443 0.70792903189301626
0.22788602586304663 0.44658445306869377 0.70789090261694443
0.19818294882183407 0.87894946524955442 0.42919723561684864
0.27638320341397904 0.63827554986947765 0.42917425567619027
98.97503876512792 1.0056917734080215 -0.0088038356314212862
88.275430430726658 32.638815833771922 -0.0056730688190433365
86.989610899678127 34.929900048005656 -0.0053124653233073693
83.492536331048058 38.832847537367826 -0.0043558228060857074
85.383901813339264 37.009349549075623 -0.0048702406835245959
81.355819240716897 40.361531023539818 -0.0037801739247676491
76.532774085938684 42.411092271994789 -0.0024953088473342877
73.949229216147216 42.88829029117349 -0.0018134742380508384
71.323740489835075 42.984237267814727 -0.0011245966765593973
68.712257006550146 42.69688528541829 -0.00044335616062896044
66.170445624151455 42.032363309254286 0.00021572590123686286
0.9968516496721076 48.994753544972752 0.017363434621470553
63.752470528952266 41.004832257703853 0.00083860494517146167
0.79401968055671901 48.993977162445404 74.975586283825564
0.67984456318075104 0.063348959718616094 74.941761446472171
0.25959773503261885 0.35153562710406039 74.653685188095579
0.52388076985693899 0.1347588688232535 74.870392623790806
0.23474215052756819 48.993979620782312 74.62437094815337
0.041583873818866079 48.993983363476808 74.223540731143288
1.0164705834051393 49.427765057346896 74.901589673898982
99.76745931793937 49.628319598011394 74.747886311814895
99.647665344115126 49.751099677600862 74.628156623500786
1.0163971666183995 49.775636303196052 74.624174243805257
1.016291728459235 49.968697255686372 74.223295444876143
99.300506546418205 49.94595184832967 74.281182118081404
69.586120885954045 -9.9923412384078851 41.576949094981771
76.41376388060641 -9.9923114702929521 40.089812722638911
77.807704240535656 -9.9923116708784647 40.392667215305735
66.584286472935361 -9.9924905855035639 55.393589481783479
65.900326869702866 -9.9924790669864567 54.141794127177832
65.401476741276838 -9.9924662829974 52.80539734049016
84.086724691606889 -9.9923547447490364 45.830582675598023
84.991289667257632 -9.9923958315131305 49.98356896332389
68.444403611649733 -9.9923524943156821 42.432098593207442
80.396523451260776 -9.9923184510866623 41.574116743639166
76.418949433919011 -9.9925163430527419 59.881818509947607
65.400000779175087 -9.9924079701403326 47.172006128597602
77.812730905267443 -9.9925102662093863 59.578233627489681
83.405597437954214 -9.9924551277475722 55.389182258055385
79.149131506856378 -9.9925022888488275 59.07938731196343
82.55104632338788 -9.9924687502950107 56.531351291816293
98.975139342260377 49.969663865149599 0.76900823102595495
99.598344846861607 48.994959129791404 0.20964934943469249
99.280096136007472 49.043289246420791 0.040546031009365546
98.974937738379111 48.994960073647981 -0.0083070584061673003
99.250225914265798 49.135218088555909 0.040554808661553088
98.974943837509016 49.217432798790213 0.016761726659080711
99.023278950843974 49.300105358390574 0.040615976109713237
99.193407097906771 49.213420847937911 0.040570504827968257
99.450405607615693 49.340375171571914 0.18251226282432798
99.533875747876493 49.176555475729771 0.18248869770108878
98.974993574001303 49.618307797776659 0.20981912143536419
99.115207915674233 49.270235522931074 0.040591581307644564
99.546976223789841 49.56688874515369 0.4036715947592151
99.695724208455175 49.362161892018634 0.40363050324131799
99.875855020815948 48.994956113662631 0.55744662131811218
99.773923777752202 49.121485592984371 0.40360752345553474
99.879426357791971 49.288781028125008 0.68228753806102316
99.320399010926536 49.470381224986426 0.18254767059676935
99.744369946980896 49.553846742163763 0.68232566693845698
98.975034717367038 49.776611211908119 0.36812704407611097
98.97508413274889 49.895723237567026 0.55769194956636003
99.156578969031614 49.553850677917957 0.18259145585973913
99.342248750982037 49.715635872380162 0.40372677357590514
99.197666793393637 49.969662031230428 0.99142113281057465
99.101572130734951 49.793834430362658 0.40379064088745265
99.268943022549109 49.899257998429334 0.68245380539230904
99.534005482664043 49.764202699731904 0.68238296039130542
98.975197577483385 49.994726147595919 0.99147967972828766
98.994319476942422 49.993970672513818 73.975156048180068
-0.0025617684111594041 1.0054727883236059 1.0169049898115501
0.022446425661811098 1.0054751440248533 0.79442723309550622
-0.0026627951599622612 48.994741088563565 1.0174017670368039
0.022345398913008241 48.994743444264806 0.79492401032075999
0.21539463931801861 1.0054797005791942 0.39349746422660825
0.37365944658964567 1.0054816729480878 0.23514970370920663
0.21529361256921553 48.99474800081915 0.39399424145186202
0.77448805465056214 1.0054845163138744 0.041991427440713991
0.56319191174019578 1.0054833054802244 0.11598930150101611
0.56309088499139293 48.994751605720182 0.11648607872626987
0.99685774880201361 49.217226270114985 0.042432219686718564
0.9968766770614983 49.428539180651718 0.1163769160614751
98.97496276576851 49.428745709326947 0.090706423033837247
0.99694862866004641 49.77640468323289 0.39379753710374876
79.792240463707799 26.719663790672165 -0.0035117234112202467
79.239999992737921 28.358646996438665 -0.0033500694863679015
80.038021667505404 26.185973052008464 1.1927291348885987
79.934413585206926 26.750879464181033 1.1927621279655551
80.552440845251084 25.000263042193048 2.3193676664129108
80.189037310923652 27.469503406710864 2.3194884388356263
80.352049961591064 26.842732749959751 2.3194392412436624
81.020884025177708 26.989886799526232 3.3110412549807182
81.13863400435784 26.34784732136319 3.3110037582660161
80.461096648207189 26.248181336832872 2.3194045163752866
82.139507415083159 25.00024784844063 4.1098548144912943
79.760274934054252 28.59904879495015 2.3196124678638657
79.37214264118623 28.419625890398613 1.1929267179862484
79.779524488593637 27.346399497150621 1.19280887368252
78.772962564620144 29.493574602865088 1.1930948213661299
81.902029991854079 27.183789581541433 4.1099396366198713
82.031259773970845 26.479178289645155 4.1098984844701878
83.206714375105207 25.000244300601636 4.6696120509519066
83.087093523348614 26.634539296616445 4.6696603089627677
78.464291978022402 29.928487603784056 1.1931801957151353
82.730800825765868 28.234001952964668 4.669770215009188
82.944286299851683 27.413171558673419 4.6697057846472907
81.708834333485498 27.92658685552616 4.1099979432577198
85.581968234337808 25.000246321958947 4.9573883606073057
84.376869726308342 25.000243781723597 4.9577040993003445
81.200705417455879 29.265229908817368 4.1101449309411171
80.381839916612904 28.886483569112087 3.3112283183005387
80.844843177140461 27.666719857158085 3.3110943842022045
78.348335341256671 29.840594444105264 -0.0031011111289561133
77.158947228236599 31.096212482909927 -0.0027764913066230523
84.244784872872714 26.804903180222581 4.9577573864008064
85.437037984062869 26.980369232083284 4.9574468295061731
78.046354603685671 30.434559082947224 1.1932949348083299
79.129653406802419 29.729352712722125 2.319789392328738
84.087088230525353 27.664703554055528 4.957807603343559
85.264009511817022 27.923767135634023 4.9575019287675239
78.36491452704189 30.719716862625575 2.3200000073069575
86.594570583628752 27.150740993189935 4.668746684855293
88.720704148430599 25.000269993427324 3.3090032884165446
78.875030996163105 31.176535672614158 3.311646810866296
79.350023626037824 30.601365081118608 3.3115164078935262
78.804781561760109 30.187087724300802 2.3198792476837955
80.068332957379795 31.147243404500202 4.1104610965247126
80.4533416770374 30.60477252509915 4.1103546080378743
79.700844944367248 30.107068705025213 3.3114193752565737
88.542317894127848 27.437459199717885 3.3090752540943078
87.650110871013823 27.306113594366266 4.108434891759452
84.325012306111489 30.710585108940563 4.9577767954595755
85.005344873018458 28.918289442676389 4.9575799941147602
83.851344981229147 28.571099407168894 4.9578787510090532
83.231301998668812 30.204575278719524 4.9580581123476763
77.253294575434751 31.206912386471245 1.1935107133027032
76.223585569597873 31.951475614037065 1.193788206737604
86.406660320225058 28.17530510161054 4.6688065233566594
82.319332119060363 31.839148922098843 4.9583139706016617
82.169285421790875 29.713272777795595 4.669932645759971
81.343417214955906 31.193538458780409 4.6701643478815393
89.21933555504333 27.53714571655992 2.3171231790731843
89.405014089398549 25.00028170259251 2.3170482710377578
85.386870133035245 31.201893580442814 4.6691050399386205
86.125737906212066 29.255394774397224 4.6688913060272332
80.917951115462415 31.792995715728239 4.6702820261820248
80.341906610564365 32.490537105209832 4.6704401716855042
87.448623166229936 28.404698672947568 4.1084990537956578
87.147403308811249 29.562821466024687 4.1085899621887538
81.849518507000113 32.501097832765709 4.9584439149266641
78.557848955158363 32.741829534794412 4.1108733530019119
79.547040140227949 31.778469783196051 4.1106042105079794
77.973680452098961 32.054345359010519 3.3118920533467584
88.997657127066304 28.745792580816733 2.3171937704089114
88.329350386403348 28.598617998954609 3.3091430715852357
75.727441626523643 32.066792816497063 -0.0023913866250455107
74.120759226043845 32.706950837768836 -0.0019638054957980544
89.641820094693344 27.59937923567 1.1902275470831982
89.785219893134695 27.620541596007975 -0.0061205829081065199
76.446494111437289 32.316233845209744 2.3205191640964098
75.996254001802441 32.572660537334585 2.3206397824390752
88.010975718653299 29.822705008384609 3.3092391573946927
86.355164303066033 31.649948043642162 4.1088191351705809
77.530237744949943 31.532597895801402 2.3202271090055566
89.213969274235978 30.184929312164698 -0.0059443691496202655
75.795793774171017 32.19511644017421 1.1939028112175492
76.317172973496184 33.177480900707764 3.3123376882064002
74.159927812963815 32.846902811465014 1.1943381588785882
76.803377677588799 32.900570126191575 3.3122074350164907
82.80888949430431 33.230394620202155 4.9582001065725487
84.300149250189833 33.149703615715516 4.6694099257776926
83.324377840662521 32.504087181786595 4.9580575291631765
89.075184270921227 30.143067321145075 1.1904023374863699
89.414710690091198 28.837669193975003 1.1902998681921313
88.666269517323428 30.019941991159634 2.3172937838509453
83.74030576358038 33.938500800911847 4.6695647711903163
75.333697057655883 32.888357737530157 2.320816641831235
75.16627238210566 32.495073974221434 1.1940708522894614
74.274545962084858 33.258645470294482 2.3210979749311607
77.829509422224987 34.58135757902712 4.6711200685018177
79.24879558415924 33.555096998557858 4.6707375889806784
82.110938960875728 34.07553725125188 4.9583917196129166
81.213421057371477 33.271351945817301 4.9586185471170596
77.273489180701858 33.670528446417904 4.1112194715947243
76.73990121875957 33.974425883935396 4.1113624186593487
75.954690920311577 34.348562363127648 4.1115720184483653
88.182198196549791 32.495612465727973 1.1906606538676061
72.871984457966164 33.094876258628396 1.1946781699925564
83.77687529376891 35.5684331648282 4.1095352144869617
84.589638087358821 34.584264706360997 4.1093120812607342
80.006367386347847 34.446886842951166 4.9589469663945556
78.439119097437299 35.580129260423412 4.9593693197501292
80.786525433787006 35.365369003429286 4.9587520705758266
85.307521044513322 35.130157666796165 3.3100024080210773
85.189923698427123 33.738481143585737 4.1091460500314092
72.4222024717686 33.131785696505062 1.1947963960193682
72.414025193975874 32.986749933568106 -0.0015137407766196986
87.173611057410085 32.028709020417104 3.3094813839418431
85.942009312282778 34.236201507667595 3.3098269169646617
77.788011197681897 35.950959419207685 4.9595437501621635
72.919013631778739 33.519635425878647 2.3214558292575154
74.457952849931161 33.91825904610976 3.3128324763768799
74.699477574913914 34.787399721618868 4.1119054299081679
75.601695073373605 33.518391314591845 3.3125286740060722
72.445631573254019 33.558478433112661 2.321580258575203
87.794656344729503 32.31616623381295 2.3175459174864033
86.512681154616473 34.613936125360205 2.3179055829609045
86.868773928058459 34.849739469486842 1.1910291424453112
82.982309913105695 34.856358062469845 4.6697728689388667
84.448473319015307 36.170385726340207 3.3102382483003385
77.239865510197347 34.917180589745577 4.6712780328315517
76.372169305433601 35.330622375315293 4.6715096509877823
79.066906207203914 36.60879306405166 4.9592154860069995
71.668591302408174 33.565330273547211 2.3217839159280391
82.234591653029611 37.07044387636941 4.1099548442713889
76.82986577180705 36.407501269533789 4.9597995123739542
72.994145437317684 34.200091433033862 3.3132189147822935
86.192150183930295 35.803080910744185 1.1912162878124686
85.85224341355584 35.544455555925694 2.3180882513189554
84.958062465216841 36.62722316170224 2.3183337369265562
81.543938486029475 36.257161004556536 4.6701642258415639
79.676364760150562 37.607570716042353 4.670667513148179
78.900482982111754 38.049463974273657 4.6708753702122801
72.482952920302893 34.24203882989778 3.3133532826658478
83.261264421499902 38.279712591665991 2.3187954075063169
78.352488416892839 37.015679174217127 4.9594068769888011
71.683903231598407 33.138294372607291 1.1949898995764172
70.595017253053015 33.458136100218532 2.3220640853237744
73.209857578568972 36.157354198710706 4.6723467420365115
74.9850883839853 35.815561206789262 4.6718780892806029
73.093009446234248 35.096699115101018 4.1123295300846117
75.620591346359589 38.104159858995111 4.9601339077961004
77.301185937779366 37.516606349150109 4.9596875060188026
75.29819428050817 36.942988489726602 4.9602063569862018
82.818341409586026 37.757944596145151 3.3106817800769672
85.276031947525325 36.912404268744069 1.1914677959287692
69.351959578767548 32.707553872045281 1.1955964157257957
70.663852661276252 33.036447321931369 1.195256101040999
70.687040435064461 32.89311259970551 -0.0010622358662846221
78.175916205016478 39.575562820355714 4.1110441582488377
79.400153811556805 38.992230274288872 4.1107173667960613
77.758731281887151 38.593491213963027 4.6711801432978417
80.232091539680994 38.51841144285661 4.1104944924668514
73.337908049093528 37.32041002582968 4.9607238635119524
69.020566906066847 32.430413485931361 -0.00063040530923647031
81.058148167207406 39.872743120368348 2.3193891192037364
80.701784296291066 39.288386307074788 3.3112521651955085
72.531992859251346 35.142734848123055 4.1124769943143669
72.589909459960808 36.208225762193003 4.6725096965269426
70.484521641294236 34.133683298362669 3.3138757548676638
71.643846146885807 34.249435919249237 3.313573207236272
79.822463310317232 39.789191801508359 3.3114877333994346
78.528485677762973 40.405750412867278 3.3118331408400277
81.280466267995052 40.237526585826686 1.1925490630858682
83.537617149971311 38.605419521437426 1.1919407896930152
68.993500016299009 33.759885267080442 3.3142625368429028
70.166310871813295 36.076818458971168 4.6731433249749657
71.572284261290207 36.217197592975992 4.6727764096564961
71.611109635778405 35.150852581686472 4.112718351971786
80.142862586775806 40.394032697193254 2.319634322254907
75.933538492928307 39.23159311251078 4.6716649533930399
73.469704357150221 38.518277804019085 4.9607017320357931
69.214276690356598 33.111988673202617 2.3224222596137487
68.967112481958225 32.565342431329491 1.1956957745229027
68.257783895938815 32.242579099522757 1.1958782793090883
76.218855840006995 40.259766191886207 4.1115639951770531
67.411317475638072 31.740507584798131 1.1960948584683209
67.492521399582387 31.620290602615341 -0.00023843951201429903
72.718567601156593 38.579915573671819 4.9608991697101361
72.653330514554028 37.376586510621195 4.9609038059782034
72.781837533484179 39.748282292694419 4.6724960550542649
68.702459561858632 34.613590191758512 4.1134748639573981
70.338796204006286 35.023818370933697 4.1130503861957068
78.962805860436475 41.42911161292897 1.1931686301498983
79.019303166746965 41.562810803327281 -0.0031555662774217508
80.342732373367483 40.77159630787272 1.1928002799405379
69.977087656347919 37.231479345811493 4.9616034860238827
71.485612751790541 38.590786245064578 4.9612223193836238
71.529627049778327 37.386492509675833 4.9611983215394941
73.714158375751111 40.742006279547212 4.11222522376758
68.556105814204756 33.598257433827193 3.3143754621238131
68.222441869517951 34.436211091341548 4.1135987936497775
68.809239117768215 32.962313496462265 2.3225268311049847
71.442796790324508 39.760087132342761 4.6728470091579632
73.597603705401099 39.681343415576855 4.6722816294435825
68.358069104394446 35.623493475865466 4.6736123961871705
69.782121434435453 38.420700449991116 4.9616668776154675
73.812603638156702 41.638634319450588 3.3130814752598039
76.459969446175279 41.12892341140325 3.3123825828602929
67.749928559928804 33.231421112138946 3.3145828852827361
76.756876719171174 42.200323505707104 1.1937545719487896
78.795971625934015 41.035804522256775 2.3199938541045393
67.171797424734194 32.094195157881828 2.3229468586395838
66.787879919923171 32.660795500925545 3.3148290376394312
68.062687447465976 32.622612803271089 2.3227189131056312
72.888081864646409 41.714497363186517 3.3133244874773635
66.174352394161218 30.500623202813614 9.5333950531240053e-05
69.592747096704414 39.57536730742585 4.6733298145572526
73.887215748460477 42.319110858917512 2.321293243872729
76.642849011097894 41.788557519514171 2.3205657693926312
66.849931508664923 34.982600444565534 4.6740008978107017
67.8276248025293 35.427479825480134 4.6737493448814202
67.337691871141431 34.033623626747669 4.113826432987012
66.032848176278407 31.170384300496963 2.3232357034605555
72.839453044512396 40.813784800953322 4.1124551416768922
71.403677953843612 40.826443737837323 4.1128314492542506
71.370522696233223 41.727876944266399 3.3137222301401894
72.924883516460085 42.398078292283358 2.3215461946561549
67.591244502437263 37.871448846310038 4.962235207200715
65.759258825792216 30.894368177836604 2.3233045274085953
66.329156271190158 30.86275664577623 1.1963693014641219
66.069205198787387 30.600504716255955 1.1964346946275006
65.127691502768755 29.123764058337109 0.00035530936560634885
73.933654481233305 42.743889539686862 1.1944998896017931
66.948551223741902 37.633959401608173 4.9624011360700599
67.980342922206972 36.730900433406987 4.9621214563295402
67.394605549336234 36.514452088244681 4.962272680416504
66.314991179204213 36.023196144746805 4.9625504568567251
72.94772217689777 42.824794356254436 1.1947590437155753
65.763972332548377 37.094938649754923 4.9627059190409746
69.419968302518754 40.628378989668356 4.1133491357480896
66.868683278527243 39.98877665275797 4.1140109578773032
67.213367197984127 38.978861774445974 4.6739470432359527
65.557963013606695 31.663198004438449 3.3151409524196618
69.162808811741883 42.194094522842704 2.3225297558191134
71.345257845475658 42.412003122280147 2.3219602045365697
65.197862332067785 30.238481106049903 2.3234448253694504
65.535802253062798 29.977317605249233 1.1965679966979019
64.637671357651726 29.418940067245721 2.3235831134519258
66.515380848283201 38.720937634967136 4.6741272474980109
64.191625044463819 33.080737433062581 4.6746776937914287
64.93209797440997 32.312564068782997 4.1144388892134689
65.683209358389092 34.290572107399697 4.6742994184467319
66.281883801014004 33.407388152894598 4.1140965749070944
65.228880880813961 38.135544134374989 4.6744582540193464
69.093375334774322 42.615810442321646 1.1957667286434275
71.329355475237691 42.839062350583539 1.195183207391777
65.26252038194022 31.365137815157865 3.3152152737956539
64.375200405614578 27.909340037735589 1.1968506709525115
65.003543787952623 29.198640061006245 1.1966993893853011
63.833322765273302 32.719260506816461 4.67476782810194
63.693646489439821 37.224939784769361 4.6748510632091342
69.273824118727816 41.518530606231231 3.3142694032265569
66.577224077583878 40.84249812142788 3.3149689211422233
65.78618762811206 40.550188164816959 3.3151731488176215
64.607860879770271 31.985451859190121 4.1145204540824549
63.942541199516079 31.208148925367929 4.1146867233585454
63.278648305314526 30.236896752108343 4.1148506111887322
64.656280817741845 30.656861775427245 3.31536677845595
64.32817162106241 39.886747791154072 3.315548285069835
66.12027794699037 39.71221796332685 4.1142041791427602
63.379575022575658 33.923073662520459 4.9632978040051112
62.9839238459029 33.523919688849418 4.963397333810974
62.543143757031856 34.790626151282382 4.9635259313026143
64.350357468781311 36.25647723693212 4.9630676103931712
65.026645687460956 35.259032498478874 4.9628800964085436
64.740827056352799 39.084528732553508 4.1145591012151348
63.094678584814197 38.10813914732389 4.1149802891998295
64.401493094740175 27.554094779470169 0.0005293270028391972
66.355927708291119 41.490415247617435 2.3232578814595244
62.109026228894415 34.352662416048055 4.9636351376544203
62.172072815891248 32.575418692397157 4.9636002225340441
63.97636124799272 28.061984281985119 2.323742332057003
63.098110747084981 31.860301110424743 4.6749515640897608
62.364474297769661 30.787017011272908 4.6751326687379224
65.532542257009965 41.186148820665302 2.3234704608866443
65.374070824083702 41.583143213145476 1.1967305059707845
66.217654378832435 41.894873376138236 1.196512711851063
64.014893038290097 40.495576632333652 2.3238609403350874
61.730946426714269 35.632972165187091 4.6753488164494073
64.032689077352757 26.770876255546931 1.1969286251807214
63.885606233759411 25.88070368949316 1.1969579468079858
64.029700229442511 25.865010966062862 0.00060925343772649798
61.259480001102624 35.157327568683463 4.6754674182570852
64.051345960313483 29.771863631096949 3.3155161119784515
63.337218149725167 28.30652209087387 3.3156880470165158
63.819202334925244 40.875633663437412 1.1971305616344521
63.615875397520547 26.863778496511244 2.3238243772467335
60.363892435231449 37.050539732000082 3.3165575773824139
62.588259905565806 38.854744529432367 3.3159934635776747
62.947941790436808 27.01261354059281 3.3157766447421646
64.029703870413215 24.135493558179377 0.00059134975031160941
62.780771685019353 26.000897525434908 3.3158099711492421
59.829570175939992 36.511478398538962 3.3166919911253743
60.990180034775427 36.40115712367173 4.115514003438947
59.447327290578386 34.679226013920434 4.1159004103782966
60.484648424608928 35.891149717437045 4.1156411747078883
61.218240258461577 33.31193868209175 4.9638577528983507
61.498411216005572 29.00992388292088 4.6753411841533516
61.026313994369524 27.440735684068301 4.675448631645911
62.494918137694746 28.628745662107278 4.1150393039495876
62.067701921222195 27.208732267203899 4.1151365366618267
58.733165112009374 35.230527800922729 3.3169659924108115
60.329361756819424 32.011541729394025 4.9640771804284753
61.361957583244518 31.390251493104813 4.963800206673894
60.292047391157929 34.027062234650536 4.6757091882347384
63.859595107039176 24.405804198800482 1.1969494946760211
64.401503847407866 22.446411312196481 0.000476453081018402
61.509875779979424 39.636187520041517 0.0014120029487232899
61.963716027412225 39.775076305243005 1.1976053113412812
59.490456412020848 37.955608920417966 0.0019236995461313633
62.203826519355836 39.421369218640237 2.3243243247059131
59.888487577324561 37.543373968253285 2.3249115094296675
63.461073431490739 25.926893948137092 2.3238552377735173
63.433697111461008 24.374598203503751 2.323846342174551
60.823580244394478 26.213775751367073 4.6754890477618805
57.737251582122973 35.998904734503135 0.0023627890361013204
59.332312036852848 36.982268568171932 2.3250514206005803
59.591589041365047 37.851024950337496 1.1982068979296867
59.021775222801878 37.276159170960447 1.1983502399247405
58.191063902444256 35.648930909533988 2.3253366286051986
58.18708022679354 30.276391649992441 4.6762218704422569
59.326693920028646 32.614782181820345 4.6759474942573149
64.264160486760204 22.400018477084224 1.1968227351030745
64.032696532421028 23.229603513268344 1.1968919664920377
60.405613570238032 29.427908311050288 4.9640304583345998
59.884302846688676 27.695140408867175 4.9641491066228225
59.660436854951506 26.340277439344156 4.9641937354759467
57.852537354245754 35.910117737706173 1.1986424427810962
57.190283656951905 30.657583371941314 4.1164501320781035
58.412226450499091 33.164910221345572 4.1161559341786047
62.751210293245926 24.324615602103854 3.3158003646276573
63.859490569892408 22.263558049148152 2.3237129312747311
63.615883243796226 23.136676186487996 2.3237857948801048
59.280032808666974 29.858403158198854 4.9643298193886451
61.88423928072163 26.098413084927238 4.1151731110826217
56.685805898915305 34.203229223044936 1.1989304607446956
57.052264956415684 33.982907796356145 2.3256177511934624
62.067711219979309 22.791678810705854 4.1150908120313483
61.851798780460165 24.258761317375502 4.1151625678060411
64.879839909108313 21.014682753672197 1.1966470855980007
63.211012155877619 22.044959738328998 3.3156562980539732
62.947950263415102 22.98781779311696 3.3157349807007144
57.29910680048085 26.597076845275865 4.6764164359757086
57.565874179676072 28.211573082627133 4.6763632543942979
58.708036449622547 27.957162387233851 4.9644600035245192
55.707902104915753 31.224381828367036 2.3259414232092599
57.639106235148887 33.629961793262957 3.3172360705582853
56.347564898422505 30.979821580244376 3.3175470251418595
64.507477219976153 20.80552479905829 2.3235280646849068
56.524196604674941 28.443588093704612 4.116601730790725
65.127708864348591 20.876745094860624 0.00026993754514725854
55.308468692401881 31.377049399972009 1.1992620718165727
55.172481451304556 31.428952664067715 0.0029874601122877875
56.287629248494731 33.807787057123321 0.0027199126972644594
60.787730574219793 24.180863133096004 4.6754773971972492
61.026324269984976 22.559659408722467 4.6753981035254748
59.884314193469741 22.305243898506724 4.9640933112767449
59.62085006353086 24.095448549844569 4.9641808704396668
62.356413780819238 21.75693195023333 4.1150044603000442
55.64353798895732 28.63972336430755 3.3177072588608119
58.462401312189471 26.470569186704381 4.9645089723687743
58.418966811395478 24.00747969560576 4.9644948561632107
56.238154302161 26.712451105920749 4.1166587550665454
58.708048899628565 22.04321696122247 4.9643987833079359
63.124354028648717 20.028993185742578 4.1147853717081126
61.345358563036612 21.41620851255243 4.675302679580259
66.174375552844651 19.49989036292358 -1.8543875272836186e-05
54.415579775068466 28.913100945800174 0.0031597278726335776
57.251931364600665 23.922069176018503 4.6764011062779929
54.660385523497986 26.884007319022501 2.3261709466149858
54.975080872794159 28.788578940692794 2.3261082104436261
65.197884387140903 19.761980246341359 2.323336374309207
65.759283642400192 19.106095541303468 2.323182497096854
65.535823208483805 20.02316850043951 1.1964649529394282
66.069228778063973 19.399983638165729 1.1963187486258289
59.094592559233234 20.657804477925872 4.9642831671314829
57.565887700847703 21.788807421601142 4.6762967669520741
66.329180954647114 19.137732804553046 1.1962479258937873
55.341203151360276 26.809983209404919 3.3177675311503498
55.287739437078834 23.778344845207549 3.3177501574095882
54.235258466337278 26.930220905021869 1.1994972250833389
54.557676751914201 28.881504509020587 1.1994329490132238
64.656304634408428 19.343576760353812 3.3152496651400494
63.910756731522362 20.470470858989927 3.315456665296856
65.262547180719253 18.635303276422498 3.315083496585788
67.243002522440008 18.377246532392537 1.1960006304234874
56.187573510211834 23.844182585952097 4.1166423170815429
61.173682873448499 18.93408277526467 4.9637205977078454
60.236605459368981 21.042595179975095 4.9639879400732951
56.524211102704903 21.55679961383084 4.1165304398585416
65.557991067332495 18.337244332675631 3.3150030042799341
68.257814388968228 17.757918481553389 1.1957283364204925
67.492549272489669 18.38022852028665 -0.00037549851575441329
54.178244487002637 23.697200108186117 1.1994786969529569
54.033062198965254 23.686609698777865 0.0032058474831382355
54.033056668107498 26.31385268148221 0.0032330442820318606
62.193973440557315 19.50674618068345 4.6750605750377279
63.098139630772643 18.140102716714225 4.6748095347917653
63.83335526551182 17.281144512924776 4.6746080151958838
63.94256733735731 18.792270056550286 4.114558196167529
64.607890290353509 18.01496992759877 4.1143758338893326
66.032874155019243 18.830080572047272 2.3231079586112982
66.994651084498059 18.029688240231202 2.3228476856412952
54.975096823305556 21.211839314344218 2.3260297772475935
59.10233764095193 17.77162734619673 4.6758526303678547
57.985688333299969 20.284197115942959 4.676171203517387
55.643553312766102 21.360677175411574 3.3176319073396008
64.191659066649692 16.919672911061888 4.6745103970379098
68.062719540636039 17.377860626710099 2.3225611018708654
69.020598189897214 17.570110172010693 -0.00078423679090300347
66.596586582404996 17.472920689330511 3.3147219428835517
54.604732923628582 23.728382776119375 2.326152862950841
58.171663590863794 17.249393842264837 4.1160542161287887
60.292085397776141 15.973330716128626 4.6755222988953733
60.122779330326395 18.344284781021102 4.9639898318048692
62.109065606416586 15.647730316942978 4.9634415071908631
62.172104710519037 17.424977166754058 4.9634433875880433
62.983959734085865 16.476477686000656 4.9632208614196287
64.932128762255985 17.687860991854158 4.1142874966277496
68.967144333944589 17.435156233224447 1.1955391492568113
57.384842141491184 16.807930806087139 3.3171285586707295
56.974339653524638 19.943485272467093 4.11639580520918
55.17250851871399 18.571514519840278 0.0028543619703199075
54.415596249769678 21.087363047129095 0.0030787170863356139
55.065064064797745 19.300459149283249 1.1992008361483069
54.557693093632999 21.118935314927349 1.1993525921392461
62.543184978547956 15.209768411871135 4.9633232333970119
66.071943881218289 16.739301180899886 4.1139790434978458
67.337729905302751 15.966808715056995 4.1136394082104548
68.809272641207798 17.038161173922443 2.3223619868286391
67.749963216468814 16.769028558985077 3.314412469229663
68.556142015257308 16.402197542915335 3.3141974512638752
69.35199202951199 17.292948321875748 1.1954368461960898
70.687073667019405 17.107419990704656 -0.0012256468298347811
61.218275254137666 16.688451248963514 4.9636856692168614
64.770474448282329 14.919846563429529 4.9627366771125274
63.379612591352718 16.077323473402586 4.9631130676551818
68.993536897863777 16.240571553635952 3.3140811797111276
56.11931871811899 19.655474028355229 3.317489604604912
58.733208185642638 14.769885764147018 3.3167541871189625
55.470320608869045 19.436896249847806 2.3258816544723011
61.259522766571237 14.843068507160211 4.6752571282983695
61.730991194829585 14.367424944814291 4.6751286789079156
65.451213849655915 15.871464272908979 4.6741695403331143
66.84997353841473 15.01781919957824 4.673794225590413
68.222481598719327 15.564225933868888 4.1134034338796948
69.21431084397932 16.888489611668533 2.3222543165478688
56.787601957802202 16.472897398330502 2.3255058423708266
60.48469427973486 14.109255640152357 4.11541569202637
59.447368043043042 15.321174970505641 4.1157000189319524
68.702500037892804 15.386847903657527 4.1132758317982754
70.502202324053712 16.992244371892397 1.1951323756479348
71.683937495903336 16.862219559279588 1.1948214122547687
60.36394317180482 12.949882614850486 3.3163080912370004
65.764023256088365 12.905469491832047 4.9624555135275292
66.315037590286266 13.977214319823416 4.9623222403811074
67.827668705383758 14.572944893901397 4.6735334620733635
70.300793757612382 15.89881189986852 3.3137351376042021
72.422236708662894 16.868731347913748 1.1946280434834866
72.414058820169117 17.01378803056658 -0.0016790903219308095
74.120791674154844 17.293596228558151 -0.0021233620759631977
56.287666331712941 16.192684828061072 0.0025375639781056725
56.414652641462538 16.263764678010297 1.1988158069818216
57.737297890790565 14.001571355116104 0.0021350761614055691
58.191108737677027 14.351501857010097 2.3251161610280819
59.332362485950007 13.018167102751224 2.3248033480574186
59.82961864286812 13.488937881859377 3.3164536654704673
60.990228037230573 13.599248458227056 4.115277961729654
72.44566760674374 16.442013474552397 2.3214030716692671
71.668627364753718 16.435158358260946 2.3216065871298808
71.643885089625826 15.751032074836841 3.3133817147201547
70.424879070932917 16.572007914686004 2.3219338687556523
63.38838021070152 12.988139220965341 4.6746801615989728
64.069278362027262 13.939751913327552 4.9629102469380895
65.228936185694238 11.864870582671635 4.6741863042110916
69.94349925157664 13.962462515578858 4.6729727900815199
68.358113832539971 14.376932526311025 4.6733924551885151
59.490510959153056 12.044877420786737 0.0016554758003940462
57.852583289128624 14.090337883744557 1.19841656791208
66.948604416754534 12.366455640869601 4.9621395709149336
67.394654028783407 13.485964834705056 4.9620342932019295
59.591643148209272 12.149437049187169 1.1979408392050097
59.021826909242492 12.724300426330251 1.1980960830122893
62.76735671714443 12.120314860640567 4.1147970408556898
72.532035563156484 14.857719391896342 4.1122670070807725
69.731046949966668 12.81184320694757 4.9614151745869712
70.137162248981582 15.011779355035726 4.1128960643916468
71.611152373870539 14.849597776060955 4.1125081966310457
74.041113903106179 17.121586922432456 1.1942065111300411
72.8720185394574 16.905640775064924 1.1945105816177517
64.740886356811529 10.915893614859018 4.1142675040124983
66.1203398902488 10.2882121065213 4.1138995865431411
66.515438617888549 11.279481552267676 4.6738431779363667
69.512157667499565 11.626790715774943 4.9614602572874809
67.980392312980712 13.269518958904275 4.9618785878632696
73.093051956304066 14.903758443520447 4.1121204959944535
72.482991831890814 15.758432701705999 3.3131619433333199
72.994184172284207 15.800383207123025 3.3130284439474234
75.166303938175474 17.505452731756854 1.1939156821292944
61.594773006981079 10.482429912822999 1.1973987586729691
59.888540388886902 12.457065000868376 2.3246518199740436
61.84371488597278 10.829963924159765 2.3241227169417056
66.868746386202787 10.011654665307834 4.1137006395080196
71.572331489130619 13.783242913198922 4.6725441769479756
72.919049501716046 16.480860384398788 2.3212794465851667
74.149494340214005 16.708137592758398 2.3209594196779713
64.014958279740057 9.5048787795094807 2.3235401295906586
62.24229526945674 11.386710942740692 3.3157997776105388
67.591298695373212 12.128966045261635 4.9619687251385791
75.795824067301282 17.805411012824088 1.19375385128989
66.577290779728827 9.1579475593212543 3.3146409277455917
74.322904111356763 16.045813568457326 3.312682856635071
75.727471379305939 17.933761023297798 -0.0025376895083219497
77.158972894485231 18.904347391837149 -0.0029026995428628743
61.509937402989742 10.364304474290499 0.0011089851000983808
63.752537914463694 8.9956720513851032 0.00050725124145351019
64.328234299144441 10.113689361461685 3.3152400791338437
65.786253099521332 9.4502560879895263 3.3148512072979877
67.213426053548318 11.021558448449301 4.6736576337062008
73.209904554430864 13.843093211167579 4.6721157483779363
73.337959921886551 12.680030999521785 4.9604687902517126
72.653382623877974 12.623851628679475 4.9606475696281276
72.589956650019275 13.792218080638913 4.6722776496028748
75.333730269651028 17.11214634567478 2.3206533290157272
75.996285884583585 17.427846339084144 2.3204830057462669
75.601730938100161 16.482091458118987 3.3123523169564431
72.718624776965697 11.420521887205831 4.9606180200132766
71.485669973376332 11.409647924827505 4.9609409445897956
71.529679200820368 12.61394089230054 4.9609418800497433
69.29955424362393 10.476177377738072 4.6731054176857993
71.442858935111929 10.240351874507457 4.6725414255829048
74.821314147527545 14.140739511884632 4.6716966361958017
63.819269176515867 9.1248442520216244 1.1968018825438533
65.374140644549101 8.4173422108167095 1.1963871789066547
66.17051733595008 7.9681497633844964 -0.00013690138576188948
73.469761273433647 11.482162823510588 4.9604218585003688
77.190506804103052 18.740812682362716 1.1933981236572324
76.22361483689761 18.049055549371744 1.1936442911100344
65.532610406024162 8.8143129893102206 2.3231353528228986
66.217725511795663 8.105615604217757 1.1961629308622326
72.78189962855879 10.252161405840809 4.6721907159313965
76.44652491455426 17.684276836257297 2.3203676964191482
68.816942520536799 7.8666806491395329 2.322265040661819
66.355997138378115 8.5100500336003968 2.3229164739969983
76.317207402846861 16.823006795243721 3.3121683893078262
75.95473028041107 15.651906306341825 4.1113784736570729
76.739939003589882 16.026047049292124 4.1111766199141071
74.551274740580197 15.173108556367421 4.1117412262241633
72.839519625740337 9.1866716887723356 4.1121277428635503
71.403744588379311 9.1740086058504602 4.1125037883114119
68.941547529092503 8.5398561316452906 3.3140150887251218
69.105590156537772 9.4268721324701605 4.1131085277857258
71.370593126123055 8.2725898976053251 3.3133759063628578
73.597665518623728 10.319106582459208 4.6719776762670113
75.117346406080145 13.008704231865964 4.9600059888871746
77.273525686000966 16.329946736314326 4.111039964668044
76.372212800410693 14.66983550588923 4.6712957738286569
77.464156189327383 18.412332340153107 2.320108610880137
76.803410941033007 17.099919619505862 3.3120438692111778
78.046377484160217 19.565979764902657 1.1931824250146341
73.7142246547578 9.2584529443113759 4.1118993110620741
77.239907264415905 15.083280949500768 4.6710727154766873
77.829549762492718 15.419106446045078 4.6709217039448117
78.464312727735376 20.072053006007401 1.1930781634816003
78.34835572085413 20.159970444869273 -0.0032013233993116175
71.345331155760988 7.5884836697623959 2.3215997170363445
68.739028826369264 7.4464670425660673 1.1954955202681865
68.712331516224396 7.3036375495683528 -0.0008097413968641276
75.718032429783477 10.710763313222611 4.6714261891675211
78.439163642925678 14.420333270667662 4.959150276928451
77.788057304515377 14.049500366937119 4.9593170297631586
78.87505700073288 18.823962806772272 3.3115189390088915
77.902322742166859 17.886128793942955 3.3117640899433884
72.888152238191566 8.2859749229706061 3.3129784407629543
73.812673692274672 8.3618447247006475 3.3127369992595277
77.301238636602136 12.48385043118293 4.9594283709357754
76.82991380086591 13.592955430713614 4.9595633398466639
75.422158921185058 11.842792622662945 4.9599140585848076
73.949304531661539 7.1122560521053062 -0.0021838220189062674
71.32381620934683 7.0162980068937726 -0.0014969310274886016
71.329430583560622 7.1614472262988764 1.1948138784298468
78.36493860818797 19.280799999608021 2.319881593470273
79.066955083761712 13.391672113681999 4.9589751460865843
79.547068679203477 18.222014984386497 4.1104638762574739
78.479537700225109 17.192780084083335 4.1107329180447012
79.354834635690736 21.543722085890458 1.1928600782622345
78.772981483177375 20.506967308220176 1.1930017934456301
72.924956768100429 7.6024161126275764 2.3211859955299601
73.933729188819541 7.2566305397033979 1.1941325311759972
72.947797225134536 7.1757210898991524 1.1943900102143907
78.352539006605866 12.984782991667879 4.9591581129974172
78.175977572798587 10.424917120354168 4.1107423954298135
75.987786002426617 9.6784058629609362 4.1113079795522651
79.910801881834573 15.473202462995003 4.958775602708605
79.129673318123196 20.271167373499267 2.3196914827077926
78.804803400326307 19.813430992325507 2.3197718612495031
76.388627961052663 8.1434148563346263 2.3202841053468992
73.88728866760664 7.6813885564671542 2.320934679714866
79.676417841929037 12.392904908898993 4.6704064949630917
78.900537924439703 11.95100837969864 4.6706052031767555
80.341938147633812 17.509941325486505 4.6702850949554833
79.162257492084649 16.37258179349508 4.6705824009995602
77.758788514791661 11.406976326601725 4.6708987128466513
78.52855054091799 9.5947485125527763 3.3115141902793406
79.350047208911349 19.399135400743113 3.3114004442046774
79.700866446057518 19.893433255829414 3.3113136453369911
