# XYZ point cloud file
16.201251684757612 18.773893047446073 26.600299209781447
11.106469681791134 5.2677311730152043 18.880026148961463
10.299865662276346 6.7798133049030174 21.413949131818551
9.8147910423847051 4.2223541653304828 21.448395411301881
49.273574219154625 1.6240094515788548 43.81213400797597
50.337155248646496 3.8868259236684426 42.173552036123255
51.557335486890565 5.2457089568164745 39.759026313381355
47.644279731651054 15.857957891483936 37.157958129260436
45.815101452699672 17.710295906068662 37.162879233831504
45.298420431057345 19.170136059422973 34.495534765343393
23.288332869605632 22.997506078383864 26.457301859498806
20.761175746092221 21.879251315032704 26.504076806918903
12.149663189487219 13.219062139409814 23.977161196807334
10.878677896459569 10.83356666479591 24.020504050419948
11.089669267048514 9.2601079575043723 21.376167299295428
38.176402245542185 22.965748389486606 34.551836035190618
49.236890363074416 13.798667712561125 37.158527406824376
49.938146244690316 6.1430974157648013 42.15449066149155
30.059803315148056 24.598304452925397 29.126695565847918
43.776022274126021 19.3286703192517 37.173219054702287
50.982255633833894 7.6429238599719476 39.740844722593224
50.122437484121711 9.9533827677099005 39.727506770729306
41.556783606397538 20.689483716867528 37.188826694357545
9.2861274989459268 1.6387966923294686 22.534970859704341
8.6045549438738647 1.6738494987270873 25.348827056958587
34.246558517515034 24.309260928436835 31.852040389855738
31.489034780137846 24.493642348163995 31.887810476646507
23.364462093736016 23.057919090056714 32.014713753637992
21.977883593373285 22.660492529956223 29.258472613541148
49.270096340899904 8.3348614060161346 42.139816035204234
48.342748862441134 10.430157029126814 42.129742123828009
39.189739244798432 21.772888090990534 37.209474710343457
40.697809323431279 21.991174072963695 34.52789039331067
47.320644032513478 1.6595323958776453 45.949505222237747
14.234977658300769 16.832072926387251 26.648343537390769
17.203939988226338 19.815414105341741 29.354797375674217
32.874681650431484 23.972159942741072 34.613522217369947
28.729443883715255 24.344286700402044 31.92723683958798
19.50484603990764 21.382355824118925 29.306244224315556
47.169630513424018 12.398430116807328 42.124415774825735
47.602703591494702 14.18102227333878 39.716066364699941
48.99041736396935 12.143394049728039 39.71920697856423
12.51712739617699 14.667360807153651 26.695407780807944
13.2497353707355 15.910389266091395 29.451415163055604
48.511076680619588 4.7460408457565126 44.381248399635581
48.024941033689601 6.7725008357480263 44.365878759408432
26.00802426092848 23.863374725742183 31.96974455894631
9.2413710380823915 5.6917770751215606 24.098827900367247
9.9045119524132197 8.3122162072406987 24.0612577099349
35.555953173027149 23.629302961259086 34.580519427336128
42.124585527059757 19.096148567189463 39.737678456454887
39.949025066354295 20.25559551939596 39.754876758377648
8.5693705902418724 4.4497166305314657 26.860559894253129
18.463405885310056 20.524916226623247 32.109387308189113
44.144575193165174 17.682933422227322 39.7253699099073
45.979533117927048 16.036554560760258 39.718130709625825
45.115201435314439 1.6937544150546926 47.825247375573227
11.072751098705842 12.311320987187404 26.740805658962373
46.341162783706274 10.576925616802445 44.347587506418066
47.298102350714252 8.7256225011899335 44.354603673421735
24.857897960353988 23.050301806439883 34.733362848473448
22.324606566165773 22.107817581892078 34.778311076813026
20.837304970222604 21.939664326705547 32.061488701058096
15.108718793214489 17.982516436294333 29.403424045314821
30.171678752683935 23.989320137770882 34.650363253856909
28.955492062390995 23.081550885489854 37.335444325374809
27.486365771087836 23.680533277638972 34.690505237620428
46.732864592289907 3.5110320119030223 46.388067211234414
10.345075559701723 11.172361775890014 29.5427108988249
9.3417554814599235 8.5755529289038215 29.584684217833718
9.9229112086723568 9.7983117259947292 26.783875145459355
9.0843754036787594 7.1649766482314696 26.823988202990005
19.923429830724022 20.86682300969143 34.824694527663098
36.709414001713185 22.563088428762413 37.234861861198013
35.259877596742399 21.749496403001046 39.802872140446866
34.151970343983798 23.048560694893091 37.264618043192357
37.64961149885162 21.144364299587139 39.776714148599666
11.654098308967464 13.629249632731876 29.498070896289462
46.411356285120469 5.3290320557942819 46.372708500827045
45.873075655076406 7.0950550298122774 46.360884313405649
8.6587683206096031 5.8766895896083948 29.623378802500653
45.767846586235713 14.210978861989213 42.123914677232463
11.148880322836229 12.371733998860247 32.298217553101559
40.40974547153187 18.463597364147528 42.151084624743959
38.32631846958828 19.417189137462927 42.16925861151725
43.79594380803573 13.867966962640397 44.346677699213103
44.157837305616312 15.841372245607072 42.128246150824666
42.363077687545399 17.265836280721253 42.13734705891045
16.277380908887999 18.834306059118916 32.15771110392064
15.655046781859406 17.565775267427327 34.919050486079698
14.311106882431154 16.892485938060094 32.205755431529958
31.554706417117465 23.222225640225453 37.298309277315582
36.143182157591909 20.112709151857963 42.191603907712732
44.465103042320735 4.0622022022636814 48.130478946321404
40.537206220932127 16.454361189037968 44.363202171631215
30.349657515519141 22.077816694996336 39.86656661445798
27.900770456001229 21.796216187832052 39.903174339497212
9.9990404328027438 9.858724737667572 32.341287039598541
17.689384092202239 19.345413876755174 34.871836809258056
45.168072120639145 12.299412638488761 44.344932647139217
45.12586265627678 8.7833480740664065 46.352767203788758
13.850082164254585 15.553860920743025 34.965647061205814
12.593256620307375 14.727773818826495 32.252819674947133
12.300811524901771 13.339007222996784 35.010947060348045
26.392232572241511 22.628587746441724 37.37548163552475
8.3207040637970522 1.7388461975730669 31.120930566996616
8.6454998143722577 4.5101296422043085 32.417971788392322
8.7229022828477021 1.7677650646946477 33.988149429750493
32.814676330765955 22.062167357862059 39.832969222391085
42.692031936870968 1.7261357540697202 49.409776491935858
43.051121302626747 11.829761284054289 46.348071754218395
41.753849016547491 13.143457440576348 46.351561866478548
44.180617767733068 10.36929180475224 46.348475479944867
43.544544693617134 7.0824125346123461 48.110257553459093
42.818297336519478 8.4874155890698173 48.104932805416226
11.02982623187412 10.95351174838288 35.054289913960659
23.902303889573634 21.86994139878383 37.417837403621832
21.522017304211335 20.816675773305441 37.461893940035196
36.754330661255644 18.18579931187827 44.396200623663802
38.698114515448388 17.434487528578025 44.377740637051943
15.375097293405799 16.062820958613528 37.597776424905817
42.244779281215742 15.259714389083998 44.352797328107613
34.734196940101761 18.69734105177902 44.418312973453254
33.892166525222919 20.540013538057444 42.21779475544885
10.05566028782777 8.4321612908276684 35.095043573475621
23.193474197440569 20.361969256909163 39.983249381076362
21.003706629829534 19.230235882219517 40.025549057976633
42.006882456078891 4.2969146616203115 49.602201366474091
41.629648821780613 5.534561684493398 49.593914868906182
44.096161600675117 5.6001363538710658 48.118814522415832
25.503723978112738 21.221473280431987 39.942258582788384
9.1605046278091429 7.2253896599043133 32.381400097129195
19.286080184570615 19.484146357725685 37.507008874475247
17.227098649332653 17.891788757603258 37.5525242672297
27.06219142618659 20.170360430051062 42.315374811233497
24.870602129915827 19.502613654338941 42.352655579771039
41.105995042272745 6.7177350125817661 49.588226302225124
40.88666223048422 10.985074547551484 48.104242336910175
39.709444822128468 12.04130900264588 48.108886646879938
42.23219684782665 3.0228415417214447 49.612964935123458
18.966356669717801 17.8427790297646 40.068540710083653
30.583395640905579 18.974883069727031 44.472156406144066
29.318324085390724 20.56905088328876 42.280134716812526
32.667171364297431 18.961654079909231 44.443755231465317
31.60610377050708 20.692869328220262 42.24744915363523
41.928007904650762 9.7946573368034677 48.102917952553298
11.313632654512816 9.4378360625221944 37.725431429639229
37.055079446809181 16.024686714019438 46.384607814391231
40.30771727144122 14.291224425349476 46.358894925152768
38.413518798269109 12.947959108009194 48.116783196598448
39.654548513404166 3.2339347656782076 50.788828252301869
39.42424434515231 4.1939645214681702 50.781546911280074
10.523829049740646 6.9575414099208386 37.763213262162353
9.3925193734969419 5.8117221587085295 35.132613763907969
22.775518238945757 18.575549437437314 42.391433315985267
35.296009730069024 16.585105008754411 46.402612608286518
33.482244941880147 16.929406082173866 46.423716000215421
13.757081809644884 14.02391365473324 37.642105475703474
12.396647838677 11.804798718398406 37.684864983864671
26.486937233966785 18.250982547089325 44.536141803969585
38.733810352005918 15.256325305205428 46.36996404565015
37.096718771965072 2.4506264859490918 51.660820767998615
10.038754429849007 4.400082270348304 37.797659541645686
10.583931316864994 1.8161707202101058 39.459548547428028
20.807488164692735 17.402683385288874 42.431142622641133
31.640239897545975 17.052570697998842 46.447610156708649
37.017784534169316 13.691802179273477 48.127816815779298
40.443556954723938 7.8291806380443294 49.585218628828997
38.742853618824704 9.7733444680019463 49.587381584088348
37.729389384309187 10.577711298671368 49.592520671071853
17.111130484483098 16.219827549406236 40.111597500070374
15.4650819959835 14.38505011764213 40.154091529523498
28.513254047232479 18.736835124611829 44.503102369828113
35.542595942415439 14.261992370040058 48.141826584673311
38.626557048887264 5.9962998120173179 50.772881512907531
39.651996140732344 8.8526923616191411 49.584935670662077
24.533991608525355 17.524409412017924 44.570792952776287
39.079904590876467 5.1192504659508238 50.776205397496327
32.440739998069958 14.850809347600684 48.177917067669583
37.420768325461069 7.5554218221063856 50.772450467618654
11.399982207667795 5.500650605131618 40.306357771520965
36.516765349470298 4.3533631504983106 51.64808126810405
36.786427559136037 3.7440717910082015 51.651010680485925
14.05221580881434 12.365201563577475 40.195403122991209
14.743537997000455 10.643463870854241 42.587688267525593
15.940966665680312 12.596687381937958 42.55005214584574
27.978963926954574 16.631557764364892 46.502341525201089
26.213081080490795 16.093517867191313 46.532380670179876
34.358988432039631 2.3093749430227026 52.201805858076114
34.397370006064733 1.9759918647883445 52.204904191738152
18.995211061087613 16.001118864516769 42.471204433390696
30.859308278897206 14.860849172844654 48.199471459533626
29.796852841349313 16.952803040889346 46.473946676977761
36.175634076356118 4.9257176696094866 51.646532417441321
38.070809878824036 6.8123234484991357 50.771623761144724
34.217130896662013 12.18528645499766 49.623158503964063
34.009462415649068 14.650215595984006 48.158608232925573
12.893133902847595 10.189735496303337 40.234929878845435
24.524957919399785 15.346531157036539 46.563626010031967
22.682896565725056 16.567710470335911 44.606550513582746
29.288222372859053 14.680188704775096 48.222957174920822
36.980690052957407 3.1067281228580192 51.655277918182719
17.365113122958679 14.391295518702991 42.51103455073391
36.626376074334694 11.254063809375705 49.600278068974134
12.00473747356491 7.8903752459713772 40.272095417851574
13.095117848896241 6.376997850458169 42.656648966445928
13.790287787470367 8.5601073481882501 42.623394104083332
32.946026808779301 12.42657583166892 49.637947969210785
20.960643155645919 15.394838153568351 44.642893071715221
27.750396325697086 14.311461671477179 48.248031691087533
34.163657159604206 2.950228144129202 52.197515110124669
34.28070232870855 2.6357065872027086 52.199330818006331
35.449906537531156 11.792539214794006 49.610540542438969
36.68590915358655 8.2147587749312745 50.775349609859589
35.768009015174421 5.4527892508565667 51.646386701780528
12.013412864919191 1.834894098774297 41.977439558455089
12.668164352161636 4.125970036646792 42.686967937083239
16.806527487570321 10.764428228153061 44.750134827947321
15.826709900178425 8.9254207451211034 44.783548355105907
26.268254625785616 13.760046290243663 48.274329357035725
34.00955527805192 3.2483533513337641 52.196385270360622
19.392347590637698 14.022894828558782 44.679290653275231
18.00087945728291 12.471885381638261 44.715212507731707
30.363266500540561 12.442972658561544 49.673150138928108
35.876947947949752 8.7807193764919038 50.780278919586863
35.005685203320731 9.2450511800520925 50.787166455515973
34.777934818484113 6.3411117921183724 51.650292717887396
34.209923566964669 6.6894089396605594 51.654287486793919
20.165502473149498 11.975052168802854 46.659995177987597
33.82064578445177 3.5257346108400172 52.195957750476367
33.599682710992298 3.7783273477191228 52.196238791257954
22.939209558047139 14.401489560465292 46.595621947135044
21.478959860155523 13.272173933045282 46.627901907328024
33.127790112814651 9.8433243991731061 50.806387490649414
32.148542955137259 9.968541962032571 50.818440683310882
31.65513092145628 12.512891300798859 49.654693232413081
33.604084396356839 6.9667046288123409 51.659572284620694
34.084824133791628 9.600983231399379 50.795911805421326
19.017991523204355 10.529038423661934 46.691433762510897
18.053157620195172 8.9552209561823517 46.721759229238003
35.299833424172974 5.9268916478983895 51.647646261263688
14.300495208187465 2.894494423124037 44.87001593602308
32.969248436242104 7.1689547313086255 51.666070099067156
15.075713618443459 6.9816812139852429 44.814965843419287
22.366123430301755 11.102653429221608 48.356671162001092
21.310100924056314 9.9255515009156383 48.383933213021521
33.349891960788142 4.0024478817710643 52.197224246299356
17.285072851709387 7.2765478813468736 46.75052934680383
16.72493591397226 5.5174982848650247 46.777324602782457
24.863408050812453 13.033982894108579 48.301466729444613
23.556345137009099 12.143858038447346 48.32904805897941
26.6686683474144 11.317280984165333 49.735998335496859
32.778754674145411 4.3526632618628502 52.201240985220949
33.0749118454018 4.1948284435594667 52.198899798496683
29.089270954319513 12.217841017469445 49.693049540852442
27.851723063278701 11.840776791749285 49.71410127292981
31.649911354193431 7.337659656605199 51.682309337317022
16.380916860632027 3.7037233860202381 46.801754231238789
15.757945729385915 1.8599103011325804 46.379694372527425
14.56449041951327 4.9615530234616187 44.843929155211327
32.46573666008041 4.4736510044854132 52.2042136971518
30.984648201228826 7.30165421241733 51.691813971129292
31.161359104600763 9.9748091648608046 50.831895673051093
19.09011419948272 5.7588889215011898 48.459638687077202
28.295471900051012 9.2876514188722865 50.878624445941028
27.41851918625601 8.8344182783012055 50.895564509140485
30.180636575331302 9.8620346009002855 50.846556219694278
30.328586512436249 7.1857191504877758 51.702061448675309
23.613517733962841 8.9545137165540076 49.803534832605834
22.809329722137818 7.9411327113341148 49.82556732007032
25.557359952507905 10.654986243190418 49.758421410871676
26.602606631319929 8.2787732966955083 50.912781691949277
32.3146757489951 7.2932104434026144 51.673686135063434
31.807558894108197 4.5985907628971576 52.211871681909926
32.140423594407267 4.5560272246593261 52.207774569751336
20.403676138459467 8.6297163137928674 48.410436687075887
19.660064953282916 7.2340447547890907 48.435795121442851
29.691293022635207 6.9915452470521391 51.712902338349181
29.220673335592775 9.6318636186979099 50.862208573798398
18.501780395912938 2.6570141799716578 48.501417665383272
18.013943972856502 1.8658085641628466 48.19462856116094
25.859632597342433 7.6288184670104364 50.930024928062366
24.534001186218575 9.8635503198330596 49.781043548470166
31.471996870282055 4.6007211008920788 52.216445281432783
29.082063624622162 6.7219635021323434 51.724178523682298
28.509778891997932 6.3809056000589344 51.735725612312379
31.138630666747424 4.5623871741926578 52.221428676386239
20.479614366710173 1.8671527755109985 49.712524404950642
23.116072974967111 1.8639217927851948 50.909449604036013
18.702134485111415 4.2257601345755305 48.481619696270116
30.812321905710213 4.4841478188520565 52.226749194004057
22.133164068800514 6.8381853014229934 49.846819720211144
21.594882519594407 5.6617537409313092 49.866982114583834
24.63460702307751 6.0851286443838335 50.963587169144219
25.200427513872466 6.8940319334122728 50.9470428207038
30.497828522779137 4.3671438743840767 52.232329255099089
30.199737825399271 4.2130816784964304 52.238087470498641
21.202332467054308 4.428993741378811 49.885760509484712
20.961239847574085 3.1578816376455618 49.902881051607068
29.9223942188279 4.0242075808691586 52.243939908156676
25.88173964985392 1.8561665550819235 51.76652560749821
29.66984272367128 3.803276200224817 52.249801211957347
27.982787621058527 5.9733444035088681 51.747375178178274
26.746441110328668 4.4153907086588458 51.781247559595485
26.469246129664352 3.8095711086875066 51.791630454812662
24.170421503608527 5.2139043184436735 50.97941672622909
29.445767155511653 3.553508820984931 52.255585900830596
27.508770957094764 5.50522357713582 51.758957387851865
27.094643344950793 4.9833689478025853 51.7703033209621
26.267097137564821 3.1747440854199942 51.801300650097417
23.814638913274159 4.2930631475823322 50.994300676265723
29.253435316115141 3.2785478976289273 52.261209614130323
28.73299837452193 1.8440093212133899 52.270231735856896
23.447381244143596 2.3567697998228292 51.020380505651758
23.572446902828602 3.3360330654457142 51.008021984101404
28.974712252156596 2.6693920207683672 52.271649709773939
29.095649406694669 2.9824027309655605 52.266590381444843
26.142943201184181 2.5201672641939048 51.810117110155488
28.892388208904709 2.3440800208667403 52.276313813079781
28.849874612675304 2.0112105110416856 52.280514721186506
82.12733876731231 1.4762149675310985 48.912165461051487
81.884770106773516 -7.7356482768042127 49.814808731026829
81.626276093542856 1.4983507777756127 50.649135184382544
82.146831810651548 -7.7513990314359287 48.525410657683352
81.441862810289464 -7.719328889295733 51.053778552938951
79.668292730152316 1.5435615378865974 53.667924338852302
79.1354825038363 -7.6702986182100954 54.224061747144589
78.093008432984561 -7.6550408911516552 55.026861174514934
78.286610080436276 1.5648991238099774 54.833735404698558
74.981313424310187 1.6009701727022856 56.255899360456709
71.813908551728431 -7.6001660003556832 56.482661348790685
73.127548794423078 -7.6074772900510581 56.558630363070648
73.184716962964174 1.6143174704322547 56.457599780216469
70.524443546739235 -7.5950442230512465 56.220519204556211
69.285389630014549 -7.5922160376153816 55.777549400320837
68.040247321960777 1.6299488444107668 54.973389943936468
68.121984389798811 -7.5917391768358637 55.162762938028948
66.627146329593813 1.6263541297230142 53.84567085580025
66.11482046693385 -7.5978300815636537 53.471047876026404
67.057909039860078 -7.5936233337324577 54.38867508330901
65.461193869737883 1.6184446995953885 52.463965394922283
63.891585127091773 -7.6355043745459223 48.77422363887105
63.836916768571648 1.5726206040688111 47.36217011129277
63.779748600030551 -7.6491741564144995 47.463200694146934
63.855631502685227 -7.6640356876620697 46.149619195613937
64.560600503047311 -7.6961058298022689 43.621251300358352
64.490523556876099 1.5298040240930102 43.823833503206401
65.949380211649384 -7.7291166431676466 41.393955892104557
66.448506920266624 1.484593263982025 40.805044348736644
65.175333086960904 -7.7126615308734401 42.457938785384215
65.320837789474297 1.5070639044779051 42.218011114135862
69.055585380774133 -7.7745792095827273 39.001904007362526
67.830189569982664 1.463255678058645 39.639233282890387
69.412788001148485 1.4438711648541998 38.765381564298181
70.282042759623081 -7.7874034878254967 38.525330098716111
71.56384568267471 -7.7986055772678693 38.228142422109585
72.874914518913684 -7.8079574290469402 38.116399490226655
72.932082687454781 1.4138373314363681 38.015368907372476
74.733533422962111 1.4043421854250049 38.168029132550302
76.717073683322198 -7.8232186814826186 38.897480452976467
78.076552328458163 1.3982059574578556 39.499578743652478
76.470607989951631 1.3990641216971 38.669185809590488
78.944554273476669 -7.8218113853655407 40.286354769988293
79.489653320825127 1.4018006721456087 40.627297831788709
80.655605780681057 1.4097101022732348 42.009003292666662
80.690545869913166 -7.8111608989304635 42.246471561018296
79.887642846402926 -7.8176046375343464 41.2039819772709
81.813594805791581 -7.7921300594331164 44.619031829787602
82.078052224071769 1.4371032000578783 45.314261702610281
82.110878186245003 -7.779930344552076 45.900806214426254
95.747348263112769 46.061253596327681 1.038880392856367
95.277211890133785 1.0807466138311996 1.1544942920533827
95.564216524060711 46.05836475090166 0.67156937980844278
95.165882077583703 1.1906834387034553 1.0415462971168172
95.037214354817934 1.3186879325450245 0.9491920399739836
95.239853519548021 46.057620287114574 0.42007591670316935
95.044009647548108 46.058116318040305 0.35453397976443779
96.695244210016483 46.962672666071768 69.464895995339347
96.70802433704219 46.805113893211136 69.480008660118258
95.77327751765749 46.063337378926377 1.2437544305955273
95.751431205755367 46.268690047571958 1.2418213670405216
96.655334478985495 47.115474045408753 69.423464930301165
95.684438027659453 46.464035742272756 1.24061553900557
96.589458219526435 47.259016996548432 69.3569236916601
95.575656643315071 46.639583726623101 1.2401973695263229
95.430548465223964 46.786529019360621 1.2405877608395737
96.258909255177429 47.593957927119398 69.029583821536335
95.256384983470724 46.897508071075713 1.2417671501157095
95.923746171652965 47.712628834791005 68.70142804474078
4.1923268333269981 1.9691502538191652 2.146580088634455
4.1478522359113654 2.0875891444828696 2.0997012891123252
4.0632316073787997 2.1156788065740733 2.1005551257186799
3.9914286172678608 2.1685424606540957 2.1009640666825087
3.9124470304315482 2.3259746530477456 2.1003346107384546
3.9394717965899453 2.241005455042445 2.1008880825216467
4.0252780015152849 1.8557399942766559 2.2349171057526078
3.8746558414219239 1.9336908824071175 2.2361330495046525
3.6679675015546325 1.848214034274581 2.4439563349094229
3.80093223061936 1.5499853384964015 2.9875461683988833
3.9261011407961419 1.5428040236721725 2.7008742952742391
3.9954172489578754 1.4805444378967376 2.9856368516495189
4.0774898919082565 1.6362755459698044 2.440650339272652
3.8559502190776351 1.7098151759432922 2.4428857130616257
3.7554861041253673 2.0543693456257981 2.2364536574183824
3.682389413610438 1.6689311743464819 2.7028417333343375
3.6794338175855463 2.2059626730923272 2.2358475465239041
3.4816590889791197 1.8079078371747075 2.9891159893517987
3.626768400509361 1.6609613966483474 2.9887255949892038
3.3698804409895144 2.3792255464727994 2.5842250299586471
3.3058878146766082 2.178803529179592 2.9874919249122067
3.3728807022347862 1.983456132304644 2.988697775430984
3.3665135282688761 2.1094761893408016 2.7023797799809399
3.4895686776359698 1.8641930807832452 2.703360487971942
3.4611910681634281 2.260376904420613 2.4423083968013297
3.5319427645076851 2.0379246656167931 2.4437574054593707
94.564090289220943 1.7945528419701371 0.81915826140319203
84.876200579383209 31.035167490123605 0.63400335717981471
83.703324180561353 33.155962562430418 0.6270156715528461
80.500106570715459 36.776469840775199 0.63153805056107126
82.234185638909949 35.083422580969881 0.62618807637534335
78.538039982457164 38.199021588405508 0.64295163172613568
74.101205941278081 40.117758894602382 0.68287237866732187
71.720991185097276 40.573052823104454 0.71052881806074941
69.299908552243693 40.676931935671902 0.74256522201028519
66.889551234678351 40.427179537443763 0.77829892877802631
64.541298869524979 39.829122825528167 0.81696819458610592
4.467963543167496 46.632891083008126 1.5659319851864171
62.305191041050278 38.895506357639462 0.85774900064174286
5.2098280821862755 47.385743009382452 70.703977017961392
4.8242198561721512 2.2531659112240012 71.16911539440936
4.4346802108659702 2.5185541437756629 70.905683184936819
4.6798894252676728 2.3192301887682789 71.104491122769701
4.6896215199548887 47.38549455113192 70.386939478299951
4.5064930361043647 47.382605668779085 70.019626936630104
5.4165715969704209 47.783817544128091 70.628597923442555
96.499557596849556 47.389081861351841 69.267233840976886
96.388283180172294 47.501832057323021 69.157039764432184
5.4150556799128857 48.101904885832617 70.369214096855401
5.4110946530375355 48.275958389475889 69.997523707658132
96.064893061932167 47.680110788127578 68.83932738375232
67.9094548803522 -7.7603938279463467 39.648168678782369
74.18855476160833 -7.8152687187423169 38.192368504506604
75.478019766597512 -7.8203904960467536 38.454510648741092
65.311917443423596 -7.6042738201675348 52.428558292279007
64.665548619025486 -7.6128233344391969 51.282434172861571
64.188868507545195 -7.6233046596648819 50.055998023509702
81.336914694311275 -7.802611384658805 43.392595680435733
82.222714713306203 -7.7662605626834988 47.211829159150355
66.866980809500447 -7.7451361008879029 40.450968106152715
77.88047892353795 -7.8236955422621381 39.512266915268356
74.438617630662051 -7.6168291418301308 56.446887431187704
64.117693206563274 -7.6797864422937856 44.860221122270474
75.720420553713666 -7.6280312312725034 56.149699754581192
80.827130226375871 -7.7027731882245583 52.217091067913074
76.946877932562614 -7.6408555095152728 55.673125845934777
80.053083101687378 -7.6863180759303518 53.281073961192746
94.853891886243318 46.966021408689485 1.0412841003033679
95.416203015674768 46.057704508428536 0.52755079294160412
95.120844595087306 46.102449493778835 0.37501832881345187
94.838497498218231 46.059167692290025 0.33421146370315724
95.093819496757746 46.187418309114541 0.37446486574045745
94.840086323388746 46.264624914799533 0.3550825657324852
94.885437095417416 46.340837325578953 0.37565165661174782
95.041859726066122 46.25988423555345 0.37438889011742793
95.281389545978669 46.376905077964324 0.5008518936548052
95.357441554289395 46.225311202580706 0.50145801431690362
94.844817715011743 46.63632372463244 0.52908801752006984
94.970057337155239 46.312747336133278 0.37479782886254731
95.374498656958139 46.587492366653379 0.70134992150112874
95.51052599112856 46.397783945041063 0.70154879135267745
95.676476899153073 46.059567876089162 0.84490989808884742
95.581277041753154 46.175329511602904 0.70299783271346028
95.6829987471001 46.331819901046643 0.95703724540315793
95.162221010400728 46.497582324250253 0.50117249833549549
95.559945038787149 46.577103824980711 0.95605650880789039
94.84772304530658 46.783929259843077 0.67349699570015908
94.850799200052492 46.895698911550248 0.84713125739136308
95.011598298960394 46.575532941039256 0.50238845258994158
95.186518181505406 46.72589379426288 0.70242048470563856
95.061898153045263 46.966949263174534 1.2436764885194753
94.964976306183274 46.799432806083075 0.70465589538561058
95.123408620564362 46.898491072632311 0.95854277535485122
95.367117663400336 46.772365375047741 0.95657535827069196
94.856846028847812 46.991371175288158 1.246219949059939
95.778961134457035 47.723123682623125 68.560362634940489
3.2840397422818803 2.3841545599514782 2.9855589032784806
3.3043491052621046 2.3817772283908987 2.7800546484586199
3.5584469512791816 46.64876941027137 2.5006121055784458
3.5787563142594063 46.646392078710782 2.2951078507585851
3.4773477213005481 2.3766274655405892 2.4078896963280045
3.6213621163598768 2.3741132643530962 2.2598908656164389
3.7517549302978503 46.641242315860474 1.9229428986279695
3.9886757229438565 2.3698302643801159 2.0767948166898842
3.7947021237915735 2.3718090157924205 2.1476498369737871
4.0691093327888757 46.63642386611231 1.6627030392737521
4.4695523683380163 46.838348305517634 1.5868030872157453
4.4716949095854162 47.034002384490805 1.6528661863788052
94.842228864636155 46.460278993772704 0.42114566489554517
4.4771890902558482 47.357652650561178 1.9052175171834191
77.017834009195667 25.625117273374464 0.80046371578509656
76.517847546840187 27.140126714699129 0.79084364395547901
77.256304493795312 25.143416659658619 1.9061494842284656
77.163972394036293 25.665085141324852 1.9017434057477445
77.737963238161541 24.058031387739071 2.9509224453404101
77.416900483806614 26.337752023338943 2.9305384009073228
77.563670791279065 25.758672881218217 2.9348228422610925
78.193705669979011 25.900442706519264 3.8396631326128263
78.298640408573689 25.307544951503026 3.8446708842949366
77.660849641932529 25.209628417923213 2.9394601229879349
79.223995761082293 24.066696898875634 4.5827582545218677
77.027890599271203 27.38214003076812 2.9245140851227811
76.65490452602144 27.207606505461044 1.8919486630883262
77.024516128822128 26.215291571008876 1.8976726385238942
76.108391086996988 28.201711169143238 1.8886285542116106
79.017447320574135 26.082155584255901 4.5636782297577145
79.132612594463666 25.431475239983648 4.569173974335877
80.215279430261589 24.066063657765064 5.0858757351907631
80.114294822147826 25.574214660078198 5.070864419522346
75.8261750877667 28.604676757526562 1.888114019786119
79.794815619671425 27.051623133653784 5.0591803851577479
79.987029736215106 26.293250418707451 5.0647913545649139
78.843501255387295 26.76843281674315 4.5586007411692577
82.409679735016624 24.055047049459574 5.3220116164759776
81.298151637392252 24.062103660072992 5.3371613772235484
78.382483329317367 28.00615441319038 4.5514611673914285
77.615129037301614 27.653579670880774 3.8285310274306279
78.035205104267902 26.525775004350358 3.835036575717957
75.703893399390111 28.512276822500866 0.78707749828279583
74.614038052169192 29.677407859999022 0.78934127992597147
81.186645291401462 25.72746935779729 5.3205851601849261
82.287329036683346 25.882333021938862 5.3038237644731989
75.443583399646329 29.073917946118513 1.8882540372954164
76.45269934924346 28.428410099893469 2.9210197495079795
81.046111166960827 26.521460636924822 5.3138790438727872
82.133131710255512 26.753523273359875 5.2964656084136212
75.753003889241853 29.346387332269707 2.9206255917958654
83.352384914383293 26.029806410687719 5.0215542439669232
85.284289055637686 24.02014637376363 3.762971633835793
76.238416167599851 29.774717200722264 3.8243319102563356
76.673237780360765 29.241405774478743 3.8241729005207721
76.155670588437829 28.852521284351333 2.9204782627709851
77.348799633791089 29.748729681745445 4.5466782427477819
77.700811221771247 29.246107089353217 4.5473200118898447
76.993992023370694 28.783418909698035 3.8247576320852179
85.133694496150909 26.269219727320966 3.7405855573384312
84.31991552826058 26.161315693868744 4.4901808718087679
81.282984074125892 29.329544532666141 5.2801083320042572
81.900239910082547 27.672371563052771 5.2896673863064692
80.833856927937447 27.3588880830427 5.307683216714727
80.27130100886491 28.869214796336657 5.2989711686187162
74.716518769571422 29.790970987184998 1.8904189897354078
73.771020919768276 30.483777048817373 1.8958397714963968
83.184925573976855 26.975950379024333 5.013562959932063
79.439491269504785 30.382264062056663 5.2939179471903106
79.285360819994565 28.419370489210806 5.0512908604719673
78.532084702379535 29.789583951951109 5.0467145584066753
85.746424006315479 26.347248681625523 2.8163316627777135
85.903174489843792 24.006193996941157 2.8396333135760079
82.261629660538603 29.773605771904002 4.9957983982522052
82.931993662228109 27.973855158806529 5.0061798608039609
78.143083030517801 30.345006945500707 5.0460055268640289
77.615755727291784 30.99178336327374 5.0461982977439162
84.140356375810939 27.175815076562351 4.4816122673946381
83.869149377272137 28.24581538346856 4.4736957833384583
79.009942922549627 30.995588231453873 5.2931349248216737
75.964718944606673 31.228400878460633 4.5495532493203905
76.871593474152732 30.334017370606311 4.5468528460924453
75.41207250276473 30.589676019770287 3.8267925494318025
85.548871406100488 27.46338574887907 2.8069046711328403
84.943904819310418 27.341503458188363 3.7315289407581949
73.299234113195681 30.581042418766465 0.79752921335210802
71.820965030270941 31.180926276714899 0.81125838968090869
86.122496334492155 26.390867334837779 1.7711336580998294
86.24005703387914 26.397539451162743 0.66573462822920537
73.99267224065089 30.830229037232222 2.9286094046249342
73.578858000466752 31.069390662834451 2.9316782581281462
84.657252321295871 28.472448699750714 3.723161525008428
83.150362572842155 30.17559166634598 4.4625641780974892
74.987785677329853 30.101066344350173 2.9229041770507376
85.727829823289511 28.766240121845989 0.64700200895788984
73.377838848539497 30.711013681961951 1.8987556245882027
73.890609681999663 31.635343284275358 3.8362674410602522
71.872718690402863 31.3217943084098 1.9127341696783617
74.337478859542969 31.377076768969722 3.8329534621576418
79.898994715301001 31.662661563948767 5.2737045255146828
81.270429263287923 31.576603419405878 4.9897766742264036
80.370303227753837 30.989706466518157 5.2745637191228312
85.614407198496579 28.740447930929072 1.7525522014375259
85.920104007912016 27.534378580137407 1.7614753875882583
85.250502720713783 28.640584056821957 2.7981949480607113
80.75856702940446 32.307457978431252 4.9888436049529492
72.969551393012821 31.36446621837257 2.9368172755063631
72.798912701139983 30.991377686519677 1.9036383946738513
71.994756628313581 31.712218379443961 2.946390367220685
75.310394338474609 32.935042796988121 5.0566541034544379
76.613609128587157 31.980121151664115 5.049182453137373
79.260071117463028 32.446297328061149 5.273938260433412
78.427641432429184 31.709785589352386 5.2933478561925966
74.785396064535277 32.092542695442809 4.5563145847942543
74.294977088585341 32.37597887340749 4.5599515264849213
73.572874877472756 32.725676434609561 4.5660419151177418
84.804214081701332 30.915632634719309 1.7400049785842409
70.686196703680238 31.558065690593466 1.9264195206909842
80.794679873100279 33.805048779505256 4.4553791539396164
81.538705847757555 32.892505060608073 4.4551069758339423
77.321034099001693 32.801152560435249 5.2966429857414363
75.881957709016717 33.855619420196788 5.3048936339208304
78.045870169924271 33.643777526463268 5.2775537547054192
82.194067447755003 33.383802757511297 3.7035140094403056
82.087544094656096 32.108850189755167 4.4561074992892404
70.2715493689076 31.594745059112455 1.931700912339575
70.248351604065888 31.449006279094348 0.82988690267455512
83.897523646858289 30.512140153627186 3.7113959135470123
82.774177121394231 32.555513828634794 3.7045713594219061
75.283526542229154 34.201481764050399 5.3093315836492927
70.745968098099397 31.960891910127486 2.9607938677207359
72.179986833858976 32.329516963049208 3.8521545607000669
72.4176333124217 33.137806238507657 4.5773870596882542
73.232635410921276 31.953985135684555 3.8418169589750284
70.309564189499767 31.999493014518578 2.9663524051456065
84.459700839316056 30.763693973382352 2.7859481807170843
83.290408528140887 32.890633300246336 2.7788446054014782
83.606236934993589 33.094739170609145 1.7327272531511249
80.064676291009278 33.158516396921961 4.9890973852020295
81.407671018894703 34.348326167531525 3.7038015508337097
74.768454517787561 33.248255018630957 5.060673126139374
73.970495884096565 33.63469039919908 5.0674032816913535
76.466883996503583 34.800766880991802 5.2866064903804011
69.592896758726354 32.010364624960786 2.9760516230122169
79.380739108054755 35.199516003636361 4.4595894318830407
74.402388192542944 34.628201840508474 5.3167632685306323
70.831449509113213 32.598049483411323 3.8677086070085203
82.987603099345179 33.978051045470949 1.7315994949792544
82.686573383201335 33.752799668363444 2.7777439913223723
81.868014994438894 34.756766742455973 2.7780433285871449
78.746000516073224 34.459022349510875 4.9930240839507913
77.0311598000213 35.71556039164755 5.0028556830573612
76.318049363368146 36.127701193602753 5.0081440938755897
70.360188709593189 32.639735509925714 3.8737111026412978
80.312417911759312 36.290938462360927 2.7826754245036414
75.810264905950945 35.180257560736237 5.2914759741551016
69.590612940848018 31.605073211231797 1.9409165703025484
68.602067702905813 31.917778793084032 2.9906311499126472
71.058452234521909 34.415779475883831 5.0988034520391174
72.693889363393282 34.090115966058114 5.0799403106504002
70.937669340464197 33.432509578313081 4.594456982599386
73.296713382999442 36.200258855314118 5.3148201817844161
74.843456610740134 35.648463699702795 5.299630241523035
72.992707041583984 35.131099467636922 5.3306071896833753
79.913192342801054 35.822216366216075 3.7082517079902964
82.148962653169917 35.006641264637061 1.7319062589202954
67.437270268091154 31.221423870778452 1.9745850697067844
68.6491820947859 31.517105971022751 1.9547691994146512
68.654923757762859 31.372752483500605 0.85254369858757584
75.651530744979041 37.533975856135264 4.485297439801867
76.777375178763492 36.988747201912702 4.4758018761854181
75.268061352162093 36.636192028459277 5.0169998905728797
77.542006460153772 36.546830356279337 4.4701313843729205
71.186786996512467 35.490710212552877 5.3514366919674501
67.115197672200154 30.955726935115209 0.87816928191708832
78.289475820465881 37.773231939104036 2.7942734848931892
77.969730458050407 37.246271786641799 3.719394083228202
70.420476469115258 33.478258475764434 4.6010445208353801
70.486931258408632 34.466334069948928 5.106082972430082
68.516306743785037 32.55149587752441 3.8999290847096981
69.586277077077384 32.651473609297121 3.8841850713345223
77.161549378253511 37.713358294934203 3.7253875378287553
75.971569969001607 38.289642703614561 3.7354240680538813
78.482654321387969 38.097090822466541 1.7485344745843732
80.555211977749281 36.578437196638227 1.7366520069217271
67.138918036360394 32.215443692767352 3.9224506218148751
68.250762436687424 34.359322262236759 5.1378788346725397
69.548371353011689 34.480570373165705 5.118785248379754
69.571142078528837 33.491140298650912 4.6125392488999957
77.448239803309804 38.259423337099847 2.8005120648931414
73.58823645873251 37.235459289004929 5.0334968189185894
71.31520176798135 36.594834300663884 5.3376749662219156
67.326555396729205 31.606585150483831 3.0114868844899485
67.081491345457877 31.092504343538835 1.9808602191666935
66.425392683778256 30.798947010347781 1.9930390833489133
73.850340895897219 38.176538879641853 4.5029862525361111
65.641778668249401 30.340801670501676 2.0087539283968376
65.701164025192725 30.217431821641703 0.9055654725629132
70.622739939343319 36.656087936366504 5.3464949108434592
70.555685129379242 35.546536561696158 5.3594750843811489
70.684206243289523 37.730507315560807 5.0678966850050955
66.885262309415069 33.01261479252468 4.6545341764603618
68.396891364804944 33.381418430844015 4.6298176918299152
76.35176562687505 39.209767664869148 1.7656292564294087
76.389815132721324 39.320751180395163 0.66018548625370266
77.620786102564622 38.59520193616671 1.7549261128058951
68.086410353806244 35.428368080235501 5.3945854721652058
69.48558061392157 36.673337012349265 5.3618849863241866
69.519288796852152 35.562255889650594 5.3735014690055953
71.542880243198368 38.636021685437228 4.5296005204559249
66.734560989985809 32.068922561496052 3.9295825695238005
66.441501195361269 32.851814588101767 4.6623611316631646
66.952111004198599 31.47089944716204 3.018091279442328
69.449203455304414 37.749239460946164 5.0846109650512279
71.436248984755423 37.663985442615534 5.0583178298207088
66.580329392802923 33.951773695765191 5.1651919096771586
67.913384762129382 36.526430635691227 5.385018975575802
71.6289068892616 39.454460802063878 3.7822504337253502
74.067801202797511 38.968803614324763 3.7541202318523368
65.988881420066491 31.735280231451455 3.943424326541757
74.321528223479291 39.934043870383725 1.7855674387296541
76.209599765866699 38.859273996986353 2.8109589997641953
65.436843551438784 30.67975095204082 3.0474487936786581
65.098267487185325 31.214578605554365 3.9612849607729577
66.26158257930895 31.161937371207955 3.0309092465257166
70.77660397120242 39.529851242559857 3.7931063136679239
64.478940316219138 29.192387909221452 0.9334512826263307
67.741745112223782 37.589693341137057 5.1097352752790375
71.689327043798812 40.071730796072451 2.8597005171454146
74.22796311643306 39.56621466331967 2.8304198653546293
65.185625898732141 33.369457163716085 5.1906277047983718
66.089950476073355 33.774080626745764 5.1738411048113297
65.623145200139518 32.48565616117385 4.6775519330482149
64.381044306090047 29.834312518261378 3.0711023687345325
70.73650238334281 38.707352817496691 4.5398714151458028
69.412281115980377 38.727439398547425 4.5577931471863611
69.376952910336158 39.551081591790577 3.8120489009705039
70.802167234819251 40.150206158691731 2.8710003552958949
65.889477732236614 36.032642041093297 5.4181116689968309
64.127119103436314 29.581321766924077 3.0773309986324442
64.638621597691937 29.537515606041261 2.0312281488128279
64.397354454475291 29.297140862240347 2.0371462350102938
63.50567220325545 27.92852363356706 0.96052287573740236
71.720625585545548 40.451958633800842 1.815566278547976
65.295328218752644 35.817349799685552 5.4285911143360615
66.241840448057403 34.978337335753274 5.4247458042750543
65.700344828903894 34.782119479987777 5.4342966084943551
64.701747608231145 34.335315949618426 5.4528331468122886
70.811709224546931 40.532359250127755 1.8271432239346281
64.199643278800579 35.327103531148019 5.4489298799461521
67.581464570299417 38.556367035616262 4.5847326007770359
65.224616690047668 37.981351334855432 4.6232691416774685
65.543701220466687 37.053422568528461 5.1456752258052969
63.958141747076596 30.301613281687828 3.9868277629760676
67.331033746818335 39.984091080154833 2.9203561015853614
69.345271972210583 40.172302996851649 2.8907176934250889
63.605560798946442 28.979629340458963 3.0910164842670933
63.901803171131334 28.725446437318418 2.0501493591372109
63.084178303916133 28.226977775611154 3.1063405945214302
64.898435004558792 36.819605540374653 5.1570562802296571
62.722846129159635 31.630777168170226 5.2432652298730051
63.394490217579076 30.912266400950621 4.7251854346978064
64.105535995827466 32.737974291146827 5.2122881810675263
64.645733740505946 31.91420999666564 4.6971532082388787
63.70847744308309 36.287182722332957 5.1791449456305294
67.25543951044844 40.362172600746447 1.877709485266581
69.319082959224417 40.554999546610532 1.8473441219674591
63.683933978379493 30.028417406006035 3.9935538813599494
62.819487876799428 26.824771837111641 2.085637335228832
63.406418093645854 28.010323158275909 2.0647093799059415
62.390296732942531 31.299454806967788 5.2514224278740453
62.287238337734358 35.456247051868203 5.2076469101727252
67.441855984223636 39.370265092825235 3.8405227841159224
64.950767756006684 38.762497938502129 3.8812542725416241
64.219479669743777 38.497508972600208 3.8941525743912302
63.093557566526677 30.612442023222499 4.7325671194915637
62.475450735639129 29.899366081073197 4.7487860106586748
61.857550510517939 29.007385778760167 4.7669468889715603
63.120714797299989 29.378664816903232 4.0083325142173543
62.870877079038301 37.894101503737907 3.9191861213012964
64.532739706897232 37.730641397440202 4.6354723401425666
61.98224040355209 32.415387446293479 5.5109577995723731
61.615026567976983 32.049531089710435 5.5199652637817298
61.215716658608628 33.220504903566265 5.5127059672124368
62.890993157471783 34.561999077680227 5.4751738916284607
63.509065247205747 33.638008918055704 5.4767515468064287
63.256806506060926 37.159750070126144 4.65915693857617
61.732889001056932 36.268784727271388 4.6897180271166405
62.826881236429891 26.484936916735236 0.98551423025124196
64.738069139161269 39.351468901510394 2.9627533539988296
60.812801215751904 32.819076297862182 5.5225891920198276
60.860786621758685 31.179402822999698 5.5397562695848794
62.466454082908868 26.979214852920357 3.1283666714106344
61.707257308683211 30.511469511951859 5.2693451278902508
61.02444517229582 29.525784949510239 5.2894138457162825
63.976875412679718 39.075640945158511 2.9761791512544602
63.819015205122689 39.431441229476526 1.9349016832534269
64.598881436934818 39.714035317245667 1.9211465446146956
62.573114663319231 38.447556784706151 3.0022365454496174
60.467826905501234 33.999335564639672 5.24840811263695
62.497058942318603 25.77667542354687 2.1014477389131128
62.356304593363561 24.956454537394258 2.1122922713135144
62.474294776286143 24.929127985608986 1.0072569477370363
60.030247001478571 33.563369445719459 5.2591416421927644
62.55768816145504 28.565898645345001 4.0248805827991054
61.890627323537544 27.218471637083688 4.0486659257131734
62.380828210268803 38.78795230392867 1.9615981324044371
62.12710453974654 25.876118557645825 3.1450067529007537
59.198182948965098 35.301244840430378 3.9976833863532462
61.260158507757332 36.952388126768959 3.9514879372866543
61.524175300428368 26.027269123783284 4.0666350526095183
62.464405230943626 23.333845860073772 1.0247342704432749
61.364198141253546 25.095055962327436 4.0789603477137746
58.70226493513907 34.807152213657048 4.009847947580905
59.782031203274904 34.706616194945752 4.7334240904675227
58.349124456485882 33.127368957682862 4.7702205641784179
59.312834564991512 34.239153851468977 4.7449331139605677
59.985227751197613 31.864345465222804 5.5443044603862672
60.215462916209972 27.891692710236605 5.3182595796784993
59.771046084714932 26.447061318221586 5.3400516735574284
61.125474746508431 27.52864098662851 4.793050368265563
60.723307399401669 26.221343404979947 4.8127707838571085
57.683663659108767 33.632043989156891 4.0365757040537762
59.157928308721573 30.670084598915444 5.568619836483971
60.106793956682061 30.090966870390432 5.5619170474520541
59.131465979532052 32.52649568605019 5.2827253122367797
62.323876632781605 23.596180718015432 2.1275236335411178
62.797675015657212 21.773682724616492 1.0371289939026271
60.228894888676102 37.646224204337969 0.89977210724312962
60.663116757068785 37.783682596243828 1.9960456416824397
58.356661289524709 36.107911454845926 0.94214179332562065
60.89652472655181 37.467331696510307 3.0358593620278089
58.750219133475028 35.748658024581552 3.0839441247270605
61.978963228879365 25.012856422872893 3.1564203658722212
61.944833366608812 23.581201403273909 3.1724510062209781
59.577035433255254 25.316518564470826 5.3549991661187137
56.72839243026776 34.313345045106487 0.98395514292370201
58.234018553605637 35.234360273463743 3.0966061744406908
58.464169011008664 36.022860072831563 2.045309720481467
57.935310393510093 35.495949832012897 2.0582822753554333
57.173756411889677 34.011193645243665 3.1244270588662628
57.168485978961662 29.079260819231763 5.3470894427868725
58.232989526083422 31.229483407242718 5.309132700430311
62.685556179931041 21.743702903425287 2.1427068487023302
62.476809607333401 22.510256085035849 2.1372334246919857
59.21348103639361 28.286531460112933 5.5937697516249933
58.722736225894757 26.691304762625109 5.6178335556605532
58.508502545145411 25.442909861925962 5.6343392135735524
56.84904472655689 34.242781662081647 2.086785511883531
56.244326063476905 29.431084142511637 4.8392347696398161
57.385732552246481 31.736648923243742 4.798535878370517
61.327343662601663 23.549050665205201 4.0962713803957804
62.325490669334506 21.631514061374929 3.1884309876799937
62.105792613585415 22.438292683145221 3.1826703054816785
58.177758954423005 28.690206918493651 5.6035695414144406
60.547738732716688 25.198275528110528 4.8262973173219095
55.763141203302389 32.675206340957303 2.1187016164044166
56.113850317083937 32.481148368842391 3.1555790546314872
60.698050266840148 22.147116459032063 4.8574065119035783
60.507294213714701 23.501597089416599 4.845295452818247
