# XYZ point cloud file
26.114587779743434 22.604973388525558 33.959647599837382
23.706023499749456 21.705213453868403 34.004224767045983
22.290264638824734 21.541272520041641 31.420618752287197
16.844876837740603 17.767642638282613 28.897639705169865
31.168082617788485 23.504980648085553 33.877667914673218
30.013515551440648 22.641951148240693 36.433075839195354
28.614090998721991 23.207826634368693 33.917255910621336
46.953338002614103 4.0552405112432517 45.051593070755416
12.322272413915664 11.283463762171785 29.037401397023228
11.371219799363729 8.811990591200793 29.079745291596346
11.921258086314179 9.9737496324275785 26.414286781032683
11.127002781128525 7.4677412148275364 26.454817321595748
21.42351773921277 20.52166627152339 34.050337427778061
37.390062408161008 22.158651514703838 36.334421236015345
36.013349416278643 21.384818909412644 38.778495031945901
34.956681068168692 22.617193322514485 36.36346836563358
38.287352107766381 20.812237834161557 38.753034856055123
13.564303630776914 13.622227849747411 28.99249463539714
46.645159318905634 5.7841891231893294 45.035736281007772
46.130844150542195 7.4634186359015775 45.023375589524484
10.725013877693641 6.2438471978579146 29.118908864568713
46.019759976628627 14.229075795689528 40.987571219154027
13.086545568446919 12.427503433469397 31.65731651879744
40.917407429232505 18.267516285518077 41.012502554972698
38.934328002733466 19.171957359926708 41.029969010690017
44.145390929963888 13.901947959084261 43.103096291803318
44.486143489353992 15.777922604174822 40.991147971889319
42.777049893333363 17.130645220986288 40.999499030640095
17.956667102211632 18.581512134590746 31.516501168784092
17.367499553143734 17.376129413050077 34.144466896001184
16.088764485734107 16.731864449231573 31.564539187678861
32.48582319695322 22.77908007844956 36.396513840875009
36.856733576708457 19.830782579384959 41.051643603986591
44.796175298645245 4.5779570092385731 46.709629991448125
41.042196782409754 16.358081551512782 43.118259265712751
31.342104490673695 21.690872088978885 38.840968675640063
29.012976725243604 21.419880249462182 38.877071188330873
11.996008626616383 10.035557202488764 31.700702927194701
19.300356260672181 19.071589952906251 34.097313139576116
45.45264459841777 12.411621854300279 43.102036125002485
45.417883439382358 9.0684418347048474 45.014691372435422
15.653132108657331 15.460010757163115 34.191111073077586
14.457461258251632 14.670509140890941 31.611706900813463
14.182254063523265 13.351173546182901 34.236565503000243
27.575812697420517 22.207806147125059 36.472621165788532
10.409398606335088 2.3084300370045492 30.546759777947777
10.715360889468808 4.9460223018928788 31.778317114933945
10.793196283419842 2.3386444750165514 33.274008561515643
33.686961015673738 21.67912788397453 38.807949441706313
43.113097888715473 2.3544703682319064 47.929115937128522
43.440366039212215 11.963674128948025 45.008803304245269
42.204647594055807 13.211663797165478 45.01168529691509
44.516677973272103 10.575853616437652 45.009810208508476
43.916602289093092 7.4497352312905871 46.688491081292234
43.223950535448239 8.7853077504683981 46.682670048975851
12.976313668960122 11.080369393609615 34.280167364156895
25.208259784315846 21.482975839520211 36.514573190248321
22.945383463169563 20.478030988923646 36.558320110753534
37.441522174638244 18.000276678889534 43.149973053912269
39.291505801746091 17.288074874947348 43.132140970668097
17.104291164110144 15.948128148694002 36.693876425781411
42.668058109095959 15.223859661150749 43.108530460365081
35.519220484003405 18.484301768494188 43.171495513025576
34.714915350968631 20.234383239965904 41.07721035653892
12.052896416841392 8.6807125920589634 34.321280830898004
24.537036089642434 20.049563700752536 38.956382938554427
22.455491232607589 18.97021986315599 38.998435666989437
42.458127699251619 4.7991915457214649 48.110497503475393
42.097689357378663 5.9760128189170549 48.101835018111814
44.443237432444498 6.0404346528731256 46.697521619450832
26.73354025498768 20.870105056967777 38.915730531601184
11.201753321430731 7.5295487848887221 31.741233467757763
20.820179126169933 19.207622624570426 36.603224072126629
18.863638098462875 17.69028027770614 36.648630210371998
28.218413967018751 19.874047570358908 41.173284605449084
26.134537566054195 19.236065061740636 41.210210006343992
41.598039895285389 7.1008297741887798 48.095749016816001
41.383270210386371 11.158724236461561 46.680948039836068
40.262085519847815 12.161958490779574 46.685072136262079
42.674100648191903 3.5875265823168183 48.121610130795702
20.519262766010453 17.647815335490506 39.041275414799301
31.570434241135608 18.743020523468282 43.22430693004214
30.364034042061142 20.256174612485566 41.138477545479958
33.55263213407251 18.733092692845958 43.196394494789892
32.540112824971729 20.376872129870776 41.10629637012012
42.375380742227669 10.027676484549783 46.680143433273095
13.249391572901393 9.6409856253832551 36.822126824899392
37.731250113408002 15.94642136254364 45.042965497767717
40.827541443586881 14.301624880706525 45.018414162328369
39.028172869130863 13.022750478126849 46.692455621629399
40.22234936426014 3.785914006463627 49.241111217328402
40.002035094092733 4.6988412968142601 49.233552749431993
12.501295067592915 7.2806178422799475 36.860301877622177
11.425467951348782 6.1871949146872627 34.359306381626823
24.142796000750263 18.351531863180981 41.248715224276566
36.05722113952848 16.477272668151727 45.06042987031482
34.33144259699192 16.802474425744315 45.081030395333869
15.567792937614911 14.006570951742777 36.738302933000824
14.276550289502385 11.893920976592753 36.78126187544548
27.674633449973395 18.049194103991777 43.287506067197434
39.329125497960618 15.217663377472574 45.028891825537997
37.790597029956913 3.0381700003771828 50.072304608403066
12.043169982473501 4.8472363712105695 36.895230360036756
12.565812225702338 2.3912582251544952 38.477838158279567
22.272230850878017 17.233343529323854 41.288238836045494
32.57908596714001 16.917285847140832 45.104466573358138
37.699528201820833 13.728546314519097 46.702990808342761
40.966465124450856 8.1572394037272762 48.092328257585187
39.346171562922784 10.004442308272619 48.093642322925568
38.381081186569389 10.768298172282972 48.098357985021046
18.756582427952907 16.101630519983949 39.084277559858741
17.193154583720009 14.354214546494426 39.12681500017181
29.601529939910495 18.513940499120643 43.254825817604853
36.295527064737229 14.269054917434939 46.716524044898584
39.240913832907815 6.4122819587979203 49.224281935917297
40.212176483333181 9.1298380016736758 48.09162258621663
25.817841497940151 17.355557671466745 43.321871160489501
39.673289891856058 5.5785734476557352 49.227915617538606
33.34414303206708 14.825208629478984 46.751754536863295
38.091902003528944 7.8938476774681785 49.223206969107999
13.33771216496222 5.8978167718701933 39.280201676401454
37.236464446837267 4.8473942307231956 50.058987071258855
37.493765327761132 4.2681542864681115 50.062121147939429
15.851778969657566 12.431048336697188 39.168267427693962
16.51265049884476 10.795958842725202 41.444944404686289
17.649178252752748 12.65547388400449 41.407132744699609
29.096859421786721 16.512133613393409 45.158442609845501
27.417766720886341 15.998076404964962 45.188195415751515
35.186745209090844 2.9006989637810441 50.588215273136257
35.223685611637222 2.5836198222786875 50.591400148435234
20.550119970721074 15.897806087106424 41.328204483270341
31.839801376495188 14.832743118950415 46.772938011635425
30.825702332186665 16.820032912552755 45.130396681364772
36.91122664661269 5.3914071921995426 50.057225496369611
38.711209395224159 7.1878097107793897 49.222704725058911
35.037989469436226 12.293014563765666 48.127803055677951
34.836640882624408 14.636394996240746 46.732858009215406
14.752015111073669 10.360175668531554 39.208030387012258
25.81291209898777 15.285359280973601 45.219221172924904
24.058231290774479 16.443145678206275 43.357419966468662
30.345547162790403 14.658888622088282 46.79609960739959
37.679378813930974 3.662133690959025 50.066582005992387
19.001574769578319 14.364396273737642 41.368029370134941
37.330972881344366 11.410267261750962 48.105700882864078
13.909899252975849 8.1717946571707554 39.245524054288907
14.950103982507107 6.7354149494832507 41.514513946194789
15.608564132099264 8.8129670331242718 41.480912978544175
33.828547002550863 12.520918962047519 48.14224010692211
22.421459923177306 15.325264671308561 43.393634113716978
28.883173859824524 14.306179660324352 46.820901528920814
35.000110524832067 3.5100566129272828 50.583729838874397
35.111854928212445 3.2110196179387964 50.585646032229235
36.211167610786418 11.920988191890579 48.115563827417546
37.392020361840515 8.5201001275826318 49.225781376476071
36.522795400038916 5.892260352316252 50.056862098714284
13.926675537125009 2.4128277632566073 40.872349556712628
14.546870956956923 4.5935979844332584 41.545257342885407
18.475853127892528 10.915328007939651 43.500985425714262
17.546179422717273 9.1647374609475598 43.534598625041617
27.474005706637445 13.779760805120002 46.846982099819883
34.853137270882286 3.7934494721216896 50.582494693233905
20.931396996168075 14.018215159581041 43.429985501469012
19.609771274862339 12.54105578724141 43.465944053139282
31.371688529980418 12.53322412838112 48.176836502813721
36.621770019601826 9.0574345920482191 49.230390414247196
35.792386783401398 9.4980160367897888 49.236966812235707
35.579846356193286 6.7360082491833246 50.060330600388831
35.039079233981724 7.066599176013229 50.064111916906235
21.670352638486769 12.072709158426292 45.315359017806237
34.673080220684184 4.0570654435694049 50.581958583181525
34.462564351338557 4.2970606672654004 50.582129332768368
24.305696502947836 14.384374478374568 45.251067485589644
22.918098607914271 13.308260404550566 45.283269961460043
34.005276950107103 10.064725081312325 49.25561092081881
33.073611626420345 10.182589091219839 49.267406737975882
32.600477636165323 12.601380405420624 48.158664414045646
34.462420106227839 7.3296022981995641 50.069190971737825
34.915963255473429 9.8354198366734877 49.245414694886492
20.580654454639177 10.695737099369254 45.346866719889498
19.664891754042543 9.1974255958021658 45.377333627040827
36.076834117399969 6.3426498046383539 50.057902192617199
16.102156712239736 3.4259201730920399 43.622114215304066
33.858274756761006 7.5211819269656406 50.075493752117808
16.834305920033344 7.3148130395686826 43.566293493096296
23.76555225078695 11.246962509985117 46.929032962936802
22.762535024273159 10.125907347877529 46.956322864280175
34.224663039086508 4.5099351829979231 50.583004404831598
18.936420929280651 7.599621801374866 45.406315446382585
18.405863099087078 5.9256255311095387 45.43338957794316
26.138589469555239 13.087307907654591 46.87396104212808
24.896401103424498 12.238917462850884 46.901444917662033
27.858673605943302 11.45770923671483 48.239085617635844
33.680919817316322 4.8423468289639899 50.586806516311292
33.962841424954682 4.6925851881291063 50.584571090824774
30.160097353272324 12.317445467912929 48.196491378042246
28.983372842021375 11.957188574553133 48.217342441055749
32.603044553126125 7.6799794476925882 50.091386229122008
18.080956889404611 4.1998477224488111 45.458161189545322
17.490542281908386 2.4447967889340609 45.058353271024686
16.350613872374211 5.3925301323255352 43.595607847676902
33.38300696058085 4.9570364828950915 50.589678113583169
31.970262891165376 7.644881551993679 50.100744192135991
32.134550034278547 10.187292377639391 49.280630188561688
20.656160007124594 6.1595721398617727 47.032480737730751
29.409276297188477 9.529985821429614 49.326850954878182
28.575664346724974 9.0977334817676958 49.343692120614243
31.201788327707749 10.078766343435532 49.295088409384391
31.346337199101697 7.533762956687827 50.110865747358893
24.95552590096424 9.2062508782010184 48.306460001322343
24.191853695968611 8.2412549813901759 48.328540926889055
26.802401762658388 10.826289944224808 48.261403834720547
27.800248661502046 8.5681404797332803 49.360848469168495
33.235455576316255 7.6385448392327895 50.082928307540541
32.756757585184403 5.0750454935979779 50.597153618326892
33.073448316377181 5.0349815535430986 50.593143992921426
21.901975041150575 8.8920987837930792 46.982916690623121
21.196419457650368 7.5635291807557454 47.008426661115827
30.740365602268049 7.3482441940536765 50.121603299345132
30.288925251871522 9.8585943389502297 49.310570600432257
20.100512563547898 3.2081879306338386 47.074844567350333
19.637341831724179 2.4546920654930258 46.783826548377093
27.094337043451457 7.948928939823821 49.378069821588248
25.829958163949943 10.072138211773645 48.283971670312482
32.437553205792213 5.0766442275204593 50.601648513414695
30.161187117817818 7.0910300801604915 50.13280023927053
29.617244272579114 6.7658719190849883 50.144293329431598
32.120489795901598 5.0397544426754575 50.606563133914179
21.983469200586374 2.4602980333080469 48.226654036005023
24.491925663381103 2.461526342716656 49.364087022392106
20.28907435844636 4.700700731268272 47.054728162852243
31.810191227355659 4.9649139245245202 50.61182581007391
23.550077652281271 7.191222924572557 48.349892449889907
23.039557954909661 6.0714653977013961 48.370203207128547
25.9310294975181 6.4789444639672187 49.411705848560061
26.468219653711614 7.2491286784252003 49.395105099245356
31.511181989761891 4.853213952636942 50.617359806092182
31.227823533970152 4.7062835148539373 50.623084404791996
22.667737260966366 4.8983116411070258 48.389177040818097
22.44003914467212 3.6888688025484253 48.406537248123122
30.964245554665133 4.5262649715920587 50.628916163820691
27.123149820646901 2.4583576040091266 50.178185298435075
30.724292302671408 4.3157837886306183 50.634770028677451
29.116472399658207 6.3775107498800363 50.15591493214788
27.942414274963262 4.8939434457286861 50.189861780881927
27.679515617020648 4.3173089188893305 50.200321077712616
25.49059948587735 5.6496073987163946 49.427629999775696
30.511463832321525 4.0779088834529675 50.640560627103973
28.666170480087708 5.9316102284039731 50.167495620806484
28.27290703692298 5.434672183173495 50.178866497832111
27.488041490878061 3.7131769652550806 50.210091916974108
25.153351212565976 4.7732108736690817 49.442645357642839
30.32886392357571 3.8161092780074717 50.646203512277722
29.835645882951464 2.4508417435492786 50.656106167878939
24.806497463319761 2.930858719637361 49.46909027063009
24.924202078720676 3.8625347190712773 49.456532970680328
30.064515988796447 3.2362991958570939 50.656720429919098
30.179152982984334 3.5342023604752071 50.651616433709428
27.370785237177614 3.0903575881875716 50.219031795957299
29.986625387084086 2.9267437441698396 50.66144106373612
29.946614016833017 2.6100500153294286 50.665709539912392
80.626068261920892 2.1670329238320805 47.438809874166694
80.407557801114649 -6.5953796939825757 48.304581678256334
80.150156880380734 2.188771475147897 49.091305532538001
80.656305234013502 -6.6110099864936114 47.077938166101248
79.986758262489843 -6.5794793904879345 49.483333434913291
78.288874866254019 2.2315661252147616 51.963749359323252
77.794124189702984 -6.5333835339382524 52.500034708651611
76.802798511623195 -6.5195965763358856 53.264140264875529
76.975026396171955 2.2509777004548552 53.073313036015342
73.831430912841739 2.2821280559222532 54.427557740774574
70.830360917236959 -6.4743551179859278 54.651659912914681
72.080004519773127 -6.4795637974562847 54.723360040274891
72.122487513099742 2.2926697655093888 54.620196374728657
69.603636099836677 -6.4713402459106835 54.402853513018208
68.424789391998374 -6.4705803902531684 53.982014399843671
67.22814315815377 2.2997949281531684 53.210564340873361
67.317832050523236 -6.4720911578205307 53.397703373361608
65.883445324829381 2.293698671981808 52.138437139027374
65.407790020120757 -6.4817558495998977 51.789334423351477
66.305296287861424 -6.4758417830036272 52.661815308901986
64.773743110631102 2.2836217983860903 50.824600917633447
63.290947194284108 -6.5240356566707618 47.322469468270015
63.226494596948804 2.2340501252493823 45.972252559391265
63.184011603622196 -6.5381834377162882 46.075416224937499
63.255644682260495 -6.5532255792641525 44.825848456472215
63.925191653784154 -6.5847561752698294 42.420453187660165
63.846759022546472 2.1914600850256765 42.606153758942973
65.245345852174594 -6.6160729963492404 40.301156962577281
65.708041036673194 2.1486654349588123 39.73370993215773
64.509473240648205 -6.6006027064584352 41.313596026381028
64.635928848706726 2.1696699177055749 41.078269500322357
68.199146848143698 -6.6571531866730904 38.024398812424678
67.02188950675523 2.1292538597187183 38.624146255465639
68.526983373717172 2.1121811944101472 37.79222045611921
69.365625138690149 -6.6681398823670968 37.5705338684811
70.584826632804095 -6.6773754229383009 37.287285014556616
71.831945396500856 -6.6846717683014827 37.180426582298558
71.874428389827472 2.0875617946641851 37.077262916752318
73.588138153872762 2.0809611588729302 37.221705260535003
75.487160524275623 -6.6936551755045972 37.921772222729778
76.768772744773429 2.0804366320204046 38.486894950607621
75.240755759817063 2.0785552908999372 37.69768007864576
77.606653628412573 -6.6883937827541367 39.241971313671471
78.113470578097832 2.086532888191766 39.559022152453608
79.223172792296111 2.0966097617874837 40.872858373847535
79.268365832397819 -6.6745225639792576 41.105767819454762
78.504159896153226 -6.6824797161578697 40.114452199221986
80.337671469481222 -6.6531652875219542 43.362166139193398
80.57767428734752 2.1270183104006413 44.016350484208751
80.621002721989896 -6.6401999090870021 44.581317154303441
93.504036756303066 44.559537950381127 1.8593595939801011
93.114690964644183 1.7712906336158061 2.0038478766439525
93.329676966278043 44.556274227122678 1.5100363287267
93.008598090998561 1.8756388132862045 1.8963704996042088
92.885998223105929 1.9971673098600307 1.8084766997809401
93.021018302948249 44.554957247398761 1.2709444203524751
92.834692611413658 44.55512738506723 1.2086823272958367
94.43424071053613 45.470459247124602 66.948596668693696
94.446606909141309 45.320609339268572 66.963087222907419
93.528788153033872 44.56170984714133 2.0542334283949746
93.507742017048997 44.757022132352851 2.0522474765845966
94.396062157367084 45.615728728534876 66.909086124213019
93.443763070246462 44.942757813546116 2.050980567188593
94.333183936142177 45.752138588768908 66.84570784390948
93.340058852416604 45.10960780991519 2.0504961848669803
93.201835863970473 45.249203412916053 2.0508185541259842
94.018176462150535 46.070076679008586 66.534213608308761
93.036020572479856 45.35454937213332 2.0519315207770452
93.699057461277192 46.182281241538504 66.222110192544989
6.4694146300915945 2.5000860283478543 2.9864901297908637
6.4269355540982929 2.6126581494168226 2.9418256130453533
6.3464043798926033 2.6392703584047714 2.9426531893637096
6.2780339542820158 2.6894649733543496 2.9430330911760842
6.2027000118618876 2.839120448377451 2.9423485842703694
6.2285168071741106 2.7583286061314949 2.9429281315414926
6.3106934028956854 2.3920572033418037 3.070679949483504
6.1673142840908968 2.4660153859006977 3.0718426447535441
5.9709018580501478 2.3845984920694541 3.2696898609682497
6.0980037749608371 2.1014940704681533 3.7869500514301402
6.2169556971726765 2.0946048907218584 3.514204120946244
6.2830962301037925 2.0356868585231149 3.785102225437087
6.3607313454369354 2.1835156592268459 3.2665286411424121
6.1498980026771992 2.2531872697014821 3.2686952646208987
6.0537989919953086 2.5806579343511657 3.0721073897211495
5.9849634547136272 2.2142717098788585 3.5160854011719618
5.9812590645397252 2.724762968344975 3.0714482696069516
5.7939640878548468 2.3464338750189855 3.7883854277879863
5.9321881559599383 2.206837181637666 3.7880630560109583
5.6867245481805586 2.8894474591862034 3.4028452308761032
5.6262840484493033 2.6990214715792633 3.7866340694428127
5.6902627210754906 2.5132841708357194 3.7879010016511137
5.6839197710211398 2.6329340960787007 3.5154472889493933
5.8012918056626699 2.3997672985046687 3.5165137676403053
5.7736750794533478 2.776401649948709 3.2678977975728021
5.8412642699776924 2.5648858699628234 3.2694150727283082
92.435270493451071 2.4491267808801247 1.6846246414831714
83.181989620211198 30.251685576302673 1.490405944468389
82.063560799755095 32.26758038866241 1.4826512766369493
79.011845532641161 35.707476765698587 1.4855844034112462
80.66356359623245 34.099189092811507 1.4810326496342896
77.143604518156593 37.058167071353232 1.4962095865214589
72.920613651478845 38.877695506645253 1.5346496586070346
70.6558593188023 39.307756314810916 1.5616453760349327
68.35268302514217 39.403484413399489 1.5930933261405424
66.060165386130805 39.16283695334068 1.6283233878244459
63.827174141366584 38.59094688203502 1.6665845523059044
6.673947987173749 44.986404465708766 2.3999636006387912
61.701292742278895 37.700001145454699 1.7070614970485103
7.4086641953019807 45.756279882795027 68.166722477503527
7.1000729365142918 2.8237511996960345 68.643775610643701
6.7290676586013909 3.0755002167542331 68.393152312309013
6.9626655552590133 2.8863600692010278 68.582314045673485
6.9136801385025404 45.755133015358908 67.865366440641523
6.7393234443748842 45.751869259990421 67.516041719897558
7.6047847080816195 46.135156655568842 68.09462453267875
94.247459807974224 45.875678868910477 66.760330139746003
94.141417207514621 45.982705442529983 66.655470261368407
7.6028213018903248 46.437537480934132 67.847643387152473
7.5986684293620561 46.602817177757856 67.493941392993776
93.833425153061143 46.151635079763324 66.353250559694487
67.109151404650788 -6.6446389894218765 38.639646357697927
73.081588999037024 -6.6898804477718361 37.252126709658775
74.308313816437305 -6.6928953198470804 37.500933109555248
64.643584083876164 -6.4897130017785063 50.798018803118687
64.028239182018922 -6.4995512082521483 49.708054252215454
63.574278446792782 -6.5110702782358114 48.541620483380051
79.883710734255061 -6.6646843575056138 42.195732370357995
80.727938312651787 -6.6260521280414775 45.828370397635958
66.117825726571013 -6.6308520318195097 39.403751913921852
76.594117865750775 -6.6921444079372332 38.506083249211855
73.327123283469888 -6.486860142819463 54.61650160801684
63.504392115159355 -6.5688558717751899 43.599204944317115
74.546324777583862 -6.4960956833906671 54.333252754092356
79.402476675625792 -6.5636328592993269 50.590190596192429
75.712803068130313 -6.5070823790846752 53.879387810148771
78.666604064099403 -6.548162569408527 51.602629659996175
92.652973693684999 45.419052440362265 1.8613444777678558
93.188817395135317 44.555346028393032 1.3731033087983386
92.907733806776321 44.597413720602894 1.2281008766379011
92.639188861418774 44.555847883115334 1.1894390468612344
92.881916695981715 44.678205198413956 1.2275213380886254
92.640445172622066 44.751307148346385 1.2091353197338739
92.683496079206094 44.823878226598666 1.2286238529596416
92.832396738905686 44.747071616521126 1.2274163856218681
93.060154076126992 44.858792109312255 1.3475211028548599
93.132693739625495 44.714686553761929 1.3481802327993608
92.644543565425693 45.105024734591197 1.3743726862958963
92.764026885897636 44.797265705724286 1.2277962854844831
93.148540435795582 45.059386073006081 1.5380440245242351
93.278180491517247 44.879100800411621 1.5383187532566549
93.436538361712422 44.557695276407713 1.6748770029299975
93.34576907063564 44.667582931973762 1.5398360614752162
93.442440928300925 44.816769126314689 1.781327810223607
92.946639928730065 44.973433501696697 1.3477858451527522
93.325070263402665 45.049936701346184 1.7802613030745107
92.64718014812226 45.245548536321699 1.5116280754832614
92.65003796894095 45.352005961074674 1.6767113110409293
92.803260285809415 45.047391425441347 1.3489485508598487
92.969546420611294 45.190799742237921 1.5390385621528435
92.850926393222494 45.420356859054834 2.0537793679343146
92.758710983540539 45.260470761891575 1.541205222152876
92.909402611994494 45.35509738285328 1.7825710231171916
93.141392299105036 45.235431942514936 1.7806897629035667
92.655840116915044 45.443326637954158 2.0562693532054279
93.561255916858869 46.191970731539136 66.087976474819044
5.6052362399181881 2.8943321965320807 3.7846481595246222
5.6244694664850972 2.8919400029530573 3.589154953071132
5.8091546078858833 45.001053298767289 3.289462564902685
5.8283878344527924 44.998661105188269 3.0939693584491947
5.78887974252177 2.8869795511047065 3.2350612773718099
5.9258125884755559 2.884660030108539 3.0942165073182974
5.9927981104894652 44.993700653339914 2.7398756827498731
6.2751460275503073 2.8809181189442028 2.9198897378183246
6.0906566830549744 2.8826052069760633 2.987373484434694
6.2945750510226697 44.989326309211272 2.4921878898127572
6.6752042983770448 45.181863730939824 2.4196598735114305
6.6770195336983775 45.36803295607195 2.482352328652512
92.642260407943382 44.937476373478511 1.2718277748749551
6.6819392738772514 45.676105118915139 2.722152629260818
75.713739299216655 25.095400409417721 1.6562939826151464
75.236175115654589 26.535904060106315 1.6462047561735607
75.941683272270154 24.638332849392043 2.7083427303686354
75.853179787346875 25.134448249999021 2.7037937120167097
76.401709866404303 23.607275971082124 3.7028027927193659
76.093359302077914 25.775433280233319 3.6818133056197362
76.23372092015515 25.224775825646422 3.6862667371628093
76.833252248217576 25.361134767572903 4.5466152261868045
76.933835827600348 24.797279137837634 4.5517854338812374
76.326870172075331 24.702625413037971 3.6910544592414745
77.815995986589456 23.618674330707766 5.2544361107965951
75.721968205540264 26.768403404018496 3.6754552391271282
75.366941468064596 26.601110827862435 2.6935212946636327
75.719812865428167 25.657650084022364 2.6995623794991381
74.845790809466251 27.546048544846428 2.6898424297579662
77.616917517953368 25.535600479640188 5.23483884087028
77.727307391764811 24.916792650987631 5.2405128749764156
78.759174326558821 23.619729908178538 5.7325968176597915
78.661167431477821 25.054218120911337 5.7172109380580078
74.576814402320224 27.929006698670648 2.6891683282378143
78.35535835320519 26.459184231514328 5.7051085712152201
78.539179482422952 25.738033083572528 5.7109408535253277
77.450566794986003 26.188194645338896 5.2295610775567116
80.846715818988827 23.612250688128782 5.9562758234842299
79.789371389682941 23.617546393689263 5.9711648807410693
77.010428984880463 27.364980058066784 5.2220259712332595
76.280622342305008 27.028055199180969 4.5349402245216934
76.681672607295212 25.955775225237247 4.5418061795685203
74.460135120372541 27.840113670838115 1.6419295312723345
73.421912638341638 28.947046312484268 1.6436681145450165
79.681152908248379 25.201570453398404 5.9541750551942556
80.727972794744176 25.350286329413642 5.9376341479665555
74.21227063432778 28.374881056110713 2.6891099584545453
75.173470624661121 27.762926503076727 3.6715833219281393
79.546446147917834 25.956669359421767 5.9472513805519043
80.580169382682925 26.178802742475501 5.9300372807834396
74.506704584249235 28.635253334119234 3.67081242538173
81.740795996383326 25.491723760158397 5.6685494152996281
83.580558787619793 23.58155568606664 4.4720139576257516
74.968294696675088 29.044015945728521 4.5299265377846556
75.382604572192577 28.537261848337344 4.5299930010219622
74.890376373086895 28.165980359544925 3.6708738940082073
76.024894477848591 29.021273643509179 5.2165965377298349
76.360392153124394 28.54360650500649 5.2174373365827886
75.688311271676582 28.102014256236874 4.5307590880968931
83.434404748553732 25.720777298114072 4.4490693023201828
82.660760704963053 25.617659859582947 5.1625588909497679
79.768147288763743 28.628139307313941 5.9128822841714683
80.35744677329626 27.052553184429044 5.9229709138469318
79.34345996020545 26.752995162110683 5.9408111695101473
78.806382947832162 28.188964648188747 5.9316164738195738
73.519729044897758 29.05604542273953 2.6909385590434471
72.61943527404128 29.713866606331845 2.6959777228499058
81.580280457420315 26.391522409892406 5.6602988834432448
78.013176125924446 29.627180729184964 5.9260172168065246
77.868977460052349 27.759593896992925 5.6967819609495081
77.150659623885872 29.062038634096485 5.6917111724916865
84.016763001551283 25.795084363885053 3.5695456980594411
84.16889150537844 23.56837407132765 3.5934287714055335
80.698390493309148 29.05159348359668 5.6416679669152678
81.338392797642001 27.340449179763841 5.6526245680981795
76.779907200693515 29.58988459394596 5.6907822005649322
76.277455375820949 30.204453468906237 5.6907015290098215
82.488647090756615 26.582465643325595 5.1537123086668419
82.229282332250989 27.599949428959359 5.1454835685657416
77.603779184910138 30.210053049207296 5.924991327230738
74.70638585002726 30.427035127743373 5.218804561194867
75.570199462832221 29.577415730653598 5.2165236919758664
74.181188123785716 29.818185874966481 4.5320048984650265
83.82740208107964 26.856549270361821 3.5598128783126408
83.252484848021624 26.74053695394478 4.4397188739486459
72.170046359652531 29.804945721272212 1.6513392856716895
70.763076610682219 30.373696267996007 1.6645843003895067
84.373992715420457 25.836262162716203 2.5751029763731252
84.485334435636872 25.841916376631634 1.5235345111129799
72.830283806354089 30.044502383099111 3.6780405925438577
72.436336595922199 30.271475543279536 3.6809573336599852
82.978349007470968 27.815974447612909 4.4310214171522615
81.543050329824666 29.434717918504418 5.1337352749595588
73.777821053521336 29.352160480110264 3.6727370088433391
83.995024874279522 28.094471580402402 1.5041311845282164
72.245129692664221 29.92952250936526 2.6987490478279548
72.732555407913821 30.810929369166494 4.5408818036958785
70.812603939001036 30.508604296072679 2.7122346369319894
73.157970604748584 30.565824965340752 4.5377320879444065
78.448624425411964 30.845734634170267 5.9056128731957038
79.753190046165912 30.76541754058017 5.6349955719729374
78.897822442407914 30.206192087443259 5.9067385462653759
83.88764414466857 28.070634818642795 2.5558562271157985
84.179992712325827 26.923760374504429 2.5651313783359884
83.542061602637744 27.975969700068905 3.5507596179600363
79.265340810768123 31.459984807828505 5.6337730951716463
71.856356147366768 30.551387205503598 3.6858856615668403
71.694067479606588 30.195478648208216 2.7034316333068564
70.928639025935809 30.880941200149934 3.6951506197364847
74.081985151453722 32.050025329170431 5.7001677291819295
75.322893482965355 31.143324704920527 5.693222077369251
77.839840629905893 31.590347650764873 5.9055153016962096
77.048946464243301 30.888685495789908 5.9249023109997516
73.58344617776541 31.247540067164564 5.2250899026778033
73.11657198776058 31.51653140526912 5.2285465728443263
72.429224834426691 31.848258048353216 5.2343872695468976
83.114145737603252 30.138729650246439 2.5426138923447628
69.683626230367537 30.731843180996282 2.7255884552348597
79.297536693220195 32.88420809062815 5.1251564482756873
80.006464894956679 32.017106354246884 5.1252700763347878
75.99488391257438 31.92542928838045 5.9276855066935337
74.624609507509263 32.926648345449607 5.9353553219338542
76.683293305166359 32.727893680033681 5.9085690872971064
80.628920587561993 32.484722108319097 4.4096566775584014
80.529555493317162 31.272360332690251 5.1265809146908881
69.289147784993247 30.766205603742858 2.7307646688210312
69.266790387852978 30.626700713701684 1.6827838917458058
82.253029451826336 29.755246702771366 4.4186039919463624
81.181815554771134 31.697558146492522 4.4110420195346087
74.054908740404443 33.254884408568607 5.9395732960901313
69.740414590269637 31.115898162777157 3.7092051885753996
71.104438695187099 31.469076199875815 4.5562086613176698
71.329775572337638 32.238820764494946 5.2453672401602489
72.106249692162379 31.113196251825979 4.5462038041479351
69.325237837720636 31.152060889228675 3.7146530298971818
82.787076194166644 29.994553512075925 3.5378343787635145
81.672048791156158 32.016297567453222 3.5299632264797651
81.971764727938051 32.210060794387985 2.5345497623312876
78.604182820047697 32.268663035696974 5.6336670650788641
79.87962064748649 33.401215113756663 4.4095364391478142
73.566063608754376 32.347275225228159 5.7039875420259705
72.806511028745774 32.713851741327517 5.7104417751204934
75.17979817169919 33.826458124596726 5.9169845191254637
68.643497643080849 31.161488904008632 3.7241826854933615
77.950733753345787 34.208881895258507 5.1287126152380553
73.216179912757838 33.659675401606194 5.94670029561677
69.821303115235281 31.722796724698156 4.5713859055130062
81.382152861447764 33.049515800623084 2.5330722266423851
81.096541384140238 32.835656938082828 3.5285212056716513
80.316596656804961 33.789629426685742 3.528396086567648
77.348121435335003 33.504078342238984 5.6369837258489381
75.715266936997267 34.697164532443566 5.6461231875106179
75.036392598308993 35.088301285265594 5.6511494681941752
69.372964946235754 31.761849528060914 4.5772688630084097
78.834863634853491 35.247015482414838 3.5323085392874067
74.554703057416447 34.186608710357483 5.9216126384967858
68.641397222115302 30.775162203537604 2.73981921873981
67.701096108227404 31.072154361938811 3.7385528320689279
70.035436885947433 33.453144744938456 5.7409814414675022
71.591558123421521 33.145444514700181 5.7225752666510763
69.92158731190446 32.517268551522648 5.2620236383277366
72.162384234843699 35.153673056132355 5.9441336099764399
73.634427614237524 34.630753796763869 5.9294325975987752
71.874579208856176 34.136255976544923 5.9600986146769461
78.456103967116547 34.801336746587303 4.4132952285662244
80.583073412687412 34.026885266708717 2.5329441226125851
66.593536181360008 30.40747392735107 2.7730751398195399
67.745979518619379 30.690284027760839 2.753472905648449
67.751148814457963 30.552133774909326 1.7050870598183796
74.400331770677866 36.424765171085355 5.1530081118704238
75.471988888169506 35.907555734725484 5.1439018499443669
74.036940907492095 35.570660848610217 5.6596421937282795
76.199910579552295 35.488160423950276 5.1385124265832927
70.156243184942525 34.476030939846396 5.9804235150230909
66.287030424428423 30.153478803594773 1.7304508473227393
76.908638035965396 36.654457047538948 3.5430901084150617
76.605558640098337 36.153481124325992 4.423653191915017
69.429551256440021 32.56012758072491 5.2684799875065167
69.491715302941486 33.500505904900642 5.7481159921438625
67.619095657666861 31.675561906652554 4.6030776342767545
68.636770384315639 31.772028815779667 4.5875597259915901
75.83617795554548 36.596763369380007 4.4293495696911434
74.703472707994479 37.143432599683742 4.43897462210822
77.091529382342145 36.961978059491429 2.5479985275498578
79.064998441335035 35.520012428629251 2.536952577881959
66.309295383152275 31.354139146923188 4.6253563642694138
67.364709401681495 33.395861357964392 5.7794155835753047
68.598896704147791 33.512851716091177 5.7605962067613721
68.621609712341495 32.571298686823013 5.2797737650640197
76.107789365009666 37.115870536238283 3.5490194608265329
72.438243037043918 36.138567943064004 5.6756081278760426
70.276972531439611 35.526484096619157 5.9664347296305715
66.488173158412508 30.774507957116207 3.7591837176911889
66.25526966218257 30.284386724060436 2.779297375282324
65.631537967533149 30.004306274684474 2.79139165076282
72.686130256994545 37.033702322770083 5.1701275669354185
64.886720306303204 29.567500220381646 2.8070304958938559
64.942890814152349 29.449378869386866 1.7576893136375615
69.618192787278559 35.583868476244255 5.9750790269179257
69.555838787467479 34.528330869453967 5.988301824334382
69.675160681047032 36.605776832365258 5.7092159347416747
66.067297935848131 32.112681381040446 5.3212540800049446
67.504751387733165 32.465429820004914 5.2968040665233573
75.063097016460716 38.017687072768027 2.5643376889260421
75.098669544908319 38.12246534439528 1.5126816730255386
76.271039058022609 37.434703785825469 2.5540733551301305
67.207106453648066 34.412776488152936 6.0228642086500885
68.53645363548145 35.59882701381504 5.9902000527686807
68.56995188254848 34.541962686465467 6.0020829999589047
70.4905774825869 37.467840506011406 5.1960970945277039
65.924841885818722 31.214246632940188 4.632428172839183
65.645379946780082 31.959155782045581 5.3290150357692587
66.132159937721099 30.644960688876754 3.7657324231850784
68.500346530647704 36.622021409276243 5.7256380158399462
70.390623255883185 36.543457029436304 5.6998278394655753
65.77624446982135 33.006054682844358 5.8064341934125476
67.041100042228123 35.457079419605869 6.0130018073157814
70.571034182991241 38.245921277729352 4.4845177385869484
72.891646314151188 37.787052452421868 4.4570690021358219
65.215948535401708 30.8959214546013 4.6461737926908269
73.130909781293866 38.704061292730017 2.5836341109792547
74.928765542739569 37.684894953458191 3.559038091548306
64.691790387221715 29.890455345077708 3.7949209206031442
64.369428468918557 30.399472828265619 4.6639480490116263
65.475696984941266 30.350182710644766 3.7784613626197077
69.760188194148725 38.31654943725772 4.4951574270440045
63.781579372733859 28.472755861676585 1.7855288458666752
66.876341503437217 36.468077941362083 5.7504015080237938
70.627315305429448 38.832473180621662 3.6064438766240494
73.042831888398098 38.354840826638309 3.5778725590570071
64.45029132398156 32.450352803328116 5.8316804648426093
65.310003333407252 32.836400454822339 5.8150104558915494
64.867395476745912 31.609807279869337 5.3441003297190566
63.688557625305599 29.08489279255414 3.818525202115576
69.723422703938297 37.534665819561063 5.2061634461880733
68.463738191320729 37.552085068045237 5.2237718701058471
68.428750006875788 38.334960537640491 4.5137688597766044
69.783307900136379 38.905991417061273 3.6175186812547273
65.116506085221545 34.9847870215266 6.0457377249672701
63.447339004092647 28.843913631011489 3.8247535348397901
63.933508754660487 28.802101883838787 2.8294578808253772
63.70431476955541 28.573139736498423 2.83537568360873
62.857393773153611 27.269274175262591 1.8126677709137857
70.656146455086571 39.193408378075446 2.6129062184361573
64.551602218398784 34.779234598485665 6.0561288034471659
65.453049547511355 33.982337002477962 6.0526993778387652
64.938207814252777 33.794996057501066 6.0621696474749402
63.988873863495272 33.368704777052706 6.0805774404368673
69.791440758824734 39.26873026456154 2.6242526114486302
63.509970129041349 34.311494994941981 6.0763263071698947
66.722404186252277 37.387020108822391 5.2503244376442915
64.481206774993979 36.837036664032624 5.2884455110028661
64.786155572154058 35.955152732727882 5.7859539850267154
63.286067690185803 29.529568356513735 4.6894376210413773
66.481624534553831 38.743551160070183 3.6661040831503588
68.397415345583141 38.925153790382836 3.6368913213743288
62.951985679751097 28.270893561361568 3.8384575083321102
63.23366178556379 28.02868818357037 2.8483963748384045
62.456994360236983 27.554275007078502 3.8538352837156458
64.172651108486804 35.731913592732056 5.7972390706637853
62.109828109580846 30.793307700719112 5.8841486802534053
62.749428992028697 30.110291664465962 5.3915806166642462
63.423676155559434 31.848282855043884 5.853236187260535
63.938375184572656 31.064977666122104 5.3636068082980497
63.041397094003536 35.223933706575764 5.8191743190435652
66.408777253851866 39.102308436123387 2.6740296335752793
68.371558572509656 39.288364052868317 2.6441003572456325
63.025581452043667 29.269343373515639 4.6961634178624525
62.206567232183652 26.219306618406677 2.884074487466715
62.763351955475535 27.347801258226525 2.8630073850417057
61.793919696137301 30.477715982717342 5.8923054883100976
61.690522853483387 34.431700976909625 5.8475384423280481
66.588232403847798 38.160493620726655 4.541833820489221
64.219381815219066 37.579184496701785 4.5821261773367263
63.524089712471266 37.326183642666948 4.5949157168830288
62.463555204475441 29.82470245994843 5.3989619490765861
61.876504302931586 29.145606617203395 5.4152027507048039
61.289880755876844 28.29632965375518 5.4334272282813476
62.490660442475594 28.650553342963594 4.7109620149625915
62.242017022773339 36.750477937013798 4.6197753937160408
63.823385856457634 36.597668861490412 5.3005458091141202
61.404433857216503 31.538921193321855 6.1385151349784879
61.055595631676603 31.190435094244666 6.1475221680051639
60.674243369459738 32.303805854695227 6.139897256813919
62.266110639083465 33.58202721421388 6.1024433959653619
62.855240630684378 32.703876589273122 6.1043801657564289
62.610397593899926 36.052986513193858 5.3240659060894835
61.161928509542854 35.203520141673778 5.3544791945052665
62.213559905391513 25.895208275141954 1.8378369214671459
64.015896637431368 38.138469027480085 3.7080442450144466
60.29149007077924 31.921436421675072 6.1497800091275829
60.339251440227294 30.361770920805167 6.1673399105766222
61.870997265768764 26.366562811712601 3.8760078106060463
61.145198650488112 29.72728043130439 5.9102524005404051
60.496948882202112 28.788785275892966 5.9303913987873784
63.292170934312395 37.87511954784091 3.7213568327499402
63.141097323334982 38.212577108190935 2.7306375440109512
63.882576420444835 38.482386619259678 2.7169983920038479
61.957661170706345 37.275870021941643 3.7472332448866554
59.961696888782342 33.043506068447556 5.8882147006981631
61.901210634926343 25.221902046589889 2.9000536917605477
61.768377038494954 24.441493878207154 2.9110563283368216
61.880171167663882 24.414807670412934 1.8598595827848217
59.546013761799522 32.628238908010445 5.8989477173356253
61.956132910158757 27.876698152746187 4.7275680346754738
61.323333201599027 26.594118381208496 4.7515115260137755
61.773859647836971 37.598630036676006 2.757148572981547
61.549615988130142 25.316818460965791 3.8928255504875651
58.751731118334845 34.279361657465302 4.6980201701973208
60.711044350281725 35.852627248500255 4.6519209908640864
60.976284505153842 25.460529127453935 4.7696725016422636
61.872822016912494 22.897295324119323 1.8777059083564807
60.825309802497415 24.573564673509757 4.782177487325705
58.280629162289074 33.808727745264896 4.7101841509501474
59.308200675201206 33.715032734201543 5.3980941768558708
57.947193120579406 32.210959562070499 5.4349242622376952
58.862482930431064 33.26976473345097 5.4096026494607781
59.505496905174489 31.012201237400216 6.1715246141640998
59.729517016904992 27.233336524153042 5.9594289262978233
59.308631674882591 25.858575636448528 5.9814536843544053
60.595405362615189 26.888751986417461 5.4597042678338017
60.214532435356006 25.644682674414842 5.4796352296325956
57.313206114223163 32.689616778451061 4.7369480153753951
58.720073442523315 29.875115316974917 6.1959251422960229
59.623424133550067 29.325443570729888 6.1895782947641109
58.692390757917714 31.640775135228289 5.9225632469537963
61.739285130449041 23.147502629929246 2.9265967414087273
62.191856084649224 21.413627062245741 1.8905414398827749
59.727838640192559 36.50898458407292 1.7488914615916413
60.141191262569073 36.641136742610371 2.7914294870788514
57.948870887437877 35.043290025410705 1.791182838895288
60.364078391895561 36.341301402241392 3.7806934538979959
58.324633780687606 34.703690562396211 3.8286780102226179
61.409811114258936 24.49545822289441 3.9044055639837154
61.379192376872673 23.133563992547689 3.9207614727563995
59.125538673803646 24.782908315400306 5.9966190973388942
56.402303942968715 33.334147137832574 1.8330343839428314
57.834264207712657 34.213810828740364 3.8413394550723057
58.051725457293685 34.96336503312601 2.840590900630569
57.549331264416828 34.461471631609413 2.8535628360673027
56.827273482523225 33.048931574195166 3.8691979234284641
56.829563847685925 28.359117555900603 5.9872722273523191
57.839393103113764 30.405857003379506 5.9490631139059822
62.085720980477674 21.385808511600914 2.9422954233476264
61.886162883966357 22.114720191405688 2.9365949292229017
58.77599293850939 27.607849705222247 6.2216427857520777
58.311232644859857 26.089777148755843 6.2459635080331672
58.10905464475249 24.90197810976715 6.2627098035608881
56.517643528909943 33.268020497241196 2.8821045789196704
55.949783525183889 28.692214379548172 5.5043082315877285
57.032565882099767 30.886819908676603 5.4633387363343777
60.792246822300427 23.102892156177461 4.7998397688609158
61.743806137660798 21.279424256377293 3.9372839699664341
61.533778600996968 22.046586114312969 3.9312843025997832
57.790246871180472 27.990522639674875 6.2311072254676763
60.048843612689218 24.671273503439419 5.4933589665734166
55.486705927805268 31.775492462154073 2.9141324535924364
55.821017378947374 31.592136841218032 3.9004590132440886
60.195763273750117 21.769073719037259 5.5252133624069586
60.01256002327181 23.057269753474454 5.5127425839305975
62.62002430545671 20.167581218057528 2.948983547322571
61.185982500955383 21.100656195517907 4.8176819859875888
60.959182144369883 21.929094745663612 4.8112030551605329
56.034821482125956 25.134718701595226 6.0362089118975106
56.275744564810118 26.550136431341858 6.0162534906475855
57.280299185590351 26.324851527466876 6.2577925913355941
54.629756707032094 29.17766249377625 3.9455330605133088
56.346482877211599 31.290058698167886 4.7669809079819245
55.202028165626281 28.970451910138269 4.8102839436829914
62.306146538445063 19.9972687028324 3.9443230810359808
55.355951819441863 26.752540006116767 5.5353833108176929
62.822350133039961 20.033178695594419 1.8977660675524755
54.266226200339702 29.301802265856253 2.9603119998906444
54.13256650403288 29.335657408659436 1.9118781643898162
55.121101495996186 31.417990647963709 1.8735539998264548
59.085442333683844 22.99934871058138 6.018039035760399
59.287890764607248 21.575823998751723 6.0318199171271196
58.288329630522753 21.360576701027334 6.3015800907185966
58.064778505891688 22.932495461785713 6.2863626145758742
60.444669932838309 20.859897414088149 5.5323236749278024
54.57437223717325 26.920299151629578 4.8431289894063516
57.058461101934604 25.021565515660711 6.2761671300422881
57.009881164776573 22.860593671396352 6.3021196452097961
55.097621212107079 25.234864143056956 5.5567804552315367
57.255169356729922 21.135840327943015 6.3188166637181791
61.111109328826913 19.3403941462049 5.5406658293363398
59.562948147359215 20.571135304819645 6.0396771644032778
63.734834515672816 18.820498054546533 1.8990418171109309
53.457771505554035 27.131527548435347 1.9471900271580915
55.982058391885467 22.787822157757208 6.0643943664556588
53.692222141777599 25.373938346365559 4.0032621823988102
53.976430005431048 27.043663175848657 3.9797214087807977
62.907468415100219 19.078607130420732 3.9465611008960764
63.397247694048886 18.500653027866811 3.9463928721717574
63.191364123776985 19.29472338244021 2.951109990153018
63.656720962449576 18.745583827868451 2.950950204466801
57.58843035077669 19.918553025696816 6.3283365595152707
56.248452631887929 20.914676421786293 6.0825279129428846
63.883686204520203 18.514337008770362 2.9504445744846231
54.301327509828106 25.316178571538522 4.8657448850775769
54.241531059664801 22.656394940213868 4.897687996522019
53.305695677264083 25.404786269826896 3.0194570342837084
53.5968781645958 27.115463152239013 2.9953388366255678
62.442587473281861 18.724056154061635 4.8277001100772567
61.79323985443849 19.716092658252862 4.8252832968657522
62.971489210682606 18.099937971319683 4.8275184251125012
64.682233513513182 17.843054107147779 2.9470015088371331
55.041048717402667 22.71841172760535 5.5870021837337571
59.405280936594622 18.396985724826614 6.3204358978510822
58.592059711096503 20.251155304738248 6.3102564135394719
55.326688137850212 20.709937314241976 5.6064458331113425
63.229442389975802 17.837116386467368 4.8269437870360612
65.569989032564976 17.295182203744716 2.9408541355027729
64.886630488724421 17.832289857131464 1.8943091923581652
53.241928154949719 22.568321369447855 3.0535220141914552
53.099935126590147 22.547383767249602 2.0058466372357215
53.111098937172457 24.852578062949735 1.9787369744988912
60.2993991859136 18.892005048767253 6.0488956683116637
61.086898106142783 17.688910443729156 6.051826649128949
61.728319291516122 16.932011546638169 6.0516063678411047
