# XYZ point cloud file
34.76181844114582 15.515643624672027 14.298528698652621
41.457663307323678 18.311816641488257 16.623355640867302
49.353819800132449 15.584085826807971 21.264502253149491
48.312830619320117 15.784047555998685 19.641557725037138
50.178915567115752 14.156213862742447 21.305958548456246
31.586698612417241 13.128611677390758 14.329678727635251
32.514440795895077 11.827009720856696 13.455905456430809
37.554272987817484 18.863968548839427 16.577297648418618
50.825819599441274 12.639289223973055 21.348076510380125
31.725071974414586 10.393377698643528 13.483976240364738
31.465607341963945 9.6157850885119664 13.500614765635522
47.300437531094751 16.973229171838671 19.604306969853905
40.18204164004306 18.6529816097894 16.604415633631319
36.240443481975959 18.73071321624224 16.56951511624905
34.952228404916774 18.440109249044795 16.565753867478513
31.001065215225175 12.315417027339505 14.344446150384289
33.029341230747313 14.514813084359318 14.308228097181813
31.301781124392015 8.8126141199699308 13.518673295158283
38.874556214104743 18.837931461334197 16.588987974484517
38.224859942304086 19.992023151347141 17.944902295433224
39.672109196032437 19.875822320592395 17.959837567810194
48.362563468347375 16.902083403374284 21.224312148707824
47.219604385136847 18.090987146059732 21.185974324808306
33.708411651577251 17.996393848230731 16.566068750794585
42.472072496879505 19.12697172383476 18.001410506252132
41.094763422468056 19.586062973333014 17.978765666001721
50.228332095758276 15.185907402877437 22.966420569152078
51.946120636765272 10.370716739500244 23.09730393672303
52.078700801650541 11.32362563505432 24.81132335722706
52.360006257043693 9.5954995012234257 24.855488142929865
36.774116199376493 19.932973161973347 17.934177556084627
44.88433715515805 18.944061103235114 19.536386622666519
46.152024680205727 18.031712541068647 19.569078691633585
30.517731346246499 11.437599233034341 14.361633982126872
30.143747196710933 10.507958866799179 14.380991602828029
40.557548621642269 20.683050711730829 19.45806877096215
49.283538456943347 16.61419944140464 22.923951365413661
33.676918950432253 16.573347223000606 15.352280509023924
32.52713153356239 17.406037170964218 16.570455185181451
30.885195603702847 14.474549724975468 15.379669170131315
30.145490090435658 13.568264016116622 15.395398016718959
35.341034935206125 19.699531302795517 17.927819807740768
51.569401610487866 12.041237783106347 23.053733470602289
43.515863859909246 19.696972862876187 19.506707462621527
39.010850286855629 20.901838428970343 19.439818519567474
29.884565946458899 9.5400523269581328 14.402236728255664
32.663878912174766 15.988126729293629 15.357952083334478
31.728759096449906 15.285110390919858 15.36712623006566
48.17340482420687 17.918189511563156 22.883104270241731
50.904261906782871 14.615732827758274 24.721839444204591
51.591080445749235 13.005210743425872 24.76655616610558
50.99400883043397 13.654141114682686 23.009892587308794
42.066555832508769 20.27946706224413 19.480474002679905
30.986100364483399 8.0037155202540617 13.669316451522651
29.743965114455101 8.5479934627583933 14.425059550357631
52.513576864958026 8.768765588411636 26.638426251125956
52.501510703514072 7.8649046888770453 25.742504663577755
29.520427446588428 12.579470317734714 15.414083360664435
29.019124149087943 11.52258637711903 15.435452767854699
52.335859526276323 10.523534652620743 26.594484687743055
37.449010901878374 20.932639205596224 19.42598935677163
35.894807996870973 20.775003849697114 19.416782964114802
44.547206391736466 20.014301969236602 21.117056465877667
46.914118900352577 19.078863684797682 22.844474893074832
45.524043819391821 20.079295075748682 22.808626576192239
45.941605163356471 19.133460106082325 21.150047798525712
51.355253177723711 13.905224784579842 26.504457307380633
33.946511717223466 19.295102900260666 17.925921714586504
31.425612468472075 16.677648982397724 16.578849170553177
48.9758373451266 17.53102877937549 24.635155280494629
28.116189895558477 12.622956922497741 16.64921946618017
50.566661370565356 15.482833309641027 26.459684270749364
50.028254458249251 16.131708050838007 24.677825181962682
43.056736626729375 20.720665428949658 21.087481437668441
52.486145278975599 7.9092784536390628 27.576677274171118
52.240997187234555 7.9578361954488956 29.394350474551537
52.330509820195587 9.6806821752678847 28.376481425050116
30.419918269062322 15.821850329822858 16.591128325542797
49.593593153303388 16.953871117484475 26.415944062526293
27.623409251854021 11.398016016195699 16.674726038221728
28.648889247948702 10.413024116287021 15.459194610942149
32.899523285876299 19.90633596240502 19.41270605408581
32.610884215274424 18.725586431863331 17.928510950832113
41.491935357583202 21.242252241222673 21.06175397556536
39.875616933606281 21.571455829885313 21.040249226694897
28.753053704081697 13.779614094038932 16.62657189734766
29.146150035582941 16.120824041831284 17.962502300180702
29.524714405240438 14.851119962029788 16.607113611443562
34.370904432990201 20.431231732815974 19.412333567083483
44.023448908539379 20.90489547196465 22.77608205159849
51.947867007614065 12.244050843216918 26.549610257712651
28.41512286910439 9.2669636342342834 15.484962686589402
30.193074826463537 17.126789333200545 17.946935595519793
31.353627192979602 17.999284802665191 17.935549792031789
27.281897973233171 10.122653317001051 16.702719684143098
27.096636140818323 8.8154666306500928 16.732792190675898
29.009377059096124 17.333944155253356 19.442350461771888
38.231353995687734 21.703475642943673 21.023280805051897
48.450234425892297 18.296887180790236 26.373874482670217
47.153260967048453 19.492296759415382 26.334089038909369
47.762354491063164 18.793291136682363 24.594451907375468
31.853150311504692 20.264639353198326 21.004658117006699
43.342628070678018 21.585226129556517 24.489881793150651
42.434219569017898 21.54362613629479 22.747315910706792
27.950388419324469 16.185611916452157 19.461260358474831
44.925062867551247 20.83527827832074 24.521281668854986
46.405499585121774 19.900087357453764 24.556308623366732
36.583120992735374 21.636386598690233 21.011096125032253
35.666624410668781 22.087004442687906 22.677475856876853
51.887557878755075 10.539839957752529 30.087947538801743
52.049204364802435 11.408808309098779 28.332316639347312
40.779526327242252 21.986173748214995 22.722747575366974
39.083503071811535 22.226083810317316 22.702735374882355
49.998758021401144 16.216890724882465 28.198818464082933
48.946340908278486 17.61621145341995 28.156148562614881
31.502118608592404 19.207969625568516 19.41789500270221
30.199070045436912 18.346318125326885 19.427824726058802
27.037547519505548 14.918066439571568 19.484278681074684
28.228120485378493 14.996057635879232 17.982022930859294
27.45237250899428 13.768891743348485 18.005212827710587
34.954954707035355 21.37116695726958 21.003872883258918
33.370596105042054 20.911684206837442 21.001716399709828
33.995596539881909 21.710042827697535 22.672596901335432
51.561584008901129 13.090393417470331 28.287549448225832
26.080608324060005 9.6578278820112757 18.093179271383637
26.370729939484065 11.080173077063396 18.061199200932212
37.370876637766628 22.259858233440447 22.687571082066661
47.732858054215058 18.87847381072682 28.115445189495723
29.106205639469202 18.448198491904307 21.025590906097484
51.463281526794319 9.6783358788201372 31.790195763691301
26.830217918938448 12.457221189081245 18.031733827388916
44.176079649457058 21.372978957251227 26.263649319351082
42.539288203842318 22.030825118781124 26.234022278825947
50.874765469934765 14.700915501802733 28.242832726324842
27.916764133537217 17.305291636119804 21.043276704082796
51.198324580429848 11.306029706395075 31.748597672795142
39.965228008442168 22.488511602493944 24.439735278940162
41.681275413342277 22.138995442138221 24.46256690587796
50.169769337748079 15.355030621129721 29.95706417123079
36.469576424281698 22.557448770195855 24.40878335436976
34.740947820372426 22.275864496637446 24.401114415267948
45.721583291007988 20.522668975691964 26.297167852077841
50.935446072423773 13.823264332934972 30.00053618938751
51.510838852477661 12.210361001358631 30.044377072681002
25.648369431266723 8.2284662274943887 18.595297868664467
38.21950859290925 22.628677964568752 24.421719837573228
30.849845961163705 20.368682508760443 22.678695244563791
29.420994682160917 19.423842699103382 22.689583637963601
30.424743444209696 19.439465573957662 21.012655177454242
49.22497569893315 16.783322659656925 29.914594967492377
48.114842066196672 18.087312729815444 29.873747872320443
26.87376324744006 16.02741131025817 21.065454665595233
50.183208800576239 8.1206990834221706 34.46572315312654
25.992413126504481 14.633191883786136 21.09180139316198
26.284165131626398 13.549791188866207 19.511069771286756
32.382161825058539 21.134471372370854 22.673005348719116
26.955216206150773 17.054532597740891 22.726247295242093
28.1164438616754 18.313729526972555 22.705511759123972
44.895566430703141 20.920460952365197 28.042274950975241
45.465481061381624 20.248418294000963 29.799270178270959
46.376003148273668 19.985270031498221 28.077301905486983
25.701226743424254 12.10073879185968 19.541242948041479
39.088291996811144 22.73370765125977 26.188107534779036
41.651778976494171 22.224178116182678 27.983560187998215
40.835074092020093 22.486617402766207 26.208718666366323
33.848116425502951 22.202222282366975 26.157067099845719
35.56915406735547 22.590465742082991 26.162092063149991
50.739044487910974 12.889886815767635 31.706432210316372
50.092140455585451 14.406811454537028 31.664314248392493
43.313131633829911 21.670408803600978 28.010875075270903
29.931212095610626 20.224974060859783 24.410438564108819
28.531317760283532 19.172543236690998 24.424172466198058
25.297233457677429 10.592039651648671 19.574358224132389
24.763527080842344 11.57845966891842 21.155409154088439
24.43391125510492 9.9624913128084032 21.191742655207662
49.09257906604779 8.1778612236081329 35.9400543603494
49.808723176634743 9.5885968604508562 34.898233874321434
50.627266841561067 10.418685213609789 33.374666187464783
48.275788356817074 17.152680995168865 31.582667848644071
47.132829273606553 18.341584737854312 31.544330024744553
46.85555614234238 19.247986903049966 29.835118495153544
33.058831190316369 21.788031189810866 24.398824862082172
31.447754624033543 21.101062048866872 24.401948085938532
25.954245543870901 15.664612655718031 22.751487908421836
25.128127972978866 14.164237880192076 22.780865530700893
25.285565261152531 13.142964362664236 21.121932683755738
42.375656811007694 21.712749354547071 29.737959512785508
49.267044688602155 15.834683418602552 31.622857953085735
49.575513791048166 11.021262579763391 34.861620017785022
37.324411383640992 22.768492849586529 26.172489416561127
45.85483005182617 19.384057697876909 31.508403498461952
50.283714938133805 11.942126569064548 33.334931841437637
49.758982112640886 13.413023167181702 33.294950892074667
44.460431280206173 20.264899561031182 31.475412165813914
24.061648437927168 8.3393531011305981 21.894161511467274
23.590582706896136 8.3913291094601519 23.666671676351015
39.935731571594062 22.573694276538404 27.960728561060414
38.190012156061137 22.713860638613212 27.942713119693479
33.029334753468255 21.873213863855327 27.919818144202424
32.186394088724853 21.60942556650101 26.157487754285441
49.171263762898647 12.415344326411908 34.824506755710424
48.601869015387223 13.750513228421003 34.787435292311557
42.969961515199074 20.971263020744239 31.445837137604684
43.964886150529182 21.074018690216938 29.766725653677206
47.825681968892781 8.2349716824742352 37.265990177678958
27.268485016830319 17.959115890402494 24.442949531233729
29.136606267543854 19.847600231899602 26.174562231433214
39.024940313801338 22.395207028569601 29.693378976961071
36.440079987433592 22.642631444240315 27.929776636490011
30.608220074736366 20.820717116216308 26.163347971287997
47.875635070465577 15.007299458420013 34.750946235056233
48.199108539756793 16.112465218273776 33.216576302132957
49.060719037507326 14.809926078372701 33.255306340986309
26.16112889694233 16.602387693179288 24.466495919792138
26.597031949274903 17.407382503880299 26.212323132170695
48.628230452715009 10.167111302693673 36.263626931923795
48.337813765194184 11.454936148966947 36.230037938104886
34.71145138352432 22.361047170681907 27.922107697388199
24.045913746295717 10.920932112806172 22.850264127868655
24.488910266662927 12.575287681465355 22.813951757458565
40.720963569232055 22.155296966467276 29.713391177445686
44.770615075594719 19.272478765510201 33.111405199762338
43.402141780345914 20.025390525151277 33.081726039717346
23.570732375445964 10.163248017861875 24.600576172395492
29.901715658762516 20.31015673490424 27.931431846229074
46.038302600642396 18.360130203343736 33.144097268729404
47.186715451531427 17.301646834113761 33.179325546949727
46.402499529529067 8.2911297766646985 38.422620990254529
25.225397175980049 15.122141479113379 24.49446830464283
47.303967852856317 13.879200063062092 36.162727371322624
47.894236098728925 12.698342822895757 36.196240467760255
33.937033781871705 21.87916604594982 29.663240503414151
32.323599067048335 21.303594590623138 29.663648950797835
31.418258187185437 21.186244722911333 27.922941368058787
27.793012716605624 18.704264839273513 26.190967018128518
37.312313879756424 22.428981451692735 29.678214684145381
36.496345881205073 21.886984190484817 31.3694518249685
35.608061652658577 22.256127660940194 29.668119458955566
47.462992077458914 9.4166804886323909 37.519971731632346
24.715263097039394 14.430587630262426 26.268575972046783
24.056915334522202 12.79408369590913 26.302652398326998
24.474935062529543 13.53996376920872 24.526458757558181
23.920686237136508 11.87892519093181 24.562000814098806
30.791283203153505 20.537805727012724 29.669338846642511
41.405160246052908 21.492849833017253 31.4201096755016
40.443826542078945 21.011468374005922 33.033087348057975
39.78884182207598 21.822053421679893 31.398604926631137
41.952833752945445 20.607884724519224 33.055492579775724
25.566104333396687 15.97586516696968 26.238319144104921
47.275079385541289 10.571056834013506 37.490469937541789
46.949355372330487 11.694343985681197 37.460565790431055
23.600660965621014 11.090216758783606 26.340051522150951
47.003151158312519 16.167376284720124 34.715571668052782
25.19590073913194 15.207324153157838 28.015461586763081
43.644944659240039 18.906692761298842 34.621167219700169
42.333061788147319 19.528420344615622 34.595135847019378
45.71979884784453 15.985549395080962 36.098497822594261
45.997139462668343 17.213827197566708 34.681827426601117
44.872268294026185 18.13139312720736 34.650205551191021
28.501821323435422 19.257725910735452 27.94516574831831
28.057881103665203 18.482852745224839 29.696155361202685
27.238988579982209 18.044298564446954 27.963942813353981
38.14457888415744 21.954073234738253 31.381636504988144
40.955752713735862 19.987511594113876 34.572491006768971
46.006627239961631 9.7997389512619897 38.586933215757767
43.677374944034412 17.651570545645519 36.04108210262055
37.33528882231505 21.261056867871311 33.001007933867456
35.781085917307649 21.103421511972204 32.99180154121062
24.445438625681433 13.625146443253179 28.047452039678433
29.362431924150712 19.592965917355667 29.680227240042313
46.575613575354787 14.980287478770069 36.12998734112675
46.490563875310102 12.770161797212257 37.430695312426096
26.896653448140572 17.223655815993176 29.716890897320809
26.13163246009422 16.687570367223746 27.987489201912389
25.8956827858607 15.833735873970316 29.742131510500556
34.868179595505062 21.62176454906416 31.362228583195161
23.33006863340907 8.4842606270205998 27.318517482391059
23.541235938597858 10.248430691906334 28.12156945451575
23.544728767754382 8.5237505667256528 29.140262012304191
38.897128207292305 21.230256091245437 33.0148370966633
44.845478981774662 8.3454497686853024 39.391704580135844
45.202388328579048 14.7175594691921 37.372790876531276
44.391789832081763 15.560741590597146 37.345601311684618
45.905397912947549 13.782822214108668 37.401294110898569
45.449579485882865 11.720757854421915 38.535791837023794
45.001608917155153 12.616941749769476 38.510357856025784
25.069565214968666 14.33336109844436 29.771509132779606
33.283820993511753 21.162281798632023 31.360072099646075
31.766375199974394 20.51523694499291 31.363013816942946
41.295391032883977 18.780442270110118 35.993816931455179
42.520547553196813 18.288036655034276 36.01599311092523
27.82998902200692 17.555889227914388 31.40163240401904
44.748998749869287 16.880326165342982 36.068717981127847
40.019769365603359 19.121607238411261 35.974876924219195
39.533098487300251 20.277270941373253 34.55356290857744
24.430347508652723 12.744410899717639 29.804595359537281
32.785801206312975 20.23475362468011 32.987724631181628
31.38839652902908 19.536387287843606 32.992913579798028
44.43072013653186 9.981576694735983 39.482367675373062
44.202448743366489 10.768787866495515 39.461410536444234
45.786222182199474 10.777103333495832 38.561441637594989
34.257182353426877 20.759649395091067 32.987352144179305
23.891189800288398 11.96410786497627 28.082994096219061
30.337968332679395 19.690063165752242 31.371010877390489
29.019430527938901 18.698796083698888 31.383946606033732
35.202024226473938 20.100979923576379 34.521545148508011
33.807501008491279 19.696551521041528 34.519647055353751
43.88092343648178 11.522732172830111 39.440476999485199
43.799340463705036 14.215506381175677 38.46161233687944
43.062576103915305 14.894576449133652 38.439011632678501
44.56241005662983 9.1725779012375135 39.503042825283266
30.085347965873588 18.674735787601975 33.00284330315462
37.392000713377783 19.332594177461289 35.947758939006498
36.635105490644307 20.334421782754205 34.52790289685187
38.712283939665042 19.306557089956058 35.959449265072401
38.085849233571899 20.393471772128002 34.538627636200466
44.448841661569503 13.452586611125568 38.485510569684124
25.198790149622234 13.393561954458818 31.480288383691978
41.439444631005756 17.425734599502636 37.275749217220508
43.485422281720687 16.300073597257779 37.32012188489901
42.249290141205393 15.479894905241974 38.418037997292032
42.914813105627552 9.3379182474405908 40.20956411468682
42.777229794654573 9.9480216580962484 40.193651429567176
24.676751969312043 11.829057260713 31.513764854024686
23.987350988285517 11.090055331058457 29.840907729947368
32.471873506542238 19.127035052644192 34.522236291599356
40.329673033846056 17.795649366208529 37.25750304868783
39.183363729387565 18.029123393466072 37.242251675661421
26.786988135909763 16.278008902052751 31.423810365531473
25.90563801497418 14.883789475580718 31.450157093098227
34.789956130477066 18.908734877666653 35.936215158066389
42.496500294389378 16.924774453514679 37.296724122461001
41.275551199011375 8.8704754479515184 40.732195097084173
24.347136143574623 10.213088904602985 31.550098355143902
24.647009993567753 8.5856747765997259 32.632199211402991
31.214616484247415 18.400733423446049 34.529275132799036
38.017236328724294 18.122752970728136 37.230217508710155
41.37134391113284 15.962925397276006 38.398997314985621
43.470832637312995 12.232414981325061 39.419872331740152
42.410081264691385 13.478399169122882 39.380842251363212
41.774889414411597 13.996530596599225 39.362986006900492
28.8956549795328 17.662361817528449 33.017369038867706
27.836666339761145 16.514029578727246 33.03627893557065
36.078171207536258 19.199338844864101 35.939976406836934
40.441540466825607 16.336624916643455 38.38216723092215
42.287446877422198 11.096509728761291 40.161763230170436
42.978157507636752 12.887488251749813 39.399896987261045
33.54613937713755 18.465019476852596 35.936530041382468
42.567084873295819 10.53708212031075 40.177639961430216
38.481150494718939 16.735907564379026 38.35608468111726
41.536952289337854 12.094387058549188 40.131334664434164
25.183511378114105 10.920457313923761 33.149376801228208
40.92461009643236 10.080720003215504 40.699975955937035
41.090183654738354 9.6924660293565115 40.710755965629396
26.923825439942224 15.246484101846658 33.059297258170503
27.313361800262093 14.170340364129348 34.598938168477829
28.089109776646307 15.397506256660094 34.575748271626544
35.693582531696109 17.887076941506972 37.216453212893462
34.569939231843257 17.56120698121169 37.214923815194084
39.532475159468042 8.8084888561801709 41.037220251490211
39.553896093124465 8.5969747992722301 41.042516817739553
30.05406411773135 17.528237953981403 34.54066093628704
37.479153135356398 16.755667788856844 38.347212587906583
36.848294116088582 18.075172915751715 37.221576017118977
40.713428411579855 10.446181118385354 40.689365296021869
41.94239186998719 11.618146945891761 40.1462527358592
39.563306429400612 15.044645529195183 39.319102069006938
39.47343706056725 16.595544464050743 38.367793144878682
26.170443052063074 13.878208851141295 33.086088348382575
33.493751428007144 17.102316177407349 37.217010112889461
32.364859259122682 17.874662799586083 35.940916475769328
36.48205273556654 16.654537060397544 38.341306208249165
41.207735681260488 9.2870806049045846 40.721548141971539
29.007139326850755 16.522272662612146 34.556227640947952
41.081840715606255 14.434327337506733 39.346588598661008
25.58750466386093 12.42915645413477 33.116261525137297
26.231719230751878 11.481621697844258 34.654924541699458
26.691207210206262 12.858669809862107 34.625459168156162
38.759961665401782 15.208266294924535 39.308413760499313
31.263340194032374 17.146274611019585 35.949310461141053
35.504391840730094 16.433989609494599 38.338451703733966
39.414276420624077 9.2161065276402354 41.026368653143628
39.485707122223062 9.0158741587830296 41.031811230920063
40.341046720775097 14.785405231041791 39.331889184913749
41.077038896102749 12.518285363144127 40.117226543944497
40.459718621057988 10.783520198133594 40.679078715848469
25.517247652479352 8.6071324304697026 34.247320674924246
25.941597615327819 10.059276502792137 34.686904612150883
28.590781429641993 14.248239722660795 35.997033187935536
27.953917621118777 13.091582551119604 36.019680756768047
34.560426656846666 16.097242371853817 38.338690676284799
39.319221870287315 9.4062662691934449 41.020971856188993
30.257645994622617 16.290475958444723 35.961589616130681
29.362442130800737 15.31974559065165 35.977574902031442
37.123521105024416 15.240538269012603 39.29392404847588
40.569358059765911 12.883660272259144 40.104134105583633
40.021315461277396 13.185184100723212 40.092248280607592
39.840078279817178 11.35463701800896 40.660070886312823
39.48318371617215 11.580086541679009 40.651626817022141
30.702028081277746 15.003518679382211 37.244398773996849
39.201930812667143 9.5835802442800837 41.015699552231034
39.064113178321151 9.7454629917955327 41.010628615415065
32.480711389749665 16.517095683700369 37.222681687200009
31.545591574024797 15.814079345326597 37.231855833931192
38.836578645292633 13.580085768317488 40.072769602516132
38.217161352653278 13.667705242769982 40.065460794425569
37.942727715369315 15.273883142498262 39.299980086886031
39.101701661966388 11.760879167940283 40.644057146040844
39.440901681862201 13.418459998129585 40.081742380664721
29.962322568010556 14.097232970523363 37.260127620584498
29.33725992416332 13.108439272141457 37.278812964529969
40.167179853963503 11.087817860709785 40.669266217753574
26.934363866378618 9.2840922592719561 36.103253481263778
38.701192844670629 11.894378224294403 40.637472245763732
27.46113697741432 11.866641644817562 36.045187328809611
32.064701056407799 14.446923267345866 38.35770905445812
31.385306828118086 13.710210424572548 38.369840705267428
38.907781041050306 9.8895536689217334 41.005833016888204
28.835956626662842 12.051555331525771 37.300182371720233
28.465721725523601 10.941993070693762 37.323924214807683
33.663920932142204 15.649205553828866 38.342019637403965
32.827949446448159 15.096411831541108 38.348390074813992
34.772623108097143 14.558750376189282 39.29072421321402
38.548922329548446 10.116244827603213 40.997342454707429
38.735211417641558 10.013751406098187 41.0013826578258
36.314287164695401 15.108718901648151 39.290333927563836
35.52682699516113 14.880345663344116 39.289262120337931
37.866653576289082 12.012427478457656 40.627625113665601
28.231955346679285 9.7959325886410245 37.349692290454932
27.827511974785214 8.6293522909026965 37.088918225769199
27.11962569879347 10.591278945622912 36.073180974730981
38.351628756518508 10.195539530559497 40.993771305532952
37.444791992015439 11.995256153014875 40.624506472622791
37.591680277845725 13.680040251769094 40.059922529932791
29.942355412411779 11.089557613980968 38.421153580460206
35.769714883699002 13.269029213704762 40.054602875391303
35.210085711284897 12.989349597339917 40.05668092282535
36.969258022851193 13.616910889987443 40.05623558427574
37.028065739311465 11.927373687678509 40.622657696111119
32.816155053188254 13.087891424240985 39.309918473704492
32.297761484615194 12.452757272670409 39.320941403639338
34.062674463311481 14.148621914236895 39.294698910864142
34.688244249786969 12.644277727469508 40.060657550946281
38.287499315122858 11.978637261040651 40.631968146897748
37.935656794865281 10.280262439132803 40.988236897188138
38.146208495032973 10.250479099148558 40.990721295415625
30.799673430926021 12.897015774521295 38.384608128016467
30.316339561947345 12.019197980216131 38.401795959759049
36.622551549651391 11.809770077956966 40.62210574000747
36.358968901428284 13.479238285614953 40.054453691087275
29.542573330155946 9.1295922099401832 38.465221527989812
29.231104720910771 8.6297640184069984 38.270578458529322
34.211800447267457 12.238845168524142 40.066474783000366
33.407332398309151 13.655940893015549 39.301128241791659
37.723044225065536 10.284455336516007 40.986354338796744
36.234164451466938 11.644159914131977 40.622858675579032
35.86856587731063 11.432958558337061 40.624905496011969
37.511471088432636 10.262996650738584 40.985101071586648
30.771659998301992 8.6229972290403971 39.267089247884819
32.424882982656548 8.6091587151299844 40.062738728884739
29.683174162159744 10.121651074139923 38.44239870588784
37.304022844910364 10.216199193765432 40.984495375602592
31.859711072665274 11.759800516957929 39.334036283249169
31.508392663134707 11.019125250457241 39.349012187573265
33.422127680759139 11.271341224829314 40.083266078935161
33.787699519176321 11.778964287268863 40.074047764493962
37.103724315077415 10.144745339020739 40.984546082169651
36.913497118615524 10.049677132994418 40.985252456570116
31.248928030684066 10.241532640325678 39.365650712844051
31.085101813112132 9.4383616717836443 39.383709242366812
36.736113655713083 9.9323807628501211 40.986604188303701
34.164700365953756 8.5884667021775858 40.64497753791445
36.574161040474308 9.7945669267741398 40.988581563842835
35.531089351813549 11.179245436008227 40.628216381959206
34.734118930075304 10.202801657355771 40.645162822813859
34.553203004190507 9.8213807454034185 40.652874873322958
33.12041543965266 10.723378328411814 40.093995298135809
36.430001566159618 9.6382450032595504 40.991155760355106
35.226653782272862 10.886720605754579 40.632743025845478
34.959699924317931 10.559649447847857 40.638419437760916
34.419588156229111 9.4209485414114162 40.661443115738493
32.886961859713416 10.143065998996034 40.106078964253264
36.305737579504886 9.4656946953163636 40.994289237450602
35.963674371670237 8.5612474499399358 41.004620840504174
32.637404498195011 8.9195904282397969 40.133587641501514
32.725170927951879 9.5388664983497549 40.11934086774999
36.123824354189267 9.0821732937495288 41.002043749995416
36.203179587242857 9.2794320380866786 40.997936292371335
34.335223606041517 9.0073445024507439 40.670742606474164
36.068829576883431 8.8767948388097189 41.006551721109055
36.038995216999517 8.6662915790825981 41.011394452088688
69.831187111263205 7.853317715109255 39.638201517173663
69.586105062513624 2.0267530423556588 40.283620988299496
69.489517985025344 7.8863888814542138 40.731212930447228
69.770129336581647 2.0035533355698147 39.470684871322462
69.288236449544826 2.051392808194886 41.062041513192419
68.207093980496595 7.9572198952155091 42.615342204291949
67.783015492933345 2.1288510668227483 43.037160713702804
67.111474424692261 2.1540969656066915 43.530783611912874
67.315618005892887 7.9922578533286206 43.334055218144208
65.202119180525415 8.0548978289886684 44.187737289542845
63.113866130632999 2.2537881981751742 44.363414589329778
63.944877662280192 2.2388287348689095 44.430241170859844
64.061314901077196 8.0800926737576475 44.289900091266674
62.300770989890921 2.2655657491772088 44.179015486902514
61.522135557566912 2.2739219417671448 43.88080320687277
60.823508164796664 8.120287679551236 43.276571430281912
60.793819580486385 2.2786863936410109 43.474844519731676
59.944205296781931 8.1201709586088207 42.542179218475276
59.546118025479672 2.2771274072756578 42.374771930918804
60.130647975768753 2.2797621430975665 42.969403531250883
59.225000845867839 8.1130824978617735 41.650439245391993
58.20357938714271 2.2316553572959021 39.368269921503938
58.267512134507271 8.0539774341764989 38.395970773547276
58.151074895710266 2.2127134952877636 38.536311853140454
58.217509698713357 2.1914260510928862 37.705406921790527
58.699402585750178 2.1435865784678168 36.114050279920576
58.730995527863655 7.9911183829859604 36.164196703479419
59.610218219562498 2.092012643520917 34.723123906092354
60.013419532392405 7.9202873692246643 34.280067429634698
59.10504916369419 2.11800850877892 35.385996249460788
59.279382120667819 7.9560349727907793 35.158939806668428
61.611173723955389 2.0167888804403775 33.252306371119175
60.904895506996112 7.8852494111115536 33.561354415782439
61.919550808370388 7.8522676268526652 33.030421878959359
62.394689712835714 1.9943381427895206 32.967926016781263
63.210753544229476 1.9739873187028882 32.797952152225889
64.042761373014812 1.9561506517937914 32.745850622253144
64.159198611811817 7.7974145906825267 32.605509542659973
65.29812209196281 7.7776513007248322 32.727857983586489
66.465503477728092 1.921057444895558 33.295288586240225
67.397005348092335 7.7572195848889374 33.618838203644742
66.391395470330409 7.764079116648932 33.070017415109106
67.856991059526251 1.9152172435651353 34.206688261862112
68.276308216107068 7.7573363058313536 34.353230415451378
68.99551266702116 7.764424766578399 35.244970388534661
68.935509783643298 1.9241436180629234 35.473039156419738
68.441521009815332 1.9178519793870441 34.801319862194191
69.613682090843284 1.9471134225799966 36.991747736300312
69.850283291826742 7.7981699108909206 37.358688102566667
69.784059648152294 1.9633240293667988 37.807821871609057
79.513917059464958 35.577469902871982 9.1324810104121674
78.830113127957702 7.0843147894105121 9.5753710809369554
79.403056091024538 35.574027618916723 8.8972281942980604
78.762119236143519 7.1539309538997387 9.5013229823270642
78.683006875317091 7.2353152193016035 9.4399230652189807
79.201118065471448 35.57411492439649 8.7333194384326873
79.077985011418832 35.575505019279689 8.6890176436647799
79.158769505038222 36.726036255273421 52.483783936993191
79.165306142974586 36.626235031727759 52.494856821255283
79.527475872692705 35.580326124349817 9.2626117914104853
79.515418993952522 35.710596395717332 9.2593591850837207
79.135377106410544 36.822824912560741 52.455694110412459
79.474667462488867 35.83491008213943 9.256010301328697
79.095810242113018 36.913749923032583 52.41140687173889
79.407264354458476 35.947036567048954 9.2527329916576484
79.31659374332132 36.041351864422538 9.2496916654377603
78.893889865993003 37.125918560786289 52.196555914470622
79.207199207933655 36.113129757180651 9.2470387260259077
78.687210054693267 37.201097668675047 51.982932031029435
21.12476285576609 8.4167977128910874 8.9038075104169145
21.098261843225817 8.4918070421495617 8.8724894523670219
21.044885748453819 8.5103180890077184 8.871594470517616
20.999847122274982 8.5444141546184209 8.8703922890032629
20.951169280101475 8.6448122845155719 8.8675555883137172
20.967554630207683 8.59075768594154 8.8690005853040308
21.016730755761674 8.3470965772986965 8.9583440518819923
20.921966051989369 8.3977525770929997 8.9563246686996312
20.787380313664798 8.3471025089384803 9.085755192590744
20.861407555593384 8.1616945364492626 9.4344815819971188
20.944671955025761 8.1536462981342783 9.2547217209082007
20.984040270982074 8.116057702743964 9.4366129963661898
21.045033423908951 8.2093753285693349 9.0912456370927686
20.905292998673211 8.2578378402562223 9.0889025451572092
20.847503033764788 8.475208784998804 8.9538269869602196
20.79133947305186 8.2356094044728998 9.2514542910892796
20.800630575002362 8.5718833362626174 8.9510954942995156
20.661341454064011 8.327786569890705 9.4287873363485843
20.752012773428788 8.2334705358208762 9.4318286863242555
20.601115777953677 8.6872236918486756 9.1659375216911467
20.553188915629164 8.5642279885100017 9.4221611303483517
20.593940248185955 8.4399132262701961 9.4255100384641111
20.595014537503939 8.5173588936362972 9.2429933090385674
20.670855747043355 8.3609362143912769 9.2474129560813427
20.659940097487514 8.6099482500761564 9.0783286134170567
20.702837463049239 8.4684314803323737 9.0821116641745778
78.389196849810119 7.5396476937257741 9.3468560416857702
72.5047396343125 26.144847440999115 8.847448333305401
71.779985656806574 27.498250020585708 8.8086342545027634
69.781737190788803 29.818882338619602 8.7357517308944495
70.865821558631225 28.731690645818979 8.7711356443822783
68.550834218662217 30.736654564977144 8.7032366037654896
65.75609433299428 31.989716392689367 8.6495091437522333
64.25181568203584 32.298301100033576 8.6294418147034779
62.718584183051732 32.384620671316277 8.6145091540095358
61.189072922897481 32.246833717106504 8.6050294224647246
59.695885285646199 31.887879501524914 8.601204639563214
21.689198301050812 36.706907859564545 8.1662252341612671
58.270840039069924 31.315407333565688 8.6031163026713582
21.192243777057467 37.769160302385679 51.96689210579531
20.555765274507891 9.1819427064213475 52.633665037384219
20.314982407578103 9.3510848627636243 52.459042030826105
20.465811486090594 9.2244519322434844 52.590127005274191
20.867172926442297 37.770637665732444 51.75868020446454
20.75631404125868 37.767195318102907 51.523426466527376
21.327671076357682 38.018993898822565 51.918745629558259
79.041235531090251 36.996138410848836 52.352227663386195
78.973262001103976 37.067560125338325 52.279901320303615
21.333080509335193 38.218316547638665 51.751752650583086
21.337291335953111 38.325444062001935 51.514787892617392
78.774402267204565 37.180495624760574 52.072561315753639
60.876164610602743 2.0408824210560095 33.645308181200122
64.873772904662005 1.9411911884875268 32.812677203783217
65.686868045404083 1.9294136374854922 32.997076306210481
59.052129251651706 2.2708357685997775 41.703052636693258
58.658740205295899 2.2610153485238316 40.967923618988038
58.37395694445172 2.2478659640827052 40.184344056812691
69.328898829999105 1.9339640381388712 36.208168174124957
69.836564139584738 1.9822658913749382 38.639779939972549
60.204623542361659 2.0661283198399536 34.138931079410192
67.193819454808619 1.916292993021691 33.70124727338132
64.776885491065528 2.2209920679598119 44.378139640887113
58.40153397278138 2.1682263443070431 36.892470804813506
65.59294932245929 2.2006412438731804 44.208165776331725
68.882589871600814 2.0769708778837828 41.790095543652207
66.376465311339615 2.1781905062223252 43.92378542199382
68.377420815732506 2.1029667431417849 42.452967887020634
78.955642282806366 36.158185648760984 9.1137550341023097
79.311316760974307 35.573614091546538 8.8039027272764443
79.126747617111661 35.60312615056889 8.7027131862371157
78.948095596035699 35.577714600391701 8.6732188596385456
79.110362053194493 35.657180509547125 8.701268193252135
78.950563881873194 35.708050369988811 8.6847435552185619
78.979653620466351 35.756132884079115 8.697779274099819
79.078067717334775 35.70352592323902 8.6998764285671264
79.229020775097027 35.776746522433207 8.7824062569317789
79.275893052791886 35.68007162643687 8.7851377564156685
78.954287577041057 35.94499477632845 8.7919270473428508
79.033029467295918 35.737621633128597 8.6986742588097012
79.286978878377326 35.911104445225483 8.908973918750636
79.371523393897874 35.789776851626755 8.9126174277815036
79.471738948333822 35.575334709366402 9.0086161258409341
79.414420331205875 35.648258697115175 8.9164005084528171
79.476618178051069 35.748728793675788 9.0774595076422528
79.154558507764378 35.854201949263476 8.7799086003792208
79.400777888737409 35.905151977228186 9.0730398561078847
78.955356295954132 36.039723601072218 8.8822111881445789
78.955815569206493 36.111996658746811 8.9913107246672244
79.059793452267257 35.904857781842423 8.7778892182957602
79.16906763641947 36.000370722475225 8.9058265393573013
79.084565346839568 36.158766790897218 9.244907297220081
79.029325810183622 36.048832861242175 8.9034834447071116
79.12695915886448 36.112440780756614 9.0657310970743961
79.280289952521542 36.030478617655447 9.0689984899302178
78.954845134378672 36.175974898434333 9.2434042791095639
78.597569590197295 37.207749901658516 51.891429781524025
20.541130907094779 8.6944972372480134 9.418908539297222
20.556868946901456 8.6910632573688691 9.2890371645822345
21.100029653320355 36.732564143913947 8.7452713572499974
21.115767693127033 36.7291301640348 8.6153999825350116
20.671652671850772 8.6831710716729127 9.0557822985959842
20.764942631756465 8.6791086122268712 8.9640951563582174
21.230551418076352 36.721237978338841 8.3821451165487613
21.000163540470588 8.6717592903520035 8.8533588290475915
20.876307697062504 8.6752400227337123 8.8954736834011356
21.435206443288084 36.713306929399643 8.2218365013539128
21.691666586888303 36.837243629161648 8.1777499297412852
21.693765645914425 36.961750457908522 8.2179919870844866
78.952662940899316 35.832557198735678 8.7249856125617651
21.696459000969249 37.168916860245062 8.3752175626673004
67.478176340070931 22.784320298575686 8.886639825694699
67.174534334858834 23.748272931005708 8.8607754139174286
67.609556633882804 22.486598000470124 9.5944657778060343
67.555587320608836 22.817842730249232 9.5859999240261331
67.890686884354722 21.803848997002433 10.272207416257951
67.707072619670399 23.250708612799723 10.235665643157564
67.795037699309731 22.882634557042529 10.245307294252044
68.182614977573678 22.974931022704197 10.826245411441183
68.243950475891779 22.598457757314996 10.835867178763724
67.851840068909127 22.534006841675893 10.254217424443986
68.809135561897804 21.810881640805118 11.326931785335265
67.469658137983643 23.915595404427311 10.217591278620505
67.246430124454292 23.799300345581113 9.5596658153191889
67.472005694075449 23.167564756811245 9.5768389813662029
66.908775101486725 24.433668657021272 9.5414900325126926
68.695785469550671 23.089368384280672 11.29505204732205
68.763101014619309 22.676204780582275 11.305611553213097
69.429989509273256 21.806501094193219 11.659710972350851
69.379118017160721 22.762728151838395 11.636150999675076
66.733452105542881 24.691327415982258 9.5337878122628368
69.189528575539185 23.701332095737058 11.611855296744819
69.304729909414732 23.219295521365076 11.624482186289733
68.591532712512389 23.525579697937921 11.283625518559756
70.816644127390603 21.783204375740702 11.840527263497586
70.112378362910121 21.797093084596213 11.834291407235913
68.310171496386459 24.313548056960613 11.262205311480711
67.831245051285265 24.090396697207524 10.796315644083993
68.087619257441531 23.372404551881075 10.815833607044098
66.67070201853123 24.624388590338036 8.8353589687372622
65.990242402831484 25.371701325966797 8.8115789656126626
70.056207173696961 22.853000398716823 11.808275493215184
70.755009743963072 22.941775532559006 11.811981857172221
66.495101862201793 24.991820443321629 9.5245213127592443
67.114284970864702 24.583252038932777 10.198461727878627
69.97406302367294 23.35716242366275 11.7953902572789
70.664879301166991 23.494956716666437 11.797843807077051
66.67890298006121 25.170693746963451 10.180602542162154
71.434918049064976 23.023894761420721 11.647054714212963
72.65925508238945 21.723733903204042 10.8940175511243
66.977331722183791 25.445743424318035 10.756372523552509
67.248220512907864 25.104221127522923 10.766904221179871
66.92975969727307 24.854431456051501 10.190355314804705
67.670328097457315 25.426179547412552 11.22992748051492
67.889010702373369 25.104799457723228 11.239534534649856
67.447484940864257 24.811381378869367 10.775658132648157
72.583392545207772 23.14973486146085 10.858883076435129
72.056418125783495 23.094583578734067 11.323078924057709
70.148584153091321 25.133997673570192 11.753865660457468
70.525298118870893 24.078994749814829 11.782544979553133
69.846850760711618 23.889447763297014 11.781447090356444
69.503520473768248 24.850964201735732 11.755309136058683
66.040629553312115 25.452214224035501 9.5095758462682269
65.447534684405156 25.899099119259212 9.4937959139425878
71.337035999442605 23.624669398905937 11.631700307804731
68.989599400685663 25.816486825595952 11.727645169778896
68.878605992793496 24.57207855687097 11.588184811281536
68.413205866939578 25.446453250005938 11.563132443147998
72.985212991632451 23.186144182482685 10.281444232340938
73.064176206487915 21.701823468308447 10.318015600343012
70.776317760423098 25.404729186285564 11.583938375503184
71.18544391026937 24.25895731144929 11.615085176135334
68.171543514355278 25.801594348860469 11.552516107418276
67.84302481172827 26.215777383494256 11.539743759959455
71.951463513483773 23.738761982047563 11.306615210155183
71.788918389812892 24.418875243214433 11.288799678233223
68.722748009982013 26.20865026813938 11.715922143750516
66.806166551489568 26.375237773812351 11.199727762567207
67.373034153392126 25.800986494754518 11.218369330069669
66.460802191040202 25.968999011446307 10.739386381852222
72.869740768411731 23.894859676169403 10.263331076501428
72.472457908366167 23.830604717216225 10.841481597196157
65.164968094552989 25.955269480071927 8.7905472448915773
64.233470955597042 26.347805207406267 8.7732472716837187
73.238528310377561 23.201695257104053 9.6243211915006306
73.328617681791428 23.195483490737296 8.9257035734419894
65.576363796310346 26.125582039468107 10.148264816284186
65.316227917018665 26.280590680867974 10.142335485996648
72.300655747789136 24.549455762863467 10.82265134090899
71.350239788667622 25.647425044344359 11.25540267815672
66.200581676345593 25.655245819827265 10.164872828706089
73.024644751574868 24.700329297142197 8.8867506709044317
65.20036879069454 26.046378785495264 9.4881622227117823
65.505812530151957 26.64429202730976 10.715048915060414
64.251952071391159 26.446044832914083 9.4705480066252381
65.786727712946785 26.476900882755807 10.721451887303484
69.291903850955975 26.623689127241235 11.710649185513159
70.163919745850748 26.555276576610972 11.550973171259557
69.584698170426876 26.193397308987912 11.723511975420204
72.937011189898755 24.694393968466272 9.5856827342305699
73.120227466283168 23.927792534336838 9.6057638254869548
72.690916882662677 24.643110019418764 10.24373074585154
69.845931908391478 27.022589712329292 11.537003678351848
64.932703349839727 26.472675735204703 10.134475508845201
64.835967040528672 26.228887055755933 9.4806941324315002
64.318042977488901 26.701226909208138 10.123797018998422
66.399119991051251 27.466312237413923 11.49739379270514
67.216604657286993 26.850353353093979 11.5191438795595
68.893861835455795 27.125514331803245 11.695174110829749
68.359980984814442 26.666008401807474 11.701818361240496
66.066397201350782 26.932640383532721 11.1800453607047
65.758105328919228 27.116344823125687 11.173018381337835
65.303582188730275 27.343987160790093 11.163703397320363
72.442546964457335 26.079177653981702 9.5480386663541008
63.502159669104302 26.605770132625246 9.4604025648356735
69.889115280655332 27.966545236589887 11.187056388657734
70.352634857126944 27.382169871925647 11.205077108107915
67.668264753579322 27.366735618203236 11.679071091995061
66.765556340331543 28.046904828668545 11.655053632409668
68.134891183025914 27.894372997256923 11.670215140458852
70.782561864712747 27.681532639183565 10.734160105901069
70.693593526933668 26.881095902859684 11.220055803670526
63.239734679538842 26.632519002048348 9.4575570205376813
63.239305829659102 26.530951925427694 8.7604880152927773
71.836990114465578 25.847980663556953 10.787352123481485
71.142947649008562 27.151919267396948 10.749991996302278
66.389364817616382 28.271069735928506 11.646478985058533
63.528902842698528 26.869336238323633 10.113119116110351
64.427903032257788 27.098526563607898 10.695029734042439
64.575140470022319 27.614848783725627 11.151048118278128
65.091654357859682 26.851718055071757 10.706561169787769
63.252708371458709 26.897486828062107 10.110124309121618
72.208287089417851 25.994741475852578 10.206987863763109
71.485857636241505 27.352005898583592 10.168099829425817
71.702394931677887 27.469731601819483 9.5081967978435458
69.413646050219754 27.567591042149502 11.520197181319245
70.292646094638087 28.299194706842457 10.715112959037008
66.058440589503164 27.669315527971861 11.489628599933656
65.556170074398054 27.920873014006204 11.479335047245039
67.14441976116197 28.640672859779976 11.64386257791783
62.798681868069494 26.910446376690487 10.106007262615231
69.0052915856498 28.861882155555641 11.157991623538045
65.834737325346737 28.548851271134524 11.635112388884604
63.575729148723696 27.280061228097679 10.683498981769086
71.318076652898938 28.034526901613781 9.4913132683958548
71.110732719789567 27.90328071603772 10.151620413862306
70.600780396333661 28.546201763355874 10.131794329311429
68.589370361257977 28.402598901951443 11.493090796698855
67.513679694459682 29.213111230976409 11.464470847360872
67.065397390349247 29.480233418539619 11.454253016759134
63.277474210614699 27.31046138968172 10.680264944073102
69.628410403141189 29.531237888515648 10.099817710145345
66.731649578218622 28.88663343064114 11.634454201895743
62.808344635697864 26.64483151807832 9.4536452600993268
62.170031149517385 26.860191648236473 10.101956665830903
63.717728325730349 28.440346267942104 11.451366348098858
64.751201239026898 28.220189675649372 11.465350270195877
63.639914857539878 27.81407557331606 11.138393594305535
65.147793092303147 29.554074247441832 11.605038492163857
66.123097607971076 29.191421148062801 11.621982508817522
64.945857786337953 28.879367760744685 11.61966985513572
69.358479849004553 29.245526291513876 10.684392755413139
70.79561337570324 28.693216186280615 9.4710008980040143
61.440527756854081 26.420046790088257 9.4476248112448253
62.211035593107468 26.597083961715093 9.44979656660926
62.228956452845082 26.49614921052224 8.7528659847696435
66.662559402782051 30.372296484406277 11.101824693503044
67.371215725110289 30.017369569443012 11.116347998737725
66.404488442937179 29.811245185132947 11.440708280195601
67.851885558337244 29.730948530914837 11.127304042744081
63.804652520646968 29.122473563027206 11.604228220628656
61.249671479950479 26.245022104845233 8.7507376822219705
68.359452905725078 30.487370653954379 10.066055739910775
68.139378949646613 30.164093405283936 10.651957267305406
63.312590097111467 27.847438655543435 11.134844348487103
63.356020002268124 28.477213973911518 11.447444274015126
62.108318667332526 27.270188208673773 10.671444891630738
62.787182076330907 27.324454894035313 10.675819075012342
67.631332426782961 30.466827738851123 10.640377216175256
66.882306678897649 30.841971051625585 10.625026632725808
68.499313901349069 30.681995807578865 9.4036499547741119
69.799394365476189 29.702409489457658 9.4382400586408188
61.232604165485881 27.068979890621236 10.668976555501521
61.938126010986053 28.428373192727882 11.43674773777952
62.761419128633435 28.494185169049082 11.442052540097613
62.774515780689072 27.862795772127711 11.129965203889627
67.83062707935828 30.802487490675638 10.054002046825092
