# XYZ point cloud file
-0.44574356079101562 0.38465118408203125 0.49894332885742188
-0.44588851928710938 0.385162353515625 0.49155426025390625
-0.44549179077148438 0.38488006591796875 0.4831085205078125
0.17229080200195312 0.41037750244140625 0.5935516357421875
0.17448043823242188 0.4111328125 0.60106277465820312
0.17710494995117188 0.411041259765625 0.60721206665039062
0.19237899780273438 0.42111968994140625 0.60876846313476562
0.20487213134765625 0.43087005615234375 0.60511398315429688
0.22131729125976562 0.43585205078125 0.60287857055664062
-0.42524337768554688 0.38286590576171875 0.5144195556640625
-0.40629959106445312 0.3813323974609375 0.52257919311523438
-0.387664794921875 0.37517547607421875 0.53297042846679688
-0.36595535278320312 0.36865234375 0.53781890869140625
-0.36359405517578125 0.36891937255859375 0.53156280517578125
-0.36080551147460938 0.36835479736328125 0.52417755126953125
0.17002487182617188 0.33162689208984375 0.618072509765625
0.17243576049804688 0.33452606201171875 0.62480545043945312
0.17499160766601562 0.336883544921875 0.63013076782226562
0.17477035522460938 0.357757568359375 0.62842178344726562
0.17263412475585938 0.37616729736328125 0.62266159057617188
0.1758880615234375 0.39299774169921875 0.6177215576171875
-0.351837158203125 0.3538970947265625 0.55511093139648438
-0.33654022216796875 0.34003448486328125 0.56591415405273438
-0.32519912719726562 0.32410430908203125 0.57686996459960938
-0.31041717529296875 0.30597686767578125 0.58426666259765625
-0.30670547485351562 0.30405426025390625 0.5794830322265625
-0.30272674560546875 0.30145263671875 0.57336807250976562
0.22957229614257812 0.2581634521484375 0.64196395874023438
0.23070144653320312 0.26348114013671875 0.64785003662109375
0.23182296752929688 0.26816558837890625 0.65242385864257812
0.2163543701171875 0.28816986083984375 0.6515045166015625
0.2008209228515625 0.30328369140625 0.64647293090820312
0.18926239013671875 0.32035064697265625 0.64072418212890625
-0.31177139282226562 0.290374755859375 0.59767532348632812
-0.31036758422851562 0.2743682861328125 0.60657882690429688
-0.31435775756835938 0.25971221923828125 0.6137237548828125
-0.31545639038085938 0.24077606201171875 0.61808013916015625
-0.31175613403320312 0.2366485595703125 0.61446762084960938
-0.30794143676757812 0.231842041015625 0.60940170288085938
0.31869888305664062 0.22577667236328125 0.64260101318359375
0.317230224609375 0.2318267822265625 0.64857864379882812
0.3156585693359375 0.2372894287109375 0.6532745361328125
0.2928924560546875 0.247314453125 0.65851211547851562
0.27293777465820312 0.25254058837890625 0.65915679931640625
0.25328445434570312 0.2621612548828125 0.6581573486328125
-0.33159637451171875 0.23357391357421875 0.62305831909179688
-0.34401321411132812 0.22339630126953125 0.6245880126953125
-0.36004638671875 0.2169952392578125 0.62319564819335938
-0.376007080078125 0.20600128173828125 0.61799240112304688
-0.37458038330078125 0.2010040283203125 0.61420440673828125
-0.37313079833984375 0.19538116455078125 0.60914993286132812
0.38904953002929688 0.25445556640625 0.62398147583007812
0.38519287109375 0.25965118408203125 0.62993240356445312
0.38106918334960938 0.26424407958984375 0.63458633422851562
0.36336135864257812 0.258758544921875 0.64372634887695312
0.34979629516601562 0.25 0.648712158203125
0.33239364624023438 0.24603271484375 0.65300369262695312
-0.39826583862304688 0.21193695068359375 0.61327743530273438
-0.41843032836914062 0.2136077880859375 0.60524749755859375
-0.43811416625976562 0.219390869140625 0.59515380859375
-0.45984649658203125 0.22158050537109375 0.58057403564453125
-0.46133804321289062 0.2170562744140625 0.57627105712890625
-0.46251296997070312 0.21197509765625 0.57086944580078125
0.38248062133789062 0.31754302978515625 0.62294387817382812
0.38469696044921875 0.299774169921875 0.62764358520507812
0.38124847412109375 0.28436279296875 0.6329345703125
-0.47357559204101562 0.2382049560546875 0.571533203125
-0.48755645751953125 0.250213623046875 0.55912399291992188
-0.4975128173828125 0.26476287841796875 0.54708099365234375
0.36223220825195312 0.3388519287109375 0.62439727783203125
0.34207534790039062 0.34110260009765625 0.630950927734375
0.31622695922851562 0.3433685302734375 0.63764190673828125
0.314971923828125 0.31624603271484375 0.64614105224609375
0.34025955200195312 0.29703521728515625 0.64451217651367188
0.359954833984375 0.28182220458984375 0.64182281494140625
-0.45013427734375 0.29454803466796875 0.56552505493164062
-0.47378158569335938 0.2890625 0.55415725708007812
-0.49205398559570312 0.2845611572265625 0.54391860961914062
-0.45064544677734375 0.23899078369140625 0.58588409423828125
-0.4417724609375 0.25411224365234375 0.5865478515625
-0.43017196655273438 0.27301025390625 0.58549118041992188
0.29052352905273438 0.3058013916015625 0.65341949462890625
0.30006027221679688 0.28020477294921875 0.65668487548828125
0.30756759643554688 0.2600250244140625 0.657562255859375
-0.38318252563476562 0.2264251708984375 0.61675643920898438
-0.38994598388671875 0.2443084716796875 0.61040115356445312
-0.39865875244140625 0.267059326171875 0.5999755859375
0.25823211669921875 0.317596435546875 0.6529998779296875
0.2475738525390625 0.2996368408203125 0.65602874755859375
0.23960494995117188 0.28521728515625 0.65681076049804688
-0.3343658447265625 0.25469970703125 0.61664199829101562
-0.35226058959960938 0.26613616943359375 0.61034011840820312
-0.37538528442382812 0.28035736083984375 0.60011672973632812
0.2361907958984375 0.344268798828125 0.64471054077148438
0.2117462158203125 0.34253692626953125 0.64214324951171875
0.1931915283203125 0.34072113037109375 0.63869476318359375
-0.33011245727539062 0.3074798583984375 0.58938980102539062
-0.34901046752929688 0.3069610595703125 0.58936691284179688
-0.3735809326171875 0.30548858642578125 0.58729934692382812
0.23715591430664062 0.37229156494140625 0.63581466674804688
0.2133331298828125 0.3885650634765625 0.62783050537109375
0.19518661499023438 0.4004669189453125 0.62021255493164062
-0.375457763671875 0.35793304443359375 0.55184173583984375
-0.38396453857421875 0.34576416015625 0.5603179931640625
-0.39482879638671875 0.32913970947265625 0.5692138671875
0.26079559326171875 0.38431549072265625 0.63092803955078125
0.25160980224609375 0.40802001953125 0.62005996704101562
0.24478530883789062 0.42572021484375 0.61008071899414062
-0.440093994140625 0.371337890625 0.52017974853515625
-0.43389129638671875 0.35608673095703125 0.53594589233398438
-0.42560577392578125 0.33551025390625 0.5543365478515625
0.29420852661132812 0.3719482421875 0.63167190551757812
0.30648422241210938 0.38813018798828125 0.621337890625
0.31617355346679688 0.39990997314453125 0.61186981201171875
-0.48942184448242188 0.3395233154296875 0.51468276977539062
-0.47174072265625 0.331512451171875 0.53178787231445312
-0.44870758056640625 0.32050323486328125 0.551971435546875
0.287139892578125 -0.9105224609375 0.780517578125
0.32382583618164062 -0.91510009765625 0.76035308837890625
0.35874176025390625 -0.91886138916015625 0.73909378051757812
0.39744186401367188 -0.909149169921875 0.73752593994140625
0.39949798583984375 -0.893707275390625 0.75611495971679688
0.39740753173828125 -0.8762054443359375 0.77379989624023438
0.3647613525390625 -0.8565673828125 0.80499267578125
0.335235595703125 -0.85454559326171875 0.81991195678710938
0.30335235595703125 -0.85134124755859375 0.8351593017578125
0.26648330688476562 -0.86297607421875 0.84016799926757812
0.26201248168945312 -0.87823486328125 0.82878494262695312
0.25623703002929688 -0.8923492431640625 0.81515884399414062
0.23537826538085938 -0.8408966064453125 0.86334228515625
0.201385498046875 -0.83388519287109375 0.87531280517578125
0.16895675659179688 -0.826385498046875 0.8859100341796875
0.12391281127929688 -0.8337554931640625 0.88764572143554688
0.11064529418945312 -0.8484344482421875 0.8773651123046875
0.098834991455078125 -0.86194610595703125 0.86371612548828125
0.12752914428710938 -0.88214874267578125 0.83750152587890625
0.16808700561523438 -0.8902740478515625 0.82685470581054688
0.20876693725585938 -0.89795684814453125 0.8141021728515625
0.42220306396484375 -0.9243621826171875 0.69664382934570312
0.44978713989257812 -0.9249725341796875 0.67705154418945312
0.47325515747070312 -0.92243194580078125 0.65965652465820312
0.49188995361328125 -0.90245819091796875 0.67365646362304688
0.48594284057617188 -0.88423919677734375 0.7017364501953125
0.47467803955078125 -0.86197662353515625 0.72891616821289062
0.44725418090820312 -0.8474884033203125 0.76114654541015625
0.43222427368164062 -0.85369873046875 0.76921463012695312
0.41356277465820312 -0.8564453125 0.779205322265625
0.11344146728515625 -0.81079864501953125 0.90245437622070312
0.091167449951171875 -0.802032470703125 0.90835952758789062
0.072101593017578125 -0.791290283203125 0.91275405883789062
0.028507232666015625 -0.79523468017578125 0.90914535522460938
0.002593994140625 -0.81107330322265625 0.8988494873046875
-0.021289825439453125 -0.8242950439453125 0.88413619995117188
-0.016357421875 -0.846832275390625 0.86304473876953125
0.014751434326171875 -0.85712432861328125 0.85934066772460938
0.049816131591796875 -0.8657684326171875 0.85369110107421875
0.50415802001953125 -0.90328216552734375 0.63481521606445312
0.51126480102539062 -0.88491058349609375 0.6275634765625
0.513671875 -0.85993194580078125 0.62282180786132812
0.51608657836914062 -0.8210296630859375 0.65346527099609375
0.50974655151367188 -0.8032684326171875 0.68613433837890625
0.49492645263671875 -0.77809906005859375 0.71723556518554688
0.47420501708984375 -0.7760009765625 0.74665069580078125
0.47212600708007812 -0.80010986328125 0.7481536865234375
0.46703720092773438 -0.8208465576171875 0.75079345703125
0.041759490966796875 -0.75951385498046875 0.91729354858398438
0.0298919677734375 -0.73802947998046875 0.91735076904296875
0.020061492919921875 -0.7142333984375 0.91582107543945312
-0.01949310302734375 -0.70932769775390625 0.90607070922851562
-0.048824310302734375 -0.727569580078125 0.8936309814453125
-0.07476806640625 -0.7405853271484375 0.87375640869140625
-0.08754730224609375 -0.7752532958984375 0.8536224365234375
-0.076648712158203125 -0.79926300048828125 0.8597412109375
-0.06200408935546875 -0.818756103515625 0.86333084106445312
0.50734710693359375 -0.788970947265625 0.61793899536132812
0.4993133544921875 -0.7438507080078125 0.61630630493164062
0.48826217651367188 -0.6938323974609375 0.61413192749023438
0.4801177978515625 -0.6412200927734375 0.6472320556640625
0.47446823120117188 -0.63420867919921875 0.6815032958984375
0.46001052856445312 -0.6217498779296875 0.71285629272460938
0.45335006713867188 -0.65081024169921875 0.74370193481445312
0.46337509155273438 -0.688201904296875 0.745086669921875
0.4699554443359375 -0.7203826904296875 0.745635986328125
0.00539398193359375 -0.66191864013671875 0.90751266479492188
-0.000354766845703125 -0.63277435302734375 0.90016937255859375
-0.00601959228515625 -0.59917449951171875 0.88988876342773438
-0.04503631591796875 -0.56893157958984375 0.86449432373046875
-0.075572967529296875 -0.576690673828125 0.84626388549804688
-0.101776123046875 -0.58098602294921875 0.81995391845703125
-0.11540603637695312 -0.6270294189453125 0.80369186401367188
-0.10943984985351562 -0.6710662841796875 0.82015609741210938
-0.1030731201171875 -0.71099853515625 0.83391952514648438
0.4576873779296875 -0.58301544189453125 0.60506439208984375
0.43924713134765625 -0.5262908935546875 0.59796142578125
0.41967010498046875 -0.47203826904296875 0.59004592895507812
0.40103530883789062 -0.41825103759765625 0.61881256103515625
0.39248275756835938 -0.40946197509765625 0.65404510498046875
0.37662887573242188 -0.398712158203125 0.68634033203125
0.3773956298828125 -0.4405975341796875 0.72253799438476562
0.39965438842773438 -0.49764251708984375 0.72999191284179688
0.42084121704101562 -0.55432891845703125 0.7362060546875
-0.019840240478515625 -0.512603759765625 0.85844802856445312
-0.028049468994140625 -0.4614410400390625 0.83828353881835938
-0.0362091064453125 -0.41008758544921875 0.81693649291992188
-0.07469940185546875 -0.3699951171875 0.77846527099609375
-0.10336685180664062 -0.3782806396484375 0.75457382202148438
-0.12734603881835938 -0.38558197021484375 0.72472000122070312
-0.1407012939453125 -0.43314361572265625 0.71239089965820312
-0.13508224487304688 -0.48043060302734375 0.73700332641601562
-0.12836837768554688 -0.529998779296875 0.76139450073242188
0.23719024658203125 -0.05477142333984375 0.65077590942382812
0.26201629638671875 -0.09429168701171875 0.61183547973632812
0.27939224243164062 -0.12731170654296875 0.57323455810546875
0.32046890258789062 -0.1398773193359375 0.52776718139648438
0.36243820190429688 -0.12853240966796875 0.51398086547851562
0.41102981567382812 -0.11666107177734375 0.49895095825195312
0.45359420776367188 -0.080352783203125 0.51016998291015625
0.44260025024414062 -0.05162811279296875 0.53594589233398438
0.42961502075195312 -0.020050048828125 0.55929183959960938
0.36351394653320312 0.00447845458984375 0.60056304931640625
0.30891036987304688 0.0016937255859375 0.62647247314453125
0.25410842895507812 -5.340576171875e-05 0.65456771850585938
-0.16795730590820312 -0.00339508056640625 0.66954421997070312
-0.23138427734375 -0.0040740966796875 0.64297866821289062
-0.29419708251953125 -0.00371551513671875 0.61749267578125
-0.35887527465820312 -0.0285797119140625 0.58197402954101562
-0.363037109375 -0.05754852294921875 0.56570053100585938
-0.36738967895507812 -0.08406829833984375 0.54601287841796875
-0.31204986572265625 -0.116485595703125 0.53887557983398438
-0.25497817993164062 -0.1264801025390625 0.55224609375
-0.20496368408203125 -0.13668060302734375 0.56396865844726562
-0.15647125244140625 -0.123779296875 0.60524749755859375
-0.142608642578125 -0.09191131591796875 0.6392364501953125
-0.12472915649414062 -0.05399322509765625 0.67221832275390625
0.508209228515625 -0.08402252197265625 0.47278213500976562
0.5521697998046875 -0.0614166259765625 0.46206283569335938
0.59356689453125 -0.03491973876953125 0.45098876953125
0.62740325927734375 0.01616668701171875 0.46103668212890625
0.61699676513671875 0.0410614013671875 0.48213958740234375
0.60200881958007812 0.06667327880859375 0.501068115234375
0.54852294921875 0.062652587890625 0.5296630859375
0.50891876220703125 0.0405120849609375 0.54308700561523438
0.46461105346679688 0.0230255126953125 0.5587921142578125
-0.414459228515625 0.00740814208984375 0.57001876831054688
-0.47058868408203125 0.0192413330078125 0.5469207763671875
-0.523529052734375 0.0346832275390625 0.52286148071289062
-0.58353805541992188 0.03290557861328125 0.4867095947265625
-0.58950424194335938 0.0100555419921875 0.47526168823242188
-0.59162139892578125 -0.01226043701171875 0.46118927001953125
-0.53796005249023438 -0.0529937744140625 0.4709625244140625
-0.48392486572265625 -0.072723388671875 0.49248886108398438
-0.42862701416015625 -0.09014892578125 0.50972747802734375
0.66980743408203125 0.02999114990234375 0.4225921630859375
0.70250701904296875 0.06972503662109375 0.40734100341796875
0.72819137573242188 0.11644744873046875 0.39600372314453125
0.7313995361328125 0.187652587890625 0.41712188720703125
0.7115631103515625 0.20569610595703125 0.44176864624023438
0.68719100952148438 0.2224273681640625 0.46466827392578125
0.65174484252929688 0.19297027587890625 0.48794937133789062
0.63534927368164062 0.1545257568359375 0.49542999267578125
0.6122589111328125 0.1199951171875 0.50566482543945312
-0.6185302734375 0.074951171875 0.46734237670898438
-0.65970993041992188 0.0992889404296875 0.43651199340820312
-0.696044921875 0.126678466796875 0.4061126708984375
-0.74753189086914062 0.14316558837890625 0.3571319580078125
-0.76447677612304688 0.12567138671875 0.33501815795898438
-0.77641677856445312 0.1076507568359375 0.31190109252929688
-0.74102401733398438 0.0523834228515625 0.32646942138671875
-0.694305419921875 0.020172119140625 0.3672332763671875
-0.64368820190429688 -0.00717926025390625 0.407440185546875
0.74793243408203125 0.23635101318359375 0.39950180053710938
0.74119186401367188 0.3044586181640625 0.4137115478515625
0.7254180908203125 0.369232177734375 0.43060302734375
0.6900634765625 0.42807769775390625 0.46731185913085938
0.67224502563476562 0.4269256591796875 0.48499679565429688
0.6512908935546875 0.421356201171875 0.49865341186523438
0.644775390625 0.37314605712890625 0.4991607666015625
0.65598297119140625 0.32868194580078125 0.491302490234375
0.66175079345703125 0.28173065185546875 0.48590469360351562
-0.75188446044921875 0.19219207763671875 0.35310745239257812
-0.77074813842773438 0.22797393798828125 0.33309173583984375
-0.78329849243164062 0.26265716552734375 0.31817245483398438
-0.814300537109375 0.2963409423828125 0.285797119140625
-0.83575439453125 0.295745849609375 0.259735107421875
-0.85114288330078125 0.29195404052734375 0.23244476318359375
-0.85453033447265625 0.2410888671875 0.2165069580078125
-0.83981704711914062 0.190826416015625 0.23388671875
-0.8152008056640625 0.13936614990234375 0.25790786743164062
0.67387008666992188 0.4623870849609375 0.4557342529296875
0.63939285278320312 0.48920440673828125 0.4608612060546875
0.59832763671875 0.5096588134765625 0.46263885498046875
0.54389572143554688 0.531707763671875 0.48740768432617188
0.5357208251953125 0.5281982421875 0.50903701782226562
0.526397705078125 0.51941680908203125 0.525360107421875
0.55676651000976562 0.48545074462890625 0.53054428100585938
0.58760452270507812 0.464752197265625 0.52431106567382812
0.61106109619140625 0.44127655029296875 0.51656341552734375
-0.7884674072265625 0.318817138671875 0.30624008178710938
-0.7804412841796875 0.34067535400390625 0.30820465087890625
-0.76483535766601562 0.361907958984375 0.31322860717773438
-0.75620269775390625 0.39264678955078125 0.29790878295898438
-0.76663970947265625 0.396148681640625 0.27018356323242188
-0.77195358276367188 0.3956298828125 0.23955535888671875
-0.8043060302734375 0.36688995361328125 0.2040863037109375
-0.83098983764648438 0.34395599365234375 0.20075225830078125
-0.84963607788085938 0.31809234619140625 0.20073699951171875
0.49536895751953125 0.552001953125 0.46053314208984375
0.43550491333007812 0.57830047607421875 0.45759963989257812
0.373687744140625 0.60681915283203125 0.4531097412109375
0.301788330078125 0.6415557861328125 0.47315216064453125
0.29241180419921875 0.6385345458984375 0.4969940185546875
0.28555679321289062 0.62828826904296875 0.516143798828125
0.3422088623046875 0.58477020263671875 0.53252029418945312
0.4042205810546875 0.55739593505859375 0.53516387939453125
0.46387100219726562 0.53087615966796875 0.53600692749023438
-0.7093505859375 0.4139404296875 0.32586669921875
-0.6725006103515625 0.44542694091796875 0.33162689208984375
-0.634368896484375 0.47832489013671875 0.33668136596679688
-0.60928726196289062 0.5228424072265625 0.31805038452148438
-0.61720657348632812 0.52862548828125 0.28916549682617188
-0.62163543701171875 0.5279388427734375 0.25751113891601562
-0.65796661376953125 0.4847412109375 0.22359466552734375
-0.6964111328125 0.45023345947265625 0.21945571899414062
-0.7349395751953125 0.41852569580078125 0.21440887451171875
0.25440216064453125 0.66805267333984375 0.43845367431640625
0.19995880126953125 0.69715118408203125 0.4289703369140625
0.1495361328125 0.72130584716796875 0.41960525512695312
0.096637725830078125 0.73813629150390625 0.4398651123046875
0.094921112060546875 0.72914886474609375 0.46735382080078125
0.0985870361328125 0.71136474609375 0.49106216430664062
0.14352035522460938 0.67461395263671875 0.51261138916015625
0.18402481079101562 0.6576385498046875 0.51787185668945312
0.23011016845703125 0.63614654541015625 0.52335739135742188
-0.56847000122070312 0.54087066650390625 0.34383010864257812
-0.54239273071289062 0.5676422119140625 0.34677505493164062
-0.51849746704101562 0.589996337890625 0.3506317138671875
-0.50081253051757812 0.62972259521484375 0.3324127197265625
-0.50376129150390625 0.64472198486328125 0.30217742919921875
-0.50386428833007812 0.65126800537109375 0.26927947998046875
-0.53066253662109375 0.62471771240234375 0.2307586669921875
-0.55965805053710938 0.59356689453125 0.22813034057617188
-0.58941268920898438 0.55825042724609375 0.22730255126953125
0.062122344970703125 0.74240875244140625 0.40547561645507812
0.026195526123046875 0.7368927001953125 0.40237808227539062
-0.00353240966796875 0.72084808349609375 0.40259552001953125
-0.028167724609375 0.69576263427734375 0.4360198974609375
-0.0225830078125 0.68865203857421875 0.4647369384765625
-0.0106201171875 0.6739349365234375 0.48978805541992188
0.025394439697265625 0.672821044921875 0.50443267822265625
0.048583984375 0.6850128173828125 0.50359725952148438
0.076099395751953125 0.68914031982421875 0.5049285888671875
-0.46992874145507812 0.617095947265625 0.365997314453125
-0.44305801391601562 0.6201019287109375 0.37840652465820312
-0.41410446166992188 0.615447998046875 0.39406967163085938
-0.37966156005859375 0.624664306640625 0.3943023681640625
-0.37439346313476562 0.63977813720703125 0.36944580078125
-0.36791229248046875 0.64708709716796875 0.34081649780273438
-0.39833450317382812 0.66204833984375 0.28676223754882812
-0.43426132202148438 0.667999267578125 0.26583480834960938
-0.468597412109375 0.6634521484375 0.2490234375
-0.041812896728515625 0.6574249267578125 0.41530227661132812
-0.0520477294921875 0.6150665283203125 0.42629623413085938
-0.059597015380859375 0.571929931640625 0.43776321411132812
-0.068248748779296875 0.53632354736328125 0.47593307495117188
-0.063266754150390625 0.53426361083984375 0.5023651123046875
-0.0528411865234375 0.5279693603515625 0.5243377685546875
-0.0284576416015625 0.552886962890625 0.53184890747070312
-0.018833160400390625 0.58902740478515625 0.52316665649414062
-0.007671356201171875 0.62331390380859375 0.51478195190429688
-0.34873199462890625 0.58112335205078125 0.43445587158203125
-0.3134002685546875 0.5540771484375 0.45742416381835938
-0.27782058715820312 0.52480316162109375 0.47971725463867188
-0.23517990112304688 0.5079193115234375 0.48736572265625
-0.22784805297851562 0.51549530029296875 0.46754074096679688
-0.22161102294921875 0.51830291748046875 0.44234466552734375
-0.24999618530273438 0.5478057861328125 0.39182281494140625
-0.28592300415039062 0.58365631103515625 0.36568832397460938
-0.32335662841796875 0.61789703369140625 0.33813095092773438
-0.076335906982421875 0.5027313232421875 0.45421218872070312
-0.088100433349609375 0.480926513671875 0.45749664306640625
-0.10233306884765625 0.46734619140625 0.457794189453125
-0.12096023559570312 0.4636993408203125 0.48295974731445312
-0.11977005004882812 0.4581146240234375 0.50880050659179688
-0.11536407470703125 0.44474029541015625 0.5319366455078125
-0.07865142822265625 0.44066619873046875 0.54983139038085938
-0.06197357177734375 0.46355438232421875 0.54724502563476562
-0.048748016357421875 0.489044189453125 0.54408645629882812
-0.21150970458984375 0.472808837890625 0.5146026611328125
-0.18008804321289062 0.45245361328125 0.52713775634765625
-0.14758682250976562 0.43451690673828125 0.53878402709960938
-0.13881683349609375 0.46356201171875 0.45080947875976562
-0.16141891479492188 0.473052978515625 0.4428863525390625
-0.18737030029296875 0.49017333984375 0.43104171752929688
-0.019321441650390625 0.50693511962890625 0.54443740844726562
0.00125885009765625 0.4942779541015625 0.54341506958007812
0.022296905517578125 0.4817657470703125 0.53954696655273438
0.052181243896484375 0.490814208984375 0.53073883056640625
0.064579010009765625 0.50916290283203125 0.52543258666992188
0.079013824462890625 0.524810791015625 0.52080535888671875
0.074432373046875 0.5635986328125 0.51787948608398438
0.051273345947265625 0.5938568115234375 0.51877212524414062
0.0279541015625 0.6246337890625 0.51665115356445312
-0.3826751708984375 0.57468414306640625 0.42203903198242188
-0.38077163696289062 0.54396820068359375 0.4253692626953125
-0.37832260131835938 0.51380157470703125 0.42571640014648438
-0.35321807861328125 0.47998046875 0.439483642578125
-0.32895278930664062 0.4694366455078125 0.4537506103515625
-0.30464553833007812 0.45598602294921875 0.4683685302734375
-0.27149581909179688 0.4534149169921875 0.48910140991210938
-0.2619171142578125 0.46826934814453125 0.496551513671875
-0.252471923828125 0.48310089111328125 0.50122833251953125
0.11248779296875 0.5458831787109375 0.51478195190429688
0.1314849853515625 0.55084991455078125 0.51360321044921875
0.15241241455078125 0.55234527587890625 0.51362228393554688
0.15916061401367188 0.58101654052734375 0.51567459106445312
0.14065170288085938 0.61634063720703125 0.51700973510742188
0.12264633178710938 0.65245819091796875 0.51566314697265625
-0.486297607421875 0.57691192626953125 0.37171554565429688
-0.47631454467773438 0.54355621337890625 0.38045501708984375
-0.46643447875976562 0.51093292236328125 0.38576507568359375
-0.43866729736328125 0.48873138427734375 0.39698028564453125
-0.41877365112304688 0.4916229248046875 0.40499496459960938
-0.39822006225585938 0.4912567138671875 0.41475296020507812
0.20151519775390625 0.5452423095703125 0.51699066162109375
0.230804443359375 0.53693389892578125 0.51959228515625
0.2642364501953125 0.52597808837890625 0.52191925048828125
0.2967071533203125 0.5351104736328125 0.52543258666992188
0.29010391235351562 0.5613861083984375 0.52936172485351562
0.284759521484375 0.58792877197265625 0.53160858154296875
-0.58580780029296875 0.4918975830078125 0.3543701171875
-0.57236099243164062 0.469696044921875 0.36205291748046875
-0.5594940185546875 0.447357177734375 0.36709213256835938
-0.5223236083984375 0.44588470458984375 0.37786865234375
-0.49922561645507812 0.4610595703125 0.38189315795898438
-0.47813796997070312 0.47339630126953125 0.38587188720703125
0.34629440307617188 0.4967498779296875 0.52334976196289062
0.39209365844726562 0.4792327880859375 0.52220916748046875
0.4361572265625 0.46075439453125 0.52043914794921875
0.48477554321289062 0.4560394287109375 0.52350234985351562
0.49523162841796875 0.47287750244140625 0.53013992309570312
0.50580978393554688 0.4902496337890625 0.53503036499023438
-0.7225494384765625 0.37529754638671875 0.33255386352539062
-0.70183563232421875 0.36370849609375 0.33965682983398438
-0.68109512329101562 0.35222625732421875 0.343963623046875
-0.6383514404296875 0.36399078369140625 0.35263442993164062
-0.60938644409179688 0.3861236572265625 0.35891342163085938
-0.57848739624023438 0.40781402587890625 0.36613845825195312
0.50438308715820312 0.4228973388671875 0.51715469360351562
0.52659225463867188 0.40320587158203125 0.51615142822265625
0.5430450439453125 0.38219451904296875 0.51569366455078125
0.5717620849609375 0.3701324462890625 0.51465225219726562
0.58964157104492188 0.38402557373046875 0.51426315307617188
0.60880661010742188 0.39861297607421875 0.51261520385742188
-0.76288604736328125 0.2878265380859375 0.32781219482421875
-0.7366485595703125 0.2802581787109375 0.34319686889648438
-0.71184158325195312 0.27271270751953125 0.35630035400390625
-0.69118499755859375 0.28623199462890625 0.35808944702148438
-0.68777084350585938 0.30475616455078125 0.35149765014648438
-0.678497314453125 0.3232421875 0.34827804565429688
0.56501007080078125 0.332733154296875 0.51665496826171875
0.571075439453125 0.30425262451171875 0.5183868408203125
0.57246780395507812 0.2744293212890625 0.52147293090820312
0.58807373046875 0.2440032958984375 0.51891326904296875
0.61061859130859375 0.24402618408203125 0.51031875610351562
0.6350555419921875 0.24198150634765625 0.49916839599609375
-0.70401763916015625 0.1666259765625 0.39574432373046875
-0.6804962158203125 0.17183685302734375 0.41155242919921875
-0.65797805786132812 0.17514801025390625 0.42525863647460938
-0.65940475463867188 0.20072174072265625 0.41578292846679688
-0.67459869384765625 0.22350311279296875 0.39709854125976562
-0.68450164794921875 0.2457733154296875 0.381072998046875
0.55675125122070312 0.21369171142578125 0.53281021118164062
0.5399169921875 0.184814453125 0.54095077514648438
0.518798828125 0.1584320068359375 0.5500335693359375
0.51461029052734375 0.12665557861328125 0.55123138427734375
0.53731918334960938 0.1173553466796875 0.54182052612304688
0.5608367919921875 0.10552978515625 0.53084182739257812
-0.55681610107421875 0.06903839111328125 0.50634765625
-0.53788375854492188 0.0810546875 0.51541519165039062
-0.51907730102539062 0.09101104736328125 0.5237884521484375
-0.54066848754882812 0.1162567138671875 0.5088348388671875
-0.57690048217773438 0.13501739501953125 0.48471450805664062
-0.60999679565429688 0.1558380126953125 0.46026611328125
0.46899795532226562 0.11739349365234375 0.5693817138671875
0.440704345703125 0.1044769287109375 0.57917022705078125
0.408966064453125 0.09741973876953125 0.58879470825195312
0.3813323974609375 0.07938385009765625 0.59618377685546875
0.39157485961914062 0.05971527099609375 0.59369277954101562
0.40325927734375 0.03710174560546875 0.58829879760742188
-0.3535614013671875 0.0235443115234375 0.5978240966796875
-0.35290145874023438 0.044219970703125 0.59810256958007812
-0.35335922241210938 0.06231689453125 0.59616470336914062
-0.39263153076171875 0.07593536376953125 0.58236312866210938
-0.42966079711914062 0.07952880859375 0.56803131103515625
-0.46632766723632812 0.0879058837890625 0.55102920532226562
0.33135604858398438 0.10320281982421875 0.6074676513671875
0.28787994384765625 0.11456298828125 0.615478515625
0.24554824829101562 0.1289215087890625 0.62122344970703125
0.20343017578125 0.11992645263671875 0.63457107543945312
0.1992950439453125 0.08867645263671875 0.649993896484375
0.1962738037109375 0.04988861083984375 0.66802978515625
-0.13416671752929688 0.044677734375 0.67407608032226562
-0.16498565673828125 0.0802764892578125 0.6503448486328125
-0.19229888916015625 0.10875701904296875 0.62987136840820312
-0.24329376220703125 0.11460113525390625 0.61461639404296875
-0.27774810791015625 0.09925079345703125 0.61068344116210938
-0.31577682495117188 0.0865020751953125 0.60387420654296875
0.17785263061523438 0.158935546875 0.62239456176757812
0.15417861938476562 0.17333221435546875 0.61806106567382812
0.135009765625 0.1881256103515625 0.61192703247070312
0.099578857421875 0.186767578125 0.60718917846679688
0.074970245361328125 0.165863037109375 0.61100387573242188
0.04528045654296875 0.14165496826171875 0.61603164672851562
0.061557769775390625 0.08313751220703125 0.64399337768554688
0.10431289672851562 0.0597686767578125 0.6626129150390625
0.14601898193359375 0.0338592529296875 0.67914581298828125
-0.071926116943359375 0.0317840576171875 0.68613433837890625
-0.050609588623046875 0.057769775390625 0.66599273681640625
-0.027629852294921875 0.08153533935546875 0.64489364624023438
-0.0546112060546875 0.13787841796875 0.61249923706054688
-0.10011672973632812 0.15877532958984375 0.60356521606445312
-0.13843154907226562 0.17667388916015625 0.59587860107421875
-0.173095703125 0.175384521484375 0.59844207763671875
-0.18119049072265625 0.160430908203125 0.6058502197265625
-0.19460296630859375 0.145782470703125 0.61181259155273438
0.0302734375 0.40077972412109375 0.55334854125976562
0.031280517578125 0.42476654052734375 0.54757308959960938
0.035308837890625 0.4481048583984375 0.5418853759765625
-0.058963775634765625 0.402069091796875 0.55965805053710938
-0.023792266845703125 0.39151763916015625 0.5604248046875
0.0066986083984375 0.38285064697265625 0.55958938598632812
-0.186065673828125 0.3682861328125 0.53547286987304688
-0.1637725830078125 0.380889892578125 0.54256439208984375
-0.13823318481445312 0.39597320556640625 0.54919052124023438
-0.25875473022460938 0.421661376953125 0.49595260620117188
-0.23852157592773438 0.40175628662109375 0.50829315185546875
-0.22058486938476562 0.38053131103515625 0.51955795288085938
0.054607391357421875 0.30533599853515625 0.57703018188476562
0.045032501220703125 0.32855987548828125 0.57109832763671875
0.037395477294921875 0.352264404296875 0.56511688232421875
-0.089000701904296875 0.37348175048828125 0.5614471435546875
-0.07590484619140625 0.33821868896484375 0.56664276123046875
-0.0637054443359375 0.30478668212890625 0.57155227661132812
-0.018680572509765625 0.27435302734375 0.57863998413085938
0.013050079345703125 0.27685546875 0.57986068725585938
0.041652679443359375 0.27967071533203125 0.58097457885742188
-0.14664459228515625 0.2687835693359375 0.5655670166015625
-0.1174468994140625 0.26940155029296875 0.56917190551757812
-0.085418701171875 0.27063751220703125 0.57319259643554688
-0.19315719604492188 0.33611297607421875 0.5394134521484375
-0.18374252319335938 0.31354522705078125 0.5480499267578125
-0.17668533325195312 0.29114532470703125 0.55603790283203125
-0.040470123291015625 0.23941802978515625 0.58244705200195312
-0.028125762939453125 0.204345703125 0.590484619140625
-0.014133453369140625 0.1648712158203125 0.602386474609375
0.10379791259765625 0.22159576416015625 0.59927749633789062
0.09006500244140625 0.24080657958984375 0.59369277954101562
0.077350616455078125 0.2613372802734375 0.5882568359375
-0.16810226440429688 0.24796295166015625 0.57015609741210938
-0.16634750366210938 0.227691650390625 0.57677078247070312
-0.16647720336914062 0.20877838134765625 0.58351516723632812
0.38038253784179688 -0.83709716796875 0.80875778198242188
0.36712646484375 -0.8172454833984375 0.82537460327148438
0.3532257080078125 -0.79929351806640625 0.83973312377929688
0.32573318481445312 -0.7880859375 0.85640335083007812
0.30978012084960938 -0.78961181640625 0.86261749267578125
0.29310989379882812 -0.78924560546875 0.8691253662109375
0.2754364013671875 -0.79940032958984375 0.87197113037109375
0.27425765991210938 -0.814056396484375 0.86614990234375
0.27241134643554688 -0.83013153076171875 0.85870361328125
0.25862503051757812 -0.7841033935546875 0.88274383544921875
0.24140548706054688 -0.77948760986328125 0.88956832885742188
0.2245025634765625 -0.77323150634765625 0.89621734619140625
0.19364166259765625 -0.77576446533203125 0.90311431884765625
0.17606353759765625 -0.7886962890625 0.90236663818359375
0.15725326538085938 -0.8032379150390625 0.8997955322265625
0.43909454345703125 -0.8099517822265625 0.77942657470703125
0.41767501831054688 -0.78331756591796875 0.80133438110351562
0.39683151245117188 -0.75928497314453125 0.81978607177734375
0.37374496459960938 -0.7565765380859375 0.83699798583984375
0.36526870727539062 -0.7691192626953125 0.84090423583984375
0.353973388671875 -0.7782440185546875 0.845458984375
0.19245529174804688 -0.7551116943359375 0.90798568725585938
0.17793655395507812 -0.7426910400390625 0.91260910034179688
0.16478729248046875 -0.72745513916015625 0.91591262817382812
0.13405227661132812 -0.7227020263671875 0.91933441162109375
0.1101837158203125 -0.73968505859375 0.920135498046875
0.083526611328125 -0.7584075927734375 0.91916275024414062
0.44698333740234375 -0.71900177001953125 0.7718505859375
0.41727066040039062 -0.6897125244140625 0.79492950439453125
0.38593673706054688 -0.662689208984375 0.81550979614257812
0.36773300170898438 -0.66728973388671875 0.8309173583984375
0.3759307861328125 -0.6935882568359375 0.83017349243164062
0.37950897216796875 -0.71822357177734375 0.83131790161132812
0.14401626586914062 -0.6873016357421875 0.9167327880859375
0.13787078857421875 -0.66332244873046875 0.91419601440429688
0.13620376586914062 -0.6389923095703125 0.91016387939453125
0.10807418823242188 -0.6290130615234375 0.90979766845703125
0.076175689697265625 -0.6470947265625 0.91350936889648438
0.043975830078125 -0.6673126220703125 0.91471099853515625
0.33131790161132812 -0.378173828125 0.73705673217773438
0.30529022216796875 -0.37024688720703125 0.75508880615234375
0.27882766723632812 -0.36391448974609375 0.769073486328125
0.27307891845703125 -0.41033935546875 0.79109573364257812
0.29407882690429688 -0.4631805419921875 0.80149078369140625
0.31401443481445312 -0.51348114013671875 0.81069183349609375
0.35910797119140625 -0.56620025634765625 0.80364608764648438
0.38754653930664062 -0.5782928466796875 0.78606796264648438
0.41464996337890625 -0.5920867919921875 0.76526641845703125
0.020843505859375 -0.55117034912109375 0.88279342651367188
0.053668975830078125 -0.54384613037109375 0.8851776123046875
0.08571624755859375 -0.53798675537109375 0.88428115844726562
0.10799789428710938 -0.49378204345703125 0.86745834350585938
0.098388671875 -0.446380615234375 0.85131454467773438
0.0877685546875 -0.39630126953125 0.833770751953125
0.048786163330078125 -0.3492584228515625 0.8162384033203125
0.01898956298828125 -0.3520050048828125 0.81383895874023438
-0.012081146240234375 -0.356170654296875 0.8075714111328125
0.34156036376953125 -0.5873260498046875 0.82371902465820312
0.34820175170898438 -0.60932159423828125 0.82781600952148438
0.35141754150390625 -0.6253814697265625 0.83121490478515625
0.13488006591796875 -0.6007843017578125 0.9009857177734375
0.12923049926757812 -0.58514404296875 0.8967742919921875
0.12326812744140625 -0.56397247314453125 0.8903656005859375
0.23657989501953125 -0.3152618408203125 0.76821136474609375
0.22307586669921875 -0.276580810546875 0.75698089599609375
0.21240234375 -0.2420196533203125 0.746917724609375
0.18479156494140625 -0.218780517578125 0.74971389770507812
0.16617584228515625 -0.22628021240234375 0.75682830810546875
0.14689254760742188 -0.23085784912109375 0.76208877563476562
0.13314437866210938 -0.25276947021484375 0.77039337158203125
0.14215850830078125 -0.2796478271484375 0.77916717529296875
0.15336227416992188 -0.31285858154296875 0.79070663452148438
0.18708038330078125 -0.3538665771484375 0.79967117309570312
0.207916259765625 -0.35491180419921875 0.79459762573242188
0.22973251342773438 -0.35643768310546875 0.78818511962890625
0.10160446166992188 -0.34845733642578125 0.81439971923828125
0.12452316284179688 -0.34964752197265625 0.81163406372070312
0.14595794677734375 -0.35135650634765625 0.80804443359375
0.10509109497070312 -0.22943115234375 0.7676239013671875
0.081874847412109375 -0.22347259521484375 0.76803970336914062
0.05687713623046875 -0.21469879150390625 0.76656341552734375
0.040924072265625 -0.235443115234375 0.77188491821289062
0.05306243896484375 -0.26885986328125 0.78450393676757812
0.064968109130859375 -0.30605316162109375 0.79951095581054688
0.25053787231445312 -0.5419769287109375 0.84781265258789062
0.27656173706054688 -0.545013427734375 0.83961868286132812
0.3031463623046875 -0.54947662353515625 0.82997894287109375
0.181610107421875 -0.3996734619140625 0.81781387329101562
0.19709014892578125 -0.44936370849609375 0.83156585693359375
0.21190643310546875 -0.4976043701171875 0.84433746337890625
0.14520263671875 -0.533538818359375 0.875946044921875
0.17255401611328125 -0.5345001220703125 0.86973190307617188
0.19894790649414062 -0.536773681640625 0.86270523071289062
0.23461151123046875 -0.57132720947265625 0.8639068603515625
0.24188232421875 -0.59452056884765625 0.87022781372070312
0.246856689453125 -0.611175537109375 0.87450408935546875
0.27469253540039062 -0.62368011474609375 0.86833953857421875
0.29887008666992188 -0.6236572265625 0.85874557495117188
0.32355880737304688 -0.6263427734375 0.84804153442382812
0.1704864501953125 -0.609222412109375 0.8970794677734375
0.19745635986328125 -0.61234283447265625 0.89080047607421875
0.22412109375 -0.61810302734375 0.88421630859375
0.21155548095703125 -0.184844970703125 0.73104476928710938
0.21496200561523438 -0.16664886474609375 0.72573089599609375
0.21526336669921875 -0.14929962158203125 0.72139358520507812
0.20948410034179688 -0.12662506103515625 0.7253875732421875
0.20907974243164062 -0.12166595458984375 0.734039306640625
0.2094879150390625 -0.11676788330078125 0.74292755126953125
0.21066665649414062 -0.1269073486328125 0.75579452514648438
0.20758819580078125 -0.14028167724609375 0.75872421264648438
0.20058441162109375 -0.1523895263671875 0.76115798950195312
0.190704345703125 -0.17057037353515625 0.75747299194335938
0.19160079956054688 -0.178863525390625 0.75063323974609375
0.19470977783203125 -0.18994140625 0.74433517456054688
0.0300140380859375 -0.18523406982421875 0.76442718505859375
0.030284881591796875 -0.17452239990234375 0.7697296142578125
0.030033111572265625 -0.1664581298828125 0.776123046875
0.012447357177734375 -0.14794158935546875 0.7821502685546875
-0.00211334228515625 -0.13558197021484375 0.7812347412109375
-0.013713836669921875 -0.12235260009765625 0.778900146484375
-0.0239410400390625 -0.11243438720703125 0.7657318115234375
-0.02477264404296875 -0.11724853515625 0.75701522827148438
-0.026275634765625 -0.12212371826171875 0.74873733520507812
-0.021625518798828125 -0.14398956298828125 0.74666595458984375
-0.0102386474609375 -0.16106414794921875 0.75123977661132812
0.00498199462890625 -0.17928314208984375 0.75597000122070312
0.204559326171875 -0.11196136474609375 0.71317291259765625
0.19327926635742188 -0.092071533203125 0.70880889892578125
0.17823028564453125 -0.0735015869140625 0.70436477661132812
0.160858154296875 -0.05979156494140625 0.703521728515625
0.162628173828125 -0.0579071044921875 0.70935821533203125
0.16437530517578125 -0.0539703369140625 0.71672821044921875
0.18069839477539062 -0.06292724609375 0.73085403442382812
0.19356536865234375 -0.07855987548828125 0.73799896240234375
0.20341873168945312 -0.09546661376953125 0.74531173706054688
-0.0288543701171875 -0.09197998046875 0.76644515991210938
-0.031986236572265625 -0.075836181640625 0.75696182250976562
-0.031402587890625 -0.06104278564453125 0.74723434448242188
-0.0263824462890625 -0.05263519287109375 0.73033905029296875
-0.025333404541015625 -0.0564422607421875 0.72283554077148438
-0.0248565673828125 -0.05838775634765625 0.71689605712890625
-0.034000396728515625 -0.07135772705078125 0.72092056274414062
-0.036632537841796875 -0.08911895751953125 0.72835540771484375
-0.03495025634765625 -0.10805511474609375 0.7353363037109375
0.1375885009765625 -0.045745849609375 0.69553756713867188
0.11339187622070312 -0.03891754150390625 0.6923675537109375
0.088329315185546875 -0.03794097900390625 0.69173049926757812
0.082218170166015625 -0.04962158203125 0.70298004150390625
0.093090057373046875 -0.0482635498046875 0.71020126342773438
0.100433349609375 -0.04453277587890625 0.71788406372070312
0.11803436279296875 -0.03723907470703125 0.72227096557617188
0.1330718994140625 -0.0375213623046875 0.7208404541015625
0.14937591552734375 -0.0418243408203125 0.72174072265625
-0.0168914794921875 -0.04097747802734375 0.73280715942382812
-0.0038299560546875 -0.0370941162109375 0.72957229614257812
0.0112457275390625 -0.0369720458984375 0.7289276123046875
0.031040191650390625 -0.044219970703125 0.72212982177734375
0.03740692138671875 -0.04803466796875 0.71368026733398438
0.046173095703125 -0.049468994140625 0.70521163940429688
0.02979278564453125 -0.037689208984375 0.69543838500976562
0.005950927734375 -0.038330078125 0.69931793212890625
-0.012889862060546875 -0.0448150634765625 0.70563507080078125
0.0674591064453125 -0.05892181396484375 0.70690155029296875
0.07129669189453125 -0.06725311279296875 0.71468353271484375
0.0730743408203125 -0.06943511962890625 0.72043228149414062
0.07427978515625 -0.07073211669921875 0.72458648681640625
0.075672149658203125 -0.07227325439453125 0.7295684814453125
0.0764923095703125 -0.06966400146484375 0.73727035522460938
0.084346771240234375 -0.06279754638671875 0.74363327026367188
0.090312957763671875 -0.05590057373046875 0.73828887939453125
0.096832275390625 -0.04776763916015625 0.73183441162109375
0.04193878173828125 -0.04764556884765625 0.73519134521484375
0.0556182861328125 -0.055877685546875 0.74037551879882812
0.06755828857421875 -0.0627593994140625 0.74461746215820312
0.12053298950195312 -0.19837188720703125 0.77545166015625
0.12121963500976562 -0.2065582275390625 0.76972579956054688
0.12298583984375 -0.217254638671875 0.76593399047851562
0.17650985717773438 -0.17426300048828125 0.76844406127929688
0.1601104736328125 -0.18310546875 0.7733612060546875
0.14123153686523438 -0.1890716552734375 0.77798080444335938
0.097286224365234375 -0.1879119873046875 0.78313446044921875
0.07373809814453125 -0.18096160888671875 0.78354263305664062
0.050933837890625 -0.1710662841796875 0.78314590454101562
0.11543655395507812 -0.16370391845703125 0.79244232177734375
0.11769485473632812 -0.17411041259765625 0.78986358642578125
0.11924362182617188 -0.18312835693359375 0.7862548828125
0.18787002563476562 -0.15647125244140625 0.76981353759765625
0.184295654296875 -0.14965057373046875 0.77470016479492188
0.1794891357421875 -0.14385223388671875 0.77880096435546875
0.16528701782226562 -0.14292144775390625 0.78421401977539062
0.15057373046875 -0.1468353271484375 0.78763961791992188
0.13263320922851562 -0.15009307861328125 0.79117584228515625
0.090862274169921875 -0.149261474609375 0.7957916259765625
0.07006072998046875 -0.1450042724609375 0.7964935302734375
0.052097320556640625 -0.140380859375 0.796600341796875
0.036426544189453125 -0.1405792236328125 0.79459762573242188
0.03307342529296875 -0.1461639404296875 0.79159927368164062
0.031017303466796875 -0.1526641845703125 0.7876129150390625
0.078647613525390625 -0.0640869140625 0.75520706176757812
0.080814361572265625 -0.06485748291015625 0.7642364501953125
0.084041595458984375 -0.0690155029296875 0.77373504638671875
0.10545730590820312 -0.0694580078125 0.77625656127929688
0.11317825317382812 -0.05951690673828125 0.7682037353515625
0.11823654174804688 -0.05138397216796875 0.76073074340820312
0.11783218383789062 -0.04294586181640625 0.74997329711914062
0.11379241943359375 -0.04007720947265625 0.74259185791015625
0.10983657836914062 -0.03934478759765625 0.73439407348632812
0.02524566650390625 -0.0390472412109375 0.73972702026367188
0.025043487548828125 -0.0397796630859375 0.74835205078125
0.02570343017578125 -0.042510986328125 0.756195068359375
0.034824371337890625 -0.050994873046875 0.76678466796875
0.047756195068359375 -0.05921173095703125 0.77310943603515625
0.064487457275390625 -0.069091796875 0.77950286865234375
0.1296844482421875 -0.0457305908203125 0.7551116943359375
0.14112472534179688 -0.04669189453125 0.7548828125
0.15288162231445312 -0.04985809326171875 0.75470352172851562
0.16378021240234375 -0.05088043212890625 0.74929428100585938
0.16544723510742188 -0.0487518310546875 0.74187088012695312
0.16605377197265625 -0.048492431640625 0.7335968017578125
-0.024501800537109375 -0.0472564697265625 0.74723434448242188
-0.020442962646484375 -0.0475311279296875 0.75542449951171875
-0.01462554931640625 -0.04946136474609375 0.76264572143554688
-0.00247955322265625 -0.0486907958984375 0.76638031005859375
0.007190704345703125 -0.04583740234375 0.76467514038085938
0.01788330078125 -0.04511260986328125 0.76306533813476562
0.1675567626953125 -0.06070709228515625 0.75999069213867188
0.17429351806640625 -0.0717010498046875 0.7668914794921875
0.1800384521484375 -0.08489990234375 0.77349472045898438
0.19549560546875 -0.10143280029296875 0.773529052734375
0.2032012939453125 -0.1046600341796875 0.76719284057617188
0.20757293701171875 -0.10817718505859375 0.75979232788085938
-0.01943206787109375 -0.10406494140625 0.78188323974609375
-0.013919830322265625 -0.10074615478515625 0.78827667236328125
-0.00547027587890625 -0.09799957275390625 0.7930145263671875
-0.00014495849609375 -0.0822296142578125 0.78993988037109375
-0.005157470703125 -0.06952667236328125 0.78224945068359375
-0.008052825927734375 -0.05889892578125 0.7741241455078125
0.18422317504882812 -0.1108856201171875 0.781097412109375
0.18233871459960938 -0.1221923828125 0.78190231323242188
0.17871856689453125 -0.13232421875 0.7818756103515625
0.032176971435546875 -0.1291656494140625 0.797637939453125
0.02292633056640625 -0.118927001953125 0.79860305786132812
0.0142669677734375 -0.1076507568359375 0.79833984375
0.12128448486328125 -0.087615966796875 0.78554153442382812
0.145904541015625 -0.09191131591796875 0.78442001342773438
0.16688919067382812 -0.09542083740234375 0.78213882446289062
0.02252197265625 -0.09300994873046875 0.79607391357421875
0.0418853759765625 -0.0902862548828125 0.79436492919921875
0.06375885009765625 -0.08672332763671875 0.79094696044921875
0.097736358642578125 -0.1023406982421875 0.79186248779296875
0.10359954833984375 -0.1205596923828125 0.79441070556640625
0.10846710205078125 -0.1370086669921875 0.79494476318359375
