# XYZ point cloud file
0.16781997680664062 -0.40508270263671875 0.83250045776367188
0.1216583251953125 -0.40309906005859375 0.84084701538085938
0.14386367797851562 -0.5001983642578125 0.8727874755859375
0.19529342651367188 -0.50243377685546875 0.86076736450195312
0.3017578125 -0.6050262451171875 0.86215972900390625
0.30550384521484375 -0.62026214599609375 0.86603164672851562
0.32834625244140625 -0.60861968994140625 0.85095977783203125
0.2951202392578125 -0.5831756591796875 0.85662841796875
0.27587890625 -0.603546142578125 0.87166976928710938
0.2802276611328125 -0.6196136474609375 0.87578964233398438
0.33156204223632812 -0.62371826171875 0.85474014282226562
0.32186126708984375 -0.58724212646484375 0.84609222412109375
0.26888656616210938 -0.58083343505859375 0.865631103515625
0.19558334350585938 -0.59368133544921875 0.8947296142578125
0.16698837280273438 -0.591156005859375 0.90105819702148438
0.20096969604492188 -0.60892486572265625 0.89867401123046875
0.22323226928710938 -0.5979461669921875 0.88771438598632812
0.18889999389648438 -0.571990966796875 0.88848876953125
0.16065216064453125 -0.57027435302734375 0.89482879638671875
0.17264938354492188 -0.60601043701171875 0.90505599975585938
0.22843170166015625 -0.61394500732421875 0.89181900024414062
0.21612167358398438 -0.57523345947265625 0.8813629150390625
0.2159576416015625 -0.15891265869140625 0.75226974487304688
0.21851730346679688 -0.14404296875 0.74833297729492188
0.21574783325195312 -0.1526641845703125 0.76049423217773438
0.20956039428710938 -0.17279815673828125 0.75600433349609375
0.21769332885742188 -0.16577911376953125 0.74386215209960938
0.21948623657226562 -0.14974212646484375 0.73955154418945312
0.2186431884765625 -0.13858795166015625 0.757049560546875
0.2089080810546875 -0.16547393798828125 0.76357269287109375
0.2122039794921875 -0.18183135986328125 0.74849319458007812
0.00429534912109375 -0.15439605712890625 0.77558517456054688
0.00493621826171875 -0.1482391357421875 0.78347396850585938
-0.00778961181640625 -0.1397247314453125 0.77210617065429688
0.002498626708984375 -0.1610870361328125 0.76790237426757812
0.01959991455078125 -0.168365478515625 0.77783966064453125
0.019878387451171875 -0.16112518310546875 0.78501129150390625
-0.007007598876953125 -0.1343536376953125 0.78058242797851562
-0.009639739990234375 -0.14528656005859375 0.76382064819335938
0.018310546875 -0.17716217041015625 0.77130126953125
0.200408935546875 -0.09314727783203125 0.73058319091796875
0.18680572509765625 -0.07720947265625 0.72417449951171875
0.20109176635742188 -0.0887908935546875 0.73879623413085938
0.21062088012695312 -0.110595703125 0.73738861083984375
0.20010757446289062 -0.0967254638671875 0.72356414794921875
0.18600845336914062 -0.08005523681640625 0.7179412841796875
0.18784332275390625 -0.07315826416015625 0.73188400268554688
0.21117019653320312 -0.10604095458984375 0.74602890014648438
0.210662841796875 -0.11489105224609375 0.72942733764648438
-0.025699615478515625 -0.091094970703125 0.74992752075195312
-0.025333404541015625 -0.0867462158203125 0.7581024169921875
-0.024059295654296875 -0.07605743408203125 0.740753173828125
-0.026470184326171875 -0.094635009765625 0.74304580688476562
-0.023136138916015625 -0.1075439453125 0.75897979736328125
-0.022441864013671875 -0.1030426025390625 0.76755142211914062
-0.024250030517578125 -0.07195281982421875 0.74852371215820312
-0.0242767333984375 -0.0787506103515625 0.73455047607421875
-0.0242767333984375 -0.11181640625 0.75129318237304688
0.13269805908203125 -0.0512542724609375 0.7150421142578125
0.11481475830078125 -0.05108642578125 0.716400146484375
0.13721466064453125 -0.04779815673828125 0.72250747680664062
0.15181350708007812 -0.0556182861328125 0.71590423583984375
0.1271514892578125 -0.0515289306640625 0.70827102661132812
0.10591888427734375 -0.051727294921875 0.70916366577148438
0.12118148803710938 -0.04763031005859375 0.7240142822265625
0.15474319458007812 -0.05204010009765625 0.7232666015625
0.1485595703125 -0.056549072265625 0.70974349975585938
0.010204315185546875 -0.05130767822265625 0.72306442260742188
0.00655364990234375 -0.04785919189453125 0.730987548828125
0.028041839599609375 -0.0513458251953125 0.7219085693359375
0.01338958740234375 -0.051666259765625 0.71576690673828125
-0.005580902099609375 -0.055419921875 0.72668838500976562
-0.0077362060546875 -0.05185699462890625 0.73431015014648438
0.02262115478515625 -0.047760009765625 0.73018264770507812
0.03450775146484375 -0.05190277099609375 0.71371841430664062
-0.0041961669921875 -0.0563507080078125 0.72026443481445312
0.089778900146484375 -0.07067108154296875 0.73196029663085938
0.08695220947265625 -0.07675933837890625 0.7369842529296875
0.09416961669921875 -0.0665283203125 0.73948287963867188
0.09349822998046875 -0.06238555908203125 0.72573471069335938
0.08454132080078125 -0.07330322265625 0.72652053833007812
0.083740234375 -0.07704925537109375 0.73197555541992188
0.089565277099609375 -0.07347869873046875 0.74456024169921875
0.099781036376953125 -0.05828094482421875 0.73333740234375
0.08477783203125 -0.06502532958984375 0.71929931640625
0.069431304931640625 -0.07070159912109375 0.73318862915039062
0.06574249267578125 -0.0666046142578125 0.74118804931640625
0.07757568359375 -0.07675933837890625 0.73754119873046875
0.07390594482421875 -0.07329559326171875 0.72713088989257812
0.05876922607421875 -0.0625152587890625 0.72781753540039062
0.05319976806640625 -0.05837249755859375 0.73611831665039062
0.076152801513671875 -0.07349395751953125 0.745391845703125
0.0789337158203125 -0.07698822021484375 0.73226165771484375
0.0663299560546875 -0.0650482177734375 0.72040557861328125
0.16886138916015625 -0.2055206298828125 0.77101516723632812
0.17045974731445312 -0.21681976318359375 0.7669219970703125
0.18561172485351562 -0.19666290283203125 0.76549148559570312
0.16839218139648438 -0.197021484375 0.77683258056640625
0.14992904663085938 -0.21128082275390625 0.77582168579101562
0.151336669921875 -0.22219085693359375 0.77202987670898438
0.18803787231445312 -0.2082672119140625 0.76047515869140625
0.184844970703125 -0.1881103515625 0.77173995971679688
0.14942169189453125 -0.203033447265625 0.78154373168945312
0.082820892333984375 -0.2032012939453125 0.7816009521484375
0.05962371826171875 -0.19329071044921875 0.78081130981445312
0.085079193115234375 -0.2144012451171875 0.77782058715820312
0.10622406005859375 -0.2101898193359375 0.78125
0.08180999755859375 -0.1947784423828125 0.78730392456054688
0.058895111083984375 -0.1849365234375 0.786773681640625
0.06081390380859375 -0.20453643798828125 0.77651214599609375
0.10849761962890625 -0.22112274169921875 0.77753067016601562
0.10531234741210938 -0.2019195556640625 0.78692626953125
0.16366958618164062 -0.1733856201171875 0.79207611083984375
0.1661529541015625 -0.181884765625 0.78804779052734375
0.17921066284179688 -0.16555023193359375 0.78777694702148438
0.16080093383789062 -0.163970947265625 0.79516983032226562
0.1456146240234375 -0.178802490234375 0.79630661010742188
0.14765548706054688 -0.187744140625 0.79251861572265625
0.18224716186523438 -0.1732635498046875 0.78339385986328125
0.17554855346679688 -0.15801239013671875 0.79129409790039062
0.14311599731445312 -0.16863250732421875 0.79904937744140625
0.08115386962890625 -0.17142486572265625 0.80155181884765625
0.059906005859375 -0.1627349853515625 0.8013763427734375
0.081447601318359375 -0.17987060546875 0.7979583740234375
0.10348892211914062 -0.17787933349609375 0.8011474609375
0.080280303955078125 -0.16225433349609375 0.804229736328125
0.0609130859375 -0.15538787841796875 0.80418777465820312
0.059093475341796875 -0.17028045654296875 0.79769515991210938
0.10448455810546875 -0.1867523193359375 0.79758834838867188
0.10163497924804688 -0.16770172119140625 0.8037261962890625
0.10565185546875 -0.0614013671875 0.76490402221679688
0.097881317138671875 -0.06841278076171875 0.7708587646484375
0.1115264892578125 -0.063385009765625 0.7722930908203125
0.1130218505859375 -0.05352020263671875 0.75820159912109375
0.10147857666015625 -0.0611724853515625 0.75664901733398438
0.094493865966796875 -0.0678863525390625 0.76217269897460938
0.1030120849609375 -0.0716552734375 0.77936553955078125
0.11826705932617188 -0.05560302734375 0.76527023315429688
0.10868072509765625 -0.05306243896484375 0.750091552734375
0.061801910400390625 -0.061279296875 0.76779556274414062
0.0603485107421875 -0.06322479248046875 0.77593994140625
0.075984954833984375 -0.06839752197265625 0.77231597900390625
0.062397003173828125 -0.06108856201171875 0.75912094116210938
0.047298431396484375 -0.0532989501953125 0.762481689453125
0.0462799072265625 -0.055389404296875 0.7702178955078125
0.0764617919921875 -0.071533203125 0.78133773803710938
0.07535552978515625 -0.06787109375 0.76336669921875
0.0480499267578125 -0.0530242919921875 0.75387954711914062
0.14561080932617188 -0.04378509521484375 0.74752426147460938
0.13265609741210938 -0.0435028076171875 0.7487945556640625
0.14726638793945312 -0.04724884033203125 0.75606536865234375
0.15940093994140625 -0.0476226806640625 0.74835205078125
0.14352798461914062 -0.04273223876953125 0.73895645141601562
0.1294708251953125 -0.0424652099609375 0.74039077758789062
0.13556289672851562 -0.04692840576171875 0.75685501098632812
0.15958786010742188 -0.0507354736328125 0.75646591186523438
0.15863037109375 -0.04673004150390625 0.73987579345703125
0.00569915771484375 -0.04363250732421875 0.75696945190429688
0.0094757080078125 -0.04694366455078125 0.76567459106445312
0.0186004638671875 -0.04343414306640625 0.75630950927734375
0.003734588623046875 -0.0426788330078125 0.7481536865234375
-0.0050506591796875 -0.04729461669921875 0.75987625122070312
-0.000217437744140625 -0.05016326904296875 0.7679595947265625
0.020946502685546875 -0.04665374755859375 0.76473236083984375
0.01776123046875 -0.04254150390625 0.74752044677734375
-0.00814056396484375 -0.04657745361328125 0.75128936767578125
0.19713973999023438 -0.08087158203125 0.76420974731445312
0.18598175048828125 -0.06670379638671875 0.75720977783203125
0.19136810302734375 -0.07979583740234375 0.77115631103515625
0.20577621459960938 -0.09619903564453125 0.77112197875976562
0.200225830078125 -0.0824432373046875 0.75617599487304688
0.18795013427734375 -0.06720733642578125 0.7490386962890625
0.1822052001953125 -0.06731414794921875 0.76432418823242188
0.19872665405273438 -0.0939178466796875 0.77781295776367188
0.2096710205078125 -0.098846435546875 0.76336288452148438
-0.01556396484375 -0.0786895751953125 0.78242111206054688
-0.007781982421875 -0.07770538330078125 0.7882843017578125
-0.015899658203125 -0.06542205810546875 0.77323150634765625
-0.020965576171875 -0.080230712890625 0.77503585815429688
-0.01216888427734375 -0.09323883056640625 0.79117965698242188
-0.003810882568359375 -0.0910797119140625 0.79650497436523438
-0.009033203125 -0.06581878662109375 0.77970504760742188
-0.020782470703125 -0.06597900390625 0.76543807983398438
-0.01778411865234375 -0.09574127197265625 0.7843017578125
0.20854568481445312 -0.13593292236328125 0.78142166137695312
0.21172714233398438 -0.12432098388671875 0.77988815307617188
0.201080322265625 -0.13165283203125 0.78687286376953125
0.20190048217773438 -0.1464996337890625 0.78252410888671875
0.21313095092773438 -0.14113616943359375 0.7752227783203125
0.21634674072265625 -0.12865447998046875 0.773040771484375
0.20383453369140625 -0.12053680419921875 0.78582000732421875
0.19564437866210938 -0.14168548583984375 0.78730010986328125
0.20609664916992188 -0.1525115966796875 0.77699661254882812
0.01229095458984375 -0.13188934326171875 0.80242919921875
0.019561767578125 -0.1280517578125 0.8061370849609375
0.001956939697265625 -0.1204376220703125 0.80144500732421875
0.0079193115234375 -0.136871337890625 0.79734039306640625
0.025150299072265625 -0.14263916015625 0.80200576782226562
0.03066253662109375 -0.13822174072265625 0.80531692504882812
0.010105133056640625 -0.116912841796875 0.80566787719726562
-0.003177642822265625 -0.12459564208984375 0.79569244384765625
0.021823883056640625 -0.1483001708984375 0.79752731323242188
0.15204620361328125 -0.07254791259765625 0.78104782104492188
0.1528472900390625 -0.08493804931640625 0.78832626342773438
0.16828536987304688 -0.07576751708984375 0.77971649169921875
0.1505584716796875 -0.06179046630859375 0.77301406860351562
0.13525009155273438 -0.0693817138671875 0.78061294555664062
0.13145828247070312 -0.08072662353515625 0.78853225708007812
0.17203140258789062 -0.08856201171875 0.78655242919921875
0.16399765014648438 -0.06472015380859375 0.77225875854492188
0.13725662231445312 -0.0599212646484375 0.77271270751953125
0.0301666259765625 -0.07137298583984375 0.791290283203125
0.015773773193359375 -0.074127197265625 0.79278182983398438
0.03984832763671875 -0.083648681640625 0.79857254028320312
0.044399261474609375 -0.06864166259765625 0.787994384765625
0.021862030029296875 -0.06096649169921875 0.78309249877929688
0.0103302001953125 -0.06366729736328125 0.78455734252929688
0.022609710693359375 -0.086517333984375 0.80025482177734375
0.058101654052734375 -0.07991790771484375 0.794921875
0.03348541259765625 -0.0593414306640625 0.78055191040039062
0.1558685302734375 -0.1274871826171875 0.79877471923828125
0.13428497314453125 -0.127410888671875 0.8015899658203125
0.15686416625976562 -0.14111328125 0.79864883422851562
0.1747283935546875 -0.12769317626953125 0.79541397094726562
0.15464019775390625 -0.1129913330078125 0.79736709594726562
0.130645751953125 -0.11052703857421875 0.79943466186523438
0.13745498657226562 -0.1428985595703125 0.8018798828125
0.17333602905273438 -0.13928985595703125 0.79520416259765625
0.17531585693359375 -0.11519622802734375 0.79451370239257812
0.0660858154296875 -0.125701904296875 0.8081512451171875
0.072811126708984375 -0.13933563232421875 0.80770492553710938
0.088138580322265625 -0.126556396484375 0.80641555786132812
0.058376312255859375 -0.11132049560546875 0.8071136474609375
0.04656219482421875 -0.12517547607421875 0.80894088745117188
0.054355621337890625 -0.13675689697265625 0.8080596923828125
0.09405517578125 -0.14202880859375 0.80656814575195312
0.08101654052734375 -0.10977935791015625 0.80443954467773438
0.038425445556640625 -0.11273956298828125 0.80843353271484375
0.11096572875976562 -0.00662994384765625 0.69023513793945312
0.11536407470703125 -0.0298614501953125 0.69647979736328125
0.14216995239257812 -0.0224151611328125 0.7003173828125
0.10911178588867188 0.0217742919921875 0.68236923217773438
0.078784942626953125 0.00370025634765625 0.681610107421875
0.08727264404296875 -0.02526092529296875 0.69255447387695312
0.14248275756835938 -0.04022216796875 0.70258712768554688
0.1467132568359375 -0.00035858154296875 0.69665145874023438
0.0700531005859375 0.039520263671875 0.66764068603515625
-0.002025604248046875 -0.00696563720703125 0.696533203125
-0.020687103271484375 -0.0226898193359375 0.7100372314453125
0.008693695068359375 -0.02996063232421875 0.70317459106445312
0.02098846435546875 0.00351715087890625 0.68469619750976562
-0.018787384033203125 0.0205230712890625 0.68775558471679688
-0.03885650634765625 -0.00164794921875 0.70577239990234375
-0.010066986083984375 -0.04009246826171875 0.71263885498046875
0.032444000244140625 -0.02532196044921875 0.69594955444335938
0.00489044189453125 0.0389556884765625 0.67020416259765625
0.20969390869140625 -0.0959320068359375 0.71238327026367188
0.20411300659179688 -0.09737396240234375 0.71575164794921875
0.22364044189453125 -0.12284088134765625 0.711822509765625
0.21825408935546875 -0.0967254638671875 0.70500564575195312
0.192169189453125 -0.06841278076171875 0.71197509765625
0.18755340576171875 -0.075225830078125 0.7129974365234375
0.21671676635742188 -0.12030029296875 0.71782684326171875
0.23282241821289062 -0.1279449462890625 0.70176315307617188
0.20147705078125 -0.06163787841796875 0.70798873901367188
-0.04212188720703125 -0.09363555908203125 0.7337646484375
-0.041103363037109375 -0.11930084228515625 0.73683929443359375
-0.033931732177734375 -0.09522247314453125 0.736114501953125
-0.040363311767578125 -0.0673370361328125 0.72940826416015625
-0.053707122802734375 -0.09429931640625 0.72800827026367188
-0.052127838134765625 -0.12400054931640625 0.72898101806640625
-0.03275299072265625 -0.11704254150390625 0.74129867553710938
-0.031078338623046875 -0.0740966796875 0.7299346923828125
-0.055408477783203125 -0.06076812744140625 0.72623443603515625
0.2464752197265625 -0.1890411376953125 0.71655654907226562
0.23290252685546875 -0.18065643310546875 0.72685623168945312
0.25106048583984375 -0.20928192138671875 0.72146987915039062
0.26169967651367188 -0.19873046875 0.7026519775390625
0.24127960205078125 -0.16922760009765625 0.713287353515625
0.230621337890625 -0.16204071044921875 0.72291183471679688
0.23340225219726562 -0.2003326416015625 0.73217391967773438
0.26916885375976562 -0.21933746337890625 0.7071990966796875
0.2540435791015625 -0.17801666259765625 0.70003509521484375
-0.025661468505859375 -0.18227386474609375 0.74898910522460938
-0.017398834228515625 -0.20151519775390625 0.75585174560546875
-0.012176513671875 -0.17478179931640625 0.75544357299804688
-0.03253173828125 -0.16335296630859375 0.74372100830078125
-0.0417938232421875 -0.19087982177734375 0.73947525024414062
-0.03647613525390625 -0.210235595703125 0.747039794921875
3.0517578125e-05 -0.193878173828125 0.76129913330078125
-0.02154541015625 -0.15685272216796875 0.75048446655273438
-0.046398162841796875 -0.17133331298828125 0.733978271484375
0.27925491333007812 -0.293121337890625 0.7451324462890625
0.25463485717773438 -0.28679656982421875 0.75719833374023438
0.29470062255859375 -0.33185577392578125 0.7548370361328125
0.3033599853515625 -0.30145263671875 0.72898483276367188
0.26661300659179688 -0.25995635986328125 0.73602294921875
0.24310684204101562 -0.25250244140625 0.74744415283203125
0.26906967163085938 -0.325897216796875 0.76784515380859375
0.31997299194335938 -0.3396148681640625 0.73775100708007812
0.2893218994140625 -0.2691650390625 0.72066879272460938
0.00888824462890625 -0.280731201171875 0.79010391235351562
0.017818450927734375 -0.31687164306640625 0.8059234619140625
0.035434722900390625 -0.2769622802734375 0.7933349609375
0.000133514404296875 -0.24961090087890625 0.776336669921875
-0.018489837646484375 -0.28655242919921875 0.78290939331054688
-0.011592864990234375 -0.3218536376953125 0.7991180419921875
0.04618072509765625 -0.31402587890625 0.8087921142578125
0.024444580078125 -0.24413299560546875 0.78000640869140625
-0.024806976318359375 -0.2565460205078125 0.76874542236328125
0.3608245849609375 -0.33568572998046875 0.64770889282226562
0.36993789672851562 -0.3468170166015625 0.61277008056640625
0.34374237060546875 -0.30535888671875 0.64064788818359375
0.34554290771484375 -0.32340240478515625 0.6800079345703125
0.37981796264648438 -0.372283935546875 0.65547561645507812
0.38877105712890625 -0.3821868896484375 0.620330810546875
0.3528900146484375 -0.3174285888671875 0.60600662231445312
0.32910919189453125 -0.29242706298828125 0.6727447509765625
0.36412811279296875 -0.36065673828125 0.68780517578125
-0.099903106689453125 -0.31432342529296875 0.72506332397460938
-0.10012054443359375 -0.287322998046875 0.70914840698242188
-0.1215057373046875 -0.32418060302734375 0.69458389282226562
-0.098491668701171875 -0.34661865234375 0.7434539794921875
-0.074085235595703125 -0.30382537841796875 0.75062179565429688
-0.07596588134765625 -0.27594757080078125 0.73528671264648438
-0.1204376220703125 -0.29837799072265625 0.67853546142578125
-0.12138748168945312 -0.35526275634765625 0.71319198608398438
-0.071132659912109375 -0.337188720703125 0.76827239990234375
0.3051605224609375 -0.238372802734375 0.62533950805664062
0.31435775756835938 -0.25231170654296875 0.59195709228515625
0.29454421997070312 -0.21886444091796875 0.62313461303710938
0.29232025146484375 -0.2238006591796875 0.65671539306640625
0.31623458862304688 -0.2581939697265625 0.62919235229492188
0.3253326416015625 -0.2713775634765625 0.59548187255859375
0.30406570434570312 -0.23397064208984375 0.58980560302734375
0.281951904296875 -0.20340728759765625 0.65453720092773438
0.3029022216796875 -0.244232177734375 0.66075515747070312
-0.099727630615234375 -0.22714996337890625 0.67564010620117188
-0.099559783935546875 -0.2093658447265625 0.66902542114257812
-0.11700820922851562 -0.240509033203125 0.64546585083007812
-0.099788665771484375 -0.24509429931640625 0.6844635009765625
-0.08013153076171875 -0.21372222900390625 0.70283126831054688
-0.0811004638671875 -0.1947021484375 0.69659805297851562
-0.11603164672851562 -0.22377777099609375 0.63880538940429688
-0.11790847778320312 -0.2576904296875 0.65413665771484375
-0.078838348388671875 -0.23236846923828125 0.71133041381835938
0.260986328125 -0.147735595703125 0.62719345092773438
0.25848770141601562 -0.122161865234375 0.62712478637695312
0.24531173706054688 -0.1231689453125 0.6618804931640625
0.270751953125 -0.1734619140625 0.62504196166992188
0.27402877807617188 -0.1719207763671875 0.59063339233398438
0.27421951293945312 -0.15146636962890625 0.58883285522460938
0.2371368408203125 -0.089263916015625 0.66492843627929688
0.25750350952148438 -0.15377044677734375 0.65790557861328125
0.28206634521484375 -0.19370269775390625 0.59004974365234375
-0.10068130493164062 -0.14304351806640625 0.66022872924804688
-0.0843353271484375 -0.11957550048828125 0.69095230102539062
-0.1110687255859375 -0.119232177734375 0.65676498413085938
-0.11534881591796875 -0.16619110107421875 0.62712860107421875
-0.098033905029296875 -0.1671295166015625 0.66220855712890625
-0.081615447998046875 -0.14839935302734375 0.69149398803710938
-0.09307861328125 -0.087554931640625 0.68958663940429688
-0.12571334838867188 -0.1473236083984375 0.6225433349609375
-0.11315536499023438 -0.1863555908203125 0.63039779663085938
0.30501937866210938 -0.64519500732421875 0.8697357177734375
0.30657577514648438 -0.638885498046875 0.8700408935546875
0.28364944458007812 -0.6462554931640625 0.8779449462890625
0.30295562744140625 -0.65082550048828125 0.86703109741210938
0.3243560791015625 -0.64588165283203125 0.862152099609375
0.32853317260742188 -0.64060211181640625 0.86082077026367188
0.28378677368164062 -0.6395721435546875 0.87900543212890625
0.28237152099609375 -0.65196990966796875 0.8746795654296875
0.32110595703125 -0.651123046875 0.86028289794921875
0.21265792846679688 -0.6346435546875 0.89934539794921875
0.23627471923828125 -0.64095306396484375 0.89305496215820312
0.2095947265625 -0.627960205078125 0.90087509155273438
0.19176864624023438 -0.63069915771484375 0.90502166748046875
0.21395492553710938 -0.6406402587890625 0.89575576782226562
0.2364501953125 -0.6467742919921875 0.88946914672851562
0.2348175048828125 -0.63410186767578125 0.894500732421875
0.18566131591796875 -0.62435150146484375 0.90689849853515625
0.194610595703125 -0.63654327392578125 0.90139389038085938
0.360565185546875 -0.68526458740234375 0.85284042358398438
0.369781494140625 -0.6897125244140625 0.84894561767578125
0.35256195068359375 -0.6658172607421875 0.85345458984375
0.35429000854492188 -0.6851348876953125 0.85222625732421875
0.3644256591796875 -0.70636749267578125 0.85387039184570312
0.37389755249023438 -0.7128143310546875 0.84998321533203125
0.36106109619140625 -0.6665191650390625 0.8497467041015625
0.34705352783203125 -0.668121337890625 0.85274887084960938
0.35770416259765625 -0.7045135498046875 0.85318374633789062
0.16961669921875 -0.66204071044921875 0.91849899291992188
0.16971969604492188 -0.6441192626953125 0.91480255126953125
0.1607208251953125 -0.66388702392578125 0.9215240478515625
0.17438507080078125 -0.68267822265625 0.92085647583007812
0.17388153076171875 -0.66329193115234375 0.914093017578125
0.1741790771484375 -0.6475067138671875 0.91073989868164062
0.16031646728515625 -0.6425018310546875 0.9174652099609375
0.16597366333007812 -0.68650054931640625 0.92414474487304688
0.178314208984375 -0.68231964111328125 0.91605377197265625
0.35280609130859375 -0.75695037841796875 0.86130905151367188
0.36165237426757812 -0.76442718505859375 0.85833358764648438
0.36016082763671875 -0.7434539794921875 0.85837173461914062
0.34590911865234375 -0.75296783447265625 0.8599395751953125
0.34316253662109375 -0.7671051025390625 0.86465835571289062
0.3513641357421875 -0.77431488037109375 0.86220550537109375
0.36941909790039062 -0.75109100341796875 0.85496902465820312
0.35309600830078125 -0.73980712890625 0.85723495483398438
0.33667373657226562 -0.76320648193359375 0.86296844482421875
0.204681396484375 -0.737060546875 0.9165802001953125
0.192901611328125 -0.7213897705078125 0.91981124877929688
0.19791793823242188 -0.74224090576171875 0.92020034790039062
0.21749114990234375 -0.7501678466796875 0.91217041015625
0.2073516845703125 -0.7345428466796875 0.91120147705078125
0.19604110717773438 -0.71923828125 0.91451644897460938
0.18549728393554688 -0.7264556884765625 0.92337417602539062
0.21148681640625 -0.7551422119140625 0.91571426391601562
0.21958541870117188 -0.74749755859375 0.90687942504882812
0.3080596923828125 -0.78118133544921875 0.8771209716796875
0.31256103515625 -0.7873992919921875 0.87641525268554688
0.32028579711914062 -0.77895355224609375 0.8726348876953125
0.30396652221679688 -0.777496337890625 0.87468719482421875
0.2954864501953125 -0.78139495849609375 0.88187026977539062
0.29832839965820312 -0.78742218017578125 0.88178634643554688
0.32626724243164062 -0.78536224365234375 0.87127304077148438
0.315216064453125 -0.77519989013671875 0.87041854858398438
0.292449951171875 -0.777923583984375 0.87914657592773438
0.256927490234375 -0.774078369140625 0.89693832397460938
0.24385833740234375 -0.7685699462890625 0.9020233154296875
0.25468063354492188 -0.77927398681640625 0.89907073974609375
0.26988601684570312 -0.77788543701171875 0.89184951782226562
0.2568206787109375 -0.77105712890625 0.89281463623046875
0.24458694458007812 -0.7656707763671875 0.897369384765625
0.24011611938476562 -0.773468017578125 0.90484237670898438
0.26926422119140625 -0.783416748046875 0.89325714111328125
0.26887130737304688 -0.77457427978515625 0.8882293701171875
0.28977584838867188 -0.77431488037109375 0.85094070434570312
0.29476165771484375 -0.77533721923828125 0.86084747314453125
0.30002212524414062 -0.772216796875 0.84657669067382812
0.28536224365234375 -0.77066802978515625 0.84096908569335938
0.27923583984375 -0.77459716796875 0.85531234741210938
0.28421401977539062 -0.77568817138671875 0.86515426635742188
0.30508804321289062 -0.7731781005859375 0.85660171508789062
0.29584121704101562 -0.7687530517578125 0.8364410400390625
0.27450942993164062 -0.77101898193359375 0.84548568725585938
0.24608993530273438 -0.768310546875 0.86746978759765625
0.23459243774414062 -0.76331329345703125 0.87121963500976562
0.25107955932617188 -0.769378662109375 0.87742996215820312
0.25737380981445312 -0.7716064453125 0.86358642578125
0.2399749755859375 -0.7644500732421875 0.85790634155273438
0.22817611694335938 -0.7597198486328125 0.86157608032226562
0.23956298828125 -0.7642974853515625 0.88138580322265625
0.2623443603515625 -0.7727203369140625 0.87350082397460938
0.25168609619140625 -0.76787567138671875 0.85401535034179688
0.3282470703125 -0.7528076171875 0.8353424072265625
0.3338775634765625 -0.75214385986328125 0.84583663940429688
0.33515167236328125 -0.7415771484375 0.83285140991210938
0.3235015869140625 -0.75213623046875 0.82495498657226562
0.31959915161132812 -0.76165771484375 0.83861541748046875
0.32503890991210938 -0.7617340087890625 0.84897994995117188
0.3409576416015625 -0.740020751953125 0.84316635131835938
0.330078125 -0.74213409423828125 0.82333755493164062
0.31520843505859375 -0.75977325439453125 0.82807540893554688
0.19958877563476562 -0.7358856201171875 0.88228607177734375
0.18931198120117188 -0.722747802734375 0.88539505004882812
0.20401763916015625 -0.73500823974609375 0.89342498779296875
0.21097183227539062 -0.7472686767578125 0.87870407104492188
0.19420242309570312 -0.73526763916015625 0.87181472778320312
0.18529510498046875 -0.723358154296875 0.87527847290039062
0.19321441650390625 -0.72092437744140625 0.89657211303710938
0.2157440185546875 -0.74713897705078125 0.8895721435546875
0.20485687255859375 -0.74515533447265625 0.86847305297851562
0.3391265869140625 -0.69771575927734375 0.82869720458984375
0.34436798095703125 -0.69220733642578125 0.83888626098632812
0.33351898193359375 -0.68424224853515625 0.82971572875976562
0.33380889892578125 -0.70427703857421875 0.81893157958984375
0.341064453125 -0.7129669189453125 0.82928085327148438
0.3466644287109375 -0.70886993408203125 0.83946990966796875
0.3383331298828125 -0.6775360107421875 0.83968353271484375
0.32848739624023438 -0.69256591796875 0.81999969482421875
0.33567428588867188 -0.71724700927734375 0.82011032104492188
0.17010116577148438 -0.67685699462890625 0.886749267578125
0.1710968017578125 -0.66458892822265625 0.88454818725585938
0.17275619506835938 -0.67121124267578125 0.89778900146484375
0.17371368408203125 -0.6920013427734375 0.88781356811523438
0.168121337890625 -0.68383026123046875 0.87593460083007812
0.16957855224609375 -0.67327117919921875 0.87380599975585938
0.1734161376953125 -0.65771484375 0.89528656005859375
0.17671585083007812 -0.68776702880859375 0.8989410400390625
0.171478271484375 -0.69667816162109375 0.87751388549804688
0.29307937622070312 -0.6711883544921875 0.84339523315429688
0.29686737060546875 -0.6630706787109375 0.85315704345703125
0.27342605590820312 -0.67218780517578125 0.85041427612304688
0.28927993774414062 -0.6815948486328125 0.834014892578125
0.31019973754882812 -0.671142578125 0.83724594116210938
0.31426620483398438 -0.6632080078125 0.84693145751953125
0.27694320678710938 -0.6641845703125 0.8602447509765625
0.27013015747070312 -0.68264007568359375 0.840850830078125
0.3059539794921875 -0.6813507080078125 0.827911376953125
0.20902633666992188 -0.66146087646484375 0.87096786499023438
0.23004913330078125 -0.6671600341796875 0.86453628540039062
0.21148681640625 -0.65320587158203125 0.8810272216796875
0.19091033935546875 -0.65714263916015625 0.87659072875976562
0.20739364624023438 -0.67195892333984375 0.86098098754882812
0.2279205322265625 -0.677703857421875 0.85474395751953125
0.23289108276367188 -0.65909576416015625 0.8745880126953125
0.1931304931640625 -0.64905548095703125 0.88672637939453125
0.189697265625 -0.6676025390625 0.86643600463867188
0.28135299682617188 -0.73122406005859375 0.8231048583984375
0.2664337158203125 -0.73194122314453125 0.82878875732421875
0.28097915649414062 -0.74878692626953125 0.82622528076171875
0.29460906982421875 -0.72989654541015625 0.81779098510742188
0.2830657958984375 -0.71237945556640625 0.82320404052734375
0.266357421875 -0.713348388671875 0.829376220703125
0.26779556274414062 -0.7493743896484375 0.83144378662109375
0.29302215576171875 -0.74727630615234375 0.82122039794921875
0.29775619506835938 -0.71154022216796875 0.81749343872070312
0.21784210205078125 -0.72332000732421875 0.84495162963867188
0.22522735595703125 -0.7416839599609375 0.84591293334960938
0.2339019775390625 -0.72789764404296875 0.83995437622070312
0.21172714233398438 -0.7038116455078125 0.84725189208984375
0.20322799682617188 -0.71865081787109375 0.8492584228515625
0.21186065673828125 -0.73697662353515625 0.84991073608398438
0.23943328857421875 -0.74576568603515625 0.84146499633789062
0.22965240478515625 -0.70886993408203125 0.8416900634765625
0.19580841064453125 -0.6991729736328125 0.85200881958007812
0.3188323974609375 -0.7308502197265625 0.8088836669921875
0.31390762329101562 -0.7299652099609375 0.80957412719726562
0.31912612915039062 -0.73967742919921875 0.810394287109375
0.32314682006835938 -0.7226715087890625 0.80817413330078125
0.31804656982421875 -0.716094970703125 0.80926132202148438
0.31205368041992188 -0.74350738525390625 0.81279373168945312
0.32501220703125 -0.73163604736328125 0.81035614013671875
0.17847061157226562 -0.7132415771484375 0.85801315307617188
0.18190765380859375 -0.72225189208984375 0.85892105102539062
0.18231964111328125 -0.7135467529296875 0.8553924560546875
0.17241287231445312 -0.703826904296875 0.86048126220703125
0.1754150390625 -0.71282958984375 0.86301803588867188
0.19000244140625 -0.7280120849609375 0.85601806640625
0.17520904541015625 -0.698394775390625 0.85834884643554688
0.12466049194335938 0.249420166015625 0.60924911499023438
0.11365509033203125 0.24282073974609375 0.60617446899414062
0.13637924194335938 0.2339935302734375 0.61379623413085938
0.13220596313476562 0.2543487548828125 0.61167144775390625
0.11379623413085938 0.26605987548828125 0.604522705078125
0.10183334350585938 0.26091766357421875 0.6011810302734375
0.12635421752929688 0.22605133056640625 0.61104583740234375
0.14304733276367188 0.2396697998046875 0.61606597900390625
0.1222686767578125 0.2702178955078125 0.6070404052734375
-0.19402694702148438 0.232421875 0.58784103393554688
-0.19464874267578125 0.2171478271484375 0.59376907348632812
-0.17937088012695312 0.22733306884765625 0.58684921264648438
-0.1950836181640625 0.24866485595703125 0.58154678344726562
-0.2043304443359375 0.2362213134765625 0.58860015869140625
-0.2045745849609375 0.2217864990234375 0.594482421875
-0.18001174926757812 0.210693359375 0.59296798706054688
-0.18043899536132812 0.2451324462890625 0.580413818359375
-0.20574569702148438 0.2515411376953125 0.5822906494140625
0.087024688720703125 0.322540283203125 0.58743667602539062
0.072162628173828125 0.32173919677734375 0.58390045166015625
0.094814300537109375 0.30267333984375 0.5936431884765625
0.098293304443359375 0.3237762451171875 0.59041595458984375
0.080791473388671875 0.34320831298828125 0.5810089111328125
0.06513214111328125 0.34372711181640625 0.57754898071289062
0.080875396728515625 0.30045318603515625 0.5900726318359375
0.10518264770507812 0.3050689697265625 0.59648513793945312
0.09284210205078125 0.34332275390625 0.5841217041015625
-0.20876312255859375 0.3026885986328125 0.5579681396484375
-0.20232772827148438 0.28394317626953125 0.566619873046875
-0.19424819946289062 0.303863525390625 0.55736541748046875
-0.21723175048828125 0.3219451904296875 0.54853057861328125
-0.22021484375 0.30240631103515625 0.55862808227539062
-0.213653564453125 0.28473663330078125 0.567352294921875
-0.18778228759765625 0.28368377685546875 0.56583404541015625
-0.20298004150390625 0.32462310791015625 0.54816818237304688
-0.22869110107421875 0.320343017578125 0.54921340942382812
0.073871612548828125 0.40766143798828125 0.56188583374023438
0.057880401611328125 0.412384033203125 0.55873489379882812
0.073940277099609375 0.38616180419921875 0.5680694580078125
0.087139129638671875 0.4038848876953125 0.56548309326171875
0.07648468017578125 0.428253173828125 0.55598831176757812
0.0609588623046875 0.4344482421875 0.55280303955078125
0.057735443115234375 0.3894805908203125 0.56486892700195312
0.087001800537109375 0.383819580078125 0.57147979736328125
0.089603424072265625 0.423065185546875 0.55986404418945312
-0.2558135986328125 0.38008880615234375 0.516265869140625
-0.24084091186523438 0.36104583740234375 0.52760696411132812
-0.24432373046875 0.38678741455078125 0.51601028442382812
-0.27263641357421875 0.39768218994140625 0.50447463989257812
-0.265594482421875 0.3747100830078125 0.51749420166015625
-0.25147628784179688 0.35699462890625 0.528533935546875
-0.22807693481445312 0.3665924072265625 0.52750778198242188
-0.26261138916015625 0.4056396484375 0.50390625
-0.28133773803710938 0.39104461669921875 0.50620651245117188
0.17718887329101562 0.194854736328125 0.62662124633789062
0.17081832885742188 0.18332672119140625 0.62544631958007812
0.19678878784179688 0.18250274658203125 0.62948989868164062
0.18180084228515625 0.202392578125 0.62900543212890625
0.16176605224609375 0.20690155029296875 0.62264633178710938
0.15402603149414062 0.1966094970703125 0.6209564208984375
0.19192886352539062 0.17026519775390625 0.62862777709960938
0.20058441162109375 0.1907196044921875 0.63210296630859375
0.16698074340820312 0.21398162841796875 0.62491989135742188
-0.20709991455078125 0.17798614501953125 0.610321044921875
-0.218017578125 0.165435791015625 0.614471435546875
-0.19353866577148438 0.16783905029296875 0.61096572875976562
-0.20053482055664062 0.1902313232421875 0.60514450073242188
-0.21610641479492188 0.1845703125 0.61131668090820312
-0.226654052734375 0.17264556884765625 0.61558151245117188
-0.2053375244140625 0.154449462890625 0.61557769775390625
-0.1863555908203125 0.181243896484375 0.60523223876953125
-0.2098388671875 0.196258544921875 0.6060028076171875
0.2933502197265625 0.14019012451171875 0.62674331665039062
0.29402542114257812 0.12598419189453125 0.6243438720703125
0.33238983154296875 0.12862396240234375 0.62227630615234375
0.29318618774414062 0.151092529296875 0.63012313842773438
0.25553131103515625 0.1545562744140625 0.6297149658203125
0.2542572021484375 0.14092254638671875 0.6281890869140625
0.33507919311523438 0.11420440673828125 0.61871719360351562
0.33053207397460938 0.14032745361328125 0.62598419189453125
0.25697708129882812 0.16451263427734375 0.63282012939453125
-0.28753280639648438 0.12105560302734375 0.616241455078125
-0.31953048706054688 0.10771942138671875 0.61238861083984375
-0.2799530029296875 0.10834503173828125 0.61663436889648438
-0.25862503051757812 0.1363372802734375 0.61775970458984375
-0.29339218139648438 0.1308441162109375 0.61725997924804688
-0.32403564453125 0.11830902099609375 0.61343002319335938
-0.31424713134765625 0.094818115234375 0.61199188232421875
-0.248931884765625 0.124053955078125 0.61879730224609375
-0.26566314697265625 0.14517974853515625 0.61890792846679688
0.4288177490234375 0.1253509521484375 0.60203170776367188
0.43706893920898438 0.11200714111328125 0.59554290771484375
0.45347976684570312 0.1357421875 0.5936431884765625
0.4227142333984375 0.13751983642578125 0.6071319580078125
0.401123046875 0.1202392578125 0.6096649169921875
0.40771865844726562 0.1062774658203125 0.60402297973632812
0.46329116821289062 0.1233978271484375 0.58662033081054688
0.44620132446289062 0.14727783203125 0.5991058349609375
0.39627838134765625 0.13268280029296875 0.61427688598632812
-0.41571044921875 0.09700775146484375 0.58531570434570312
-0.44723892211914062 0.103424072265625 0.57076263427734375
-0.41734695434570312 0.08486175537109375 0.58203506469726562
-0.384307861328125 0.09521484375 0.59710693359375
-0.41585540771484375 0.1080474853515625 0.587371826171875
-0.44583892822265625 0.11385345458984375 0.5733795166015625
-0.45101165771484375 0.0919647216796875 0.5665130615234375
-0.38370513916015625 0.08249664306640625 0.59476470947265625
-0.385955810546875 0.10645294189453125 0.59862518310546875
0.51767349243164062 0.193267822265625 0.56536865234375
0.53082275390625 0.185791015625 0.55838394165039062
0.53362655639648438 0.21822357177734375 0.55645370483398438
0.50717926025390625 0.20074462890625 0.57073211669921875
0.49804306030273438 0.17046356201171875 0.57498931884765625
0.51029205322265625 0.16117095947265625 0.5677490234375
0.547393798828125 0.21268463134765625 0.54982757568359375
0.52223968505859375 0.22399139404296875 0.56151580810546875
0.48856353759765625 0.1795806884765625 0.5805511474609375
-0.546356201171875 0.14276123046875 0.5098114013671875
-0.57677459716796875 0.1604156494140625 0.48693466186523438
-0.55568695068359375 0.134918212890625 0.5033416748046875
-0.51325607299804688 0.126861572265625 0.53229904174804688
-0.5397491455078125 0.15030670166015625 0.51413345336914062
-0.56852340698242188 0.1665802001953125 0.49190139770507812
-0.58763504028320312 0.1541290283203125 0.47977066040039062
-0.5208892822265625 0.11772918701171875 0.52647018432617188
-0.50842666625976562 0.135589599609375 0.53609085083007812
0.5478363037109375 0.29601287841796875 0.53896713256835938
0.5622406005859375 0.29620361328125 0.5334320068359375
0.54253768920898438 0.32083892822265625 0.53588104248046875
0.535186767578125 0.29718780517578125 0.54363632202148438
0.54885482788085938 0.27028656005859375 0.54313278198242188
0.5632781982421875 0.26862335205078125 0.53722000122070312
0.5566558837890625 0.322601318359375 0.5307464599609375
0.53001785278320312 0.32073211669921875 0.5405731201171875
0.53638458251953125 0.27283477783203125 0.54782867431640625
-0.63562393188476562 0.21883392333984375 0.42811965942382812
-0.64450836181640625 0.23830413818359375 0.41309356689453125
-0.64963531494140625 0.21652984619140625 0.418670654296875
-0.62200927734375 0.19895172119140625 0.44542694091796875
-0.62415695190429688 0.2216339111328125 0.43551254272460938
-0.63252639770507812 0.240234375 0.42121505737304688
-0.65895843505859375 0.2371978759765625 0.40307235717773438
-0.63515472412109375 0.19544219970703125 0.43672561645507812
-0.61127471923828125 0.20287322998046875 0.45191574096679688
0.50918197631835938 0.3845062255859375 0.53066253662109375
0.52095413208007812 0.389617919921875 0.52706146240234375
0.48990631103515625 0.40271759033203125 0.5306549072265625
0.49860000610351562 0.38134765625 0.53487014770507812
0.52338409423828125 0.3650970458984375 0.53174972534179688
0.53619384765625 0.36925506591796875 0.52758407592773438
0.50030136108398438 0.40859222412109375 0.52733230590820312
0.480560302734375 0.3987274169921875 0.53490829467773438
0.51189804077148438 0.36284637451171875 0.5361785888671875
-0.64899063110351562 0.29151153564453125 0.38149642944335938
-0.64158248901367188 0.30847930908203125 0.3770294189453125
-0.66291427612304688 0.2933349609375 0.3714599609375
-0.651275634765625 0.274566650390625 0.389495849609375
-0.63740158081054688 0.29085540771484375 0.390716552734375
-0.6307373046875 0.30707550048828125 0.38641738891601562
-0.65464401245117188 0.31108856201171875 0.36725234985351562
-0.66567611694335938 0.27559661865234375 0.37917709350585938
-0.63927841186523438 0.27475738525390625 0.39853668212890625
0.3919830322265625 0.45343017578125 0.53907012939453125
0.39603042602539062 0.46160125732421875 0.53373336791992188
0.35202789306640625 0.46820068359375 0.54240036010742188
0.38776397705078125 0.44781494140625 0.5454254150390625
0.43048858642578125 0.437164306640625 0.5352325439453125
0.4369049072265625 0.44451141357421875 0.53096389770507812
0.35350418090820312 0.47733306884765625 0.53610610961914062
0.34974288940429688 0.46212005615234375 0.54961013793945312
0.42432785034179688 0.43206024169921875 0.54059600830078125
-0.58201980590820312 0.36468505859375 0.38917922973632812
-0.554595947265625 0.38321685791015625 0.39767837524414062
-0.59060287475585938 0.37010955810546875 0.37818527221679688
-0.60738372802734375 0.345306396484375 0.38152694702148438
-0.575164794921875 0.361297607421875 0.40014266967773438
-0.54923248291015625 0.3790435791015625 0.4092254638671875
-0.56151962280273438 0.38997650146484375 0.38602447509765625
-0.61767196655273438 0.3495635986328125 0.37127304077148438
-0.59894943237304688 0.342681884765625 0.39184188842773438
0.25115585327148438 0.49932098388671875 0.53958892822265625
0.24615859985351562 0.51214599609375 0.53313827514648438
0.22559356689453125 0.50485992431640625 0.53597640991210938
0.25400543212890625 0.49066162109375 0.54681777954101562
0.28029632568359375 0.49137115478515625 0.54264068603515625
0.2772369384765625 0.50289154052734375 0.53570175170898438
0.21893310546875 0.5189056396484375 0.5301513671875
0.22986602783203125 0.495330810546875 0.54253768920898438
0.28162384033203125 0.483673095703125 0.55032730102539062
-0.48154449462890625 0.42608642578125 0.4120330810546875
-0.4615325927734375 0.4353485107421875 0.41404342651367188
-0.4854583740234375 0.43731689453125 0.40134429931640625
-0.5033416748046875 0.41448211669921875 0.40954971313476562
-0.47898101806640625 0.41883087158203125 0.42251205444335938
-0.45952224731445312 0.42693328857421875 0.42350006103515625
-0.46497344970703125 0.44788360595703125 0.40435028076171875
-0.50790786743164062 0.424072265625 0.39799880981445312
-0.5001373291015625 0.4084014892578125 0.42081069946289062
0.16386032104492188 0.50818634033203125 0.53145217895507812
0.1533050537109375 0.523468017578125 0.52643966674804688
0.14685821533203125 0.50463104248046875 0.53263092041015625
0.17145919799804688 0.49755096435546875 0.53713607788085938
0.18243408203125 0.50931549072265625 0.5314788818359375
0.17296218872070312 0.52451324462890625 0.526397705078125
0.13531112670898438 0.5193939208984375 0.52762985229492188
0.15542221069335938 0.49420166015625 0.53832626342773438
0.18904495239257812 0.49871826171875 0.53718185424804688
-0.40727615356445312 0.4493560791015625 0.4280853271484375
-0.38939666748046875 0.4496002197265625 0.43619537353515625
-0.40836334228515625 0.4639739990234375 0.4209747314453125
-0.42490386962890625 0.446868896484375 0.42150497436523438
-0.40726852416992188 0.43921661376953125 0.43537521362304688
-0.39039230346679688 0.43935394287109375 0.44298171997070312
-0.3892822265625 0.4639739990234375 0.42984390258789062
-0.42696380615234375 0.4612884521484375 0.41374588012695312
-0.42409896850585938 0.4370269775390625 0.42938232421875
0.10239028930664062 0.47789764404296875 0.54140090942382812
0.08860015869140625 0.48879241943359375 0.53722000122070312
0.090847015380859375 0.4638519287109375 0.54569244384765625
0.113800048828125 0.46936798095703125 0.54644393920898438
0.11597824096679688 0.48941802978515625 0.53776931762695312
0.10280990600585938 0.502044677734375 0.53314208984375
0.076442718505859375 0.47316741943359375 0.541961669921875
0.1031036376953125 0.4562225341796875 0.55031967163085938
0.1264495849609375 0.4801483154296875 0.54314804077148438
-0.33085250854492188 0.435577392578125 0.46801376342773438
-0.31060409545898438 0.4257965087890625 0.48009872436523438
-0.32603836059570312 0.4474945068359375 0.46476364135742188
-0.351104736328125 0.4427642822265625 0.45643234252929688
-0.33563613891601562 0.42632293701171875 0.47232437133789062
-0.31672286987304688 0.41710662841796875 0.48345184326171875
-0.30400466918945312 0.43640899658203125 0.47795867919921875
-0.34800338745117188 0.4557952880859375 0.45194244384765625
-0.35448837280273438 0.43302154541015625 0.46173858642578125
0.13854598999023438 0.44965362548828125 0.5530548095703125
0.1314544677734375 0.455841064453125 0.55278778076171875
0.13007736206054688 0.43796539306640625 0.5551910400390625
0.1449737548828125 0.44390106201171875 0.55222702026367188
0.14849853515625 0.45960235595703125 0.55133056640625
0.14223098754882812 0.46587371826171875 0.5504150390625
0.12232208251953125 0.44367218017578125 0.55554580688476562
0.1370849609375 0.43253326416015625 0.55367660522460938
0.15413665771484375 0.4535980224609375 0.55114364624023438
-0.34523773193359375 0.405303955078125 0.47783279418945312
-0.32932281494140625 0.39678955078125 0.485992431640625
-0.34289169311523438 0.411773681640625 0.47772216796875
-0.3611907958984375 0.41182708740234375 0.47009658813476562
-0.34706878662109375 0.3992919921875 0.47686386108398438
-0.33188247680664062 0.39089202880859375 0.48398208618164062
-0.32610702514648438 0.403045654296875 0.48694610595703125
-0.35971450805664062 0.41826629638671875 0.469024658203125
-0.36221694946289062 0.4057464599609375 0.47011947631835938
0.18599319458007812 0.47583770751953125 0.546875
0.18190765380859375 0.482391357421875 0.54526901245117188
0.17219161987304688 0.4725494384765625 0.5481109619140625
0.18960952758789062 0.469451904296875 0.54749679565429688
0.201324462890625 0.47719573974609375 0.54664230346679688
0.19788360595703125 0.483795166015625 0.54526138305664062
0.1674652099609375 0.4792022705078125 0.5465087890625
0.1764068603515625 0.46636962890625 0.54870986938476562
0.20438766479492188 0.4708251953125 0.5470123291015625
-0.40656661987304688 0.41863250732421875 0.44878768920898438
-0.39177703857421875 0.41843414306640625 0.45539093017578125
-0.40726470947265625 0.4248504638671875 0.446044921875
-0.42152786254882812 0.41715240478515625 0.443389892578125
-0.40557861328125 0.41268157958984375 0.45050430297851562
-0.39135360717773438 0.41237640380859375 0.45684432983398438
-0.39186859130859375 0.42481231689453125 0.452911376953125
-0.42277145385742188 0.42324066162109375 0.44060897827148438
-0.42006683349609375 0.411468505859375 0.44506454467773438
0.25838851928710938 0.4728546142578125 0.55525588989257812
0.25715255737304688 0.47845458984375 0.55523300170898438
