# XYZ point cloud file
0.73077139558283477 -0.30575716272753972 0.69991743454691147
-0.082594706021897224 0.21150873360829348 0.75815102999073858
0.32080484225581785 0.42350240370547709 0.35172149760818527
-0.75750593515970621 -0.020196890259268407 0.70880352161467641
0.35806608905670245 0.064063302085993534 0.5040193256800336
-0.55012205055318475 -0.12051594847903147 0.75434116138700702
0.12355785730713365 0.43391247339632866 0.70554035000337123
0.65102017977169879 -0.69722846324294707 0.54672545484574542
-0.13400010749050395 0.2884277718762549 0.75913736403812848
-0.044917102459713476 -0.47568592849384927 -0.13090042536202162
-0.38959532183505274 -0.1772846056911046 0.8132040968269898
-0.70852976671232426 -0.18080355806367887 0.73585013547542033
0.4142152142971085 -0.082993548724674682 -0.055199978710707143
0.26735907281683424 0.80210224524010876 -0.28306283123015064
0.10985154227740779 0.43387852928130677 0.72410160783661937
0.33117909275246049 0.65819854218044149 -0.04184852933046912
-0.86429742306712143 -0.34544848477390389 0.1019351546339351
0.77489873641877338 -0.1706377185609016 0.39978046568629821
-0.2328597397661909 -0.11981470583986464 0.76152532118298666
0.78885095600873711 -0.34831717840994614 0.70185771147835396
0.74823152912068025 -0.33078927072591036 0.66449171077723079
-0.71861782740736757 -0.79466367776671065 -0.38460783576982394
-0.38282804039560148 0.47515350388587585 0.63125600425392392
-0.045841478752905118 0.60341559384145427 0.67817322311454831
-0.14953187413433255 -0.013230189284280769 0.74523841528905876
0.27499988640644091 0.77967738605064518 -0.28236100374520134
0.39804016402735698 0.73433463549462275 -0.28526292355805438
-0.49427125304596231 -0.68720561754137499 -0.31855431496940056
-0.20977825572920139 -0.22134028158676333 0.7396661311670627
0.17682113709281566 0.14534048665254318 0.72979649431499283
0.095969454870783011 -0.1089606588212062 0.76694741694188906
0.11138408789224741 0.51604116957408763 0.68453111645964526
-0.82842759940385591 -0.71940036483481462 -0.3948018566800684
0.85766871614752205 -0.38033787312916978 0.64023949931655011
-0.78573417448347271 -0.012332321470911012 0.35092887406427309
-0.3460877632968824 0.54313630732719886 0.80334552104688939
0.42383898680146004 0.68868361105001519 -0.19172603875415106
0.3153884918850629 0.67116442916682661 -0.094621692900485499
0.50490095602534524 -0.60715143344110789 0.41427021315611512
0.13108809973235935 0.90003970318756288 -0.33078570722262768
0.4274952182022389 0.040802723563791332 -0.034663802007976585
-0.50871502031110438 -0.02967531438913884 0.70575693668528316
0.17088611680264876 0.86362885243082754 -0.17539911039999723
-0.34969259502153349 0.24511534422964587 0.78724111953816589
-0.61339273595763899 -0.96035453540097304 -0.37420160627288723
0.20680890026331156 -0.37244111448472417 0.36022961301434364
-0.16922121204281027 0.32754415036289775 0.75710613550842965
0.11994506939514338 -0.20011513436430217 0.75648601068472487
-0.60610638372071435 -0.71150812844176947 -0.33886254651671166
-0.71268690354663633 -0.84071285989455902 -0.40016829859008851
0.1377883484276623 0.56803349220615651 0.66590441593596594
0.13716420703467236 -0.086006319566846123 0.76340761081593556
0.10125641991866274 -0.27328274371761818 0.64758878488816762
0.11571758118023467 -0.32736532180901534 0.50750808149157223
-0.18915434453434798 -0.12829081123116737 0.75219383664017414
-0.49291668581763304 -0.060229380515645303 0.75887456817246246
0.79786540547606322 -0.28400185685129031 0.69461274225290026
-0.17001061546433505 0.50507260598009385 0.75384089176255387
-0.92445596649758599 -0.63394647689057004 -0.35076367792616736
0.20974588001755734 -0.17953880244596654 0.78821057834729302
-0.68466853367476332 -0.5908854492971396 -0.21709467722467579
-0.45723347536558734 -0.61443580051873248 -0.16532634375255384
0.052434384706671722 0.47106309425278781 0.77349722491449668
-0.40789566822321888 -0.34608955720608847 0.69520721871821678
-0.58632699102668795 -0.92955631302448927 -0.3851686567509347
0.029555150275662356 -0.42851730054866621 -0.23287427849419018
0.20327805598294546 0.66685504526978523 0.58998868299892493
0.44124236799671834 -0.47184480540250373 0.70374519405822511
-0.99305842877573625 -0.93479872071909353 -0.46609146964671666
-0.057175410178054165 0.274603424564412 0.76374497734562397
0.31026731932493945 0.47736411410670776 0.39544886746523034
-0.4163160823171026 -0.58095208907949036 -0.40239472108630991
-0.57541516597549602 -0.64520631004662254 -0.30909278930367634
-0.59532649146170158 -0.59426635701410824 -0.17145411611740968
0.36633257455731538 -0.34093064147305618 0.29132439605323412
-0.65085576328722183 -0.36019485489146952 0.67908814208452384
-0.32348563621531667 0.27975586066633884 0.81130513787115888
0.32921124198280793 1.1786623349830725 -0.45743798055539031
0.078048092093027321 0.58369317553522926 0.67065887080687148
-0.38197067112844962 -0.29808340486433504 0.74926102528417005
-0.27772513266413412 -0.0063786516051420605 0.76590431821087535
-0.3150250531287071 0.24693702126720929 0.80770687577680533
-0.62107803543412032 -0.50504317099757934 0.59126127323118283
-0.36389309425824479 -0.0070782534695821298 0.73617600910876746
-0.56383652225556347 -0.0075816926018310582 0.76590601257079882
-0.53676833598422391 -0.03535672372599663 0.75842101419062047
-0.38418017557895112 -0.27576524077618014 0.77747833062046112
-0.52856064708116079 0.79959482510342639 -0.2744749199684513
0.039979169504352541 0.090586494495508596 0.75439281935932456
0.17710947339629257 -0.34754229751544852 0.63167484506746874
-0.72770684029516985 -0.75871780430540259 -0.37727310008203219
-0.10659746005590875 0.42429429983191369 0.81153608523680631
-0.37817435727572501 0.29281450400961084 0.61843809602007127
0.21882727592429418 1.2087575859222595 -0.37297556423716216
0.73174384726094743 -0.44658514698961937 0.66843441815192151
0.55292992898479909 -0.089999583885813195 0.7016505434255258
-0.10276159320645561 0.30848234460323276 0.77730587838351184
-0.081371493720688193 0.12618235020348489 -0.73425583082329737
0.65568219861485488 -0.56271078821584553 0.41029892893013553
0.539104149643439 -0.11412095726676874 0.35418266308720803
-0.18475131855393556 -0.3017860329698836 0.6405443631250769
0.46792302446234402 0.90365527975695059 -0.39187702251992107
0.84092414819708949 -0.24332637557349202 0.66469109328635767
-0.43379179161318859 0.022013704241894416 0.77439275321828305
0.24841190357117071 0.62937440531800437 -0.42146848305149476
0.42730794877181921 0.57215876012959921 -0.24976240091596935
-0.097649612269986363 0.22970992315252658 0.76397734763156677
0.81868609537674786 -0.19268944489190787 0.40524522201777202
-0.77440022016348209 -0.42755818836341142 -0.32694850763715522
0.30368914786781787 0.49630998823696792 -0.37026883253171761
0.89805508468117523 -0.32468831053034108 0.61698569629275823
-0.22377657339090362 0.38183773191423143 0.77425268640369183
-0.47802938461368072 -0.64889120733076311 -0.28924581414021588
-0.435334605367796 -0.010710874272847448 0.73317381076513755
0.13722480992859687 0.31984233771262538 0.68510963091453903
0.43705665843723551 1.2479321356957769 -0.51794979187207701
-0.77560738387968442 -0.62399036968937516 -0.41285104423320007
-0.23633743791128126 -0.37993128953189448 0.59537029219122672
0.33826142321098374 -0.10828031881847267 0.74020762823739616
0.1496465220451455 -0.044503754885858449 0.78718781524700532
-0.56289411233348829 -0.90182830503050671 -0.39264231830428997
0.31983140295349699 1.0367197332845564 -0.38742600929700899
0.75614436179413147 -0.51501075546888941 0.66046683434232634
0.15674170705882062 0.47431183434587698 0.6555226021878191
0.85048336830486093 -0.46439072862505348 0.52294022355276581
-0.094999088065847559 0.7904224822895749 0.66537572226916097
0.40585536984556825 -0.4172405863377513 0.35720079466221932
0.094087741208152664 -0.31832410647410114 0.49146082284235959
0.18422772804374432 -0.20718826997708994 0.7700805545658298
0.25086016861361671 -0.36672275588276726 0.27190014338718882
0.053720699469959499 0.61538373135300617 0.67259876897663062
0.01896153551795976 0.92676214067002505 0.0011352611117985134
0.3002969127717634 0.58922932713829557 0.50515232175155589
-0.34165840077900711 -0.09753041034379617 0.81187321732358697
-0.15500860473187572 -0.17282870754215018 0.66486120538063176
-0.20002943785254246 -0.49375528597422047 0.40169534408669705
-0.43054588831402896 -0.77174881873150003 -0.27201537037162282
-0.18010225769702259 0.70536145550770257 0.73742060921640729
-0.21064876581401748 0.43573650299023647 0.76699799935941826
-0.7424130702354681 -0.25230828538313865 0.59337263707204357
0.56274590818542336 0.91356245764837141 -0.44917404848576936
0.22495598563735086 -0.013571632276057954 0.8087188130621179
0.26896120542081547 -0.37114336619699451 0.69217842974184407
0.097015308696182245 -0.16640258174530231 0.79566090911028553
0.23314841083731608 0.91110538305682631 -0.38134715473778158
-0.070778857855898991 0.12391467984373872 0.74637903762124225
0.51167060341824921 -0.3383425174133956 0.73846632223271769
0.26838081088913057 0.97438901942424305 -0.34996321988608869
0.43971008651540444 -0.57787756853212624 0.6308936686474631
0.017342488680995416 0.68667326275769902 0.66592411103012239
0.2546977073073684 0.75537406558865783 -0.018202586731785431
0.19688336998774858 1.212746239934507 -0.43526757001685112
0.18682075201861537 -0.36682103165553492 0.353053979268104
0.083565373488848849 -0.14014711284788106 0.78439764190491346
0.34071546191953672 0.64448536254543143 -0.010946381351313761
-0.21132335638377242 -0.33793533907283546 0.63096673266344538
-0.015729400118388526 0.34462459371096443 0.81017136468480544
-0.53385519651961033 -0.16472133867312699 0.7350921962287984
0.50875130304903138 -0.24736691302833247 0.32109876847655983
0.51640856904133159 -0.6618577653231581 0.47311745202742372
-0.46733155518523617 -0.21662173169726096 0.78402324032310133
-0.57035815461275874 0.5084846505825853 -0.59334028917209736
-0.97639673131208227 -0.91941640786973755 -0.43663078300559377
-0.55970229851287101 -0.038881796161037485 0.65611479166354769
0.058025870371100297 -0.30128583727610181 0.50935644591221774
0.52160843754736064 -0.042195843320106619 0.38556137237904053
-0.62121930032503414 0.017333263038360691 0.78750067951742153
0.36290251904097559 0.96571991127840562 -0.37683723861030316
-0.97875300308739099 -0.70012592610831037 -0.38439570355277652
0.67050291361569592 -0.4705896397138023 0.66963267808337079
0.39379425934921386 0.72825581904859948 -0.27253757707989834
-0.2010483454899763 -0.34738639545273919 0.60534075831045442
-0.43887486646667284 0.18751346205811448 0.61118941866907051
0.28292142234350948 0.76118343076203043 -0.2818093963618935
0.31629717729950713 -0.16974607463896429 0.74282777139987388
0.39538240504054301 0.8985033764588799 -0.3576552640358166
0.3945530262678254 0.67323038388703615 -0.20433833281829195
0.42884491466880093 0.72977176766755036 -0.26058554646760257
0.76158311146951974 -0.3959593834736701 0.66798663961445115
0.1440342159496808 1.033450532710722 -0.36922156722212307
0.047623190273174743 0.89653599057210798 0.086466451016626422
0.4973479810289092 -0.52294742338721711 0.38221235479044324
-0.12692457520542177 0.97688507991974305 -0.22955365333392663
0.75172052198819372 -0.30626539403866548 0.71532324458007679
-0.74788934829852494 -0.35293683213744043 0.56262895572107396
-0.61682801380833396 -0.20607505351557265 0.62148954359575015
-0.65280359007801181 -0.28727331169238024 0.70691100482324032
0.19799628676504 0.018394695805355354 0.75046258422102596
-0.47825625178544939 -0.5537805777714242 0.54203143119073616
0.31233100288383042 0.069893415953169225 0.54396048815367237
-0.35522202386751545 0.19815116610126005 0.78338915546493837
-0.40866851431784212 0.18217088556432159 0.74186537593338997
0.77254294820863834 -0.39810786006304255 0.69311262059714451
0.13608151132167023 -0.33863991626015366 0.56246934354531319
0.853253300594357 -0.46382746466499292 0.54940480992522467
0.49813039550158678 0.8396366228687917 -0.30604656382866935
-0.37807268336582567 -0.51539248589084607 0.58372741284161123
0.36277075388161961 -0.016858844868524514 0.70642881847379613
-0.7923363988838652 -0.9665704898737002 -0.47205268470275286
0.66070418992276458 -0.084029552960970477 0.4135771193474298
0.36462816555721744 0.6395179047386792 -0.1629859523405699
-0.72156340865947399 -0.28062487704451122 0.38721068269030212
-0.085984787561571352 -0.20104168994009353 -0.63370331482257214
-0.72873613290907713 -0.53483762920264732 -0.31495943023995565
-0.22030073571038855 0.75285764207298733 0.33188976365114442
0.25846726874991433 1.1024685221199375 -0.41344648830522246
-0.64159914537171048 -0.058835888470119002 0.5551057278462892
-0.60502027041299655 -0.97792994543325751 -0.36701332870560321
0.3354165504972535 1.1760800488037892 -0.46715508351161361
-0.68057466776543052 -0.12894655540987099 0.53608327451574667
0.44229713102104284 1.1925513331274393 -0.43840094210534986
-0.12911978005586633 -0.034954940805637769 0.74450005385735452
-0.58818517938156134 -0.23910130850888578 0.71120237899117456
-0.18682953047751738 0.33617095814032272 0.76830880873384544
0.043169183165019831 0.8794794958091714 0.58273950806198016
0.45295304069700038 -0.097282518305741306 0.23390117098108121
0.53777391617254011 -0.50802305025557537 0.71057381787123219
-0.4373573737228682 0.59341721275299264 0.68839140625967943
0.62139555883347342 -0.40326634120863503 0.73345836508080353
0.10508057066544652 -0.13137871475782248 0.80367397620315018
0.24323120391163755 0.0069890956852454167 0.74708163646386794
-0.43908238481362005 -0.086806718981659259 0.80313340780268661
-0.48199615491429171 -0.52646893183110866 -0.43846244706316995
-0.61836973249417682 -0.66053035288153428 -0.31895218164225625
-0.23748115356248789 0.47443638444476566 0.76082028116065104
0.12582648623682147 -0.18133804520143304 0.80652683699403482
-0.19946346680024263 -0.39718692809105516 0.64637559366033415
-0.37291878947830526 0.87296157293693444 -0.3471141248148335
0.4659434096934234 0.8330392906316888 -0.33541035480314818
-0.62113117316801336 -0.8582080415148341 -0.46791821874931472
0.37344501735857705 0.31043382211820258 -0.18295535676717734
0.71955482500843715 -0.5137793109786335 0.68704546905927089
0.14189458781158848 1.1268281501742923 -0.31091285190873208
0.12916148769835445 0.73255312334430212 -0.46747043361132157
0.19543884675752921 0.027529417969297754 0.75202446491399044
-0.17275336092494342 0.60969171531267641 0.74030333587875319
0.21028937152766503 1.2439095329631229 -0.40462226127815626
0.50690575237002733 -0.63559320855616797 0.44048942156160464
0.21568826896808346 0.25909378102868796 0.68183227975070437
-0.51571110312245239 0.10483350642903577 0.81097348435866934
-0.52537390330412137 -0.32091123974132474 -0.55644534710584281
0.40843519476162271 0.67779080772133593 -0.19716618469708536
-0.28334056007139097 -0.17326976830891017 0.79796524098959409
0.27054907437945985 0.77046657898730952 -0.2559050908892111
0.17134530928163016 -0.051653644370174945 0.80812179314368748
0.032792275875909382 0.42797670244515906 0.79315428873567839
0.6426990307589513 -0.46773555020111157 0.71087367825395731
-0.41112644461367154 0.02291171083327459 0.77467067544249346
-0.028754073309578132 0.9448133674276713 -0.28776925513991358
0.36428952350848576 -0.36873911416892469 0.31904976367273363
0.23347029322239266 0.92667530206304516 -0.30434140726908865
-0.40658070679655722 0.3550039417496702 0.69541503614049915
0.058345660551129441 0.37010866192453484 0.77560881056520259
0.14112487249978756 0.47020442198725121 0.67869724273719712
-0.66234377389136867 -0.9767699507250569 -0.39394376770226813
-0.44665591204040211 0.24426239333151489 0.59235548095219315
-0.74742853244997676 -0.24971322710194066 0.62357658990605103
0.3073091950474911 0.42140617118049306 0.56126806531946727
0.30215814549571007 0.2534250733917105 0.51207189750441984
-0.71224544653233224 -0.48504366374633712 0.44491713134215161
0.16354404398362021 -0.085174036692356125 0.80776581314094642
0.21052973188488977 0.98512406296126809 -0.30228797999809842
0.28649724040091229 0.10156702084862346 0.51311396741474269
0.10904448230046526 0.82471816079972893 0.25944258282694577
-0.21760451439709882 0.43655914771553572 0.76848957120337502
0.41314796739133541 0.69470041289855544 -0.21825330151870403
0.14636229900057884 -0.082038063293902397 0.76080988429470864
0.91147380509145037 -0.24712429019977833 0.44161509554163914
-0.91898988662178027 -0.80618364554498845 -0.42760618221072733
-0.53541774184079571 -0.25744809415490622 0.70067207755553085
0.21534663563994272 1.0879859766691302 -0.443898526546608
-0.22172227467856942 -0.58796622780579799 -0.24215985797645345
-0.95933590155667403 -0.66273121534064305 -0.40520795138403898
0.006582541644458928 0.63136970858905883 0.6799593088969722
-0.06580175070875427 0.876044160649875 0.21690363505731369
-0.63153005206241275 -0.60334536254577564 -0.22471327357864368
0.51964175707970384 -0.13932046209825177 0.72580411250515198
-0.21991924942498997 -0.3122595371588881 -0.58759202672894872
-0.30565869454729722 -0.22630838117780527 0.79720149034195487
0.40951409414892126 0.7977701207282486 -0.31290256324868793
-0.27949974321576576 0.56576747418925422 0.77933890198245592
-0.6409100764614557 -0.75925011010510968 -0.35886620947291448
0.25756412247921645 -0.11189557668828609 0.79278528661277292
-0.3708934893320226 0.63034557022686499 0.64824745328510858
0.50538845879205851 0.88332790512117931 -0.35561987570797271
-0.7227984404254606 -0.40446226187952128 0.39583940931954942
-0.11934584342690968 0.45292114789046067 0.80506642819879914
0.66744619401154992 -0.680760143981888 0.49468287170289216
-0.47712029995917149 0.15999713449923814 0.68797931350951913
0.57198642291531243 -0.37828512165871775 0.736452005577938
0.64845768047892705 -0.25968509882992041 0.73076936891007094
-0.2639878273095988 -0.27103364749042669 0.72916029967000284
-0.75726494753847717 -0.43300268828061039 0.56754229464744554
0.1246140022415041 0.49049582471550579 0.69368400406339603
-0.0012347699391099809 0.52469709862120517 0.76563000672626558
0.13244981151586899 0.40733912553482909 0.71561566826558831
-0.2335814075020366 0.31659307393814462 0.70118210923339319
-0.1623195675244844 0.72061239382726949 0.41769096297300834
0.12182182520759 0.60470980778323824 0.56603986588054767
-0.46167943932296751 0.48347453517792172 0.70157526260587844
-0.35051653739039068 -0.63432170781326036 0.0093224900172614866
0.137399342030875 -0.10888462651772457 0.80854851258930083
-0.96470230071049912 -0.78705486812321901 -0.40564280145786924
0.65773513959128849 -0.46591110216035947 0.65935546341350815
0.51262333042659591 0.67764616699901659 -0.27795055556203607
0.28292209835151994 1.2401616105426738 -0.4098547660431251
0.42207543215064547 -0.23794462784037052 0.25178850319076318
0.37399234867566733 1.0457886384388004 -0.40947314439901561
-0.60469855468491218 0.36178842059590011 0.43834895021377918
0.55314053674784347 -0.27195365139015415 0.7370610136917648
-0.47212545889930979 -0.58250477232271436 0.4839016646228842
0.3612572566792025 -0.21737482648544848 0.74275632806688563
-0.31793496482275074 0.77445790099682199 -0.50732862099068399
-0.27825882901733223 -0.29289727671026 0.72214770451928345
-0.64248346534174061 -0.93683226456730306 -0.43473246428311185
0.93112542372744755 -0.18506896193936484 0.49969910657491212
0.32213303971722951 1.2698967998344983 -0.43459607123685373
0.53396599569932235 1.0586103308095076 -0.51119708662280772
0.65983358070441156 -0.67301470570051869 0.46787996912603447
-0.18233691369462335 0.3394059900856039 0.76334164829473039
-0.65553761521452003 -0.60309949049854961 -0.2268467210680214
-0.95067470249892239 -0.71066401363495402 -0.36624727443603433
0.41043552026811625 1.2466748919509953 -0.53650178436219775
0.49544899162037126 -0.3965877164675673 0.34933082829548923
-0.65551335539153399 0.087865796258510542 0.80835820666919034
-0.1915091408493268 0.51857058463880801 0.75444364843455602
-0.090312436407149477 0.27079818316697768 0.74852838424413903
0.41685361065876236 0.94223319181108245 -0.39067716974478017
0.25986732084714603 0.82556205554726958 -0.28373703230007052
-0.57452114971800938 -0.63570077740278208 -0.28605986902771363
0.29306088364802108 -0.045008848360284404 0.74997048039625014
-0.49651733153093147 -0.65730859315132317 -0.31692779897698031
0.62593016852924066 -0.42330471468746911 0.7085488866941354
-0.47331948673147295 -0.10882477504032728 0.79092292054775015
-0.40939583932626178 -0.36521557057992116 0.67247295808098784
-0.67795756466387402 -0.96335633252626263 -0.4488599827021531
-0.36982361255676111 0.27528148083167991 0.77058104947270678
0.59951423177000507 -0.44221932637009775 0.73106467892127114
0.75134069179826213 -0.59561473368756079 0.56769948840979367
0.3237073503839305 0.52615622523970629 -0.34836996119715735
-0.3098326032434322 0.21367130422635938 0.80473689226009881
-0.58516060017966254 0.09219635337492349 0.80939904354404035
-0.30157259815795001 -0.2572067475778006 0.7654827369115047
0.8381526578152716 -0.17160935370480246 0.41781649927325404
-0.57818941353503206 -0.32209828919822137 0.68248442218757788
0.2548736718786806 1.0766242320889017 -0.40137415680910848
0.61950990320930543 -0.68522446912741408 0.60082884189225183
0.27209165199298013 0.80487776986712145 -0.29351191907843344
0.17885980229086584 -0.20060807966982797 0.78651240877877981
0.67171713933885613 -0.5360168710397506 0.6953431307574327
0.040946247339196162 0.31986200666549447 0.76476030477943979
0.12178590476712614 -0.18837353563673709 0.80032405576225685
0.88926068442090767 -0.15961733284659907 0.46747830668329371
0.043063021175296257 -0.29383380371141854 0.57897142028476622
0.74325719812471647 -0.39768776593855648 0.39136936684631607
-0.39243469276516407 0.46956144587978255 0.81914653244136559
0.14121531450242486 0.80779197155330174 0.5656282740727967
0.34102015331609437 0.90303650104713107 -0.34429076038192008
-0.29513103199777646 -0.057606911206211642 0.75676203331615
0.372721807126009 0.51913622096805589 -0.27499107356709374
-0.37080537103944877 -0.53431392057771188 0.55885432117920431
-0.36976483009757288 -0.76919478676003017 -0.18523577321219875
-0.38742102014278146 0.20738290840826679 0.63553712459675538
0.48188555378510145 0.8117802962339713 -0.28689715769163726
-0.24494101098374443 0.71062106321803231 0.65865646060449734
0.10348736312569073 -0.18538686837324292 0.77286836767164147
-0.3446435206293792 0.1260530482181812 0.80113955711480145
-0.3734476152264925 -0.24009701342236411 0.79562778875756379
-0.19091131029627206 -0.18772233476769618 0.74218839757921273
0.047408274553298213 -0.35499244137149955 -0.41506050206492162
-0.097266135670817988 0.97270405947989769 -0.11317251085429447
-0.7585765350400635 -0.64725303103795673 -0.28237664132354823
0.78054799192516811 -0.26879190956473575 0.6992940293162242
0.87083921522327756 -0.38075861314786508 0.62375359231665328
-0.65500305562180472 -0.54529969820612489 -0.3815748612286427
-0.74929821410442088 -0.84039930384499195 -0.49594304152482849
-0.59236526190982985 0.73478029776347142 -0.28946974477731757
0.15383708725936174 0.83140520916525062 0.48942526140573506
-0.379666599514767 0.39553437672195635 0.64149147937670392
0.51186056218497811 0.92215981432037797 -0.38528290644014973
-0.4695711031432559 -0.58024001624268617 0.3966583321879682
-0.089717521533444256 0.49614818494601209 0.79304371049826017
-0.78693068075794415 -1.0299035804825207 -0.42379404689840072
-0.43358763414926926 -0.42924537041228472 0.64998909553627016
-0.33561100856505988 0.3141661428651954 0.81485401076228925
-0.2085356577129005 -0.13951084958509785 0.73144881745100321
0.20459300671297598 0.76759646438544493 0.24947447475670614
0.78947212101299513 -0.30937956551200418 0.70220634097033852
0.17350044356888006 1.1459073875931542 -0.32304978892155489
-0.10722706544780891 0.67990008420383319 0.72190944852795269
0.85344770169314543 -0.41265948305457023 0.62703683810401145
0.73429333906030436 -0.3179713494490084 0.66470843180045591
0.096545720351169706 0.83811842564483374 0.21170409099376997
0.11003594904271097 -0.40802112454555051 -0.150907857358348
-0.27645080124773358 -0.71418491793609729 -0.19350728285068186
-0.2840113254883434 0.33338600289695375 0.79262837290108834
-0.21697250327565953 0.4874218529354275 0.75853549257939079
-0.23629993697543483 0.96284480005768636 -0.11666729245537155
-0.59554438217924499 -0.40869627692592747 0.65037208282575421
-0.67257945463000013 -0.28992701799101184 0.71278353263315708
0.058377256744211792 0.49777796223616022 0.743479300191769
-0.8179655560813508 -0.74615835052664448 -0.41329248338851343
-0.4412369355391732 -0.26852193715337425 0.76785186875267186
-0.2321817053619597 0.36241363491433809 0.71840411654072511
-0.71656882425952872 -1.0056272704868752 -0.40300605942291057
-0.04613721374898816 0.46437893407251529 0.80162948840888149
0.81922440414899711 -0.115943736129827 0.46921081571273859
-0.47640034633740314 -0.38444106420286239 0.67364627899851826
0.64935495131301124 -0.027186028055218969 0.59526475971593484
-0.72311037053015426 -0.34380177693501501 0.45493110317553231
0.21121257304683283 -0.081519426150120644 0.81255547342446022
0.056328430196170842 0.39548085059285576 0.7886582816836416
-0.063654395484057602 -0.47005836994683481 -0.21458182069358145
-0.35115352653793153 -0.63677093874068724 -0.081239932581162577
-0.39216528533112793 -0.017365938619203547 0.76737725917039512
-0.73043916226593097 -0.34639988970483593 0.66934188889209878
0.84657116960438827 -0.41769126550600966 0.46423660160852265
0.36017349640106744 0.4250213816811419 -0.23942836989279215
-0.69506647189365012 -0.70833662651634066 -0.35198074925627409
-0.26495795150825785 0.4433430387573134 0.66875881613963628
-0.61383075621455063 -0.24113939157849984 0.70679535121186632
0.54610942517876282 0.010850196649165866 0.59751768603802446
0.17981809786547842 0.70437879177809926 0.5901033111888303
0.30099775721186006 1.1183462546874887 -0.43519902480482031
0.44395276493987623 0.042547250562047445 0.49015536490945877
0.61166212303567491 -0.45223288265686001 0.72771401853780304
0.52326880987229174 -0.22814230375228028 0.73747454325159367
-0.72907004803851549 -0.53256170150888682 -0.15554905662597918
-0.62124409830389027 -0.64603730447030294 -0.29750696959133904
-0.09276763706668234 -0.43606346930621243 0.37808086477258485
-0.90142520985883579 -0.13034304478206771 0.1360611191295007
-0.54656748003388245 -0.050978674860759021 0.75503934087648261
0.084499249079605931 0.56050943946787157 0.67125006377019858
0.65335858938045988 -0.61439741316303298 0.42661903102954923
-0.10307970039179892 0.86592181891863973 0.22184870894732356
-0.91845678032023415 -0.72714209449033174 -0.37209216498679965
0.29702198744789854 0.6717081229672397 -0.37396738654677719
0.29130444024561086 0.13205975869978737 0.48877922201928214
-0.50697160709078659 -0.32290523924327097 0.67155221789393948
-0.42357428295796851 -0.40286797175679023 0.66877228303572167
0.40029948966107654 0.71966897254424733 -0.27092510303730677
0.46592789426485837 -0.010281284508166344 0.37628033319135668
0.27411466933369155 1.1273079300097573 -0.43200127332622529
0.085581465801016776 -0.17323397150329178 0.75304426857090689
0.29743497325054591 -0.15965281953755195 0.74517277229336543
0.77542804265673837 -0.36968722099773377 0.6976788418435298
-0.11338478757535597 -0.060034452228752144 0.74789100041869006
-0.34867803608037562 0.47831940219362856 0.53458627771636102
-0.88459122305030746 -0.90418810046730158 -0.45358738815248856
-0.28840007683505675 -0.45632976808485015 0.62356342528635977
-0.66119503946816138 -0.85780885741557533 -0.40189859993804689
0.015249488964027336 0.67228548684742861 0.67066380591529651
0.19572524822275028 -0.3664899991092021 0.6329914011520863
-0.27285142627331993 -0.1742884650057519 0.78244488940989143
0.67810421851241287 -0.65367460339542749 0.60172937583585195
-0.76131707841280871 -0.40681764604837412 -0.37381092551696327
-0.33338766747021964 0.2443625707773025 0.80111268147356185
-0.43222623738222765 -0.78985601455791343 -0.24759425550580971
0.26272767995035551 -0.29911654570683233 0.72383113824393774
-0.83242079864412588 -0.77286386760279679 -0.42724003223660745
0.2117065344840583 0.19540458009310591 -0.57678323665418674
0.71162287529096702 -0.50989243595747435 0.41246705569809095
0.071194341400836691 0.60723134363313669 0.6181995594102716
0.62166177360514396 -0.44864974485415221 0.70679658441199678
-0.19899050987532618 0.32737210788475579 0.77472079416380524
-0.46086491252016515 -0.26056109164596908 0.76248749723902876
0.062025322447080811 0.39346308414677988 0.78366696686709858
-0.37335753107656799 -0.36625385611321271 0.6762627601263631
-0.73766368965243956 -0.46109668381900804 0.49371576471826017
0.16238512369367797 0.79667959891395945 0.27508817758674198
-0.087320810852276054 -0.34757099826027016 -0.5205089171190096
-0.22068826654365736 0.5241351150969118 0.67471527437984236
0.4134916841445353 -0.23277332871625767 0.22375650502311117
-0.79544645871612119 -0.48156996619337988 -0.0088617604722998067
-0.33850472839854717 0.024701739006129486 0.77218326658407932
0.47910122298763369 -0.54862696806379674 0.39377511727332148
0.0073481303343037041 0.93650537728426642 -0.1999039923647814
0.28826312375381136 0.46153210697014568 -0.39379399143995641
0.33613361629585015 1.1257953811524199 -0.44417024958649165
0.72534786069025969 -0.31672970580781623 0.6667265746549802
0.68147568112120993 -0.61199707612527465 0.64427480352942013
0.39077365864761759 0.53526499072012168 -0.096428898655435802
0.19879064965554605 -0.19789672465279562 0.77625954757653659
0.34825881173589934 0.21848352944090532 0.30090410147342794
-0.32348971891311251 0.84551233731198128 -0.42237678875426354
0.0297426843230717 0.40680138782270792 0.79808792875002865
-0.69631817683161756 0.64852243886305061 -0.10552767508685434
0.083822862742209736 0.58967392690507658 0.67212767509182925
-0.54273099958563265 -0.29843688842083971 0.67965068544082641
-0.75929267826191449 0.34613229928787881 0.30794530020670763
0.031295460620739846 0.65774578822540342 0.67207653751455609
0.30274107679455753 0.10107682880738889 0.48892855495019205
0.22197733798600794 0.011114349011589475 0.75388608250275979
0.38997937273706995 1.1695299383147715 -0.47869761764325958
-0.8232208147899982 -0.67902482650060403 -0.33119380994506642
0.46377541426531721 -0.16266521098592523 0.27474403379012102
0.83727703587145186 -0.1958319347864661 0.65294731310034848
0.59781667200458699 -0.22803218502174083 0.35394439269725808
-0.54251913666229257 -0.39911156940814863 0.65630080976472982
-0.92587324258457571 -0.76209895856252263 -0.50436805752695335
0.56309061286751216 -0.48301042513851034 0.72080809406780233
-0.55126463229187195 -0.37653357620195127 0.66529364324107121
-0.57180007135485056 -0.54031833220082603 -0.41230987354178339
0.68658205512938864 -0.47054556909057865 0.67615735131574084
-0.63101433579571165 -0.35185695621337043 0.67446927507483423
-0.87788802518125308 -0.91168898927348607 -0.47332041020752413
0.62739976846800971 -0.40439790073009974 0.73067215052039103
-0.35869826968711038 -0.63461554073334892 -0.13788248393741043
-0.12467636308552699 0.75130467567674941 0.39268005792712657
-0.48928966057731316 0.41874882288229731 0.48618677903855101
0.2873895550211607 1.1512143571369693 -0.44119350057697204
0.46536188259089073 0.0320030331072374 0.59669169746138451
-0.3314675051565672 -0.08390639979489567 0.78795248595427125
0.11203689603896549 0.4962510661433619 0.69556493778792117
-0.10385842429453973 0.44503906554650285 0.80824769704201316
0.30228598123339268 1.0180341940861402 -0.37741751141383162
-0.17844263297403984 0.5113106852060465 0.75755608193751911
-0.31396033184476124 -0.64028693131391368 -0.13446992597010166
0.5494679281541579 -0.4751770086891085 0.37070969403760046
-0.13609362048789464 -0.30058009170145095 0.69864735534965661
0.70161342434458618 -0.34883136374485968 0.66963623793366622
0.039653484824530238 -0.32977663186748263 0.47141826272499188
-0.37045965873586084 -0.4002460779687862 0.62635065321230599
-0.57342814418760213 -0.93285348713511196 -0.35953553347967215
0.34432961563724973 -0.0087734993567512021 -0.35033230695346873
-0.80920119169725169 -0.77689965528898419 -0.41233386327233035
0.74980557538284032 -0.38471362737363535 0.6524021039053558
-0.16382785861311788 0.38823995539067901 0.77646070092324493
-0.0069096498377625437 0.4062252860479445 -0.67687441046934538
0.13926147063834549 0.37482012989806357 0.71609865183585697
0.12464830488008616 -0.25613034231121645 0.70107271109246483
-0.3338315919609407 -0.80464528728861673 -0.26025442791513598
0.10787806622128215 -0.15642972636271413 0.80586638039926228
-0.52511304964135519 -0.110862786059851 0.74920114664908155
-0.59077704451219404 -0.35627179127557351 0.66653419899165556
0.3866986622941333 0.71971270615705318 -0.25700695086141323
-0.023391798279483567 -0.35753729017360492 0.51510723262573421
-0.76294094085729824 -0.51003139159624933 -0.086348906762232502
-0.727359689418968 -0.55376754006286921 -0.21509219283982972
-0.41070624364958519 -0.023572001661467112 0.76270081998763573
-0.076787634611466871 0.26051928672939795 0.75434653621013936
0.30056971422021661 0.83467726663768627 -0.31530961216629549
0.044505194695329209 0.87023638809878712 0.60627060724398163
-0.44378372615560835 -0.44621423113863834 0.63958500682257835
-0.60236176679162057 -0.98891714476575876 -0.37080809970195716
-0.61175400670209967 -0.05244808814145685 0.76315788509543125
-0.0035954037552521356 0.51854410899759618 0.77155355908564616
0.43281262180772728 -0.6042612772464846 0.51980597229101022
0.25692205989467709 -0.0022357320889403454 0.76331225061976937
-0.55499521766430604 -0.25788570756863383 0.70353336714844517
-0.06534264919200794 0.53966104398548076 0.75245912373966917
-0.41721055362018333 -0.76942245084643091 -0.36721245197161423
0.001306688995061478 0.53107292314720045 0.75283341383446967
-0.24765447691435938 -0.27944950903133048 0.73270834513788685
0.11541161698353619 0.4093608747042019 0.70848215682966398
-0.56466294087941904 -0.23360117886700937 0.72251720820786858
-0.51168725687366035 -0.6080486469596913 -0.13373957860730457
0.17001779568068187 0.27798292662965629 0.70540580567591959
0.0225787833810287 0.62903488553874354 0.6766160432062378
-0.78845768762863244 -0.59763186702626125 -0.23931322661096033
0.095581726742661743 0.53818473493160734 0.67599389658846931
0.40594604937524537 0.59849688357380693 -0.2941023997396961
-0.14658926483449619 0.75852735602145049 0.59706303803059768
0.31596409281041105 -0.5105482625017963 0.52630980668108052
-0.90762131195581119 -0.11018773001621218 -0.33039227466629839
-0.90948817811738536 -1.0030967683356398 -0.52153100347682368
0.28486252369070897 1.180188814457046 -0.42091477644168407
0.25389755433474548 -0.021320868360366063 0.80293276758069609
-0.36950194034992023 -0.41569144795108492 0.59972233009507647
0.18524530012944496 -0.12496456877812445 0.81319161293949094
-0.66139006467480144 -1.0087997716758244 -0.39143386319680928
0.83825559062367105 -0.36794747278105255 0.43541336410972775
-0.44518091201898713 -0.35654674664762265 0.67357147081983726
0.48950685515980297 -0.18481599229024503 0.73701928666106298
-0.44619701698189118 -0.36344658642168515 0.67589049738751328
-0.39928127617519138 -0.067102258692059991 0.78692962169594693
-0.44872795231293949 -0.37816241762971359 0.67775585455118659
0.29697407358735717 0.20756867320631045 0.47276650633935091
-0.2412342948499635 0.68582360209160154 0.60198931040555692
0.11357531188908965 0.85993202162016757 0.53932008876522275
0.18453033078097292 0.78500412010423215 0.41332152275940004
-0.37018665838462539 0.2496107174790545 0.6873936799997189
-0.19940440085577293 -0.48872802024449324 0.53373321829609921
-0.17161777092455921 -0.34251387007260981 0.67918949405888185
-0.5191028949157932 -0.36975467300893072 0.67420203477592366
0.095865399078025604 0.60323155525722782 0.67036103682188042
-0.89638136293767445 -0.88037667990794599 -0.46316202374627125
0.027571610636819344 0.34026452363549708 0.79101837292612487
0.46470183427764766 -0.53021484354839998 0.68227161316417551
0.31076225169119809 0.74864061554714123 -0.2837102816660213
-0.48228288198566815 0.0037384462432994425 0.69049201959746753
0.27120731053733138 1.1563691647849135 -0.41700179770371548
0.50896471561197387 1.043345573288863 -0.41931180128017687
0.11758251518895335 -0.2894920378269159 0.63914918252408626
-0.26411603556470453 0.43987636390230644 0.76951161700624482
-0.61592455907740984 -0.081332874493410756 0.75655186858006118
-0.58845886671042891 -0.16571223532540635 0.73094773562473137
-0.57537192178784835 -0.63992268551744225 -0.29844472413761736
0.57149201492910606 0.83741663227185548 -0.389561622095421
-0.23969768662074387 -0.1892948065831046 -0.65202860106186833
-0.64590236888613006 -0.5547506256417325 0.46423529571164579
-0.84419539456556336 -0.65755754292715807 -0.30327598402096001
-0.86282372458553169 -0.77626804257607551 -0.4450219987141466
-0.3759503275133369 0.20670476394413129 0.74035738853780941
0.019355242850537024 0.30604448587927546 0.76887104906185044
-0.15803542430201389 -0.29768101823388227 -0.59127285753819692
0.36457887781643805 0.74877420546008011 -0.35095936964043872
0.88293582808790561 -0.24955823016326928 0.63871309533385201
-0.24349561934006303 0.70445055418709845 0.71378463863105068
-0.21564861009855463 -0.34810318748741675 -0.555963381282087
0.76526419097538678 -0.32055412940943917 0.71129840693561874
-0.40503075883435713 0.57935625026916071 0.64419497375103063
-0.19147160083682024 0.47230487947157318 0.7390789655129133
-0.26855043843705317 0.0098175280250956121 0.76475629770522957
0.26668884871023479 0.059354679364694185 0.65423603061882574
-0.59432235788216659 -0.20232778022270903 0.71985178369986613
0.69879492303129354 -0.31906426093746276 0.69402674380066287
0.27522297294884623 -0.039176525015885311 0.78482961718629696
-0.6037379509341001 0.25266000983974424 -0.63716043051748628
-0.35749284692391115 -0.083852130368862632 0.80783179021475249
-0.66932580611118553 -0.57424283035866264 -0.16651192365500123
-0.63545382294563524 -0.6112972654334472 -0.38967474852232442
-0.37237089061376238 -0.74441767497057043 -0.18878106458974031
0.36597709194074923 1.0966895922242124 -0.43166477489547717
0.28146390110054753 0.75640014759893326 -0.26981475054664728
-0.16950455267168607 -0.17355969907034385 0.68715602491495886
-0.29924299007323185 0.49415839763942593 0.78108880877385545
-0.69075460402846289 -0.4966112140785981 0.29806817502505822
-0.076517360876135143 0.58765689616048533 0.7171010414928034
0.57304930013712152 -0.13755771906099579 0.36379491314892931
-0.65329243272013215 -0.32850925821420596 0.69225026134731849
0.43441537861473378 -0.54530936164196753 0.41191802323359639
0.12107087800308491 1.0557282737324538 -0.26643885651748178
0.30167688260849701 0.76140690444865733 -0.29834974619604537
-0.2560459014558063 -0.67330061383115414 -0.19084773768724261
0.49426114648828445 1.0041408101889822 -0.45383206019600308
0.17043626959367586 0.46801536485019479 0.67685013536616623
0.1689503970965589 0.94128947237592442 -0.22523912455335449
-0.61224216865545245 0.17704405746658303 0.72168613516710067
-0.49851602248208948 -0.64649920286312845 -0.31497398986549996
-0.70969611941086441 -0.23906530674401871 0.71997205942797748
-0.046947731391110636 0.24447379682753834 0.76255245097712887
0.23837355614303135 0.0077037862569602211 0.78143110734807308
0.29237284097485627 0.81202679189522975 -0.3640698583464328
-0.75974851448439296 0.56103475803206582 -0.11091351941159999
0.14642133206656993 -0.3173911255477524 0.63148606642049288
0.17794467106378775 1.010084833181768 -0.26826958034164505
0.59427177551248889 -0.70423515092508637 0.57384692060960774
0.0063026838205146873 -0.30147964582058151 0.61191845594932204
-0.37013984094883767 -0.63237233626338707 -0.14872535972715184
0.87146261297941052 -0.23094540073885561 0.64281261642144827
-0.30853322761365476 -0.017421855776876605 0.77127522274868099
-0.33146865844601336 -0.63597590805185256 -0.057142167381343256
-0.4680791645400042 -0.58311222961725218 0.43003594851987259
0.75002357684111232 -0.32978776034340118 0.67078596871850849
0.39716411982027466 0.87567376890378767 -0.34586011115472459
-0.23338089336846934 0.53042215999881037 0.65238811443594003
-0.34443727589660256 -0.23705004581339217 0.79774772883965994
0.11150804534278791 0.3553248489689329 0.72967079602901919
-0.41437732252504489 0.15122768097981876 0.80228667605804205
-0.85712948972922831 -0.5981746917419648 -0.28448130434739127
-0.14817486416581716 -0.40419128998988452 -0.45397939951573463
-0.38846933708939346 -0.24621634684169091 0.79173286348049032
-0.43062873464409535 -0.10252067162878031 0.81079680966867329
-0.36857712001663856 0.29151910763282807 0.63617510974575353
-0.79431686757390807 -0.96507239424060831 -0.44971221724441435
-0.33727513036267354 0.18834943529624759 0.79702306573031123
-0.52738823763478848 -0.34975651806401764 0.62223126717325528
0.50018355566759709 -0.65942762170483249 0.51223014585395177
-0.60632535266871912 -0.78869594275727106 -0.3606004152024731
0.28116389970325883 -0.14969442313175207 -0.37925049706426606
0.13129014641052095 0.92703008713677626 -0.32992465279893324
0.14321198446096517 0.82648067429485295 0.16802152590744868
0.16550026857627387 0.96441163867651092 -0.23182682775173191
0.29122455153748561 -0.062429582185384191 0.75806534067634246
0.28556352791932937 0.089099295593031869 0.55069993351045099
-0.62688820003031864 -0.19591850104726571 0.72668092824746822
0.84377933634866054 -0.24252574510201796 0.41002984222390637
0.40087635845519998 0.53267411684041832 -0.12906187862377649
0.18386591533167618 0.48287868361702824 0.60545827779835903
0.71330101018553549 -0.1765373736590341 0.38640407951059075
0.02878216365222741 0.83084231967555855 0.33267225669348477
-0.54309319580006843 -0.60275709520820975 -0.19518625616885288
-0.54096684534824035 -0.14811341802942124 0.74762063156117975
-0.69557497804597546 0.12662411650195171 0.78813891399165925
0.81232357580999093 -0.47892735355511196 0.63117965757076178
-0.33674983137332148 -0.090443615676001343 0.8027712541641101
-0.49391805324977156 -0.035582414534306217 0.76656467988014043
-0.81829908870791712 -0.94533236932702591 -0.47270685753876407
-0.31659088922149081 -0.24246754311106677 0.79262759175669828
0.43461331606971854 0.79138566980741132 -0.30167915110476429
-0.68016209561501739 -0.95171261240378469 -0.4476569102030723
-0.062071238588394806 0.23261792138641635 0.76341616859051697
-0.084910607377260305 0.37483232418349477 0.81477655747070088
0.14441043050643643 0.25823693404458758 0.62276450813301309
-0.87721991702351687 -0.88196783239342746 -0.47514750979910758
0.26578747538291481 1.1012506547434002 -0.41925482408096215
0.55602958766411348 -0.061603358385069917 0.38951104932440472
0.67433354175805604 -0.49605511227174226 0.71041963399612484
-0.17954762976012262 0.38212370766594805 0.76490597620089673
-0.58215480633998595 -0.59887056960099372 -0.19833978119427798
0.37590878658173921 0.58199696124157896 -0.070664451637846071
0.40567900286291092 -0.22748698851732208 0.18185931321772841
-0.39509048330041807 0.18641560084618192 0.65827853292840288
-0.67208951080639423 0.067624242450167849 0.62390991801451889
-0.056345836961043005 0.35852674851475186 0.81443222129427184
0.40749879782075382 -0.28001176183042187 0.26898988385217137
0.13313186024435097 -0.072963731423649314 0.75078145606446611
0.72039388301717722 -0.49545481266153502 0.69528257017109851
0.69897648348208463 -0.63335008506796697 0.60442328485330421
-0.52780691020643644 -0.77318137969109735 -0.41332102747928445
0.55321990837848389 -0.18422033204853161 0.73017746056721933
-0.61880909162196573 -0.75460072287519742 -0.35299454697583599
0.43966554555964166 0.73975373352283391 -0.2444489447978242
-0.12121054977648527 0.22239571552974802 0.76301967543034976
0.21083907228195997 0.83391933434354204 -0.20952501549730584
0.060876649220404033 -0.15139268731381339 0.75894291109305811
-0.26576087719566388 0.95327020558087838 -0.24091699681877898
0.37186624493330456 0.92397141352235757 -0.36212155945829139
0.40051459599712658 -0.4389746457065522 0.70647895395443783
0.38223476676956736 0.55224858979454083 -0.05361007100276538
-0.51184570914185912 -0.076914638887375375 0.73653203068970541
0.38390187332092651 0.83732231205133978 -0.32771409849390309
0.017384160486990652 -0.084495852704963959 0.75501631388759094
-0.11016993814892118 0.09765783854762411 0.74826545410941137
0.67566941709512918 -0.44067623957573332 0.65466671539041599
-0.21892946546795145 0.419716408696992 0.7703882908659665
-0.098838543096324116 -0.33665239831661875 0.65596492160717901
0.19776664587038084 -0.19373684362868815 -0.45917057238963821
-0.090727881868890137 0.26558185383102995 0.75515923205123769
-0.19556108932415839 0.73637213555043957 0.64310008960149645
0.46156555917386299 1.1081567448672383 -0.46026737233211179
0.38416583512199765 -0.21237612786579607 0.033071663121724271
-0.48751074147735451 -0.09730788749938668 0.76464957949277235
0.13442939735665149 -0.1217483618347126 0.81133706947946749
-0.79499293701568874 -0.87381850232663272 -0.43127609087860819
-0.36248170772788413 -0.71752334213704749 -0.18869429264973547
0.46553991088313396 0.6566629487185951 -0.2931716847743715
-0.29779625753888439 -0.53790836081842919 0.42427559872675857
-0.15189685641053785 -0.46006814215053105 0.45902430376683867
-0.012225381765833987 0.22623143369410048 0.75682891558297527
-0.18321502548894841 -0.53209945145339876 0.18856847678338085
-0.68896653907092542 -0.55385987588601715 0.078186317715086773
-0.54875430861121188 -0.22764677536912004 0.71292915250681688
-0.51501054470953633 -0.07861708553573532 0.75555294975528042
-0.041989497526522257 -0.31556386236639078 0.63980603044030815
-0.21706679025954045 0.9660381725235867 -0.24150418144925823
-0.4923095751803821 -0.41580816229973117 0.6546925082008741
-0.72961506893930306 -0.068940279363500778 0.74611897290502327
0.16235881515231299 -0.0054277593471470098 0.78995726671275435
-0.41351162054390045 -0.72369839749045983 -0.28454798454213304
-0.77925574528055819 -1.016586960772015 -0.41627552462905371
0.69040741346774226 -0.33593005493780836 0.69411340520823828
-0.06683468763546685 0.46583286865919682 0.80297333416951133
-0.25765871603181267 -0.35884601924727022 0.68533209455857502
-0.22829468373682005 0.49102347158340542 0.75743570692957007
-0.76738919292322194 -0.5471307278293609 -0.28546474211696804
0.44687692185990713 0.015924907390856724 0.41252321363510092
-0.451524426144438 -0.61309949341619774 0.15595507621296179
-0.20231245551875432 -0.15500425279067187 0.75341554605878969
0.31554332944187635 -0.095237047503058392 0.74305522103102106
0.44755427855290719 0.77131353387394519 -0.27861187953097755
-0.95381929841408564 -0.75110140712856488 -0.3883456583675482
-0.160953271404356 0.31071248066427692 0.76183101530259378
-0.43585152366321722 -0.7465889811235451 -0.30957697498145009
0.76835740398401242 -0.41057996225587168 0.69216613921607717
-0.95734623079803427 -0.66350085057297692 -0.37765209586449444
-0.33167578271858744 0.42382575699429559 0.80373124525882389
0.15127495124248114 0.8463084803612686 -0.36948211472167358
-0.5265746559633584 -0.66889735184539667 -0.32497466843641476
-0.66802933003777909 -0.18583670738226576 0.74368939666431544
-0.13716040235546245 0.63536560177408408 0.72741727758009489
-0.86431969239748696 -0.19513450970236335 -0.38112382799669575
0.89558835242876 -0.35257833226021162 0.4795080168638961
-0.24512453625734665 -0.032474929675911923 0.76107029997718456
-0.15078497572397254 0.55677463695140705 -0.67432910125857859
0.28757612960913193 -0.25349104241872489 0.73755424653854718
0.011408627158086659 -0.32821962368305257 0.49604751008330084
-0.28480104639765358 0.94837980710773717 -0.11224810639022209
-0.39039529168942622 -0.75279214167204422 -0.20548633122080417
0.13035545908271118 -0.37529589479826697 0.30693211293559841
-0.15076645472201733 0.21379440142211514 0.76425954237515015
0.12752916755437482 -0.33823933817539675 0.50173792806434392
