# XYZ point cloud file
0.59581233261405586 -0.35004965973979063 0.34664072311920791
-0.81698074183209712 -0.40172502771882446 0.14051058048178788
-0.70383960031358583 0.63497406481351071 -0.01117295524435491
0.32473024266449002 0.034301613373023621 0.66171317239182059
0.59294850371205499 -0.021818034971504474 0.62481714570043323
0.30131472827318717 0.736001322511048 -0.25766524187351081
0.50132114607228928 0.89056833580142492 -0.38305451302031912
-0.44432431586862009 -0.59560728432891863 0.22875154739482539
-0.04966235828433696 -0.11682636660533152 0.76096013667892848
0.22919758880106045 1.0494650984765981 -0.36033305266012405
-0.70548991863986998 0.11705875647981934 0.65795872560719459
-0.82623917315167361 -0.87171363294568316 -0.44800048850304108
-0.75021579754136525 -0.23560351053324158 0.64959747492895303
-0.52035206534021938 -0.75650918909107023 -0.3333664352285588
-0.43080774877154582 0.17894060118869504 0.74407432620684588
-0.88467632512984196 0.19527140206958693 0.19725572272697178
-0.00070017493619189963 0.85360830112775776 0.25331809899783764
0.082139366199861286 0.83946702104362503 0.60845860135987806
0.14810884760835918 -0.043101910140015853 0.77751944003915696
-0.76156580891391457 -0.68171150883190279 -0.35436063983634725
-0.59400045040672111 0.00073608103398842273 0.77293624777214021
0.77857730697954253 -0.3949447094155234 0.69607369122870111
-0.024613314486977345 0.31649159302048568 0.7974562525671125
0.69340644268780949 -0.39130603985197077 0.66026968527823016
0.21861205746709444 0.0046108378384595028 0.79928186742618479
-0.54816159045443769 -0.97094367679044336 -0.35410890235546688
-0.56166119874225728 -0.13523900665225275 0.74760277871122582
-0.53935482949790625 -0.6148632620433836 -0.23914026393750021
-0.4125402596339427 -0.62785110147712109 -0.11136508935911493
0.21204450814861886 -0.32129168322873625 0.69304519375446461
0.34364161390931258 1.1772439513989563 -0.51914925081175767
0.36805085898414802 0.82000129776803288 -0.32176986085156045
0.30357948039297611 0.25214995761754277 0.53044369811976821
-0.84532924424548384 -0.30552150453561833 0.15290454522515873
0.31053540660715484 0.54145094061260357 0.32138726540473073
0.19043204708824746 0.28710549757150927 -0.58595274631736061
-0.008375540270137094 0.48749764542104757 0.78529659732379997
-0.0017768303057614787 0.82134850959360994 0.65805218833338586
0.18282646417607751 -0.37590609021294785 0.60078231595918297
-0.43841456846185523 -0.63412289622706242 -0.010890707836828994
-0.26018156141749316 -0.26782774569805667 0.73534775978497535
0.55885568996987445 1.0669231475150318 -0.44660158539732109
0.39205209534069496 0.15317039627010998 -0.21372382928074884
-0.2740423075153231 -0.68565514400531891 -0.16836240702692606
-0.64134593473083967 -0.94607726234697553 -0.43424373836872121
-0.45288368150173852 -0.3678400489392839 0.64864313820439534
-0.22739465972919604 0.44078848737234022 0.71118978492127027
0.20369781415658395 0.96297454268123206 -0.27249466271805289
0.32026210818531098 0.75462679900789509 -0.28416664898058386
0.211221574474866 0.36363912051469827 -0.55027163440547966
-0.64470783461466752 -0.82046944447299408 -0.38217143930722486
-0.10522200360053091 0.69249391202699395 0.729438526255624
-0.58839287335038648 -0.68778708443853853 -0.3303872084558499
0.11418202332671967 -0.39176991044199183 0.24007297474513933
-0.24846030043282141 -0.21009126780356802 0.7419563957654951
0.68018600028516119 -0.27578158762639138 0.72844322512433379
-0.38437854406954486 0.024857105982762473 0.77515775099964657
-0.37245389127399875 0.27857164142966051 0.71936912491186078
-0.32869675375849994 -0.12905558965405661 0.81711562924720482
-0.12604522840139154 0.89229246999412593 0.17963019182815998
0.37726602263029108 0.0019072227495469107 0.68387468331223999
0.94162635630800295 -0.23118382329764486 0.4744047137226346
-0.4786106097329359 -0.67798324173004376 -0.29158024751701461
0.7250474360367356 -0.14945393812268737 0.39310146721979677
-0.20638884200092988 0.28067551648451028 0.70274364472602358
0.43922496292314506 1.1742810074514773 -0.43344839548444014
-0.69956058477072247 0.4471654622259198 0.31170245926145057
-0.70942350915667873 -0.64297410207741201 -0.2810582265555901
0.3839410672771848 0.56915256478706844 -0.10281738857745282
0.013491606270978451 -0.18223864559696823 -0.61845357675298729
0.052111778400064424 0.7686263276392542 0.65663644546430788
0.9515887711251807 -0.23871103875286792 0.53062087138119907
0.086646407996582298 -0.14981303975970217 0.75498204595147911
-0.28993815461595318 -0.072834754670367596 0.7675115583020542
-0.21202034155409422 0.48837830387672287 -0.70602590363273521
-0.35541411190405015 -0.11851022419061374 0.81792617433434245
-0.18745267479018679 -0.14992313235585031 0.75061591703881092
-0.59719673186044631 0.053403347099380105 0.53098587339527725
-0.66257783552948624 -0.63850519479815659 -0.40221912130668613
-0.29153814893037122 -0.39028507734492557 0.66999558116358315
0.70088369788238936 -0.43286480741970657 0.65269088900751271
0.30600333066111673 1.1934853305027864 -0.41938925021271345
0.80981028215513362 -0.099277759873324989 0.50359462868265581
0.54022071309976027 -0.58776946065605884 0.67621727099371043
-0.3456539200702089 -0.059051402828006694 0.77933380345844228
-0.74549157563619062 -0.28776155925497093 0.66081085644179893
-0.72204262121002571 -0.46671472527181823 -0.34570712441654905
0.67287074207181874 -0.46895717730500319 0.69409589381188752
-0.14587857803526205 0.51381782383758479 0.74886665622752702
0.29428417795130812 1.145012915588469 -0.44537417709882732
-0.24238616833565629 -0.19755011610562878 0.75741448280253465
0.064991440819884616 0.20949946419061316 0.65992974815851824
0.75758679298559173 -0.40503767186337569 0.66820859368782948
-0.22976430081667232 0.3978533926119745 0.77339285006802783
-0.76991421596975229 -0.98503362890653356 -0.41403414826537244
0.12495983476554429 -0.14622681720363273 0.8113271775893196
0.93522183656175528 -0.20274569159707223 0.55813489666768845
0.39189594686214946 0.9211353352303876 -0.36883620184654475
0.16027112593362958 0.91705584961602116 -0.2047707249616586
0.89783248934972448 -0.35213853577511323 0.60019541661405995
0.17149033618111176 1.0990690239107677 -0.29569360774663167
0.36701194341442545 -0.48489951006648901 0.66789598657981841
-0.43166234866247066 0.5552650459731131 0.67071993702310806
0.35806145015835966 -0.51676491774706257 0.44859202259021913
-0.1577021543281063 -0.2820256348549417 0.71083102775891405
-0.57642440431272135 -0.60651108477356663 0.015492697769101227
-0.52084740495769211 -0.70364177123369043 -0.32761409130305097
-0.19799218306546251 0.41812276619051736 0.7659790287325805
0.038626979103259629 0.32951428418634654 0.77335473780507158
-0.4277216985413439 -0.18147162977543729 0.80453341322490601
0.19653444938527898 0.043999081034820087 0.74877802749297118
0.73510734881483586 -0.53464166025491799 0.66440453979878811
0.32558388923202131 -0.14650666202609708 0.7412658962948484
-0.44325570233795375 0.55941469573943392 0.77584949635937051
0.033655576040430901 0.83995701247461918 0.46703941032753349
-0.44897056798563639 0.0099337559573247081 0.7735613499622005
0.74749364676305419 -0.34004527136353957 0.65194480296968749
0.36034708111477443 0.6917046606449665 -0.21828474508478024
0.027370672725844258 0.61511828480508512 0.67347900693561868
0.23257922465919734 0.83817200967802485 -0.24074427422286249
-0.38017853762793408 0.22898044874231083 -0.73498783238753873
0.097661839740872836 0.75017541603157634 0.63124136369292927
-0.27647011006147082 0.41746531990929681 0.77912808222594521
-0.49347580049202477 -0.25453905068586824 0.73542043844075522
0.004743862502927243 0.40268613663622776 0.804392082077797
-0.74450005202122327 -0.060553689034721581 0.72011968445997354
0.64298189527073646 -0.22095858555305581 0.3661899951723413
-0.5570531555832865 0.18400155789425765 0.74789613605601346
0.22918459502716715 -0.031471008258876498 0.809604894372562
-0.1885428712282966 0.44556327640838611 0.76096572024287568
0.14845929908122812 0.23391123025576022 0.72090416635087706
0.37633537654846094 0.59658690047959195 -0.11501752465838777
-0.085148814832106012 0.77249214709263136 0.37998844940869247
0.38743609794858713 -0.57132600203179518 0.52786885611345014
0.46352291267212919 0.69494463220674541 -0.17238646548872438
-0.75822031481208541 -0.45510512206714981 0.55215632542451232
-0.061645541052019581 0.21606755527108223 0.71514638667692765
-0.55644774526977159 -0.033904492784631923 0.75608768566316087
-0.64643818052785207 -0.62620487803311198 -0.25682435784901614
0.28906859009209285 0.17585234037012443 0.48533532129069812
-0.49231942653862149 0.065473883098076779 0.78929031214882173
-0.6093185563586907 -1.0087680633016283 -0.39592893284697794
0.01312278002800582 0.9099646349296322 -0.34638437591542015
0.24019176768267769 -0.40923459281981334 0.63874506243848117
0.32239862865544211 0.41583895968919116 0.50806528827945741
-0.69832840782277472 -0.18090767435460631 0.47661371087798798
0.11943416736295731 -0.18742514880964922 0.7931784870548455
-0.57541129730837426 0.1506662190725564 0.80778333692502713
0.28393659589030662 0.76700333384102459 -0.2897769416928746
-0.23924781497791869 0.25796509086488184 0.78525596035265721
-0.4310078376840849 -0.74247748748822451 -0.30894358497809193
-0.23648135447010077 0.32507732095683384 0.77789642519288194
-0.57324607087450019 -0.33200008344123777 0.67828675102029123
-0.72475274555851499 -0.60761886343826621 -0.23839684347074197
-0.46196843904509421 -0.74919602209641267 -0.32049377789833144
-0.48424193889150757 -0.24627757479216439 0.74915300394765083
-0.69868730950537739 -0.36437590076087201 0.67989811243134213
0.28545884514431918 0.2483822559656863 0.58704410681589181
-0.5736748234753648 0.61947972206224478 -0.49958876235811545
0.66420005523816883 -0.46499747939243452 0.6644287614147899
-0.30270219519426078 -0.040457473993982251 0.76529549240119366
0.17090641942822771 0.50059779811762262 0.66665653169635775
0.36924558695454834 -0.13032439317688738 -0.17316435581879119
0.58418373805950097 0.89308202686810079 -0.39778416537492944
0.45921305413094515 1.0967249024394692 -0.47982006018673928
0.27283631380236528 -0.11472490566347471 0.77893039076139559
0.28366222655536788 0.70967846554723402 -0.085581032507750621
-0.19129249653509461 0.43208009804604997 0.76262816323019322
0.88670143420819869 -0.39446501672524725 0.5126443780780825
-0.13094673382460087 0.37361692888658626 0.79497795589396603
0.03636429706150679 0.13650690597527948 -0.6973463280239045
-0.23615420579699631 0.70632182480350236 0.68982733330846102
-0.67148627818213313 -0.96382024456819915 -0.41257414797270897
0.67459725771406198 -0.37669874394693714 0.68118963975919655
0.12182931975135602 -0.08787933678326354 0.76921977730142643
-0.88940678494407877 -0.73829596416273002 -0.39555876692411474
0.28952432271506368 0.74988722303601507 -0.28048717005447443
0.30142583949002599 1.1298771586209728 -0.44270123068462652
0.15653616036712137 -0.0053768725439669041 0.76404850897791832
0.46683074013034798 1.2230186342598754 -0.5235403432680048
0.51731122603995772 1.044911821856283 -0.41739912965227788
0.13100396233567935 1.0874652122878108 -0.28060785757563877
0.29768506138382733 0.71816975007513506 -0.22313641252125294
0.25207683529417224 1.2246539515495094 -0.38852816045680072
-0.3037679547696932 0.63270956266942191 0.77977095933065854
0.5032939000431611 -0.12325243020651411 0.32533157953358938
0.26420642717591392 0.63625927432796381 0.54275650293272548
0.16351445513334895 0.65542557414168989 0.62108027799904875
0.75163966169586871 -0.336543223694306 0.65893542842846031
0.14475133873375157 0.86489223100527512 -0.033642613508227726
-0.58734452566302764 -0.19347206511160653 0.66960759811016146
-0.18542443245691587 0.50769415656999928 0.71654368880133035
-0.2119078345325498 -0.23920824246981121 0.71889578649518882
0.2211601967778094 1.0494224572262136 -0.34648117543332901
-0.70693875420619179 -0.59014420285959002 -0.22289234619243814
0.40199405920430209 0.054845342464736824 0.5250089335963537
0.086009027465898669 -0.13299226580537349 0.7595515991943067
-0.88985308805726504 -0.60419051727869544 -0.32802900073856733
0.069337591899063966 0.36389203286352645 0.76403637111796741
0.3069276334522435 0.2315765874305189 0.44560655310658248
-0.40859613317772769 -0.2367961340662228 0.79205755331668826
0.67669301938802562 -0.34600141305752885 0.7164864892978251
-0.37412084328617823 0.43118612079421581 0.820097556117382
0.75195598840685918 -0.49651224319476039 0.67608013484115759
0.35438901370050147 1.0374050944800191 -0.39659960579728093
0.19159029952420426 1.0061464230950903 -0.27953427969951861
0.20607167707382956 1.1631700809861529 -0.34479481086070862
-0.51737373504624529 -0.91469992478589557 -0.31141142981810788
0.93357644439602439 -0.28993401251381901 0.48796577678961839
-0.80988234800573267 -0.45384523558504153 -0.11082925754141471
0.59412753886457281 -0.68153930823514308 0.61100904232353415
-0.31416995900699973 -0.65411721882975637 -0.1539255311641945
-0.36415264918088397 0.28742633834004472 0.66231810111928979
0.25164689587736433 0.19287881722254019 0.6375067990672072
0.82625210284519923 -0.22557949743124572 0.66636198730359197
-0.50705451203602436 -0.21821896246833905 -0.60772041484449701
0.40664849750048049 -0.057911403532090677 0.71704568955702541
-0.34266617906955688 -0.75010061823024543 -0.31405267946097126
-0.10868490651996154 0.33339788461627151 0.787008179996743
0.3969367418846268 0.83139490198047616 -0.32552438521470961
-0.75756888603197226 0.038086048382072413 0.71530216315170847
0.21585335823957408 0.41193789145269166 0.6582814499247327
-0.48984605445613028 -0.70472636056512039 -0.3184144768082362
0.65582105740256935 -0.48845924020851417 0.71763797617217051
0.069773410758699583 0.71106292540551852 0.64890719233744321
-0.21402092357693547 -0.030250086469629345 0.75579064734293055
-0.71183800556893928 0.071832537073903691 0.63388259986408713
-0.8169730900074299 -0.1906223581925377 0.23965669731288841
0.62920320010665876 -0.45387963663732389 0.70605918494789321
0.43924790030909833 1.1208395669787565 -0.48156794483169918
-0.3206113377778621 -0.70129292254438536 -0.16249035145235879
-0.39873345493395362 0.43451249011945814 0.81482941059717362
0.6501768096570828 -0.3853001330731205 0.71801773691124637
-0.42294050648106918 0.12478354292279636 -0.7154271746957761
-0.68729188268913433 -0.41556474422778422 0.65118147919213598
0.14647664212457556 -0.081564747210301825 0.77280391563211026
0.43362883481123049 0.62642221079223037 -0.28895926567949459
-0.19014837100413828 0.37060571386912278 0.76462886856370105
-0.037162977364609162 0.58151833657813667 0.69960327255267174
-0.13673897495845821 0.75970868090469779 0.6579454729878691
-0.57192353614692593 -0.073897971377820892 0.7487435574230652
0.047971619110771968 0.46137055525314707 0.77769999978144
-0.51087397282284996 0.58439749296535171 -0.58372965657495968
0.20103275326385983 0.92106057828646049 -0.24484661196669677
-0.36674765992833613 0.25676921294287924 0.6386981303956496
-0.21122076774397769 -0.091136800632216186 0.76086337857429953
0.44324252788331364 -0.15896128563315193 0.73651438956618875
0.1501103703679334 -0.059782547997662583 0.77092090585106732
0.012086471892441608 0.33658234527616626 0.80193685154591776
0.15474678153908172 -0.076652071448215064 0.79160128684132403
0.28120386801939645 0.71398304268034973 0.10560734511447833
0.1813018873743637 -0.19912725534086251 0.77893342065822324
0.54773412574773417 0.7833911815230824 -0.2777174582840729
0.26968004879741514 1.0325445769546653 -0.37618760629160519
0.67627062039910157 -0.53928312408564016 0.41408902091239597
0.22195278440205612 1.1972625519714506 -0.45925067710614442
0.54651206044544054 -0.55162528580215131 0.69597969760651068
0.38838143189056495 0.23758361699797614 -0.10712196604052693
0.28193047810043126 0.068368027631550365 0.61214486185498984
-0.54063221493606761 -0.3274885808809479 0.67968922332955373
-0.79550911259605428 -0.96203608556664033 -0.46806004611475061
0.73943270313202802 -0.37085471761819688 0.65097942267890119
-0.74848846095077093 -0.3730288556047423 -0.41257556604881884
0.39078994171682524 1.2706413216829331 -0.48780767721554419
0.25425806341497648 -0.059897877553702461 0.80022819342817542
0.37056815917437547 1.0733761334497318 -0.41982738674195019
0.27443040035138822 0.65564002897658513 0.3026504590752559
0.67868674635636594 -0.12671380834118828 0.39154922944056381
0.36660272977092134 0.9445184572715366 -0.36920473375506901
0.82366843185632277 -0.49156734085359766 0.59877167102795781
-0.13583505429491183 0.27180362306244876 0.77130543011494268
-0.70451123585570485 -0.18484456529020266 0.51175368252087239
-0.73840082533632412 -0.40844415815288559 0.63832636453048153
-0.089817074839793065 0.37710793857746783 0.81307236932777727
-0.055159009943377413 0.799451965333833 0.53756835009044579
0.32675630271320344 1.0750429113594659 -0.40642387073466324
0.1165971119064011 0.8873759927174133 -0.06614413133779351
-0.25402434004838526 -0.57021664306360131 0.17309523558295581
-0.071838715433074185 0.60965161014366176 0.71711857606705109
0.28402873741574552 0.15572293418476901 0.50047752802995404
0.45980275818689975 0.019523202898637848 0.62690152263987997
-0.79159398298324035 -0.74364704370716161 -0.39987269031121997
0.13060226665175279 -0.13173371013562907 0.81182662099261194
-0.14466095367043152 0.035346394728615005 0.74839772012214567
0.10255962876938085 -0.14522066679577472 0.80290084081253354
0.12464942864926698 0.42474304028057475 -0.5984441561962619
-0.12136544401633387 0.033110342329415232 -0.72564335866990248
-0.57247241634672008 -0.63102433293115645 -0.27201381168732297
-0.082173192344409784 0.96955417551712897 -0.22002417618107373
0.34094945014588873 1.143349610545576 -0.45817296696457532
0.73165189932835872 -0.30290973512255137 0.69848832943215911
-0.077981571939925942 0.21219294910376219 0.75773355833615241
0.32121836697266914 0.42248456280360913 0.35006577589525278
-0.75712621282384163 -0.0110386276549993 0.70500374476700856
0.3566976356121323 0.065298979477438124 0.50181922701876758
-0.5490706910446761 -0.11387813084657145 0.75467620157039406
0.12872758000771611 0.43069144655024783 0.7028242890348686
0.64439557738420916 -0.69647855105520406 0.55389741461028663
-0.12833577100760607 0.28828112261397809 0.75899740689014195
-0.049426030114350539 -0.4820241284768898 -0.12959148222077488
-0.38841596476665785 -0.17142932428060753 0.81512232805141949
-0.71005031829243137 -0.17106172372542938 0.73400608901196307
0.4084692042835627 -0.086056302055241285 -0.056877352549420834
0.26587751104354851 0.80245528134357091 -0.28116236978916476
0.11532999611187122 0.43057677960554397 0.72131776375698919
0.33043065976761099 0.65823843543002369 -0.041337085554847164
-0.86645537040119436 -0.33722959123356677 0.096355805184831667
0.77096120550752545 -0.17224803724513826 0.39620178513798265
-0.23134946090537767 -0.11536171519556282 0.76331124929801675
0.79034238019094971 -0.3459228279630997 0.70111212800979317
0.74828127885470508 -0.32856774631327657 0.66356013242032574
-0.71800054335536956 -0.79133943335820511 -0.38463561942850433
-0.37589630388628592 0.47542073279461172 0.63346601930612678
-0.038416278696903561 0.59866671365089674 0.67845972584586178
-0.14714216422270354 -0.0099471377107112069 0.74622705831502145
0.27335979236190511 0.78020659137221504 -0.28069790271404216
0.39603694441943915 0.73546953585281361 -0.28565058904129614
-0.49427891430273618 -0.68952803076751623 -0.31781243249799118
-0.20991586595335576 -0.2162715900694443 0.74221840143465556
0.17938588928354093 0.14639617893554346 0.7271905053442822
0.096826046114820485 -0.10465579981609441 0.76681624425157224
0.11718095435753284 0.51157507639385891 0.68222766403681945
-0.82578493443769219 -0.7145144227526945 -0.39552807034846538
0.8583291922535139 -0.37992921137640412 0.64000584794164084
-0.78598638547665445 -0.0052546640830501978 0.3461848045139142
-0.33608662667474931 0.54083624278911691 0.80401945138193653
0.42218280538022412 0.68961075393281479 -0.19251638841748075
0.31435919114759159 0.6715012761420921 -0.093775200811805348
0.49523713453139706 -0.6086448926940804 0.41868127469279059
0.12987505600054661 0.89961767726428632 -0.32651512455853293
0.42257668458911013 0.039443516230051379 -0.036502738215538955
-0.5064444854319099 -0.024389637810033615 0.70617749454474321
0.17094755970616049 0.86284032171919922 -0.17124093099823767
-0.34326740324893379 0.24650394797360442 0.78771517966013249
-0.61898113126536458 -0.95887077797642162 -0.37408110864235766
0.20010257579604485 -0.37228524312386635 0.36244984121909596
-0.16300088264818413 0.32705154475547982 0.75723176929232849
0.1196696714058838 -0.19498083234525243 0.75718285030275467
-0.60528825617489801 -0.71136522812129499 -0.33853825343194544
-0.71287293190635737 -0.83719689201806613 -0.40008432675114847
0.14381861994273137 0.56255826650756235 0.66343178515705503
0.13812578974953382 -0.081961922534607101 0.76272269754955957
0.098748675721928691 -0.26890534501671581 0.6495924964877382
0.11107440233347532 -0.32470472046582022 0.51004484925556071
-0.18794768964641051 -0.12390077706777491 0.75397889755929981
-0.49065342552086477 -0.054748928826657384 0.75950483003203928
0.79966164391593608 -0.28225001917698567 0.69249526510510861
-0.16193613733552326 0.50212219712772144 0.75418489339711314
-0.92200473821714723 -0.62773180135562612 -0.35320019650757573
0.21015051460820544 -0.1742142422555828 0.78775688367990426
-0.68395240118257306 -0.5883843049119033 -0.21801419438306624
-0.4591245788691154 -0.6157428447157427 -0.16459472236387995
0.059249737132578417 0.46697442761299746 0.77075661930192396
-0.4105059938543647 -0.33960379919871597 0.69823448944515576
-0.59072161655653943 -0.92924973674134392 -0.38485326670670261
0.025960456728579828 -0.43645430660624651 -0.23219983633432051
0.20931776165875604 0.65970280196374231 0.58754360063269218
0.43822357244250298 -0.46563067659275958 0.70684849760191781
-0.99397706081470361 -0.92123597866673368 -0.46699118097165382
-0.051981733150142873 0.27434320530733647 0.762874347061544
0.31167684297734866 0.47534364539884777 0.39356451964536276
-0.41327608955186079 -0.58611757878926518 -0.40111309203200207
-0.57412422730296342 -0.64584368343334919 -0.30873597426807819
-0.5958413655158239 -0.59294124185475372 -0.17169525327634005
0.35885642982595911 -0.34231403724040232 0.29216363464236039
-0.65535181112018037 -0.3503233110798758 0.6793513868155614
-0.31642743972857801 0.28046854538158117 0.81154442188736198
0.33112904095384721 1.1745036042906292 -0.45473595412417112
0.084544234376657812 0.57833848522748887 0.66913221146898749
-0.38331264140883192 -0.29169544739043785 0.75215859482333158
-0.27463199593760024 -0.0027867853518457331 0.76710678693596179
-0.30840656937829891 0.24799819895966335 0.80799538482862587
-0.62857181666365847 -0.49534443757433122 0.59272708878528491
-0.36095619809648483 -0.0031198881152416647 0.73740335985216277
-0.561081448689702 -0.0017277412589790653 0.76557304047051389
-0.53432435153172264 -0.029606728327558507 0.75851608574934914
-0.38493001004774996 -0.26932532277267041 0.78021427349596451
-0.5317059829145272 0.79789801630788348 -0.27207095606057052
0.042804645022663124 0.092575684569266237 0.75336051910621649
0.1734066753037169 -0.34304613336659706 0.63413170546339259
-0.72640149362388939 -0.7555188927853127 -0.37740385923606112
-0.098913488071065814 0.42167988021257141 0.81036147530760161
-0.37312719799749416 0.29459176231898221 0.62007764120003728
0.22200873067606963 1.2039547256046512 -0.3669125671710205
0.73098106709829125 -0.44358295173894868 0.67002035164275142
0.5536804688856094 -0.087461016038392181 0.69767036908201163
-0.096806024232726884 0.30784674361498077 0.77665810766285048
-0.076488452149021668 0.11646838772879686 -0.7322023004257403
0.64722336024690463 -0.56538044741351934 0.41338189729203378
0.53431116888124208 -0.11420561249382377 0.35195974889536075
-0.1869585643168854 -0.29717438541087926 0.64377006178739649
0.46670737136728135 0.90391351490617899 -0.39320138916686531
0.84282513595196562 -0.24282148366395573 0.66166639605490118
-0.43013252404861646 0.026254534003826935 0.77509997406532705
0.24551722465123405 0.63009104170803498 -0.42075285926985728
0.42453592852627864 0.57381135834498387 -0.25097634182833417
-0.092702138293955016 0.23018565618550157 0.76358330024721255
0.81495596206149656 -0.19480285647832041 0.40164116435722264
-0.76972388517409129 -0.4275424301056967 -0.32855519349891082
0.30083544896472603 0.49711618180457728 -0.37036453898806343
0.89903622090249513 -0.32542646488430327 0.61542793707834065
-0.21648114417320841 0.38083164958397653 0.77455041508938649
-0.47800866471833459 -0.6512929961945404 -0.28849739123631579
-0.43246643769960968 -0.0062220017867429256 0.73409185997313031
0.14093259362621424 0.31861505870576323 0.68275067133338752
0.44047195580802523 1.2419497192433744 -0.51744008903168748
-0.77091502686844038 -0.62234164768611144 -0.41312615947031261
-0.23999399888889883 -0.37531791688642335 0.59911825289186993
0.33865475156436275 -0.10433226351959579 0.73808233329585349
0.15134342201828943 -0.040792040865447632 0.78579265945921151
-0.56634857498210422 -0.90247345580213345 -0.3921737525945268
0.3200200280023715 1.0348085990108409 -0.38532287122232489
0.75513445156780179 -0.51230762669568719 0.66359543337595994
0.16154234465284034 0.4706197397160099 0.65295828347034757
0.84734305293450163 -0.4663004677545195 0.52416092503892031
-0.085155487930759222 0.78312839726054007 0.66738224090089204
0.39783394528629756 -0.41819680868574105 0.35883453511420882
0.089519069131181794 -0.31585033144034336 0.49400018891277497
0.18405943121719659 -0.20178258847353581 0.77029424930309176
0.24353282228043938 -0.36810489883163644 0.27354501471829451
0.060716590046855146 0.60960045196133672 0.67148512934820914
0.021714451915080701 0.92459219962487404 0.0084932282055767416
0.30422510518678791 0.58407265543152276 0.50213138529687384
-0.33923030154694089 -0.092681741715227473 0.81336719710177618
-0.15531099865770059 -0.16872779554275885 0.66709499089989066
-0.20642100117191831 -0.49160008156448159 0.40565728809228219
-0.43439738104568804 -0.77498551276133565 -0.27115887397499705
-0.16984806954139131 0.69959839418050862 0.73880495759300402
-0.20293627947340553 0.43396724682359311 0.767359850916705
-0.74563690256627879 -0.24196822299818332 0.59075312431910731
0.56137781877170312 0.91435002809552401 -0.45241296204060788
0.22721880148616691 -0.010197181399962396 0.80603557447829388
0.26593738656966082 -0.36551602727829824 0.69437514531655609
0.097699140760390435 -0.16123152141295538 0.79593025762750713
0.23161991673251237 0.91082854374867472 -0.37873802216832075
-0.067253338051195044 0.12565438200333556 0.7462587844379307
0.51098737533300209 -0.33272037534927978 0.73859247606214495
0.2679669200340733 0.97324715479046331 -0.34721766385957054
0.43414316562419941 -0.57301251267971143 0.63607514877606519
0.025277517955871076 0.67994218362062409 0.66569262303224264
0.25512991525135931 0.75432676695168244 -0.016036260270585245
0.19909485846273256 1.2086080844584211 -0.42924854739662877
0.18025356780329815 -0.36668365954252335 0.35529929849235131
0.084373539758004767 -0.13537671334142409 0.78456347559270867
0.34008015651371437 0.64438024882588651 -0.010685414345605437
-0.21410969530074908 -0.33319272530640021 0.63447424813704956
-0.0093744471504493276 0.3428914913085217 0.80806111252782387
-0.53353789876418389 -0.15798763995408527 0.73583389334407201
0.5022380875298964 -0.24834360554186352 0.32021469858905505
0.50721011985801923 -0.66203170197918659 0.47904517968921922
-0.46729139508870077 -0.20996846512460987 0.78578833653055113
-0.57232048842962868 0.49640679741497973 -0.59591531410865528
-0.97774987176517314 -0.90632817997663739 -0.43783535294188525
-0.55803290798547778 -0.033048740040519942 0.65599367205472703
0.053969757771049842 -0.29853248774037588 0.51192220634694507
0.51786134688778773 -0.041804889106468401 0.38291260184661269
-0.61835507092350994 0.023799697084452953 0.78626233798483725
0.3623294705289517 0.96484763818879726 -0.37594401138094113
-0.97686589761561038 -0.69162575096523415 -0.3868035254229909
0.66885210270934081 -0.46674901861544349 0.67191480133978487
0.39184210213680259 0.72935369615575985 -0.2728510429695703
-0.20417055618030844 -0.34291066452241337 0.60889015345658137
-0.43479546440514483 0.19052937006340348 0.61230350308925452
0.28115779333172952 0.76185020042097706 -0.28035828977164456
0.31615486521034342 -0.16507454392699605 0.74164869675650635
0.39426488030107976 0.89846651015017032 -0.35759129615583163
0.39269049704757464 0.6742965318256452 -0.20473603661619322
0.42700399867799987 0.73086657581756465 -0.26141549633776151
0.76150277077894657 -0.39355537734164603 0.66837173083927937
0.14383460592207697 1.0318594228971456 -0.36403753253298987
0.050969914618349321 0.89364884153286139 0.092945437821775556
0.48824865605514844 -0.52463942565716915 0.3849875389667865
-0.12663577154960848 0.97636802916272591 -0.22099903432237511
0.75327539106990571 -0.30343900571757088 0.71378368645894952
-0.75303935850184089 -0.34177229112778473 0.56037804694492976
-0.61806424193630605 -0.19835717354010263 0.62109161021019688
-0.65576618207206749 -0.27781249411774134 0.70670705654491428
0.19965658034821132 0.021114540109238522 0.7483408316689335
-0.48594020454982356 -0.54689083012620465 0.54551204986816515
0.31154142049918576 0.071306407169115182 0.54195673013243706
-0.34936330633881951 0.20009446413226639 0.78392704766245203
-0.40339016023746765 0.18476725513704129 0.74253414859086675
0.77328758324405555 -0.3953632699719325 0.69351855231577275
0.13174742745800927 -0.33520657777945395 0.56505202848292058
0.85085450652439931 -0.46519629550349517 0.55073763363800055
0.497110186001958 0.84006419302651836 -0.30781528686079795
-0.38450652273006014 -0.50948570924884939 0.58802633273865723
0.36344337367067681 -0.014233950551835406 0.70331321328365348
-0.79385686076462747 -0.95966722181021069 -0.47192104252898304
0.65721628061271531 -0.084315862383685491 0.40995355189481586
0.36283224919701595 0.6404968844568214 -0.16301568412508516
-0.7242371164196193 -0.27220454955505513 0.384583486972911
-0.080051226073045711 -0.21111058578274378 -0.63174331021426866
-0.7251417172965624 -0.53374871423746839 -0.31584398237102818
-0.21503360283755413 0.75165837626612708 0.33853046787414698
0.25915476136211524 1.0997839907771128 -0.40978986782975113
-0.64099111869047221 -0.052113046835202459 0.55371297307378597
-0.61158799863789071 -0.97662747985943144 -0.36692467026267295
0.33717362621962366 1.1720383829518575 -0.46468993286898197
-0.68117102574291621 -0.1212140820543921 0.53409512695628081
0.44557979832538308 1.1871066371349603 -0.43792144049665893
-0.12705937518443378 -0.031499048800969209 0.74551297518603832
-0.58961523360211743 -0.23112688401318149 0.71166894839324613
-0.18027985883079722 0.33559158787915333 0.76842954777006511
0.052491069617698116 0.86972437655340151 0.58429895531572384
0.44747415017350534 -0.097964736203210112 0.23235938222613584
0.53544967134587651 -0.50188565224832926 0.71410610312076273
-0.42836419672251935 0.59280454461337351 0.69037849774872484
0.62121228406579476 -0.39796926943075528 0.73440595115941321
0.10623757885590734 -0.12652047184297288 0.80343841261077031
0.2446924692069139 0.0097778348561456951 0.74461223873575477
-0.43670357523754788 -0.081471731651044932 0.80423201517886156
-0.47679373898327171 -0.53128456470547203 -0.43707912914523206
-0.61689726371433196 -0.66025684195780743 -0.31879575193828913
-0.22930278462482789 0.47239220342129995 0.76149561146586109
0.12650390043346249 -0.17585869933009013 0.80666933814489639
-0.20315262444122695 -0.39208321564360427 0.65047726491767932
-0.37579503824626315 0.87146461873354264 -0.34211353258210409
0.46447756136484841 0.83375902410220759 -0.33671696944122331
-0.62050107121091003 -0.85813490242104606 -0.46707085737888576
0.37017260957665243 0.31095627891668987 -0.18400331007307003
0.71877509279243057 -0.5099289799943314 0.69026688559640448
0.1439558837256989 1.123608921978251 -0.30404222485374888
0.12621354166567755 0.73233718919598889 -0.4654030522205268
0.19720957503540149 0.030142839451775316 0.74983717045057574
-0.16366549757140447 0.60531557482783782 0.74116668955479525
0.21374648158460374 1.2387899364805093 -0.39812088356534758
0.49734999019819881 -0.63653090857970618 0.44564174508664678
0.21855228184272946 0.25851442357056964 0.67867716907656117
-0.51080675123565911 0.10906969426768554 0.81070456504841104
-0.51641932364184484 -0.32859345533088113 -0.55452317131720719
0.40665236881658018 0.67880787734759618 -0.19775433579917134
-0.28214603272731864 -0.16801286911276403 0.80007324977874816
0.26905961775639042 0.77094644392340395 -0.25413674523614915
0.17327714244839854 -0.047726505798923569 0.80639534780261357
0.039528966570458124 0.42464905142912723 0.7904621447112028
0.64180180295233669 -0.46267956326272852 0.71319701083099929
-0.4074355410438244 0.026969513198222606 0.77548864031088627
-0.029295381586010194 0.94413908959287496 -0.28089264874529007
0.35666693637308811 -0.36985602046508537 0.32025221002655258
0.23292058734610421 0.92589132314476352 -0.30115377046207215
-0.3999966871816838 0.35617207248081861 0.69657389175220175
0.064115448864168201 0.3678250468812978 0.77295358238750111
0.14624459166655157 0.46646014900598587 0.67604695234200207
-0.66752963699077839 -0.97361951289918114 -0.39396412238888701
-0.44221250737147599 0.24699288415568377 0.59359489597866144
-0.75073009136085389 -0.23908185290177131 0.6209413520509699
0.3100588163227691 0.41865161488318492 0.5576866114706327
0.30268387368482763 0.25329739142242014 0.50960625052208286
-0.71920284472073348 -0.4746005498157273 0.44369856858692103
0.16516208872502247 -0.080814052380112411 0.80647294292688443
0.2106770622366021 0.98361665761295203 -0.29820186113167324
0.2856983775768569 0.10277867232164306 0.51143403135534982
0.11334520498425249 0.82020673310917402 0.26334742011651358
-0.20982774694098083 0.43481630012468031 0.76887913541066411
0.41134282890212859 0.69574640286038991 -0.21888296201628421
0.14730994091218008 -0.078054947853190448 0.76002306685274945
0.90888210377901046 -0.2502658054258502 0.4382905696646695
-0.91747842097300492 -0.79754585903413044 -0.42856622915948606
-0.5368693243092153 -0.25013891405361754 0.70189770574073052
0.21519509516718571 1.0858505988958633 -0.43990090085936018
-0.22433640209511907 -0.59439115388486208 -0.24092209574583023
-0.95617520330422323 -0.65610279203797095 -0.40726255688896629
0.014091252227341755 0.62562188407621111 0.67952234449928994
-0.060969237873504056 0.87311257100459394 0.22425989904994026
-0.63100257884376276 -0.60194556051338033 -0.22509986494075207
0.52025639986945293 -0.13584446831257146 0.72262867076966586
-0.21314019558468544 -0.32184653152179443 -0.58538280223991279
-0.30528164281374259 -0.22051978078659085 0.79973264369270325
0.4078128036272517 0.79858481586379337 -0.3133226977883119
-0.26982587673956715 0.56269088087239694 0.78023265978458056
-0.64048169933422017 -0.75808656374638339 -0.35863186260827717
0.25870217877550417 -0.10734227055084844 0.79103318973555048
-0.36214630891578992 0.62891941138374463 0.6511893402910971
0.5044272788513311 0.88361705681597813 -0.35753699217182344
-0.7276934770062411 -0.39490253077040949 0.39373781578501976
-0.11137609874868915 0.44996839953094803 0.80412075400723992
0.65981301355089172 -0.68183430232117459 0.50099360684733796
-0.47263495565827185 0.16347652797558232 0.68846326111268041
0.5715113562260079 -0.37273412762530622 0.73706867572661849
0.64941316176639319 -0.25588967586778777 0.72872193677356378
-0.26491450443798215 -0.26556632150318404 0.73213999206230795
-0.76436572236962519 -0.42081413056218731 0.56569741960822384
0.13021187261909972 0.48633042954698524 0.69104643494260287
0.006310696747348743 0.52003767839553472 0.76379211077792064
0.13745595276207467 0.40446455779008428 0.71267214587382455
-0.22787841601901704 0.316863218903642 0.70223225020346547
-0.15647696945564249 0.71830962913270624 0.42303866964305925
0.12701358325013956 0.59987281861947794 0.5653536005198383
-0.45367086361968845 0.48403720939627848 0.70275356540137324
-0.35651304697836395 -0.63558594367250976 0.011118937513948879
0.13882274398054051 -0.10423121051389206 0.8077488981981773
-0.96369471364494785 -0.77712850605579131 -0.40733700603278322
0.6557028873528985 -0.46219057615040171 0.6615555115265046
0.51027022663381061 0.67940002710883773 -0.28024828169111515
0.28666135123754088 1.2344361989152568 -0.405040175278085
0.41534308308184364 -0.23935197153708998 0.25133895872428624
0.37427277972379613 1.0437997483247325 -0.40845948391647369
-0.60108467967913271 0.36549441217094614 0.43838919051876957
0.55324211567866399 -0.26720239518427036 0.73574542792634645
-0.48038430768298568 -0.57621765660946789 0.48729122867499086
0.36080935153175631 -0.21229783200141128 0.74186358155515109
-0.32176701949093456 0.77000276608428297 -0.50486453978852097
-0.27959033815130852 -0.28729626001506281 0.7252951825841194
-0.64514029367281367 -0.93510015165724969 -0.43436683212800986
0.93066940966284051 -0.18766940281614675 0.49538031694522289
0.32650528831940306 1.2633209646354187 -0.43048607816071538
0.53399233569119176 1.0571620379712761 -0.51387812710855485
0.65154487035756503 -0.6748075184007698 0.47377948966156325
-0.17584284921233717 0.33878891205733153 0.76348790965500868
-0.65488715723197188 -0.60123036897878723 -0.2274336660184666
-0.94921188120634881 -0.70228063223554216 -0.36852534947728444
0.41330891394000702 1.241132756482259 -0.53555663722893598
0.48751216538949649 -0.39806258396417338 0.35018931559675792
-0.65180554508756572 0.09423146170126262 0.80628448195447433
-0.18316147274789785 0.51558884558889417 0.75499125547971957
-0.085192017500233419 0.27076633260129279 0.74815663870906945
0.41598173564569763 0.94184858583496334 -0.3909388766046078
0.25856463807291163 0.82571523431354965 -0.28158498116641439
-0.57356198095050814 -0.63610478555503924 -0.28579058148982028
0.29410902564973895 -0.041642923956096478 0.74747683316154578
-0.4959041363386234 -0.65965561240281589 -0.31618371500569609
0.62504748490610496 -0.41841884246455852 0.70993909622025697
-0.47147924173215827 -0.10302685989570937 0.79193244372305571
-0.41247918757188984 -0.35878961103883811 0.67557638589588365
-0.68081491348198497 -0.96033820410566051 -0.44857917795787472
-0.36322771520286778 0.27656134617058781 0.77115926687517344
0.59878618420060192 -0.43649330332474623 0.73293884177922664
0.74722876713374475 -0.59529028547093699 0.57237571200346693
0.3207942442614069 0.52727829950323601 -0.34856134112605019
-0.30364175580575647 0.21509815358607431 0.80508591944273888
-0.58079943797092781 0.097428684846588842 0.80838968767423935
-0.30197262353645726 -0.25141655644105643 0.76829868303340376
0.83503291682855263 -0.17371876979514544 0.41382143440057462
-0.58121375318256341 -0.31379849001403781 0.68356796495084637
0.2552708935285608 1.0743038336444364 -0.39782271240824585
0.61402740753915097 -0.68234585821248084 0.60810524372221408
0.27054178252130257 0.80526017405381867 -0.29170608144791288
0.17901968077818609 -0.19508565314769388 0.78658949991656257
0.67039189448530934 -0.53128173683269742 0.6992043832667143
0.046133791614664688 0.31856587734491804 0.76263091135589534
0.12229523655415164 -0.18288600739715122 0.80062214043177349
0.88778717843660715 -0.16186714260815638 0.46301059267905487
0.039744102970548312 -0.29021991059606056 0.58154810397489953
0.73669895025069465 -0.40050146786419383 0.39109105945789935
-0.38295896322123113 0.4685406365195286 0.81942249556394486
0.14895943814239487 0.79851433924873083 0.56511344642046879
0.33997361711861629 0.90279595060396989 -0.34322213650839117
-0.29274037174310763 -0.053512707583460273 0.75824442834891315
0.36980972858295402 0.52056505414256282 -0.27564518855871967
-0.37769978150290129 -0.52871190043566507 0.56324058045126435
-0.37603002848206302 -0.77294944068144478 -0.18401134382020246
-0.38299376849740341 0.20982561437232339 0.63687692443606991
0.48068481891611725 0.81236736335846549 -0.28841624516501696
-0.2355007124791868 0.70660132901383266 0.66177841472498145
0.10362506642649549 -0.18023845191359555 0.77343505098578902
-0.33943469792031422 0.1286558138488294 0.80169855839300297
-0.3734126378676379 -0.23388914775297653 0.79811396162083881
-0.19058791805995057 -0.18291787435971063 0.74443948455537878
0.047030248477415881 -0.36445766225359355 -0.41470135791842822
-0.095421078396100256 0.97178601189050473 -0.10411604767832472
-0.75735225253578164 -0.64341744190471051 -0.28356532783241661
0.78231092625240706 -0.26684450314560149 0.69692464371549434
0.87124230443488315 -0.3808591971131392 0.6234712811338099
-0.65020698013903555 -0.54644309172590155 -0.38134275720405952
-0.74653650231111612 -0.83713342194905671 -0.4951302882833275
-0.59599914380265417 0.73180265187847882 -0.28934197987001298
0.16092387193191371 0.82268138647584754 0.48992441642031181
-0.37338404943816528 0.39639314474888276 0.64329467660931172
0.51112440958159056 0.92212918091464535 -0.38731567586586024
-0.47738640317142256 -0.57489863935202135 0.39942797508874506
-0.081610804650662061 0.49237474979105533 0.79195452773495489
-0.79241903213986831 -1.0217791766043911 -0.42427838620428204
-0.43812894318338635 -0.42243540257201939 0.65338513569488654
-0.32808549511061713 0.3145346067527508 0.81505814277810273
-0.20763670783229671 -0.13511442122993778 0.73341472490493942
0.2078983536043495 0.76339925385717722 0.25136534185378068
0.79119906580359611 -0.30723391297602376 0.70062664530879815
0.17587809693656098 1.1422219758935119 -0.31658647281876995
-0.097920206152629419 0.67390734281270914 0.72259370122817757
0.85349176998781928 -0.41237503644143381 0.62750657349716832
0.73425722709102814 -0.31564171709573507 0.6635767894634732
0.10049766422610418 0.83414610526572164 0.21626615455207343
0.10470226995953524 -0.41532322873951144 -0.15033616538471151
-0.28213329550908739 -0.71986888005656002 -0.19211785377025947
-0.27673420723516173 0.33327740617354018 0.79296243995239379
-0.20878272855474123 0.48505459605007628 0.75914231215242367
-0.23491393922011028 0.96297508582766889 -0.10714345410679016
-0.60058673751718672 -0.39969410285818074 0.65174783181120333
-0.6758133218016944 -0.28002434513492513 0.7122845567693048
0.065019967141573431 0.49342513368575602 0.74110285707345724
-0.81532930328392794 -0.74134546710587035 -0.41370706120569523
-0.44211534387328655 -0.26177305889277391 0.77018835649350592
-0.22580032569995723 0.36206104642226999 0.71933686456651103
-0.72218324370608755 -1.0003037668352954 -0.40326791778036508
-0.038490071198722831 0.46078967759437273 0.79985448931529035
0.81745732851993935 -0.11729076927727622 0.46460981619976494
-0.48011114060180304 -0.37719494031389489 0.67636857599702438
0.64931992777071201 -0.026546223619849041 0.59038037353796113
-0.72724997419635073 -0.33419073504896835 0.45272046409806777
0.21292959809472478 -0.077175230152826568 0.81071928957783257
0.06255593471258436 0.39266068507583141 0.78576837917326969
-0.066778008294686941 -0.47724377207054003 -0.21351095026728473
-0.35590720209288307 -0.63914280736322837 -0.079801717430321162
-0.38906578629823585 -0.013086480025738201 0.76844821976946065
-0.73559131791781596 -0.334967942186712 0.66795587649633248
0.84228164595819877 -0.42053861601831777 0.46422632716765477
0.35718794387689456 0.42608584325372667 -0.24011315176968751
-0.69342355828420921 -0.70625481875198215 -0.35209952921858445
-0.25824504936737469 0.44263339441113625 0.67051405048790258
-0.61551772913876945 -0.23276045082140595 0.70689017320145098
0.54583388561623281 0.011911748669401589 0.59314719735157695
0.18638452549273055 0.69662503490250138 0.58815310540922283
0.30186900140028783 1.1153812416128552 -0.43236027230297225
0.4421897726836157 0.043565277556681714 0.48726038379055936
0.61092563847606129 -0.44661150393441584 0.72977425030890686
0.52346678952508086 -0.22363078149230953 0.73559172968794684
-0.72866434693914073 -0.52886392323731402 -0.15734379872069937
-0.61996856069052697 -0.64552423488398158 -0.29747888910875986
-0.098660738806422899 -0.43476092713298731 0.38165317140035171
-0.90280362247026602 -0.12356597845706485 0.12859521048028455
-0.54442347792036827 -0.04498099452599591 0.75508941333043822
0.090713130400800424 0.55554136776382013 0.66959079957790024
0.644672027688447 -0.61697370656359096 0.43087458102043996
-0.098236707778983856 0.86346731359149909 0.22949085467849173
-0.91691036587926433 -0.71934392512112133 -0.37389772163112411
0.29425043123967143 0.67286187072211479 -0.37346665680382074
0.29050686813831206 0.13303966251560606 0.48707571017983753
-0.50959575208427665 -0.31568309980336995 0.67345962752219535
-0.42746786326725683 -0.39613346306588326 0.67209231870918984
0.39829579223791001 0.72083005178487358 -0.27136398841116716
0.46240336062972531 -0.0096863527531436677 0.37398756341521633
0.27506552961967756 1.1242542529937156 -0.42852795482852102
0.085589141451372086 -0.16841637886631355 0.75372265561034624
0.2973915288849085 -0.15503709502829199 0.74401020990947231
0.77649179532584967 -0.36705118061989239 0.69744359454571736
-0.11162739632860053 -0.056348487025633665 0.74895565817308452
-0.34300647112875637 0.47886703762943461 0.53766549826407228
-0.88464340549970188 -0.8949048283955845 -0.45395711223520863
-0.29331088836444152 -0.45088656218338152 0.62797519503928001
-0.66212018229127168 -0.85570601436345761 -0.40160391248559435
0.023082029939768489 0.66579267863332525 0.67034643672410965
0.19180301915133313 -0.36189881939776303 0.63559152919376771
-0.2718305616232648 -0.1691482368611803 0.78459177352600662
0.67359898938365248 -0.65142744085120974 0.60815468881022028
-0.75560542822045917 -0.40819980671071932 -0.37495463334713719
-0.32683463954223058 0.2455964962438042 0.80147542602314914
-0.4371251094273525 -0.79279906595905691 -0.24672506430232133
0.26095991335282065 -0.29347443580168031 0.72491689985386643
-0.82996102497393665 -0.76738796368927087 -0.42758257619172113
0.21155663326080187 0.19107500377425168 -0.57673519474836965
0.7041324415085306 -0.51274180000875358 0.41437688800477801
0.077283391104653987 0.6021214304431628 0.61761664240535197
0.62052795363702984 -0.44360430561373532 0.70875259696724413
-0.19238745091058718 0.32693634891822354 0.77485001432091494
-0.46171391304715215 -0.25372854116438737 0.76460642398392409
0.06813450388520792 0.39068713116720222 0.78077680741584743
-0.37636198549036592 -0.36009065397444062 0.67961564671994878
-0.7446927939585386 -0.4497776279440493 0.49208133816390642
0.16640591119612225 0.79194732019151504 0.2777113706104366
-0.083775555646226962 -0.35724397428176902 -0.51919800032468189
-0.21325965976410899 0.52207579386863845 0.67650617527420209
0.40669415047701918 -0.23446734355392707 0.22327156465363984
-0.79714632344041192 -0.47480137245400034 -0.012288192863728398
-0.3348509413014078 0.028284348554280303 0.77321642585240014
0.46980300618010773 -0.55008828805424193 0.39710566556281535
0.0078215643478749541 0.93562046212711802 -0.19287532423225429
0.28552287037578239 0.46193683650312489 -0.3938652698439995
0.3372013445151012 1.1226254683172594 -0.44202105386492008
0.72526094381243311 -0.31426957773752129 0.66560424956901088
0.67844510114994705 -0.60853950667162815 0.64985769314523267
0.388653808046584 0.53634458001872576 -0.097153887717350784
0.19881725271741146 -0.19250870761112271 0.77620418775446254
0.34635943826388171 0.21901285738610521 0.29936191143784896
-0.32689281489383859 0.84299330195893996 -0.41818964052958307
0.036344988850100179 0.40384190821819121 0.7954054894526621
-0.69871280849494966 0.647935142176574 -0.10728882497068426
0.090384369333758485 0.58413699956991305 0.67048676516721528
-0.54505480225197545 -0.2908532450324014 0.68100448839938821
-0.75806797174094598 0.35076866202994861 0.30419605905643365
0.038893775315624879 0.65135495695001566 0.67143098839268234
0.30164134972141454 0.10222230638041818 0.48723047585315626
0.22359511984716818 0.013909301890112413 0.75154027762591014
