# XYZ point cloud file
-0.756636127866404 -0.0087916459800343461 0.70433246043405262
0.35654482620284966 0.065602153098202609 0.50149452906898162
-0.54864451621836352 -0.11217612376956254 0.75465542259225771
0.12970648471050694 0.42994661233551423 0.70208562948362641
0.64355757571279781 -0.69585220793551228 0.555426211274618
-0.12694707908851299 0.28824957156602116 0.75897167553910094
-0.050004637769369253 -0.48293814710867045 -0.12906692667167974
-0.38809629807497004 -0.16997209914912148 0.81521529023729045
-0.71011587184641911 -0.1686587735707783 0.73346849201686837
0.40765788636344524 -0.086304737265569642 -0.057223095964047843
0.26559395311771183 0.80224690942348165 -0.28051285759430655
0.11636896065174795 0.42979882722813345 0.72053308346377776
0.33025226394789442 0.6583871674757531 -0.040933995041712024
-0.8665584843948082 -0.33526254797656296 0.095842016815169018
0.77027923368708429 -0.17248462371390638 0.39547030154673735
-0.23082929275146213 -0.11426948409142418 0.76361115130207224
0.79036569539617929 -0.34526158802888096 0.70104371708112367
0.74814044341721697 -0.32798093375167658 0.66342959141466196
-0.71784038761141034 -0.79034164532470985 -0.38442346488348988
-0.37375049567561547 0.47537255582027638 0.63463597038330022
-0.036629393092630025 0.59756196068008549 0.67855898352188504
-0.14641488618357457 -0.0091448854678449765 0.74644342689661158
0.27303097138974053 0.78003109727712738 -0.28010842977728601
0.39558682604074491 0.73540583268222681 -0.28555965193336874
-0.49428897915731085 -0.68959396999721356 -0.31734809903883843
-0.20970935956480119 -0.21506909620956316 0.7426793451106164
0.17987782398675378 0.14657078929189549 0.72654102428119316
0.0971216058790354 -0.10374520549002852 0.76668794889964431
0.11831036504620585 0.51057100411202727 0.68158021869228236
-0.82537078459310109 -0.7131605035123787 -0.39565408853458095
0.85826881392464216 -0.37959637746361663 0.64006180701361437
-0.78549057831572355 -0.0036531042907732569 0.34617847268957647
-0.33355213744200363 0.54011857563021459 0.80419800217143589
0.42177923337774814 0.68969959947077575 -0.1924804032564289
0.31413798499841405 0.67164929687520436 -0.093297975344835749
0.49399042402989579 -0.60879878533637344 0.41958894456198337
0.12977378524277228 0.89906624959074444 -0.32525774939220753
0.42185062161206943 0.039488650310006923 -0.036814945062662474
-0.50564085753099164 -0.023000019903601121 0.70644397401313697
0.17111686186886743 0.86265278481634877 -0.16993627639581632
-0.34163339039467289 0.24686370227786569 0.78785368625804608
-0.61970606259187733 -0.95873535138157262 -0.37361345438389648
0.199377544222056 -0.37217156541925561 0.36313653753006392
-0.16145363264021029 0.32693497251894577 0.75729543302387015
0.11977995272263442 -0.1938932915622511 0.75724328850657585
-0.60515961001900109 -0.71093479303546481 -0.33819171289426819
-0.71280734975377769 -0.83622633684272163 -0.39982450875032427
0.14494574519593506 0.56134845736695338 0.66271227317400516
0.13841170394396229 -0.081123669556855127 0.76247970489875527
0.098604076003596219 -0.26795690527071758 0.65008346986637733
0.11066190599299475 -0.32409624836139944 0.51078257526322446
-0.18747559616364029 -0.12284163716861984 0.75429984690586238
-0.48995751551159117 -0.053320487809399797 0.75959948678247358
0.79966780096307843 -0.28179925023238273 0.69211797270800091
-0.15994726264814574 0.50136814275954289 0.75428096434579217
-0.92166110271228519 -0.62621008749597973 -0.35378945392038474
0.21028021040553568 -0.17311834328412345 0.78752789165968551
-0.68380833217563364 -0.58746467707447447 -0.21782373798211552
-0.45933497832700709 -0.61565001397083385 -0.16396457119207142
0.06057598890432736 0.46597664353283119 0.76988139464001293
-0.41080347695665509 -0.33806879069642781 0.69878226314731506
-0.59129717829190298 -0.92923656879833771 -0.3843876464595013
0.025433891158616717 -0.43757512963006429 -0.23199278494237419
0.21034921399068018 0.65821713101130919 0.58680687302751267
0.43785398459712965 -0.46422371033715137 0.70751928610901516
-0.9937648214272059 -0.91840498821888428 -0.46723248649406557
-0.050776621003986833 0.27426932769846857 0.7626227880509262
0.31187047871884133 0.47508481309166961 0.39331071445309007
-0.41296356949963808 -0.58659843134138256 -0.40074808396973793
-0.57394698876546002 -0.64552636690290122 -0.30836634133111929
-0.59584791838269879 -0.59226996046240377 -0.17127069114137328
0.35796714183189593 -0.34247197055671352 0.29246771255010273
-0.65601784598437618 -0.34800090507301995 0.67927703321664978
-0.31470493043233816 0.28064610287408931 0.81154013711547179
0.33182550468860761 1.1733151122951981 -0.45403477667206182
0.085889927126615362 0.57714337527831316 0.66867841427989561
-0.38342410951868189 -0.29016647995924072 0.75256866034790804
-0.27376704442707833 -0.0018657543891291706 0.76733593241320719
-0.30678821952563595 0.24827232014953493 0.80800238411358549
-0.62975145375674657 -0.49322870134396357 0.59302016705867899
-0.36006504612256052 -0.0020754681449139945 0.73774431504324411
-0.56026069569330517 -0.00020903069646704964 0.76547654428935985
-0.5335736103442521 -0.028110173774939629 0.75851669082169337
-0.38496755931504367 -0.26777473710829558 0.78051942184617573
-0.53214196834438354 0.79512910211204169 -0.27033617520119435
0.043484601669369738 0.092998053598480679 0.75307281614039567
0.17305634133972347 -0.34209317797528827 0.63470624412559218
-0.72616164955365292 -0.75450514889140941 -0.37724099312864467
-0.097217031651922525 0.42100726613668527 0.8098919173745216
-0.37150239446884115 0.29504360111056438 0.62106229449470973
0.22312679898700516 1.202950298617715 -0.36534660156992516
0.73081799584961971 -0.4427023441296587 0.67044287861997809
0.55357588159440141 -0.087021602690047661 0.69677173344931731
-0.095418005047481103 0.30768228476895287 0.77644172075435236
-0.076701375037981023 0.11376964641405696 -0.73281042665204765
0.64611814601367001 -0.56564694998962484 0.41397682723009765
0.53364302126729157 -0.11411953221774651 0.35158833733187578
-0.18703527799306841 -0.29608944332389753 0.64455066156443763
0.46646871799556422 0.90338985801541027 -0.39333042487914227
0.84280151570967732 -0.24265980155524636 0.66109989223466137
-0.42913909947935025 0.027373011847263595 0.77522620457001423
0.24479368400207235 0.62957700274943429 -0.42059352784020376
0.42393248691037044 0.57397312075575879 -0.2510948548225862
-0.091505950981268569 0.23029787478314612 0.7634670931124603
0.81429183837718 -0.19512476201051943 0.40090067556414155
-0.76927778833029237 -0.42732755054008287 -0.32886636876641617
0.30013629211486759 0.49692625012653346 -0.37039462381278909
0.8989666243863077 -0.32538563263992959 0.6152027149862711
-0.21467110833328462 0.38056813337257134 0.77463945878723095
-0.47801024842644679 -0.65135597813077517 -0.28800746540150968
-0.43158014803990241 -0.0050349685776026609 0.73438281055239685
0.14167677665599854 0.31832963812339732 0.68219561191391165
0.44149232590705445 1.2403320610382185 -0.51728567523854707
-0.77034013651210032 -0.62160807668197382 -0.41323624327131014
-0.24032939372034434 -0.37425036198215511 0.60004389215404075
0.33870108195593929 -0.10356473967278257 0.73755436680211872
0.151704927245504 -0.040043173788581576 0.78534743293154818
-0.5668083433522213 -0.90256063962315736 -0.39171221432665959
0.32019998653467852 1.0340463156177049 -0.38470238633068199
0.75497298484637909 -0.51137290906579924 0.66436011155309416
0.16243441915872481 0.46981331607941079 0.6523006112995553
0.84687115082415687 -0.46632355498082756 0.52445365740458527
-0.082667190709148741 0.78134469424977016 0.66787521699513164
0.39685678933456359 -0.41830703493199461 0.3592579275477199
0.089130342010697916 -0.31526710944772951 0.49476650639359931
0.18413840690977779 -0.20065597555854775 0.77023429303583413
0.24270045460644951 -0.36826395509950438 0.27409205883056842
0.062212132264471975 0.6082988534830569 0.67112694115001403
0.022792156522289275 0.92428900167896688 0.010810709106387151
0.30474386147873034 0.58308738937458593 0.50138734404078278
-0.33861509261090816 -0.091458421494876818 0.81344831295178466
-0.15502431156906837 -0.16772791614710036 0.66769542210573363
-0.20715087767680629 -0.49110799146343143 0.40682879193054688
-0.43494277626018274 -0.77546991343411786 -0.27058081242198284
-0.16725956152881771 0.69807903738104815 0.73913174094793632
-0.20102008010669792 0.43350526416616675 0.76747256853184354
-0.74585382952064805 -0.23944879599728885 0.59044676787861761
0.56115273887535011 0.91367179834878964 -0.45291183759072062
0.22756176743082435 -0.0095629534930452564 0.80525969636855876
0.26561946969761507 -0.36432456020161075 0.69483085549939005
0.097931750819792995 -0.16013718423857926 0.79582928399203468
0.23139112700312481 0.91022905062618609 -0.37797277490411041
-0.066337300663409593 0.12606777169008476 0.74623512149377191
0.51084871797296927 -0.3314980046904985 0.73861857085119809
0.26800488496963482 0.97266646284010849 -0.34640852886059115
0.43345275105124514 -0.57184788794401387 0.63719507818442267
0.027061426209199269 0.67840868707736957 0.66554709267861156
0.25526096779058349 0.75431187613706174 -0.015219490551647397
0.20005914404451985 1.2075049499874719 -0.42768523836391381
0.1795549731413324 -0.36656600062649791 0.35600910102865413
0.084647957715063171 -0.13436362541536795 0.78446288694597399
0.3399147616764715 0.64452603822086696 -0.010340879525962521
-0.21430006909379173 -0.33208690012745423 0.63530856586475792
-0.008072130617563289 0.34243013446290371 0.80735279977278296
-0.53324978912630172 -0.1562733972023973 0.7359277793679837
0.50140403302683367 -0.24841148716573269 0.32010283737648493
0.50602046509187915 -0.66185476503862617 0.48027781400847758
-0.46717428380179982 -0.20831414718941077 0.78588973925890926
-0.57411118796803962 0.49049197705975267 -0.59703912423104555
-0.97762037314313588 -0.90358343792918472 -0.43807927913162459
-0.55728300285292676 -0.031524568079132509 0.6563017525436301
0.053665777408099302 -0.29788147771224416 0.51270120085796478
0.51730785429702664 -0.041644841338364769 0.38246741759580516
-0.61752777817481785 0.025456134386670826 0.78589677891620013
0.3622742988330927 0.96423631751509697 -0.37559284677064753
-0.97652845584640247 -0.68967381847012188 -0.38748219693643549
0.66860620497651624 -0.46570781104644787 0.67247223013547242
0.39140125421130634 0.72931448256613374 -0.27273720640902965
-0.20439752935017452 -0.34186507962789925 0.6097773735184262
-0.43340280845140811 0.19131964899038101 0.61317190538575517
0.28079376245235466 0.76170217982866739 -0.27982284783989186
0.31616260671016505 -0.16413480131940861 0.74133325009515261
0.39404748184369964 0.89801846798746499 -0.35741672929036383
0.39226132377062228 0.67439962400331366 -0.20461406114392133
0.42657440869923136 0.73084505822377777 -0.26141150046876405
0.7613845820805949 -0.39284559185567369 0.66853880778148778
0.1440825147848539 1.0311000014594995 -0.36258525740524838
0.052112465914436967 0.89328775852444531 0.094991156703198243
0.48709036089687885 -0.52486383195845709 0.38557139941504914
-0.12597475353288345 0.97566349779687567 -0.21821787162952688
0.75328353056839958 -0.30275589813380677 0.71351977562414781
-0.75363548089800148 -0.33912706805722781 0.56011251820129715
-0.61793536139976979 -0.19640406182922998 0.62125834951398673
-0.65614067341760318 -0.27552335461388067 0.70652333719603888
0.19999084940123169 0.021639571935584634 0.74778760001209221
-0.48710877715939205 -0.54546448181612961 0.54632819926837684
0.31150512396782659 0.071636015593484537 0.54166265067323849
-0.34786107906995767 0.20060643538904233 0.78407619691623864
-0.40192463461293571 0.18545016938666947 0.74287447977962273
0.77326430021686576 -0.39457133962327884 0.69370069678322288
0.13135177660542752 -0.33445919874164665 0.56573531977834079
0.85047561880397637 -0.46510743221215245 0.55107432969554893
0.49684170825918628 0.83978255399244395 -0.30801317185227894
-0.38544849350594035 -0.50824129373772731 0.58896427367159987
0.36349119447784872 -0.013758264089548167 0.70258593027847382
-0.79387104463324931 -0.95822257615929818 -0.47167203031135685
0.65660559761946402 -0.08432790033895543 0.40924348382894848
0.36243041610548943 0.64066490288277045 -0.16278677998812796
-0.72427272867321335 -0.27008739972566564 0.38469949779700841
-0.079743399750125121 -0.21270450645395922 -0.63203786508629278
-0.72471629983720476 -0.53313606669362379 -0.31588122338662572
-0.2130602737336531 0.75130144914748365 0.34107971282836047
0.2595626697736968 1.0988640042719156 -0.40880619482474145
-0.64036046855524731 -0.050389484354797176 0.55402211416879865
-0.61246003966866525 -0.97661661255457499 -0.36643674079643418
0.33783308012113622 1.1708297274084329 -0.46404557287880088
-0.68079422826462022 -0.11925253192762142 0.53424173926551077
0.44643528984636305 1.1857513160630415 -0.43775374157777769
-0.12640454760915532 -0.030667228110641431 0.74572423398808496
-0.58967419034270918 -0.22914798567469186 0.71169268666429275
-0.17866422069985433 0.33544786431681362 0.76847025130219038
0.054650804695070221 0.8675867824535195 0.58454021222078723
0.44676808325850459 -0.097912503710981702 0.2321770043405138
0.53515496335917234 -0.50040346431781302 0.71489965863348814
-0.42568708442259506 0.59236689674700371 0.69142914679703793
0.62112007990269191 -0.3967159408763874 0.73465666792914064
0.10653294070228014 -0.12550137893236757 0.8032158077063194
0.24495115231793818 0.01030381959056248 0.74398227272551409
-0.43608347421168148 -0.080097186084376437 0.80424761091858343
-0.47624671438361688 -0.53169741869095155 -0.43680572102744364
-0.61668726480399272 -0.65976484286645753 -0.31848783401080993
-0.22723085735497861 0.47184270450194987 0.76172316827559783
0.12670704487678819 -0.17470754171569292 0.8065245088576134
-0.20354578843416249 -0.39094580949494817 0.65135691741729218
-0.37614698111527645 0.86914753119627797 -0.34006896942285536
0.46414573972910134 0.83346958233254886 -0.33682969419189135
-0.62038367435782149 -0.85782613467327362 -0.46670867191023291
0.36954724633529423 0.31119044307678001 -0.1841261749047618
0.71864687543386907 -0.50878198223485338 0.69105161440886498
0.14483454182745881 1.1228649172211629 -0.30215485043932411
0.12546639254457403 0.73128880683273678 -0.46493022728721201
0.19756010793962275 0.030644150675066317 0.74926534509841858
-0.16139341198482349 0.60418315539308143 0.74139401272394068
0.21500223459961099 1.2376921088871478 -0.39645594214066726
0.49611453819269258 -0.6365497116364458 0.446706504275177
0.21904426790073828 0.25835053676893871 0.67792656978723542
-0.50956943562410473 0.11017498913873769 0.81054111818526309
-0.51570789248244964 -0.32996473866830378 -0.55460534345012746
0.40623251071796673 0.67891036875651745 -0.19767380266280199
-0.28177233669048363 -0.16673359051802666 0.80029222738562211
0.26876574446879431 0.77082626114766151 -0.25350336983558819
0.17363269896129552 -0.046945790755201555 0.80583872245242461
0.040849679602008138 0.42381513479658883 0.78959064527652956
0.64165040455393196 -0.46139601322613544 0.71376216696936723
-0.40643786242357294 0.028039571226112447 0.77563730024114719
-0.029038767698963852 0.94345178821704456 -0.27877349420690578
0.3557600336306912 -0.36998111128194089 0.3206259754263634
0.23292151855027754 0.92545974192628577 -0.30019745226690375
-0.3980785299606886 0.35641687383492471 0.69727700581709229
0.06524258997978194 0.36724532343826954 0.7721537019247755
0.14720220524673522 0.46562156739259208 0.67533908020570976
-0.66815840950869188 -0.9731475271737251 -0.39354146951065516
-0.44068959966410048 0.24767677629968587 0.5945905485901477
-0.75099358181432763 -0.23650093786851389 0.62053908846360528
0.31039744531724978 0.41810087425922093 0.55687114391558978
0.30279398997426199 0.25333448657644142 0.50920739167066031
-0.7200947665543751 -0.47221606370978542 0.4437960857733998
0.16548063037678418 -0.079931395332766275 0.80601593984782127
0.21089294999213948 0.98309597548461447 -0.29702263545622642
0.2856926732754026 0.10309705885868237 0.51125429422042501
0.11450180052369419 0.81955036607038034 0.26459404775082263
-0.20789263603633756 0.43435827114649872 0.76899964678581867
0.41091839439948785 0.69581176973118453 -0.2188194953458904
0.14758877719693331 -0.077232768427637488 0.75976193887708732
0.90835356274003942 -0.25074565228148726 0.43762525520164886
-0.91711114081853395 -0.79552473914384603 -0.4288221743947993
-0.53692470329604447 -0.24832656481303905 0.70211227597673798
0.21544989917796542 1.0848602373414238 -0.43882945459370148
-0.22471629121353942 -0.59529704040807241 -0.2403907579871003
-0.95573616110379334 -0.65453198121870582 -0.40792842807571716
0.015786871769213562 0.62430291103167423 0.67935496766633818
-0.059268641527399524 0.8726110714970664 0.22670216479071215
-0.63088909982596775 -0.60124080246506928 -0.22478450201985467
0.52018309316263256 -0.13518997465979155 0.72190073337925753
-0.2126353519585038 -0.32324472582248021 -0.58543278109923946
-0.30509220999687869 -0.21912619430598662 0.79999975554711611
0.40743375700641238 0.79838893176978964 -0.31324296773244598
-0.26737158322085897 0.5618130549947028 0.78048011995424815
-0.64038558129152534 -0.75749570225642504 -0.35831287279316726
0.25888653006248319 -0.10643962225233849 0.79051220767931341
-0.35950246033758759 0.62832774032614791 0.65250344736643129
0.50420424057240254 0.88318130005300599 -0.35777265289576299
-0.72816282487218231 -0.39259693685510211 0.39382216815704396
-0.10958641164850746 0.44921166051351069 0.80372379165657648
0.65883116102699191 -0.68161223231063772 0.50230214856857103
-0.47124491432855109 0.1643785276215407 0.68896319772083103
0.5713889941787258 -0.37147426677287543 0.73722619819005075
0.64936118427741008 -0.25508171271466873 0.72829825848370433
-0.2648695334442337 -0.26426901736859731 0.73267693093004382
-0.76536550102673573 -0.41803469269294125 0.56540215256407222
0.13126943492861898 0.48538485893630368 0.69030841192027381
0.0078943952405676754 0.51890636671752433 0.76315875958617596
0.1383817346136631 0.4037871275571201 0.71187006852329304
-0.22629944864739215 0.31695466908402326 0.70272356464811025
-0.15452241876937833 0.71779571128891828 0.42503788146643373
0.12811999736288016 0.59890386736246415 0.56524200696296845
-0.45131235198695308 0.48398443763019861 0.70355719755177049
-0.35726782798055723 -0.63570861848155102 0.012030801433919436
0.1391323861295497 -0.10327221414595567 0.80739762585174901
-0.96338516174774469 -0.77487723978298284 -0.40778853180393071
0.65541156170444737 -0.46119172986643076 0.66208931439741292
0.5097373643393226 0.67944066515151613 -0.28057444155425948
0.28785142107875039 1.2332464850018194 -0.40384571279141568
0.41451837548674675 -0.23946796718512292 0.25136381790474616
0.37444859202112646 1.0429590406167017 -0.40810316085307541
-0.59952365594133994 0.3660781963154669 0.43970831772277208
0.5531483088768141 -0.26620216724158752 0.7354568526132681
-0.48160829275092354 -0.57494953816484284 0.48818819634913879
0.36075288444270015 -0.21126461296947729 0.74161958615556145
-0.32293758716557619 0.76663589414275357 -0.50412119967683466
-0.27962414400846214 -0.28597286732259697 0.72586683414046149
-0.64543612685055862 -0.93471373330414131 -0.43396301860923359
0.93034066365471446 -0.18813138761897763 0.49454578729647203
0.3278214757329998 1.2619709720972669 -0.42950033449224634
0.53414510778894986 1.0559764374800111 -0.51429612200240982
0.65047061599420175 -0.67476656186588402 0.47498169979711236
-0.17423379669613581 0.3386374343520957 0.76354652037360538
-0.65475567152469694 -0.60043346548578924 -0.22717185402285978
-0.94891500816799734 -0.70032014666417464 -0.36907979593283358
0.41426043467090068 1.2395281209764024 -0.53530222243303527
0.48651412000331717 -0.39824645809951342 0.35040681278249863
-0.65078845099385418 0.09583601902738792 0.8057089372250239
-0.18108140545284357 0.51481387648001009 0.75515283935950706
-0.083942310259072173 0.27076208090698917 0.74808079248836279
0.41583719011045517 0.94125285456517416 -0.39084684441956696
0.25833262289593861 0.82547195102548376 -0.28087237869976889
-0.57342065123859243 -0.63574790626935052 -0.28540603981851831
0.29426489280820078 -0.041003732343177113 0.74684325972140542
-0.49583385821052417 -0.65969098820012384 -0.31573214975356478
0.62488242893496349 -0.41723312063877493 0.71029105968201023
-0.470957207322936 -0.10153652079964681 0.79194748188204045
-0.41284276010372878 -0.35727811847504043 0.67618593933001847
-0.68110754629374526 -0.95974153911983517 -0.44819427209574769
-0.36150091224443059 0.27688332310116404 0.77140472980117281
0.59865253665694595 -0.43512011995887612 0.73338901665333367
0.7467023555333796 -0.59475885770168269 0.57341026501316961
0.32011097583970027 0.52717259062336641 -0.34856765624238761
-0.30212340362210455 0.21547109591321711 0.80510465887545379
-0.57966566083024063 0.098773809548913016 0.80805685246325964
-0.30188891104354809 -0.25003227452124344 0.76870069588425949
0.83442212368694513 -0.1740599580518305 0.41300882703306385
-0.58158361992565943 -0.3117977684680997 0.68372739216273004
0.2555903217034512 1.0734515690452262 -0.39685322602982431
0.61334680247131956 -0.68130510307819225 0.60968965820961429
0.27024134556200252 0.80503122090609436 -0.29108742816332978
0.17913502201146869 -0.19393560347030236 0.78647364429178168
0.67021270606149486 -0.52995733243443599 0.70011565478986348
0.047202894061502576 0.31822646058720627 0.76201526090085281
0.12248098499082971 -0.18173026832302863 0.80052105041480104
0.88733861623732224 -0.16227006936550792 0.46212399360204159
0.039527514116066698 -0.28940485348257111 0.58225680224797927
0.73579124102834825 -0.40084267310533095 0.39099378959406295
-0.38058275741348702 0.46816954557758683 0.81947996938806256
0.15050756496493811 0.79658405946957955 0.56480152766934921
0.33979169956829836 0.90235809363373587 -0.34281317522526322
-0.2920166943749436 -0.052467086650194172 0.75853317620682859
0.36917335190761591 0.52068082324217269 -0.27567900540881141
-0.37870483436939395 -0.52755505719987961 0.56423425392562621
-0.3769159085637952 -0.77367103180424968 -0.18330714460404707
-0.3815599339248692 0.21047825417623967 0.63770411625708334
0.48037488307591047 0.81216809512551635 -0.28856023982645951
-0.23283619035050052 0.70547055129489022 0.66287591210927133
0.10379214534364678 -0.17914614724861666 0.77343927051938977
-0.33813785616354153 0.12934155862564067 0.80175020500833938
-0.37331085763702987 -0.23237922137865763 0.79834144977979093
-0.19028583012532962 -0.18177398387001625 0.74485231964362697
0.046789186552587125 -0.36571703960995627 -0.41487218945015769
-0.094346476206428775 0.97136433694431279 -0.10117618022582064
-0.75713880183086246 -0.64225239122322009 -0.28355930191047563
0.78230601641256925 -0.26637677070283461 0.69648220900447022
0.87115026052703826 -0.38062180047758165 0.62351455457035243
-0.64966362374345721 -0.54622140312425049 -0.38123653573224203
-0.74607906081627462 -0.83611258992819604 -0.4949307792806934
-0.5967739239204235 0.72847260400360447 -0.28824584016657795
0.16238506184935275 0.82097242504455548 0.48995141590492608
-0.37145198284280312 0.39655231717404626 0.64430456219524146
0.51097177610767197 0.92155668602245999 -0.3875789812738013
-0.47845877910873469 -0.57378318289740626 0.40036117439015939
-0.079807320068155718 0.49142323435727753 0.7915172776511028
-0.79296620646739768 -1.0203972010063316 -0.4239813116434874
-0.43877665278336053 -0.42089104047139037 0.65404729741019807
-0.32624832342543897 0.3146133419830629 0.81504733909059368
-0.20719539023000522 -0.13404062565085328 0.73382382814174107
0.20863468425395126 0.76283404305820657 0.25203927617642208
0.79121908038484889 -0.30667403227939127 0.70036903477645573
0.17680073997707701 1.1414208421949867 -0.31484467109930492
-0.095660948783665489 0.67241722063025322 0.72270541008856171
0.85338176237905472 -0.41202235100961548 0.62770803250261231
0.73410276942718511 -0.31505210423321861 0.66339724209973205
0.10162665788467962 0.83360858212901734 0.21772397650244102
0.10398352264685329 -0.41638652029861589 -0.15013000873990734
-0.28294147768364653 -0.72088082476957593 -0.19145204273063143
-0.27493004094638707 0.33323879195596334 0.79303708590058619
-0.20672300089826123 0.48442936894512234 0.75933857007847649
-0.23376242229278077 0.96233850536178522 -0.1037647372667756
-0.60134171377615786 -0.39761463598837166 0.65196508188967428
-0.67624973686940493 -0.27763886176191921 0.71200458791641097
0.066344112060718885 0.49239119492673211 0.74036466458668571
-0.81490397375310053 -0.74000428016786124 -0.41376799935359188
-0.44217073462609235 -0.26012909233728376 0.77042680512991168
-0.22408896260387934 0.36198171098524767 0.7197550005586919
-0.72282230256417179 -0.99946114919102147 -0.40289090128123206
-0.036869655386944089 0.4598863214053216 0.79921067827236669
0.8169696895103371 -0.11754741760728926 0.46368321599069695
-0.4806225787948506 -0.37550298050841469 0.67685926518596062
0.64904020243857374 -0.026493869658209324 0.58933804262880685
-0.72758404364901708 -0.33184801878014714 0.4527402456639642
0.2132155018946662 -0.076314829726335631 0.81013800919265933
0.06374886302538485 0.39194667903365499 0.78486719705566443
-0.06721767367645981 -0.47824487785708136 -0.21311165211562155
-0.35650743874379742 -0.6394129080418951 -0.078999746954593775
-0.38819643581982177 -0.011965007644265002 0.76864644238457203
-0.73633899524206115 -0.33228445423772079 0.66754813523083456
0.84164316099777992 -0.42081040333740605 0.46422285312227984
0.35655914874324424 0.42626709075351865 -0.24015746413072137
-0.69316640175191324 -0.70542768262114297 -0.35191036658302721
-0.25632669113267781 0.44244194418341898 0.67131045906231179
-0.61561923082154735 -0.23068795238836337 0.7068401839152969
0.54559837227190044 0.012063169355328363 0.59221314174051898
0.18757086871140949 0.69500760445115672 0.5875191020908197
0.30229865754755991 1.1143738985342699 -0.43159582971876986
0.4419023253202532 0.043803485049445978 0.4867528212754344
0.61079255977427849 -0.44524280036728392 0.7302706048281209
0.5233816921992549 -0.22271306060236817 0.73516264578049473
-0.72854554597977739 -0.52772035524945426 -0.1572817134070057
-0.6197793407296075 -0.64498659552605986 -0.29717049956269292
-0.099258512047015302 -0.43440651084320014 0.38275916830956902
-0.90279003911373223 -0.12220631402910076 0.12782349264004012
-0.54373611164259117 -0.043424522935698984 0.75507664368318217
0.091990971089199292 0.55443464169958778 0.66911647865057944
0.64353946218765046 -0.61717773645229101 0.43171392550328491
-0.096464594667935444 0.86300581112320562 0.23209012517918381
-0.91659699930585603 -0.71747369129706406 -0.37430258963147978
0.29361501725322725 0.67257222419302432 -0.37327167273295103
0.29049340087686204 0.13332557888222829 0.4869077305019438
-0.50986655280082971 -0.31393388268367817 0.67384564052592921
-0.42800382558046479 -0.39458441165548608 0.67271594176285987
0.39784241119765085 0.72080619137681512 -0.27127924953123284
0.46191362463379804 -0.0094663089373094866 0.37365299181282552
0.27554653982637767 1.1232485062484625 -0.4276059268401422
0.085766497848453582 -0.16738562903651388 0.75378760768817799
0.29742431883876819 -0.15410839517197994 0.74369360512601546
0.77648500178459656 -0.36631821303346479 0.69748403449949237
-0.11104369301514794 -0.055474627125132403 0.7491576803394473
-0.34108032958832624 0.47892149150004715 0.53923662539816064
-0.88442379324533249 -0.89285094621788019 -0.45396334147015693
-0.29395812066667304 -0.44969902469462597 0.62891158352034893
-0.66217839504643194 -0.85506457481556986 -0.40125882514684363
0.024841478625033275 0.66430998214488068 0.67018446403859855
0.19141139982005839 -0.36092875626744103 0.63618814722454431
-0.27146174292895964 -0.16789762930283292 0.78486834421782703
0.67304378295180456 -0.6504855491276107 0.60957159915621517
-0.75509714355577984 -0.40832388805042896 -0.37528798994459578
-0.32520893917971705 0.24591605687396234 0.80153034018912805
-0.43781532713205351 -0.79330038447228279 -0.24611147893960705
0.26080409204012511 -0.29229172402908432 0.72511035347957886
-0.82953647201071945 -0.76593032462188404 -0.42764358146609993
0.21103783396247167 0.18998044348671472 -0.57730703822153373
0.7031383442885577 -0.51303133457981387 0.41472799522770387
0.078625902247420498 0.60103052755915698 0.61748978416698108
0.62034477094945473 -0.44236037129327066 0.70922862958403599
-0.19076288431822519 0.32682699161476197 0.77488107838437514
-0.46175313822029906 -0.25205465160000051 0.76481806326973611
0.069303124111019798 0.38998643298588309 0.77988588330240205
-0.37670663970708063 -0.35864959416730102 0.6802727122764054
-0.74561936727203815 -0.44719308831796045 0.49200129081769362
0.16737054828207931 0.79125878550556916 0.27857130379696571
-0.083588519420814578 -0.35852967632480315 -0.51929872593934689
-0.21120767366699056 0.52154242873378975 0.67723696241145603
0.40585974159842664 -0.23462304992876548 0.22328952582643424
-0.79723666406043492 -0.47306398276278205 -0.012432657819704929
-0.33386367312218468 0.029222260386846055 0.77341462347601819
0.468618744612737 -0.55027484232218926 0.39780839182371608
0.0083245388551418387 0.93521161146844678 -0.1906925006336806
0.28481335999659407 0.46165386213764226 -0.39394499467583444
0.33765192594873028 1.1215668116507973 -0.44142947032809587
0.72510278323954935 -0.3136577788522974 0.66542421597938173
0.67807472347048403 -0.60738291940509681 0.65112270931513549
0.38820131383392464 0.53663707236440983 -0.097072644876330827
0.19891053757707411 -0.19139161630941071 0.77607870362842135
0.34612023193969321 0.21930458310313705 0.29930389735635643
-0.3276016281681855 0.84036626660565261 -0.41666214625465514
0.037639171937605909 0.40309139597420329 0.79453821643720701
-0.69890681794408493 0.64553359634810104 -0.10616308895297877
0.091727333204202566 0.58290017891508805 0.66999065696861138
-0.54526976924079307 -0.2889994772892992 0.68126733596234601
-0.75706575419124178 0.35114975777204194 0.30490082752956482
0.040564429590252971 0.64990350725637946 0.6711777169162545
0.30158154033039253 0.10253749268255263 0.48705920747457299
0.2238941542202646 0.014440526012595267 0.75092884992264786
0.39238899220844381 1.1642088395512633 -0.47719397790088003
-0.82117819366438383 -0.67254396816361339 -0.33273290308689596
0.45712258506152281 -0.1634195588139668 0.27336265874553334
0.83908476601988724 -0.19563436924162048 0.6483122182128529
0.59107802857385749 -0.22907189687358542 0.35195128720474855
-0.54758683066138758 -0.38912598908948848 0.65870632740402968
-0.92061166183180987 -0.75415324526357885 -0.50469240325237053
0.56122835735591181 -0.47549427377157727 0.72437189532840307
-0.55581109268405982 -0.36646377948306119 0.66738854629238631
-0.56609250663526112 -0.54341689507623503 -0.41117609155783086
0.68509492795409699 -0.46568336630506346 0.67896238174729184
-0.63570416146025721 -0.34024131128092927 0.67497384547372263
-0.87724390361776372 -0.90079966634294184 -0.47338571113034078
0.62711361719181014 -0.39796625313527079 0.73188154399367278
-0.36289109623526272 -0.63785307919053658 -0.13591496735658026
-0.11706815919612623 0.74796904445436263 0.40017325518999058
-0.48269075597362132 0.42145550957989619 0.48976760337076186
0.28931906811509656 1.1466410209273197 -0.43690816439029234
0.46480757491998403 0.033528201953049397 0.5921570979288866
-0.32842715472639128 -0.078154674270438318 0.78961899044066541
0.11887407571576247 0.49108487089447483 0.69239915615797187
-0.094277070704521293 0.44133656158916368 0.8066175416730843
0.30237886913079848 1.0156833966869874 -0.37439454971292285
-0.16816822341890258 0.50752365582971781 0.75803494048984987
-0.31891381577785083 -0.64456022111798106 -0.13232051575003112
0.53979674673907496 -0.47743030172800349 0.37281475793393426
-0.13795084614118025 -0.29430343712046447 0.70247004615312036
0.7009256107283619 -0.34514949715544585 0.66921564054786664
0.034660658907341713 -0.32691627114093702 0.47510709512656035
-0.37477940476422233 -0.3930359323639312 0.63061528793034327
-0.57952244037580769 -0.93278928420184037 -0.35876247773844483
0.34054953993658543 -0.013795659176321529 -0.35238666835070021
-0.80687303913996899 -0.77034976221355667 -0.41267420296448876
0.74904667985568096 -0.3818452503091363 0.65269103214034274
-0.15502820300789111 0.38639341176650932 0.77624779846010838
-0.0077460290672313192 0.39754775103118689 -0.67624077026317764
0.1447830468340392 0.37192362058641537 0.71234042599622072
0.12291531406682665 -0.2501209944983116 0.70292446707293266
-0.34105135540801967 -0.81153941832919063 -0.25852761437781524
0.10906556710162363 -0.15017260991140935 0.80569350876400136
-0.52331581519950987 -0.10302068542918597 0.74982234011634219
-0.59514775203764003 -0.34556154886957091 0.6678036660607205
0.38436984347627146 0.72075783964561246 -0.25706150647529213
-0.028202921358801092 -0.35386549537367784 0.51935111018406133
-0.76355290493875216 -0.50338722436748551 -0.088959259927008816
-0.72588010391053714 -0.54979188610727103 -0.21649448972874197
-0.40689036724367966 -0.017947118913925753 0.7639300926014343
-0.070555005901059786 0.26056216412333399 0.75366654557493007
0.29878861972479598 0.83466181042444854 -0.31333166042246674
0.056162082647048805 0.85805824041994372 0.6074240888444784
-0.44948301497543497 -0.43774797084720218 0.64367375379421077
-0.61021308212385961 -0.98778408286741026 -0.37023499183445097
-0.60941029062787777 -0.043750077220615413 0.76211258978285912
0.0055646871944148302 0.51283862648965317 0.76899566702400435
0.4237014339830445 -0.60188445164959647 0.52617158647263906
0.25880463280974908 0.0012711795293263162 0.75992463497820495
-0.55664764116833965 -0.24841239507857704 0.70468878601836238
-0.055688845985603308 0.53430011730833338 0.75145677053827242
-0.41926745101440943 -0.77475583288779415 -0.36581308575409111
0.010298272991478896 0.52528435103393412 0.75060193527846408
-0.24867080919804252 -0.27264944799616075 0.73631543830996904
0.12136377963306444 0.40595363311205679 0.7052015132099072
-0.56580055522154993 -0.22406213147584486 0.72335452740534123
-0.51381764082738712 -0.60748781506674376 -0.13275122867942457
0.17413641035224714 0.27695926831443685 0.70176734320302714
0.03156890560957315 0.62189973779368102 0.67574541738478189
-0.78723664772173763 -0.59188014428433888 -0.24134466944233779
0.10277257284162999 0.53245889290062376 0.67353351539117412
0.40249925543501064 0.60022532851270483 -0.2951073467818226
-0.13547295275217586 0.75212425005330008 0.60170282097629979
0.3079567481475074 -0.50740637300469693 0.53119266048983604
-0.90463861565496728 -0.11603841437710205 -0.33756465275985192
-0.91015331216303608 -0.98962223097136448 -0.52121061147906644
0.28788290463762323 1.1748340583862111 -0.41596198364336878
0.25629673970316702 -0.017265030392272562 0.79928212935560694
-0.37425680424367513 -0.408728199330193 0.60406794862531399
0.18682468834344945 -0.11905128047487601 0.81168546218153281
-0.66875799305669403 -1.0051231429097482 -0.39111121590344311
0.83295422525156582 -0.37125249071214683 0.43417912943250769
-0.4485573783111505 -0.34821779569925038 0.67687019637450163
0.48973337365549341 -0.17974118369962078 0.73414552904696251
-0.44973784450983345 -0.35503976924440328 0.67924564648858521
-0.39598303043945648 -0.061041134235512939 0.78827124524788417
-0.4526359365576802 -0.36961300354320459 0.68122662857068406
0.29669495270170643 0.20818127879493464 0.47061991507638368
-0.23047317227395325 0.68188655648220409 0.6070457162769145
0.12357515565264343 0.84827792858161188 0.54005328097569816
0.1910833496530806 0.77696470849134103 0.41423184636195032
-0.36325356772089634 0.25193793803126363 0.68920068173706284
-0.20614697248717206 -0.48402467681528694 0.53945717126055825
-0.174372117448506 -0.33616725875836667 0.68356107383131715
-0.52322633428215681 -0.36023285720439002 0.67673330073640869
0.10384541815777837 0.59603167410890245 0.6679972045167446
-0.89517250028185202 -0.86931750621928838 -0.46352623468292364
0.034567780943490334 0.33808008004569312 0.78789715421140372
0.46041562029660099 -0.52288745509612289 0.68740429812726234
0.30848957178158543 0.74933875220482893 -0.28231359039873638
-0.47869559656019334 0.0097249249869513221 0.69148239299051895
0.27359443055716959 1.1516200178560458 -0.4119898094328196
0.50999924899068105 1.0403121952039496 -0.42125536805226815
0.11455194363238519 -0.28420411515851463 0.64176334068660523
-0.25403411481496718 0.43803038123873739 0.77035824099974448
-0.6142111594851194 -0.072255369687299176 0.75558157864505304
-0.58830042684632744 -0.15635916342325862 0.73096091962490561
-0.57405374643960627 -0.6401140327515078 -0.2977563214168093
0.5694913671012678 0.83838539626319042 -0.39333842563397425
-0.23115830059314746 -0.20143193170166462 -0.64958181326859332
-0.65541810700094061 -0.54320553991995091 0.46521028563834221
-0.84258311335932135 -0.65037176180693645 -0.30543270060422145
-0.8595000760041458 -0.7686264569967074 -0.44549995988840507
-0.36894115079264722 0.20938481478295179 0.74151183304388724
0.025661650499468891 0.30475556765659939 0.76644874184327705
-0.15154237033148732 -0.30896552887963757 -0.58938487010794915
0.36166515302741686 0.74976543522000183 -0.35087259837136386
0.88471989813696084 -0.24996598786626745 0.63514383177163758
-0.2305744350727803 0.69850158224350856 0.71678217110790854
-0.20918267282922898 -0.35866208233103425 -0.55396039364135774
0.76683612337187412 -0.31718549651459105 0.70981910262241144
-0.39432109874615762 0.57849629429234051 0.64802136628706464
-0.18191907389803319 0.46956375021472629 0.73996793001984074
-0.26439134928787666 0.014096487599009722 0.76611077767255509
0.26742053174812597 0.061567498452362868 0.65146218700923697
-0.59503073098704462 -0.19255994386901554 0.71999453852512119
0.69893714146339647 -0.31509490528657214 0.69284426874524208
0.27711167034114936 -0.034980856367257784 0.78139884650326863
-0.60160291574538505 0.23333889703062827 -0.64006444931563422
-0.35425703402624009 -0.077852267777273609 0.80930276793596434
-0.66931035660606142 -0.57051406495905077 -0.16724375051103735
-0.63093610691231206 -0.61187939698670135 -0.38900996761719497
-0.37858112717448122 -0.74867081450503559 -0.18691355812322996
0.36717071881988872 1.0929178090795455 -0.42983850595608075
0.27941278554735405 0.75692930802445257 -0.26777390635501064
-0.16926579742752779 -0.16823689150599008 0.68993127771113194
-0.28801138137753668 0.49164638252477955 0.78205556816926247
-0.69704482655640376 -0.48601446959815986 0.29697429083691418
-0.066658709975184749 0.58187724560558851 0.71715424099208747
0.56744964372578366 -0.13778027160930906 0.36105199734452853
-0.65767018356290663 -0.31645159927592292 0.69215466475073839
0.42420464038707806 -0.54608605476153738 0.41624493867175261
0.12313876433910131 1.0527847823031049 -0.25799907206416961
0.29937818774603997 0.76200764789265119 -0.29678417082295638
-0.2616723144679618 -0.68003019079287519 -0.18880743522962717
0.49386337430060934 1.002392577910979 -0.45582168169940473
0.17629134428426596 0.46327737816030501 0.67292856249479627
0.16964012324431366 0.93958337946883419 -0.2191111770458356
-0.60635974109366586 0.18317624054878423 0.72041177536912571
-0.49761468785302299 -0.64883576768176532 -0.31379149526060246
-0.71265606649312829 -0.22632846781075155 0.71795599356009276
-0.040998423825747921 0.24462464429454167 0.76141258815392021
0.24069281776148799 0.011177062606170463 0.77791505613025436
0.28984750490487698 0.81225371700917748 -0.36241654171573856
-0.76288840575597305 0.55697302666512716 -0.11477067540973351
0.14283457394790489 -0.31208732252113514 0.63429344554290168
0.17919700387037452 1.007578273155513 -0.26174570532215746
0.58680189395900229 -0.70111542970611929 0.58307132115894689
0.0031308220076731175 -0.29651655433461377 0.61542111156339274
-0.3739358373931907 -0.63547831202237415 -0.14684614937818807
0.87329603401368772 -0.23120535729995373 0.63884575235145213
-0.30461104291084951 -0.012606333730176944 0.77272425439461401
-0.33742313876577157 -0.63873385794150161 -0.05469244573046339
-0.47727200728066066 -0.57628597259770498 0.43400863309695481
0.75014157031691298 -0.32688893918742767 0.66968305054074229
0.39565602261492572 0.87545990259096729 -0.34572024223161968
-0.22406697550306376 0.52812094193257719 0.65542618614113479
-0.34414356528043655 -0.22954297596615536 0.80054665699584149
0.11717792292549234 0.35287737635009897 0.72624053429001378
-0.40739307587805129 0.15479082314689818 0.80264743556798734
-0.85508190309351662 -0.59158995615091925 -0.28725938437730747
-0.14523122208711214 -0.41407240143652135 -0.45256255280491331
-0.38853947076874107 -0.23835226693619194 0.79443587755893219
-0.42783320208504705 -0.095689751837694681 0.81202599247158602
-0.36174143999697961 0.29359830375446572 0.63864736888742613
-0.79660903744758471 -0.95634144132576449 -0.44956319186722737
-0.32993313319352779 0.19074528602746021 0.79755902971389148
-0.53108143487902382 -0.34065798138147474 0.62435503535918002
0.49060837838615967 -0.65784422927079289 0.5197306285077623
-0.6068662676094867 -0.78784865939406146 -0.35983681848138716
0.27787866675336659 -0.15766785330758948 -0.38094624727854765
0.13030593332460683 0.92582169696980809 -0.32406663191146023
0.14734144122922288 0.82243075941183796 0.17319899589302779
0.16646930379519276 0.9624238799974334 -0.2253834069639602
0.29240332053334939 -0.058098965349623999 0.75509815929212465
0.28510462381468926 0.090771096134252716 0.54857197871411145
-0.62776596435695353 -0.18553502250474896 0.72618261806632134
0.83919934972028187 -0.24552689403727768 0.40630756116934919
0.39804783076704808 0.53419225965814476 -0.12989745043747902
0.18879138689995401 0.47864035281152995 0.60262173578135858
0.70799689774303332 -0.17788914733246086 0.38271867874619403
0.035778502106225574 0.82524172875571988 0.33889609824186095
-0.54359311481632844 -0.60236129056280241 -0.19447770424634214
-0.54001304011720919 -0.13966288151994333 0.74823483572187754
-0.69083642153828961 0.13499388489286535 0.78457707885627315
0.81133350967903439 -0.47723335194226424 0.6338034230132088
-0.33367329854073802 -0.084523666579761181 0.80436941022152553
-0.49046579213436203 -0.028906483613685974 0.76713600338042554
-0.81891023358778625 -0.93621607967677178 -0.47241753991021085
-0.31639642574199911 -0.23510920720492767 0.79557902338048336
0.43260563484667358 0.79207076466914828 -0.30250070167357457
-0.68286280691167178 -0.94806368067645685 -0.44697538888337007
-0.056145867507282787 0.23302260090737081 0.76249195820110671
-0.076288822943869405 0.37237817746004476 0.81282925860415389
0.14727903914965168 0.258152145648606 0.62097712183970089
-0.87561078931135938 -0.87182676125856506 -0.47519298517571329
0.26679254711717704 1.0976711813734499 -0.41486091742915754
0.55157839534629005 -0.061259559487096382 0.38617210874760488
0.67355469101712018 -0.48987041481617455 0.71403773793333158
-0.17088688029654975 0.38060011246730807 0.76506611052161233
-0.58225639951972852 -0.59759336465392021 -0.1979815379633898
0.37392898495961902 0.58300171579121063 -0.070886481003977764
0.39793376415684989 -0.22986234338697209 0.18128785601377118
-0.38923159872572199 0.18973294583361155 0.66016775589116605
-0.66900762823425097 0.075815779405369543 0.62185358577387362
-0.048150877481518251 0.35623693374243159 0.81211202650257519
0.39959586584702222 -0.2815928619670347 0.26911169493727982
0.13433918378531473 -0.068353221794332342 0.74988643347138506
0.71985297018536087 -0.49034842731655992 0.69876513725243328
0.69444907630934338 -0.6303758369313659 0.61163768137968688
-0.52719615015172039 -0.77567013889000602 -0.41202570625329926
0.55373617171406408 -0.1796848529768762 0.72678810557393092
-0.61849148357676853 -0.7534974114929458 -0.35233121820405344
0.43765329495392535 0.74065326940823062 -0.24540949302384263
-0.11500975582276851 0.22319975482963916 0.76279337604972142
0.2102596569947579 0.83343049075243902 -0.20527720164205476
0.061489376517030792 -0.1457471013671614 0.75959351524500462
-0.26578620718899515 0.95210378396668549 -0.22969519061172861
0.37079012524723609 0.92309709563720754 -0.36125967269784454
0.39723187372791458 -0.43142752129003137 0.70968059485507595
0.38011865173572446 0.55332270272745498 -0.054069102535233782
-0.50941788318348813 -0.069646277977131965 0.73720969890518617
0.3820876293435731 0.83749823348946073 -0.32741819228776237
0.018930956389947795 -0.079691277018465789 0.75538413782933844
-0.10578397055244082 0.10027423115875234 0.74858423669283169
0.67361400257967929 -0.4364379078532048 0.65666762734422335
-0.20940706922108632 0.41779938690573837 0.77084840217030859
-0.10183290297316816 -0.33079706590343538 0.6601837740665033
0.19657570538305791 -0.20330118650035622 -0.46019119444916612
-0.084322711217929225 0.26559687183514358 0.75461950376686815
-0.18366487742083137 0.73030712994811842 0.64731035118952462
0.46318635733974922 1.1039698337293871 -0.46095353870560096
0.37643349032492068 -0.2165812622026535 0.032005117424159124
-0.48517321732548879 -0.090061274711443096 0.76558253549081101
0.13607010895257332 -0.11591620554592774 0.8103594612689129
-0.79475208400146968 -0.86623788219049569 -0.43122685162173369
-0.3679713167582328 -0.72186499347091138 -0.1868245043315433
0.46236196117755668 0.65848253381721489 -0.29502241248795613
-0.30569703569460316 -0.53396726618717016 0.42946167011920622
-0.15838749623057424 -0.4568266249584837 0.46423370961426613
-0.0068121073296154577 0.22659171770949349 0.75539578070509705
-0.19072726748819235 -0.53313933233398325 0.19271147662418286
-0.69333715960577891 -0.54585373645501001 0.076911254925398964
-0.54966178593235426 -0.21849044835359388 0.71397091767119747
-0.5125105827512364 -0.071229960475653775 0.75612156048278223
-0.044937238822782888 -0.31010157771367264 0.64362825999414497
-0.21673854941592907 0.96489551349060321 -0.2300321217942809
-0.4974623075297977 -0.40661028687211065 0.65795475516291901
-0.72913754839116152 -0.057514257394079893 0.74255281682586016
0.16484829070321894 -0.0015748303155089793 0.78747087646643621
-0.41634041820226741 -0.72790192609261961 -0.28307682686987334
-0.78502685590105159 -1.0074894915141206 -0.41644360912627221
0.69033445457812093 -0.33170135896850539 0.69338300972454014
-0.057359342383442424 0.46145624490127313 0.80086860316550812
-0.26064134486939849 -0.35201335914237075 0.68980664972432848
-0.21793135894597171 0.48809009363299566 0.7583716286965938
-0.76425407839252912 -0.54377611512066526 -0.2870635227824323
0.44357681236098401 0.016994914386773363 0.40978853956600858
-0.45900767172761547 -0.61008362150635609 0.15857374688805237
-0.20100799951372395 -0.14924862398320243 0.7557637190686286
0.31614015268437257 -0.090615848707497282 0.74043768990824432
0.44556647774488667 0.77210938282351993 -0.27969599332543815
-0.95219797157908204 -0.73997312504101576 -0.39073747434484574
-0.15338978242116852 0.31029761438136672 0.76187006748008557
-0.43844329739754784 -0.75054010179317387 -0.30819223105679328
0.76891738589976555 -0.4069048666684747 0.69310958339243989
-0.95452736569763985 -0.6546478427489193 -0.3807063476336765
-0.32093587016723646 0.4225898708884136 0.8042148944035965
0.14897481566425697 0.84568129250788449 -0.36523785471268155
-0.52565722555826611 -0.67057982896576362 -0.32390306684284553
-0.669148978130778 -0.17457567762774451 0.74227549907136137
-0.12592436745714686 0.62911187277679115 0.7283908572015072
-0.85929467523074621 -0.20077294897509468 -0.38603956947203955
0.89227693949744236 -0.35584956916211308 0.4779112002995447
-0.24171128854933954 -0.02782555679130938 0.76262468889240509
-0.15375035403187098 0.54603450412599219 -0.67373119586789443
0.28644548160197658 -0.24691798730657055 0.73775421454600121
0.0067731103809478554 -0.3249149101461869 0.49986831760311645
-0.28253166552072173 0.9481048108677399 -0.09957401931631793
-0.39627572409040823 -0.75678867520643367 -0.20374165151610057
0.12312407655964108 -0.37567379433009296 0.31012119829967233
-0.144459373265164 0.21485152189852114 0.76431642892998042
0.12220119945968477 -0.33509281400608265 0.50505830005538854
0.42534961799959703 0.73611611820803469 -0.27324976712289484
