# XYZ point cloud file
0.51016604726435055 -0.32693221144438223 0.73849978351027445
0.26883579023367865 0.97055029203200505 -0.34330968590037969
0.43114131984532378 -0.56673934249860203 0.6413138691400242
0.033160394333414445 0.67232875012913951 0.66375233697618263
0.25515904141557577 0.75426136679759392 -0.013173453228331411
0.20502259130812561 1.2033999250318042 -0.42394742642372751
0.17765134382566394 -0.36583051198593508 0.35929371991276682
0.08576373612367405 -0.13048950701847328 0.78375656662778681
0.33860855779339438 0.64463364865244266 -0.0094705876192069383
-0.214856387151249 -0.32726010070074962 0.63837572580458968
-0.0031103113327688447 0.34058815386190383 0.80463542876626626
-0.5315500931747863 -0.14923619848200831 0.73640741340768479
0.49919950623172049 -0.24874973109321874 0.31984626795222226
0.50259857715850309 -0.65968292681551544 0.48558707718821914
-0.46629349086241767 -0.2012243810953056 0.7860521062614918
-0.57628173999789212 0.48192997101555335 -0.59837214607072298
-0.97656480392744349 -0.89346884167602614 -0.44057661834294315
-0.55380591942500246 -0.025529028699867951 0.65792469794555686
0.052848258165539619 -0.29520576862256021 0.51587348783733766
0.51550545248408497 -0.041370437007321792 0.38080349881825981
-0.61337812766778477 0.032130807367304559 0.78507591003073252
0.3623578377639447 0.96118149795639152 -0.37322065406304539
-0.97595969747345102 -0.68125597794054382 -0.39134787104946334
0.66747498594066457 -0.46155076636437964 0.67441633962316594
0.38955953536158994 0.72806468134940339 -0.27172986423314605
-0.20507565297305241 -0.33728693895777351 0.61312203689716327
-0.42777027479901975 0.19438180586172882 0.61657455485728008
0.2797484660612426 0.76099003417934252 -0.2775607033713694
0.31623835304250392 -0.1606690331191255 0.74001523198142838
0.39330142244039834 0.89529334095231894 -0.35555946594104704
0.39027810706652666 0.67372611204594746 -0.20391147416951494
0.42458521314583919 0.72941768599346402 -0.26076033750166605
0.76047415564529963 -0.38994541335478194 0.66901885970304775
0.14661027979277819 1.0293633486084737 -0.35843280435139224
0.055916041726936427 0.89228901439664643 0.099039194834871225
0.48408591120899125 -0.52469501178305111 0.38843586154358078
-0.1210428012487057 0.97598511084013007 -0.21211233097274551
0.75257450222253652 -0.30007283287895281 0.71247251692877445
-0.75413064684371633 -0.32874561314266204 0.5592983985006601
-0.61656459412902365 -0.18866001954710265 0.62225041336949261
-0.65634144874883837 -0.26611861937078407 0.7058099017656545
0.20127526179785704 0.023514378760350063 0.74570266042478561
-0.49052118423439239 -0.53862131909104027 0.54940501881288917
0.31134049850011358 0.072682232733444263 0.54066497136335379
-0.34185496451356734 0.20258450415935236 0.78481747490551612
-0.39600511542126249 0.18807932959337936 0.74439543321308044
0.77252621361472684 -0.39141142258451689 0.69421611400382766
0.13024134014752597 -0.33131814524357239 0.56840726873160818
0.84907938080072043 -0.46411071815262472 0.55208598680656884
0.49515327515109497 0.83686209390308441 -0.30740241238577681
-0.38838729723681453 -0.50211069999275892 0.59241040866226413
0.36360007909829406 -0.012044673374083326 0.69999543513487072
-0.79354813577956307 -0.95292237757250131 -0.47096545834243386
0.65451254402344716 -0.084554368822729375 0.40646552874010133
0.36056724187479361 0.64045680994233756 -0.16191562443915952
-0.72326647060334714 -0.26177928368528036 0.38570728653949438
-0.082464283896696244 -0.2197607082685229 -0.63322741972144136
-0.72480912791843011 -0.52984388585114495 -0.3159181415754837
-0.20551900325532735 0.75025265265937868 0.34703051183155509
0.26210128790694043 1.0953775984094229 -0.4054097189053687
-0.63707203015967906 -0.0435853722152304 0.55578959234313174
-0.61409282802402743 -0.97571235433407377 -0.36311119475420917
0.3409701484275125 1.1653563200714347 -0.46107301087700492
-0.67829568665421114 -0.11154608586121784 0.53539986881566293
0.44906197334252695 1.1787348827726278 -0.43562556918785944
-0.12385802613286145 -0.027461029148784455 0.74639860857274343
-0.58904725806911706 -0.22100492073771427 0.71184641013684846
-0.17241929849494575 0.33474717088697636 0.76847479492962556
0.061524145817047682 0.8589659280963523 0.58289469540194538
0.44470694056857063 -0.098309520146309559 0.23147512211424726
0.53387776939882947 -0.49463277784705229 0.71756177926056885
-0.41489073662405573 0.59045050746914685 0.69460515512386145
0.62037763500440768 -0.39200277146355544 0.73537358989847146
0.10771787816584855 -0.12162684919601069 0.80203101493378348
0.24592758207221976 0.012184967767845889 0.74164355460294473
-0.43336534576238606 -0.074356116210092305 0.80431657641614684
-0.47701507784386266 -0.53314507814552403 -0.43534459798383907
-0.61718560522621324 -0.65782185146858385 -0.31688814075588922
-0.2192106182709832 0.4695060624321763 0.76220133804919854
0.1275285179483383 -0.1703032793875737 0.80554461986533354
-0.20483293567400729 -0.38574224141433899 0.6544601245110151
-0.37205753952278542 0.86832825571945804 -0.33531345188604877
0.46254270831567545 0.83069095208920141 -0.33590169894574373
-0.62080272603859044 -0.85674755262231983 -0.46487138992613275
0.36687429223491819 0.31038649270835172 -0.18496778469650899
0.71769977842873089 -0.50423069387153729 0.69378957394292851
0.14900595417869944 1.1205716875186762 -0.29805337379480967
0.12435490753721012 0.72900843547573357 -0.46204273815327124
0.19890169213996423 0.032430125855253511 0.74711646503016826
-0.15281885433343767 0.59950024106537125 0.74136533289446138
0.22046585131819896 1.2331727971064952 -0.39296320476873081
0.49268689067994842 -0.63514269530090695 0.45145988310505558
0.22064192496987545 0.25768365075397659 0.6751956281881526
-0.50421870771506683 0.11466171216032461 0.81039227325068275
-0.51704705405158258 -0.33316027145747196 -0.55454355286169665
0.40420855937263944 0.67816610070858951 -0.19710876078221062
-0.28023573188253614 -0.16131334655786378 0.80078055721232033
0.26793290357416666 0.77032891344819276 -0.25108258433963559
0.17502530116438564 -0.044068775023745621 0.80357145388811269
0.045739681769505935 0.42057658195993153 0.78621199510700457
0.64071733319238966 -0.45646327474442838 0.71564794635946516
-0.40233372758706309 0.032345518161294606 0.77638660435999185
-0.025895830404367715 0.94344192014238404 -0.27344513307283425
0.35341198502469062 -0.37015790107023161 0.32259502752478042
0.2335748267231228 0.92418173426017658 -0.29695026787079559
-0.39038557504668425 0.35727206042513071 0.69984592336085427
0.069391724173469171 0.36497450718711955 0.76908504232129715
0.15032896343329405 0.46243411532243345 0.67242702259737008
-0.66918338632468455 -0.97086671421482684 -0.39094117941262674
-0.43450656176445257 0.25037698653253493 0.59834391438126744
-0.75032048324399803 -0.2263843928748881 0.61934668495292478
0.31089337807329009 0.41612028619717673 0.55382458509863586
0.3028491035259222 0.25334542661392323 0.50772730892667894
-0.72176039335114162 -0.46275459469317948 0.44436181961300925
0.16673923245178912 -0.076652557671734012 0.80406094438653852
0.21239756625785944 0.98158670149790161 -0.29349365806079852
0.28561765127670391 0.10406753771945798 0.51064503971360331
0.11774189871760576 0.81707558484034903 0.26653288914343953
-0.2004065569791571 0.43240362102226093 0.76916739152138014
0.4089059468177485 0.69487329336222192 -0.21821081865313019
0.14872201916238126 -0.074189052103913911 0.75861163035473211
0.90639356220223632 -0.25227760016007161 0.43441214878184997
-0.91642331521207332 -0.7877061690806082 -0.43100345295441933
-0.53648291024158112 -0.24078842976889314 0.70293206576589995
0.21805776206546845 1.0816561901692054 -0.43511004043318291
-0.22668831860155159 -0.59872446578895833 -0.23693508872777969
-0.95528257564648023 -0.64720892783112038 -0.41161107521378959
0.021695198538957072 0.61906847984848568 0.67771698359716215
-0.053291342881349735 0.87089650512397854 0.23152507215752571
-0.63137096707847462 -0.59836762646582908 -0.22307312718842631
0.51967089398307031 -0.13275957573902186 0.7192831143971663
-0.21464681840025612 -0.32899622239518855 -0.58546079421354413
-0.30423627605025239 -0.21309847025305784 0.80056670981608491
0.40587332285145727 0.7964545927363309 -0.31201449935015724
-0.25780041344697935 0.55814239001834798 0.78093821770852756
-0.64090083529186792 -0.75529014674190531 -0.35670572184978155
0.25959684783039982 -0.1031263463670542 0.78838123090835488
-0.34909335277887976 0.6257581179720284 0.6561086755334351
0.50280884241402646 0.87950546538284025 -0.35687851068768328
-0.72853700287633139 -0.38363978852997338 0.39454358724464278
-0.10272402442449469 0.44616225493194439 0.80201133187885798
0.65595682941278355 -0.67934403838461721 0.50775206586469945
-0.46549406995582032 0.1678788152370716 0.69117524861117019
0.57064628029363007 -0.36675373176121484 0.73759148810949426
0.6486793360398817 -0.25203319862538542 0.72670638156966127
-0.26457920232635779 -0.2586898916554119 0.73438934705550629
-0.76710137891730312 -0.40696509088944088 0.56423930673454592
0.13478623471566209 0.481781844801972 0.68724837593198096
0.013683971404480744 0.51446522022798125 0.76039279605842491
0.14154490728895475 0.40119508592666331 0.70875807744061259
-0.22021725702667183 0.31713223921031108 0.70434119322113453
-0.14738704306422257 0.71577891068636745 0.42958573968811642
0.13148606657069983 0.59518110486917619 0.56385931492658337
-0.44168793201019874 0.48367257390829832 0.70632682143659054
-0.35963136760965497 -0.63555905881299868 0.01695049707936569
0.14036506395229154 -0.099671582687293675 0.8057779847647808
-0.96264459862108431 -0.76600365760063838 -0.41090716285179241
0.65419804335155973 -0.45717082782418528 0.66396858596221708
0.50711251550906589 0.67741454789438693 -0.28106393517757411
0.29252172805730048 1.2278690557109719 -0.40088466873388562
0.4123341921732262 -0.24013605398220106 0.25172361932020415
0.37539178080287705 1.0388534658146398 -0.40557212596061998
-0.59229328386613922 0.36950653074304052 0.44427919104610858
0.55254560766928051 -0.26248827068157521 0.73429026382258655
-0.48514980880946368 -0.56873522832088508 0.49178256139043519
0.36056251738125944 -0.20743671633158944 0.74053717305482358
-0.322035091819588 0.76296992325912782 -0.50100756627224108
-0.27961104520679925 -0.28022456402111962 0.72770317978559618
-0.6461332600158336 -0.93303637451187971 -0.43163899814367745
0.92853128571561427 -0.18958313089331591 0.49081601838292421
0.33271847157958589 1.2555468406330998 -0.42683604839621037
0.53459992983712645 1.0488028873979784 -0.51233795592495124
0.64744045699109165 -0.67309978593688946 0.48011578072232464
-0.1680251860385038 0.33790098776458777 0.76360066826581807
-0.65515787621261801 -0.59716828229279795 -0.22574166468067958
-0.94840090858466475 -0.6921385997280618 -0.37230921622293423
0.41825147191873846 1.2315762300159823 -0.53262010103254731
0.48397716118861389 -0.39848574550576149 0.35166868402889406
-0.64568529460689206 0.10229536249545479 0.80429946471871183
-0.17312807926058404 0.51158307932599012 0.75522001782995751
-0.079176214915074539 0.27059501862569535 0.74765559645584112
0.41537507039883614 0.93774665813486413 -0.38893025547002935
0.25790747943064218 0.82466234636482039 -0.27814854381645748
-0.57407970904451133 -0.6343264856820543 -0.28332936034586353
0.29484534970585408 -0.038693104794519095 0.74447724039440466
-0.49678908622164286 -0.65985221131101657 -0.31317630852218237
0.62397112618758399 -0.41269431689473457 0.71141538271291438
-0.4685355419082029 -0.095324471307485004 0.79204205379727632
-0.41381704782463302 -0.35059959096020665 0.67828409985871829
-0.68159743159049135 -0.95729523393521809 -0.44608970858431718
-0.35459278816352935 0.2780738210722471 0.77248338244831061
0.59780241872893747 -0.42992722541320538 0.734802369451522
0.74492914198692084 -0.59191440127328021 0.57736012758749222
0.31751532231100477 0.525604752887467 -0.34820964310645142
-0.29609152720914977 0.21690954489028735 0.80530097333789641
-0.57445733985313296 0.10421982138617292 0.80740786849781543
-0.30143000644595652 -0.24403541735273393 0.76982063334969375
0.83223336274645732 -0.1753054184618496 0.40943772641877896
-0.58209949682151851 -0.30341838833269286 0.68426127785445878
0.25778283083242215 1.0703106460795162 -0.39345632842889877
0.61093581051543211 -0.67641314265000041 0.61578989178341992
0.26954710999714315 0.80416149918014801 -0.28854902882913613
0.17962986500197964 -0.18957356014462745 0.78565453233587945
0.66913726368624538 -0.52475271215118058 0.70330408028457647
0.051178608224528688 0.31683747221759906 0.75962695301349736
0.1232407897946235 -0.17729642796859194 0.79970674816236809
0.88532362293777567 -0.16362714986537297 0.45825644970331147
0.038965818368877692 -0.28607064794112758 0.58498531845942203
0.73343424644342825 -0.40156511870512013 0.39057241906183293
-0.37099686254730813 0.46661265248323325 0.81984260736848391
0.15492979191096801 0.78912947149796175 0.56194263688146773
0.33940854717421409 0.90016946792826102 -0.3405061962606899
-0.28914063902203857 -0.048259304046361917 0.75958902007537077
0.36657724240121681 0.51967375406383631 -0.27566615743100886
-0.3818370081775182 -0.52172072228956079 0.56798134426859725
-0.37954695675708905 -0.77555436772706621 -0.17877282828949248
-0.37586594330384138 0.21294167795104224 0.64086391415271216
0.47858199683918379 0.80971390544132937 -0.28798210092118115
-0.22278103787560966 0.70063137253823915 0.66519737453730521
0.10450542104817195 -0.17494128960230526 0.77309126822645879
-0.33294261589532681 0.13206869988371128 0.80209913732880267
-0.37269071455000535 -0.22579422519626258 0.79878439974533677
-0.18907070055622732 -0.17705966522610472 0.74615138259536451
0.044361034111476627 -0.37184208206674185 -0.41514433594189271
-0.088986214829420263 0.97159536328470919 -0.095023057845139647
-0.75723281064737513 -0.63747668467845475 -0.28355715704262252
0.78148041762290532 -0.26443521328209041 0.69480506541157627
0.8701934247882086 -0.37930259932805743 0.62338965009878589
-0.64994648203132677 -0.54466864951788718 -0.38066729433911917
-0.74578734736266661 -0.83241539136586518 -0.49458873029900552
-0.59333677289380837 0.72690042753287631 -0.28591694615826313
0.16631955584668567 0.81435758533439784 0.48802715003742403
-0.36378483913770232 0.39708207770834547 0.64769994989823232
0.50988836080366973 0.91724998822125503 -0.3864662258853766
-0.4814818535069687 -0.56845631194417967 0.40440878763563326
-0.072976215658032473 0.48761482343995438 0.78954981995695217
-0.79317378848156039 -1.0149730710380593 -0.42258216033444285
-0.44067248949797921 -0.41387130111973347 0.65630940610747324
-0.31891154702421787 0.31488029679742224 0.81516508781790264
-0.20545078646888904 -0.12970004669787749 0.73521373760478426
0.21015089881095506 0.76074023665324431 0.25279680075790179
0.79047686610012668 -0.30439001951728928 0.69932395211047016
0.18093686798445496 1.1386249981061294 -0.31102224564345793
-0.087371842557942614 0.66633440199678462 0.72192750797198002
0.85243435191648942 -0.41026914363901179 0.62820254399861319
0.73311053178139218 -0.31265738278142474 0.66265624557667646
0.10489266173383527 0.83165275140578521 0.22026987266860054
0.10147343125157704 -0.42085061145097269 -0.14833356564822964
-0.28556872048284276 -0.72400810177051866 -0.18702499685319651
-0.26782145069733865 0.33299042253493116 0.79332629686269485
-0.19878873294780952 0.48179287079704214 0.75964376252947474
-0.22703429094475602 0.96296226427129605 -0.096803894713146654
-0.60309735540111831 -0.38874129971359217 0.65260458045649017
-0.67656466267469639 -0.26785512791528054 0.71090772311810468
0.071046703298463854 0.488386654044209 0.73728754932050045
-0.81461942075134175 -0.73469848023233109 -0.41460935910802554
-0.44199263828568647 -0.25298052911621927 0.77099924872380754
-0.21748929079724455 0.3614921306182266 0.72104823341988578
-0.72356066595353674 -0.9958560982129212 -0.40071768259712393
-0.030753781731037932 0.4563155577841389 0.79657828749356874
0.81488790370358544 -0.1184479246153386 0.45989686429800614
-0.4819574786308003 -0.36805034432257555 0.67848457696593378
0.64755286008475821 -0.026198342596407964 0.5856738083495987
-0.72745780767448842 -0.32273946212862814 0.45322971461289541
0.21432307715411447 -0.073147973499473884 0.80775764964652197
0.068146091273856513 0.38917956123312247 0.78142764672106857
-0.069334621369826266 -0.4823662207734265 -0.2103944455524811
-0.35859404996710609 -0.64001069474995198 -0.074480782765771636
-0.38463096993787893 -0.0074356950082494766 0.76951528191786167
-0.73740228380925998 -0.32143553562520921 0.66593049893143252
0.83977021833999821 -0.42117025991526114 0.463904155896393
0.35391223182076637 0.42544343555912967 -0.24045007761822568
-0.6934019841436001 -0.70221315302942511 -0.35109151976412711
-0.24893930557642818 0.44149825078158855 0.6736950571053093
-0.61503731803155759 -0.22220819226131461 0.70674199716337149
0.54443698868257862 0.012644322625092741 0.58897630523502542
0.19083529585699743 0.6889202487757019 0.58417635565194015
0.30474696558733072 1.1101536467302506 -0.4284482359902313
0.44079589388504026 0.044501065322899241 0.4849816983448143
0.6099261762941417 -0.44005207772107457 0.73186100510756802
0.52285575018736985 -0.21931820958668813 0.73351592253044107
-0.72864601258664763 -0.5228006591435328 -0.15671758093516708
-0.62027759340492672 -0.64283772761010027 -0.29554920716055832
-0.10108167681815594 -0.43247078123436444 0.3876242632120146
-0.90087936399218194 -0.11430870114837521 0.12559556240896086
-0.54047464254686872 -0.037137545494926538 0.75535947302050133
0.096267934808096811 0.55015390923531349 0.66671706943028664
0.64053770880889971 -0.6165627687469234 0.43546529682225188
-0.090042406488233695 0.86152497909164838 0.23739356503717168
-0.91612614655810809 -0.70985040126995891 -0.37683753100705708
0.29167834228269918 0.67098282880773397 -0.37175574632828035
0.29034297493678807 0.13416095454562105 0.48631775393995191
-0.51027915055350093 -0.30651860748993398 0.67523901695867572
-0.4295480841395154 -0.38760745950699094 0.67480628291642653
0.39592445544620603 0.71954940936549239 -0.27038208122418173
0.46030253133439913 -0.0090163620188248306 0.37242493942868204
0.27833859697152086 1.1192445517735714 -0.42428651873092882
0.086532175356497376 -0.16341948190131589 0.75373059180153135
0.2976014148061239 -0.15068403280298492 0.74236615908105996
0.77576204221885803 -0.36339347242032516 0.69749162966865708
-0.10876639416568068 -0.052084748998605934 0.74976422346312077
-0.33349028444922268 0.47919946290791016 0.54401191864078058
-0.88369270139363998 -0.88531371556822513 -0.45499131329203735
-0.29605861644275855 -0.44401145163936095 0.63226014494916427
-0.66267960529884995 -0.8526562957185071 -0.39950933656499821
0.030886833741094577 0.65843336798986807 0.66839972512445822
0.1902508131245515 -0.3569131859931578 0.63831326955225975
-0.26995328730906465 -0.16263454762113261 0.78561200593267166
0.67103280455141068 -0.64609407909829053 0.61499032164932999
-0.75537782826086541 -0.40627445150353214 -0.37636065907228478
-0.31872753476522497 0.24713547005708825 0.80189276368966311
-0.43996409877828135 -0.79458877537171357 -0.24213779291696369
0.26034451506957623 -0.28773564762337367 0.72552702047986983
-0.82915818682724485 -0.76026202963573208 -0.42859804212536012
0.20736426101928629 0.18397226456657556 -0.57948240290961017
0.70058846607287428 -0.51315678648508911 0.41629812465736737
0.083029641867474524 0.59676933854754011 0.61603269328762966
0.61937541071754865 -0.43757805276637662 0.71079836719381806
-0.1844629392242858 0.32626924671574775 0.77488159692898861
-0.46146676905686412 -0.24482947825515566 0.76534802528336776
0.073594915615487366 0.38727085010658802 0.77648296830435903
-0.37768001880098367 -0.35223329527157032 0.68251793689685591
-0.74724862018534388 -0.4369608463077892 0.4917980134855533
0.16974676758967 0.78866994849678185 0.27960330298620661
-0.085749136818407123 -0.36460160471881853 -0.51946623011556525
-0.20341072401995852 0.51922300512389796 0.67909654343916159
0.40363766233983256 -0.2355065187498957 0.22362114578210601
-0.79713829143885739 -0.46584838833193487 -0.012661945536516228
-0.3299145217209638 0.032965296456049842 0.77424546926861915
0.46549770713667193 -0.54984835040803437 0.40116763086161278
0.011504944244741466 0.93540576137189468 -0.18548404104870997
0.28200800228577272 0.45944744525131265 -0.39386395749682812
0.33996498796420305 1.116814192509985 -0.43849364038972816
0.72411413029757377 -0.31119112951049188 0.66468682263827539
0.67650611652605264 -0.60247868972081231 0.65579256917155426
0.38603144312560289 0.53669247502606465 -0.096937860866107783
0.1993288602648402 -0.1871747439835888 0.77526824942800232
0.34500845824109483 0.21993759955346626 0.29894796362863119
-0.32491454527869656 0.8385754132340919 -0.41243870639902358
0.042459513692008954 0.40017025730484368 0.7912029627410071
-0.69407545594962983 0.64592309706362006 -0.1038910048588928
0.096199227853029257 0.5781204325656506 0.66743333062606869
-0.54537304703101341 -0.28125074586392529 0.68224362827735696
-0.75065888547390358 0.35576217458574266 0.30738655105138157
0.046265410276198793 0.64418555607004613 0.66915769730454855
0.30130789124694068 0.10347530483763268 0.48647874505089028
0.22503386669305492 0.016341685456492588 0.74863919888899844
0.3950611973159841 1.1580230139169529 -0.47450225669007828
-0.8210406040159004 -0.66681809193650388 -0.33374930291997451
0.4550493205687367 -0.16377533882199802 0.27292371943216587
0.83790849393168898 -0.19517435686741313 0.64544541785283993
0.58885706607714106 -0.22942306438323923 0.35078095173236523
-0.54915312548474482 -0.38097384392822153 0.65990757004239597
-0.91988299108592386 -0.7474488288392811 -0.50731945034946335
0.56014940074472719 -0.46989000383134805 0.72655244047024325
-0.55707131034742297 -0.35824684045539001 0.66839598625220376
-0.56659658648929323 -0.54337250820805227 -0.41004545320807928
0.68404080114540378 -0.46151364588081623 0.68088774381949158
-0.63672464776487203 -0.33097832349909684 0.67489758435471003
-0.87645822216004987 -0.89353839083602882 -0.47428219779209968
0.62636127742397463 -0.39331047299594957 0.73262011293085738
-0.36476443186725582 -0.63877993498836183 -0.13173621609302444
-0.11031741161913189 0.74573302454943868 0.40446134732133388
-0.47505567296034634 0.42345072551053287 0.49497156616551585
0.29239321080593861 1.1421876595792635 -0.43367318921828701
0.46399463392100593 0.034311105129941705 0.58944671947793381
-0.32575277715648099 -0.073346506906365239 0.79018193542049531
0.12258851080698641 0.48742238830421891 0.68946030570929917
-0.087631260172551961 0.43830976280421219 0.80466689127402979
0.30345801099181635 1.0127656342704374 -0.37144861167782306
-0.16041191791293308 0.50430134345775901 0.75789808111277424
-0.32102709782208017 -0.64615528902077557 -0.12796720627320468
0.53700717172595347 -0.47760240662793541 0.37467673202162466
-0.13808543031965925 -0.28934054269033915 0.7046028076571158
0.69993884124583694 -0.34222566562647683 0.66904138761969989
0.033589841580322854 -0.32451401306244443 0.47871175527532905
-0.37612141240636809 -0.38695046365442387 0.63347020702617662
-0.58112622597110963 -0.93240826781901021 -0.35546572745968241
0.33738041160214394 -0.018243426989647205 -0.35539579638658303
-0.80660410325129028 -0.76500844470893092 -0.413230904334279
0.74802390464552637 -0.37915435085546489 0.65299220147461234
-0.14846870093321485 0.38479506637786609 0.77578350774829374
-0.011283623288401046 0.39002405436959098 -0.67609927468083875
0.1477312368035264 0.36977422355465273 0.70931194308761558
0.12283767662199097 -0.24597431146948925 0.70386444228617862
-0.34379237786240502 -0.81488385667197871 -0.25411367361663828
0.11009105649065809 -0.14601571058161186 0.80463580057765682
-0.52087645183438802 -0.096462669222798336 0.75025016298646818
-0.59613963391067948 -0.33692307161598478 0.66834938359635743
0.38254790101102465 0.71969001087616524 -0.25603056684797743
-0.029304130768943892 -0.35081547436547567 0.52310959649992306
-0.76356136738391633 -0.49733414568190426 -0.088756521321286641
-0.72599271325292847 -0.54538506638665041 -0.21607248042440652
-0.40337446490748796 -0.01322506654661737 0.76483531968411178
-0.065948412599727391 0.26044368849085076 0.75302572670248402
0.29810173922636984 0.83333884151097415 -0.31093783074377157
0.063083909265888138 0.84917457933880425 0.6053653957539975
-0.45161513219628979 -0.43065172185154132 0.64599253886344243
-0.6119125505910894 -0.98703146535359654 -0.36680825232617309
-0.60621183417042168 -0.036599115289801976 0.76162409629455219
0.011378382224402017 0.5084485908174643 0.76616808374964052
0.42066540982460943 -0.5988325907922184 0.53079872132035355
0.25975587439446102 0.0032506629750415073 0.75730560965440574
-0.55623987275037834 -0.24061279060347074 0.70527815652974901
-0.049053280473442484 0.530068279399322 0.74985378199066322
-0.42085389765321324 -0.77703559338016781 -0.36265423257418128
0.016016555822055523 0.52086880387372148 0.74803525928751036
-0.24848804286911985 -0.26706159018972198 0.73800806455978929
0.12468543002194465 0.40346492416189483 0.70244687779785586
-0.5651049783204023 -0.21618793219125143 0.72361622642347889
-0.51492545093414499 -0.60587992584956041 -0.1294971995581875
0.1763363794346251 0.27607438450583455 0.69908841862797999
0.037206910774736812 0.61667326340165507 0.67391710373846259
-0.78724923721218687 -0.58642166261867246 -0.24182196617205243
0.10680265446542769 0.52843229145603909 0.6709879875661553
0.3999656011888284 0.59891668911242224 -0.29500035229361377
-0.12670245411904979 0.74677622574429692 0.60363689104960461
0.30542797624749873 -0.50445853037880173 0.53485777059642992
-0.90536400647636484 -0.11527029762008123 -0.34194846268174572
-0.90895163715186023 -0.98138483002858568 -0.52196816976219118
0.29146464169695818 1.1701904960769673 -0.41281115892621134
0.25739571104368686 -0.014953949223684315 0.79624094852096405
-0.37575157914722368 -0.40284274661876385 0.60721089406293061
0.18782716255481979 -0.11532384664297934 0.80982072018580631
-0.66999671751693235 -1.0029917438967582 -0.38822336233117838
0.83093977736746361 -0.37203889146892466 0.43297463016948079
-0.44943362687387811 -0.34124372705257011 0.67872169493479717
0.48931067909386705 -0.176659209045406 0.73211452099805641
-0.45072645574914461 -0.34799574356411966 0.6810655293981025
-0.39302068947409374 -0.05590666441249148 0.78876221768639354
-0.4538581547620435 -0.36244326146569872 0.68301447803107074
0.29655848565357878 0.20865671368372718 0.4697879758561978
-0.22120403827915602 0.67820694187550501 0.61024696511193532
0.12873072752504733 0.84041909691668337 0.53787973400143141
0.19378055821010776 0.77233606180405334 0.41320558805965923
-0.356978686788894 0.25371630497005149 0.69166301309119937
-0.20852381407977028 -0.47980952632479057 0.54386552866830229
-0.1749866941433833 -0.33101640171503788 0.68611469632060285
-0.52438243108428573 -0.35237637607853722 0.67796760772122866
0.10822335972966712 0.59098375107883372 0.66520298405569811
-0.89437055799629661 -0.8617321954432251 -0.46490900134683244
0.038952940770897726 0.33626519323283288 0.7850594166431657
0.45870566294972903 -0.51723220517504209 0.69057980079577153
0.30719356952347709 0.74848423271982245 -0.28037808845859757
-0.47478244020548743 0.014658941099782385 0.69328102155187921
0.27688900592631605 1.1474288323077144 -0.40871424255519351
0.51020324474995427 1.0345197900802967 -0.41960076572887406
0.11404845401425945 -0.28044051733144493 0.64359450889454628
-0.24607683854062579 0.43630008138550735 0.77092563921895341
-0.6114200683742812 -0.06480435523908934 0.75507760746940278
-0.58664618220901055 -0.14866716840224159 0.73096700613801957
-0.57469826244834366 -0.63877779044772165 -0.29573566438837418
0.56752070927259624 0.8340297747973433 -0.39312478119412742
-0.23367338113057201 -0.20806696492560484 -0.65006623528978835
-0.65829202415249632 -0.53457673247490378 0.46674906905999514
-0.84242984527051945 -0.64411760353297165 -0.30681438142499573
-0.8589872997436192 -0.76246085712605272 -0.44693856731713844
-0.36289107335802484 0.21150230174445195 0.74306868507174784
0.029789238079763081 0.30361067394371455 0.76430509039501082
-0.15374718516350505 -0.3151769021672024 -0.58975673829517383
0.3599351693407975 0.74798089912864185 -0.34947968252243911
0.88363309157390013 -0.24959868088810522 0.63290509801632666
-0.22020247580874575 0.69299360999645709 0.71808549938491417
-0.21105126846753564 -0.36409729420311709 -0.55371354342550205
0.76613276283134013 -0.31450581351116558 0.70899142458780684
-0.38427359814396667 0.57693750277322953 0.65177427570474578
-0.17452325891400911 0.46719036041276829 0.74039813855743297
-0.26083803371876613 0.017547661030850925 0.76695000059794083
0.26798072084917024 0.062812288000005406 0.64979789897808438
-0.59388931928018351 -0.18456161310049479 0.72002261636212062
0.69807987064167598 -0.31214042296809552 0.69216290732873365
0.27796079068086499 -0.032570562568711992 0.77862452762887635
-0.60486863369690091 0.22432621513941253 -0.64209465163745172
-0.35154032882499209 -0.072769996705441375 0.80950073044911619
-0.66967669167002875 -0.56655163828998933 -0.16581344694048106
-0.63125282395984783 -0.61041512595765379 -0.38808393358883997
-0.38098445701734995 -0.75037554186872324 -0.18255816814045644
0.36885184369842072 1.0882216132056399 -0.42714126875681746
0.27837730220515233 0.75632327805206989 -0.26551491056966903
-0.16804032067547148 -0.16406713666086792 0.69190112580947094
-0.2790693471702248 0.48924415608808136 0.78266507264969043
-0.69810338814710526 -0.47805047305335524 0.29852685182962091
-0.059708029845545241 0.57731894659053107 0.71626831608072195
0.5653890882296686 -0.13786061479735046 0.35946318696003132
-0.65845343183783989 -0.30685623046844457 0.69156281308751488
0.42113087672523974 -0.54523579713323156 0.41983878817908327
0.12652893570213308 1.0514026227928879 -0.25372140099594098
0.29818050370246318 0.76106026392919679 -0.29470667648106108
-0.26410794194102749 -0.68314747436229517 -0.18456776500028482
0.49372736407181783 0.99691483490888544 -0.45403795941133485
0.17904632951206345 0.46002142572279903 0.66963313795578561
0.17121262264241288 0.93889552526955988 -0.21536164774527489
-0.60001780711790964 0.18792931845773087 0.7212617219546118
-0.49853509384196215 -0.64893518132298045 -0.31127658027531169
-0.71227128524452965 -0.21627795820331297 0.71625568985995614
-0.036712944114880131 0.24456179490079932 0.76036376547630624
0.2418641006029425 0.01312850229491741 0.77509515865459822
0.28891017559027965 0.81063379715752504 -0.36005290464988349
-0.75906742176894149 0.55721527631851053 -0.11416655628168293
0.14206416483585471 -0.3082953101153818 0.63625130451321077
0.18138948439757741 1.0062006331271398 -0.25797326324318881
0.58399740410579959 -0.69660576184951439 0.58948767375703781
0.0026541026607240781 -0.29276078278290252 0.61807041398730433
-0.37571633642210678 -0.63630637136660084 -0.14277894822247283
0.87217413900302887 -0.23084369292399498 0.63637125400863681
-0.30122350805149445 -0.0086447325706491274 0.77354147302274967
-0.33966014912638975 -0.63941840988008369 -0.049987150594546392
-0.48051920180512653 -0.57066078638351625 0.43793142233487004
0.74920318156990362 -0.32443938645844805 0.66908180277033846
0.39471210487755748 0.87295590291958902 -0.34398830684403237
-0.21622248207679995 0.52602127667676468 0.65778501338215811
-0.3434567981291643 -0.22317082519064058 0.80104146720503699
0.12041310156323703 0.35099320838734516 0.72343846037831749
-0.40166197147945226 0.15776225477108596 0.80303899306805526
-0.85491858145511834 -0.58538175767538814 -0.28903778151255644
-0.14705835769049358 -0.4191756040407002 -0.4516667249601376
-0.38801732689283597 -0.2316332703013706 0.79488956548629019
-0.42533601237265195 -0.089827114855777213 0.81198297691353361
-0.35528495110315639 0.29516078765151388 0.64191563593728951
-0.79639978351864293 -0.95085641820837452 -0.44884046295827318
-0.32407460958661183 0.19269187733929738 0.79799278498737891
-0.53172332820757795 -0.33324039286935703 0.62610357976944364
0.48734857066419934 -0.65479540979569606 0.52514905748498997
-0.60760969291215261 -0.78635722735967573 -0.35775867626511015
0.27482797389432179 -0.16328143246388382 -0.38367097315444454
0.13166827966413486 0.92499064317125468 -0.31996868004757228
0.14967179723984714 0.82089894024736654 0.17545555302519222
0.16831892090552714 0.96156972620342129 -0.22157555617062918
0.29297994171917452 -0.055571030032322166 0.75278430075423675
0.28516596301463437 0.091786851538306014 0.5476876020835828
-0.62659428518024285 -0.17709386943021599 0.72572787261577609
0.83705009821566811 -0.24679392213089135 0.40336312441251021
0.39573690528690797 0.53406683028721336 -0.12989903330437436
0.19103632383288627 0.47592110955717726 0.60027729627901927
0.70576615143338195 -0.17852561222051488 0.38014590746070365
0.040675803298805491 0.82203453350418587 0.34133582860352174
-0.54442680945663291 -0.6007232190921723 -0.19178196416204152
-0.53810726716133495 -0.13261004537904153 0.74849118473469467
-0.68518883861823632 0.14156369819369097 0.78309728789585442
0.81032176124680788 -0.47456600150859551 0.63562977197737336
-0.33106218013454125 -0.079543993890228926 0.80467691262368568
-0.48701647956752936 -0.023293869714555937 0.76762782058001378
-0.81841774327665284 -0.93029811468191159 -0.47221407644942914
-0.31576061129602806 -0.22891111857391744 0.79622733920337652
0.43089360869181625 0.79004795242451653 -0.3015520740027462
-0.68330497174378557 -0.94553361253997892 -0.4449767464768648
-0.051815508500276053 0.23315824830664922 0.76161860756611333
-0.07038568979457871 0.37033216845527039 0.8107302044646012
0.14920328718120857 0.25804924254113898 0.61999697061686909
-0.87484147383016797 -0.8647901601237109 -0.47627732441092618
0.26925078693057358 1.0940865525728847 -0.41150457215388414
0.54967312329050699 -0.061107177523872847 0.38426632914656356
0.67265400002535891 -0.48482781268291486 0.71644382023543507
-0.16430332336500264 0.37925180737371 0.76500000036300619
-0.58293222690966395 -0.59533438646897618 -0.19565961428775758
0.37203136390626312 0.58312782313754896 -0.07043603277667021
0.39564048062910828 -0.2310903457958513 0.18151807911798556
-0.38362296699102139 0.19237850197180606 0.66298465126601691
-0.66413131378563328 0.082252955900237179 0.62292989612166849
-0.042660188134256316 0.35432043873668401 0.8097391025041194
0.3973716394018485 -0.28219660176372552 0.26992683838263787
0.13553230244305681 -0.06541889947683649 0.74891640789629754
0.71898221843219545 -0.48584541051593866 0.70114979344964379
0.69261389948351315 -0.62620234319889589 0.61662157935707285
-0.52807907508289276 -0.77612527060880154 -0.40969836009107041
0.55315482276094308 -0.17692077247387961 0.72451352016352999
-0.61910940905123191 -0.75169950511767603 -0.3505034106620819
0.43568568746910152 0.73919972674096712 -0.24483913321986517
-0.11029743932620306 0.22368496230209656 0.76251279794449189
0.21047751317789576 0.83321200727032041 -0.2021135490343422
0.062498262993999631 -0.14189659350303835 0.75945957522050023
-0.26004845164307255 0.95255100509081903 -0.22336674655780975
0.37040699749135442 0.92037623289487192 -0.35911125011540612
0.39598031222906549 -0.42606926503743558 0.71145070184336845
0.37814640393604115 0.5535055469792356 -0.053804651011994054
-0.50649804015461264 -0.063587113159246922 0.73799284637593665
0.38092493817749684 0.83546034646562006 -0.32575710929810331
0.020544546589903234 -0.076396518155664395 0.7552120191801599
-0.10220906254800433 0.10214208907016187 0.74876076598147456
0.67244509693343701 -0.43279591148721663 0.65807758905617941
-0.20206556233246076 0.41608439871603442 0.7710087974404356
-0.10243692714159636 -0.32616479969096401 0.66288314364997092
0.19358564581630233 -0.20970959534903599 -0.46266475664976348
-0.079556687885141031 0.26546405564080522 0.75409037942474555
-0.17408505608274005 0.72493172699087105 0.64923097818380882
0.46450489883100765 1.0977158725565328 -0.4587430613104182
0.37389465593921045 -0.21905142782757814 0.031611212559470303
-0.48256231494155877 -0.083948698541751909 0.76604572468752075
0.13725148309011814 -0.11214826392933827 0.80880963655642013
-0.79450275344866483 -0.86086550716151944 -0.43108453461324103
-0.37022390190340815 -0.72357645442353835 -0.18257616898984708
0.45981273722114402 0.65674187295935393 -0.29516690853524619
-0.30844327481082701 -0.53024975542393493 0.43438123851473343
-0.16038270216207451 -0.45374330827090015 0.46897404613406124
-0.0029680027896414884 0.22666206454154769 0.75415473760618568
-0.19313918364552407 -0.53278867145157438 0.19810588928501538
-0.69409623025277156 -0.53952019594944112 0.07865994041729607
-0.54882915843212743 -0.2109235664960214 0.71453576271021824
-0.50963133926487103 -0.065040354058286454 0.75658153565327702
-0.045410905448616035 -0.30589528760026985 0.64625463811725226
-0.21121606005745264 0.96531832926781913 -0.2237064126850079
-0.49923008848104011 -0.39899061890840715 0.65967516023861528
-0.7263026619173143 -0.048496162151313804 0.74058480363121859
0.16641458582929936 0.00072538766238153252 0.78523102156045788
-0.41802353004334591 -0.72946395342807335 -0.27960451025311528
-0.78528881082092994 -1.0022256251330459 -0.41503144871737163
0.68947418431492302 -0.32853763233285127 0.69298748861934722
-0.050984558025033877 0.45794832000163505 0.79848231391633195
-0.26146623591010787 -0.34631296086126051 0.6922919171654609
-0.20985080477141871 0.48547666526923661 0.75881180042012986
-0.76426075376720881 -0.53948539152054753 -0.28750620878141042
0.44217729654448767 0.017605834728373793 0.40852309453016389
-0.4613540616571612 -0.60716016572845799 0.16318222356344059
-0.19940227955029144 -0.14468002256601609 0.7568441394553389
0.31644983034492036 -0.087877113921706107 0.73843413715366069
0.44369399627602846 0.77023721797212152 -0.27900275467280444
-0.95157919269294844 -0.73153427337317645 -0.39383645564122105
-0.14762753722731325 0.30984821104794991 0.76179938770886757
-0.44004257819403136 -0.75197358809658432 -0.30486266067237722
0.76817002571455895 -0.40360743508557007 0.69385524319257463
-0.95408005557286479 -0.6470112067742253 -0.38431427790881045
-0.31241533290405421 0.42132052232288597 0.80457445451982146
0.14917028985754754 0.84465741572553643 -0.36159681007429345
-0.52650777224502754 -0.67029867113169761 -0.32154337735948246
-0.66796392386678427 -0.16549340346601227 0.74101996941219994
-0.11763668230031854 0.62393399837884167 0.72807036460926966
-0.86010689679119245 -0.20016427357968958 -0.38949784434206691
0.89057050896203194 -0.35659534762766909 0.47643445950432373
-0.23868725409441893 -0.024104340475255004 0.7634966361862574
-0.15648164054932678 0.53837587200855452 -0.67252085286970598
0.28623449503440845 -0.24265729131619329 0.73746316876207185
0.0058240481246532028 -0.32219815778701943 0.50346711023852997
-0.27551316947204718 0.94884464195505869 -0.092503681653193226
-0.39857609561789253 -0.7583476715669919 -0.19951905463149444
0.1212132593590951 -0.37528162042679902 0.31382745014726865
-0.13959495428774638 0.21555706609345482 0.7642829923958665
0.12094991500363683 -0.33259186059831214 0.50811605893429856
0.42337636994592209 0.73459842762976812 -0.27254980820880359
-0.40507977943976847 -0.27093998490995741 0.76747830418807439
0.23901318438827168 -0.06375930818193265 0.80283341192549429
-0.17989757739126766 0.30363995142310274 0.77448829146725906
-0.10752608269561037 0.27925298526895981 0.75704758271202977
0.44161141313923835 0.90634751354700294 -0.38518857125103168
0.094824896922615309 0.67049649644152676 0.64356616575243564
0.057117929741965057 0.27652729008686139 0.74827967443666576
-0.062410617546854397 0.8344626462769078 0.28382736171540746
0.50597460156582663 0.87439364899233896 -0.34267903391152998
-0.92245949689839968 -0.14601562208715535 0.041768957997794232
-0.24969515664950848 0.71242205824175642 0.38087800748141376
-0.52944334222989298 -0.30835204591177234 0.67525306834790833
0.40312188843479113 1.1697227765221814 -0.4307825034952053
0.5724809682504084 -0.3776352793529143 0.34839662091310686
0.12995896917869132 0.40298580331157513 0.70566438243781526
-0.12021551047384271 0.45241869306571136 0.79478424342292353
0.34401609457569471 -0.30991917004499425 0.73385696235622611
0.54169323392167712 -0.69598344004519586 0.52239562862940137
-0.39361976530023846 -0.85976021396052182 -0.32311547945364616
0.31399640201261647 0.30728194768207218 0.51950807025148205
-0.32059302397605016 0.51105185020516641 0.61678760154842749
-0.03129574000426949 0.51523870516752979 -0.64429865911737849
-0.52465358327139811 -0.87919287949288361 -0.33677890893106088
-0.24219078060333921 -0.20392987043548305 0.74848686907095718
-0.64168414971757493 -0.57659523964837067 -0.099435275461479122
-0.71977293325507752 0.099441922768433333 0.65296269915590699
-0.7193706799054933 0.060941232609379448 0.63433385678327703
0.063421708052128878 0.83220436918090324 0.62451433297875081
-0.28991627871110381 -0.12319499965481073 0.80421590308267987
-0.034403890870352782 0.15951525530976041 0.74685500491723289
-0.54709270451723491 -0.080337504643728685 0.7528216025814185
0.46238265918531596 0.78533559007478093 -0.27307247430237691
0.26587588008244722 0.04313390995430133 -0.50164307873487246
0.09172285576895689 -0.14339486257980116 0.79251889862647218
0.13960189555625213 1.0841919280553323 -0.35062969973792679
0.24855864945450179 -0.047122126895995264 0.8009434966576876
-0.84013269870995622 -0.74163661027588645 -0.43077374091122778
0.025427027454771434 0.37239879205223914 0.7994375988985869
-0.25051300756343942 -0.30310100554791886 0.71888291814545724
0.13403357180000697 -0.27771056267061256 0.67066132654404065
0.048020288969729208 0.35618888627946588 0.79073266258864727
0.02726018389310525 0.67190967946871005 -0.54930208064679142
0.17580783304530279 0.9169950393556392 -0.21126258799600706
-0.33798424977128683 -0.48588081964089191 0.60282240385028452
0.25594135289689568 0.0035930807165650558 0.7841354192537846
0.50654753739251923 0.9612877157287838 -0.43874094686409926
-0.23778611922032944 0.34670808186862057 0.77870144494261062
0.29283716033227059 0.19905679103276303 0.53678135297263996
0.012660179124800663 0.82300772949360745 0.48198850547882177
0.8205775702355691 -0.1426400832020201 0.42881279919966619
0.057700253888022246 -0.35504262054130198 0.41528172710529176
-0.35874119404254934 0.64289111027088186 0.70374310235343707
-0.29701525051183886 -0.72697730432981622 -0.16709900099047736
0.15811007303618752 -0.06283893816561642 0.78846011154821305
-0.9454656305328264 -0.77244975268214411 -0.41417360798792657
-0.54827908486484134 -0.34925044396921257 0.67464830630365924
-0.94512970206805669 -0.8075117753229506 -0.42391585715455271
0.76355344271980563 -0.36409890603982675 0.67085746905189314
0.17849884656320469 -0.024391689481979673 0.80169063505512916
0.049565932503147891 0.65596868477981585 0.66352186521367251
-0.79090687352577049 -0.81791901724251481 -0.41305321114290017
-0.53875428121841651 -0.40365587624758703 0.65140818476583284
-0.72229746221456281 0.55997149854337191 -0.32029144139418797
0.62560163773309263 -0.58337726589809935 0.68279755832149824
0.022323785586644718 0.044835301284937401 0.74527499542433162
-0.35142293023392668 -0.64148633987068759 -0.11712085280434081
0.43244073568812524 -0.13334256568490677 0.18474763354991453
0.41650664119224601 -0.025213708709284965 -0.0484080630678001
-0.44991255697284238 0.042312506798045879 0.77626196846896356
-0.45230774220644321 -0.74232826486354853 -0.31341216068025624
0.17849127673495957 -0.0078307474917114206 0.79706112148905461
0.55684798023229654 0.89185697948348341 -0.34714005034093454
-0.49958215938135631 -0.15128405591843386 0.7722503050777707
0.69098430191555416 -0.60779057326964614 0.46317277767615117
-0.89636491349997272 -0.17843678073591906 -0.33778368472539277
0.42175602382177502 0.70482329121550213 -0.21178445267227719
0.085509987258841846 -0.12958274099758627 0.76705058212417754
-0.39646304280075029 0.14121946082115833 0.80964713365222352
-0.72017485525365998 -0.95185084269816223 -0.45512283072518045
-0.049724765970490026 -0.15268687619096422 0.75940636891332147
0.49909533388828109 1.0322848042567347 -0.4685992677057067
0.50043579105026659 -0.42812813003638861 0.72946937142285684
-0.017572816678582015 0.2534269806185912 0.74571216345226432
-0.93471234158354655 -0.16313782545444333 -0.218049461446995
-0.52795838625038627 -0.11358472784985763 0.74813452038288197
-0.8721843122503099 -0.28956163798810941 -0.31385891331539639
0.59066241108303252 -0.43116474172294378 0.36281850393681125
0.064433220424232829 0.36876670213125551 0.78142121641212547
-0.39447583856525625 0.047186394010100274 0.6804262935105676
-0.34838832681082721 0.60510963898653869 0.64166941157895607
-0.26676921585673519 -0.49658292231965517 0.56339484889997671
-0.5121090374690116 0.016063005671937525 0.76764088495910698
-0.74438854502832541 -1.0431566199219917 -0.4435569152288501
-0.46396508469278608 0.84798893944453813 -0.25497320362298481
0.11824942879297851 0.39860265729434674 0.72301028443021842
-0.0061217925363337145 0.2476777480725546 0.7597835605197627
0.47093256683985629 -0.35291960131106836 0.33509073507961418
-0.44377949975154785 -0.1310613260237421 0.80746663259903251
-0.4801754984860267 -0.63988225332833526 -0.28392356035032584
-0.43746227230441903 0.15478951314562139 0.80537039588809201
0.55162897691058888 -0.66270923376195556 0.43655975310762507
0.049392527160476263 0.5810317209487259 -0.58132481698418204
0.2752283492698151 0.63962001484145836 0.35954370021214999
-0.18095371799071636 0.35057114843017168 0.76896631071353738
-0.22626768889714199 -0.14833119998222055 0.76259037237603344
0.13968362322905925 -0.091744860694751629 0.80094140363864064
-0.97539213823837123 -0.82365384000160002 -0.5298512709214549
-0.84331710006228278 -0.68341028114430991 -0.35462207566101078
0.10070376703247241 -0.24601993071546274 0.68656455654693715
-0.19473417712534236 0.7498661149689223 -0.54206013992548296
0.73333004023522719 -0.50997838216089497 0.68111573510558987
0.76432806591808955 -0.40315602452998167 0.68810467604172398
-0.69195857024233121 0.054580965376435753 0.61921661134035588
-0.54819467025060753 -0.32306987186673686 0.68197213486620356
0.87037888251234108 -0.42886003233993941 0.54620055174405735
0.67523703056271422 -0.28233446247576433 0.36580872032858291
-0.75830145767807089 -0.96176229031456018 -0.46526653366363036
-0.61913273537859403 -0.37278415586854052 0.65852196719652945
-0.59040023460596203 -0.11606505746354046 -0.61381269491463009
0.87139390393902794 -0.14317813134120594 0.56448901030755394
0.20363736335090366 -0.14385530667427604 0.80138675795110892
0.079100414974096367 0.40703841103413796 0.77165170330334831
-0.27496911602315599 0.62564198248156644 0.61123781680771394
0.94383469241391538 -0.24588895551332834 0.55512460888202142
0.39307935986492026 0.78812844903769097 -0.31284847962538809
0.64433731470097477 -0.44616315786806116 0.66452388131789775
0.28523395258330275 0.15524092795480821 0.52325786388621509
0.3655057036146161 -0.27406114841045803 0.1789703243721128
-0.28664496609106394 -0.14193389458866901 0.80807555202155967
-0.70472764630529028 0.31639034663355137 0.37327791507789421
-0.46205146966843458 0.17767864005255296 0.72008584256213481
-0.24504521332366913 -0.64543494814840141 -0.1834084836782548
-0.39475450313809191 -0.38068618503150686 0.68116991124633763
-0.26858642766547902 -0.11692535479937316 0.7793458662843431
0.77416054933189926 -0.4833965388684458 0.66549893014355899
0.76861426942300604 -0.42395874104313047 0.41380987250577217
-0.43426939139477483 -0.36030238444059037 -0.55368893161937471
0.18880969034695738 0.75749565717431755 0.5438590060371693
-0.88741869862046663 -0.33814886594642779 -0.14140320684408181
0.15847570914102782 0.86432698859354629 -0.34968991488832391
0.20205622745759655 1.1710878519267047 -0.33694611410069886
0.71033278855635906 -0.30699302428693587 0.67825032734699509
-0.19555670416491822 0.52278710527607952 0.75270017767835284
0.7056776777052356 -0.29733541195714674 0.7027185568459986
