# XYZ point cloud file
-0.57727404644784053 -0.64100003726110066 -0.28987478354361018
-0.5989556483762859 -0.57746763576811322 -0.1543121569463386
0.33804136377238558 -0.34429264891210098 0.31109323956713331
-0.65227886144971881 -0.29715304630277389 0.67581230804753423
-0.28464700850263513 0.28736103658886136 0.80946006509865187
0.34769569557020352 1.1434626326182444 -0.43654670921433048
0.099801851608211756 0.55457601581484339 0.6558901890114246
-0.38353032290063105 -0.25293007138829393 0.75748561275116266
-0.26130914382045134 0.018540269922216246 0.76962471016567724
-0.27902664401361443 0.25657244908118204 0.80625804444009042
-0.63607872337403371 -0.44111089020225053 0.59541642605949985
-0.34507580291197737 0.021870363046611579 0.74141991796411544
-0.5368453139809517 0.03308321412503723 0.76319302993307314
-0.51307214913015819 0.0048191966408017151 0.75762953660593046
-0.38343105242439113 -0.23085717072188652 0.78366466805882684
-0.47822214396091334 0.85135859761553112 -0.28243009119398499
0.047976823097374499 0.099520781095626842 0.74735507179480631
0.16164763394476855 -0.31874860917490877 0.64461796936385785
-0.72218595156975707 -0.73766490065121304 -0.3709339599852326
-0.072628103663836541 0.40873610695738083 0.80087809542733224
-0.34296303332842992 0.31265695265668336 0.62608632569913647
0.25063216531189125 1.1814675938071262 -0.35380828565186961
0.72450277415911124 -0.42456098598214376 0.66935593941919125
0.54319937514347627 -0.083008418284688745 0.67947800234609712
-0.076854342268538822 0.30509802633129979 0.77063288919028583
-0.085273657509141731 0.065383173993262655 -0.7103317602145176
0.63020543808729412 -0.55854092391059396 0.43361648681984866
0.51413943000095408 -0.12098629631213564 0.35057398015730534
-0.19293083338156247 -0.26766979507241362 0.65724516582977843
0.45231156795175353 0.87459097533020913 -0.37977509151323963
0.83214771866824933 -0.24217077271174481 0.64207027747595546
-0.40908689303198331 0.052707925325143415 0.77612266224363147
0.23448061495973338 0.61541901166786284 -0.40391724401875839
0.40193557171500149 0.55317433002310867 -0.24427684192791244
-0.076599905947692726 0.23282380685298826 0.75936530022947446
0.7940929414740876 -0.20982926157161275 0.38759704246028237
-0.75789029839806155 -0.40563598361976605 -0.33009390079610945
0.28290101639397447 0.47568969088958357 -0.35687941416356228
0.88885120203850798 -0.32575181915244422 0.60072230552620454
-0.18604747169315683 0.37853966213547552 0.77155427975943169
-0.48657944620122895 -0.65398886654635846 -0.2623741499242449
-0.41406534842905329 0.022162746148033929 0.73728830584615945
0.14530464367846285 0.31129553004831734 0.67133273803128724
0.4551092168694022 1.191268053612407 -0.49618557208052549
-0.76084961886199109 -0.60461771212909499 -0.4133825410689953
-0.24951983742318173 -0.34307833478510252 0.61613326783699884
0.33237333561094218 -0.092458165972978956 0.72721450117474307
0.15096606454182693 -0.028555303697585077 0.77698239614479991
-0.57570144723197303 -0.89918486001728737 -0.36735084046434485
0.32491230751600941 1.0151204340857063 -0.36909237946844198
0.74990445705770625 -0.49012312306167161 0.6683350364574383
0.16755269375935145 0.45354643275478856 0.63874929914620981
0.83660973326700505 -0.46312100273502532 0.52530962704048889
-0.045445032843894673 0.74982871504010162 0.65914506361951641
0.3775048936840566 -0.41431666039351117 0.37862304086615861
0.075801344354222255 -0.29839321435169119 0.51217348061936363
0.17936617130365429 -0.18018666541716133 0.76676223630885332
0.22274603632196666 -0.36773030117658795 0.29792826048871213
0.079083744110513443 0.58401427117920279 0.65878002567050409
0.045061589578640149 0.92894022259343045 0.015124090568343629
0.29935734165477657 0.56225670906009562 0.48607995859124298
-0.3277441309725857 -0.064564393715484752 0.81401034453585108
-0.15567687155910104 -0.14444998439604068 0.67662185526853591
-0.22405540640299648 -0.46683816989622673 0.43383195906814187
-0.44983764735159859 -0.77903064809975198 -0.23853484349822551
-0.1254510076934805 0.6727806653757944 0.73230541117621106
-0.17074484780161914 0.42788066364247224 0.76374795081925129
-0.73142801275413172 -0.18763443251048328 0.58306841361394968
0.54117656316579499 0.87277728135688371 -0.43892074035333728
0.22626051994354546 -0.0016323506975981505 0.7918547238074396
0.25550468091687062 -0.33812191362641775 0.70023742458493965
0.095803751357711686 -0.14018302484039447 0.7919922046635679
0.23510777738723831 0.90370785115860719 -0.36185561694630142
-0.056872652622454556 0.1340078804351984 0.74397405779316816
0.50375438867364153 -0.30990400380565675 0.73330913256220143
0.27253759337103123 0.96177962430852593 -0.33180826884181513
0.42092626613643125 -0.53872100518466182 0.65426425444768421
0.049440522166483536 0.65018108882531778 0.65385616163885807
0.24996491690982214 0.75038139799425185 -0.010279034233397155
0.23122251201346655 1.1890111232596681 -0.4143858272682488
0.16154686186597411 -0.35859423123371825 0.37881621090687689
0.083054382311174901 -0.11591988964192024 0.78100405133528605
0.32569462289399453 0.63698502439646065 -0.0072025647518270119
-0.22149750953734859 -0.30187015271666295 0.64909300189850327
0.0080914852798823489 0.33259743667824049 0.79592016796791221
-0.5210235454978096 -0.11856829933364549 0.73639519418866595
0.48182130115775568 -0.25425575020748026 0.32764190536071158
0.4889688445775473 -0.63842061516197246 0.50954146263446898
-0.45983181013152663 -0.17094046860456749 0.78636573649565467
-0.5428457041365129 0.51929486681026704 -0.59874031096375369
-0.9583273451049743 -0.85594245444171246 -0.45847489407895203
-0.53750524995413884 0.0035994417679732771 0.6584679150414896
0.041585668401688203 -0.27990478203622748 0.5293999185079814
0.49843277699327171 -0.047390225490027249 0.37836852046692515
-0.589835796545775 0.060943037688422297 0.78009554264901881
0.35902105192284273 0.94431137797283782 -0.36056873729832306
-0.95632316752060254 -0.64709421337002548 -0.40993182808180872
0.66181963569185953 -0.44353984436366933 0.67488139281306703
0.37522912483824555 0.71273721346948482 -0.26316292916208139
-0.21257171685771548 -0.31249194698305038 0.62504546756803991
-0.40748144998340718 0.21532730763465835 0.61884154031883121
0.27315951975792885 0.75420821902845026 -0.2671049775684442
0.30978722330366182 -0.14890663045153374 0.73395830129946082
0.38468420523514535 0.87734069836067463 -0.34386405609364479
0.37454359399413528 0.65971800527926283 -0.19735277346796609
0.40817303346799338 0.71171327240600213 -0.25327069675000669
0.75441627364857133 -0.37928246781811858 0.66275733889424959
0.16338656535664464 1.029347699566233 -0.34863214999598968
0.070659662493510744 0.89296528841369516 0.097484030426254975
0.46804676667389122 -0.51725614734234937 0.40802018081703251
-0.087797275420304466 0.99858746571833024 -0.21262492302213021
0.74611894354262098 -0.29216842408984989 0.69993200613909146
-0.74497099132930455 -0.28480284951526624 0.55313559264977163
-0.60592982187694333 -0.15375359984050896 0.62215789011068567
-0.64757428277382023 -0.2268247181821062 0.70183522003478505
0.19802266794631507 0.028516633667974634 0.73810150449639345
-0.50080664565362754 -0.50097871693077378 0.5598638393972144
0.30128263602689564 0.073785458557041883 0.53675194676382221
-0.32134323076073645 0.21418726442661709 0.78405408774055552
-0.37470360239990463 0.20372330250327081 0.74454385785742305
0.76741583510743228 -0.37993455470559478 0.68673573111259634
0.1186500923255589 -0.3142005046730863 0.57975939842717006
0.84125166158590847 -0.45997876066700494 0.55107318657803361
0.47738853355625421 0.8120969149175481 -0.29923316192307103
-0.39934855007154924 -0.46746966531053991 0.60463111797513491
0.35606214881255838 -0.0086516037569719373 0.68992904345929462
-0.78709711580281017 -0.9327955806969157 -0.46947294032680098
0.63651625322305261 -0.093642689238344512 0.39889363946682366
0.34583147555003846 0.62930227699062546 -0.15575569690514124
-0.71266167897943644 -0.2226315560935912 0.38414509431231858
-0.093450714676184266 -0.2679883872617812 -0.60710880901221742
-0.71770620365575666 -0.51526173218670213 -0.31175352466526363
-0.17647410015222098 0.76056410359761062 0.34329879601746516
0.27472637021988877 1.082188813562909 -0.39301824932180751
-0.61947017952222239 -0.0092565972081939396 0.55481940058373658
-0.6220868095681702 -0.96406974348901464 -0.34318396066009216
0.35311302534332834 1.1404857054236881 -0.44603051862916998
-0.66226955420595024 -0.074562756985210199 0.53315972418964108
0.45285553689027669 1.1419117262296947 -0.42011211143235094
-0.12062530372992875 -0.013336833910990831 0.74767956099012745
-0.58032078885433735 -0.18599763623874566 0.71074659399141371
-0.15454903935859532 0.33490959539135168 0.76527188801630563
0.081837106544872196 0.82660699367158086 0.57146953147127988
0.42605130604313057 -0.10844863303876051 0.23805240346324785
0.52790761649432083 -0.46888980031429961 0.72118181084782407
-0.37284449989774049 0.59605297566595095 0.69042922776577376
0.61534039316878486 -0.37389573513094509 0.73062485722080606
0.10533987184708415 -0.1077448499168201 0.79765995282115876
0.24158457044209136 0.016839182257408658 0.733039416067919
-0.42161637739676028 -0.049886120179056415 0.80404010808429449
-0.47988461884045774 -0.54489948246820941 -0.41526890291740459
-0.61796206529088904 -0.65176332821204452 -0.30324805239997321
-0.19339624301084424 0.46540310453199607 0.75846721142031504
0.12416438396538698 -0.15412002486832888 0.80160062620812278
-0.21356877921618622 -0.35784415505554379 0.66559110143808686
-0.32734490507053926 0.91430889456537745 -0.34223180603589309
0.44684540564693398 0.80795964116591834 -0.32622695704935722
-0.62255481338073682 -0.85536100580826235 -0.44965922126572488
0.34708077133747883 0.28904642265997826 -0.1761183037471592
0.7139995237351382 -0.48426615165697107 0.69482546275437818
0.17150151142127479 1.1150030290700448 -0.2922950737634018
0.12722083226262093 0.72833322558007718 -0.44549201695756402
0.19583919059634836 0.037044573371990186 0.73933077439691353
-0.12554745560897018 0.58610980155234071 0.73544697449784424
0.2473879570805857 1.2142742458662559 -0.3848552146848081
0.47799174737650407 -0.61773483680711128 0.47526947265725772
0.2178189651866882 0.2526084023114108 0.66508578193476575
-0.48043389559315575 0.13538616017754826 0.80778268742653969
-0.5131387296177039 -0.345327492590636 -0.53933262411716765
0.387781024835824 0.66335666752148814 -0.19108390131709285
-0.27673247614127172 -0.1379821094418788 0.80246943443201246
0.26233818973301837 0.76498662408535023 -0.24132999756349482
0.1729235117869421 -0.035442217631208917 0.79557711946006737
0.056414106512327145 0.40689067661791578 0.77555797654431924
0.63601582999926132 -0.43589566203811825 0.71480250935184086
-0.38723467705233139 0.052304588090265558 0.7768377944283813
-0.002119810317009474 0.95982792060709476 -0.26808517421308986
0.33610585784181346 -0.36909215272652884 0.33989677560048337
0.23706462855873722 0.91970115782815709 -0.28672962158028747
-0.36232060515994879 0.36940398627346199 0.6990846717003727
0.077007716478781241 0.35485143112083106 0.75894022855258036
0.15384126052110147 0.44876262433398872 0.66143168118210394
-0.67305161153112203 -0.95657546101695456 -0.37635564118910425
-0.41170610942370689 0.27138333035940126 0.59997251757058301
-0.73617684804562833 -0.18400181458156628 0.61177505434199908
0.30353056145082302 0.40485175676601071 0.54210380133705938
0.29342338630241205 0.2498411256989454 0.50111486461072419
-0.71991167464958039 -0.42026164725940185 0.44352981155398652
0.16432801702885502 -0.066138345322137027 0.79700965093714649
0.22051305280287625 0.97725450450065177 -0.28415224513904747
0.27572213214556562 0.10497477131848298 0.5079462635838814
0.12613205183162446 0.80869433744029073 0.26203341528868496
-0.17708588175750872 0.42891744686519317 0.76538165306115369
0.39256930919218869 0.67929088517733471 -0.21168410858587761
0.14543932475116161 -0.063571138234954971 0.75418569693542814
0.88984607769982738 -0.26656191311920707 0.42141305789729699
-0.90081792229089097 -0.7591339626838618 -0.44318891233533897
-0.5305822949885366 -0.20743028775473443 0.70424857339208424
0.23370503829055345 1.0732419469196028 -0.42223457603915104
-0.24292355677890787 -0.61417036373357403 -0.20349717266995127
-0.93607096487207087 -0.61642015676001605 -0.42819758093932236
0.037059863342433719 0.60027032021420035 0.66851417043465222
-0.030261778362272729 0.87278576537688124 0.22721534268214549
-0.63163206721087883 -0.58649598832834782 -0.21084826517173294
0.51139817402272492 -0.1268717449050194 0.70684842024240524
-0.22282135407727122 -0.36710870122761996 -0.55940657707773456
-0.30231307212048808 -0.18691529031038259 0.80264088185698101
0.39262782128966212 0.77907027314996002 -0.30232647904505505
-0.2248528717583409 0.55002888041316222 0.7764905402058857
-0.64185292607207822 -0.74827361729412889 -0.34373592549865339
0.25531757893319051 -0.092862621263241407 0.78002153902989013
-0.31022969484460461 0.62849389462367355 0.65218036845171534
0.48618350472881211 0.8523556331675497 -0.34669429982535283
-0.72274676735445387 -0.34327606540410982 0.3935017361336639
-0.083145896750726589 0.43575933504830378 0.79513907004514417
0.64659342314041179 -0.65943797945333638 0.52932085807370344
-0.44318265487705943 0.18874071088431843 0.69167400920991273
0.56495218064806885 -0.3488018655304802 0.73273945988868183
0.64167034768201114 -0.24301766682704518 0.71460600358658155
-0.26635832288460914 -0.23255331975756466 0.73996673533092716
-0.76125894433871144 -0.36037844157653376 0.55733054354467182
0.1398999022679126 0.46663887585336478 0.67600646848206214
0.028168873842439268 0.4974161705951412 0.75051286515124938
0.14510225799879972 0.38954560376244751 0.69773945700042095
-0.20241268152416447 0.32285853238542839 0.70372992088773278
-0.12265581435519834 0.71834680448273103 0.42603157588736185
0.13668666805727314 0.58074015125919443 0.55484780707779846
-0.40392203154395467 0.49409109155352127 0.70322778598601721
-0.37502866203341423 -0.62703859471449719 0.045375213000582892
0.13802101878566209 -0.08747330469156489 0.79989013635518535
-0.94441544089307383 -0.73242763541410705 -0.42788305407465321
0.64797493455462885 -0.43956412615031693 0.66494495887675198
0.48478598191510169 0.65208414474658793 -0.27541743620318027
0.31273770393571176 1.2022880321803218 -0.39022700105830954
0.39418994114554673 -0.24726930519901477 0.26405610118397416
0.37556006977240131 1.0178532443367196 -0.39171440582735428
-0.55852704380098528 0.40422575740859823 0.43953224209440434
0.54573041111850618 -0.25017712007826376 0.72526734405938642
-0.49687872532265098 -0.53252970658847709 0.50460756624543635
0.35374240663103462 -0.19404629665658202 0.73468234065023408
-0.2874677481706287 0.79959689365423325 -0.49674726858781426
-0.28203683629228493 -0.25300522587211066 0.733731146165717
-0.64914161393648895 -0.92480490385665726 -0.41646846852492203
0.91165084785214479 -0.2036040742949079 0.47229540583236806
0.35229167926193483 1.2236808776099404 -0.41464398683427683
0.52490231427220246 1.0105343435992464 -0.49423535228571258
0.63694876790919608 -0.65552102858043282 0.50236095107363576
-0.15037517993544025 0.33797695740494837 0.76041818056533961
-0.65421129813269263 -0.58364100556667164 -0.21528433366192434
-0.93088625700227268 -0.65959362236295727 -0.38791997669094958
0.43070362307967835 1.1937011656086951 -0.51375048517494637
0.46735327872100907 -0.39810774162043006 0.36580649896370465
-0.61663945729739522 0.1304183094561493 0.797307055206955
-0.148253936310764 0.5034587668503433 0.7504042985608641
-0.068324690066743354 0.27131657623579147 0.74389305735503708
0.40731029257179419 0.916519963957106 -0.37605239912804311
0.25510561805984899 0.81964770927771524 -0.26780911048953637
-0.57694104319686312 -0.62984252940007934 -0.26681887447293207
0.28939633376646867 -0.032547530760707488 0.73541116043914911
-0.50327507643870306 -0.66262222520245984 -0.29140817167611033
0.61842451663163045 -0.39448469599571778 0.70871190461391853
-0.45680781201600817 -0.068803523040660536 0.79164244713558007
-0.41681588946949399 -0.31825875093455647 0.68490889592857584
-0.68275663589610125 -0.94584775582990499 -0.43366045635381267
-0.33032806897098954 0.28789841789040305 0.77136655281734257
0.59289013176421079 -0.4089447202213099 0.73267788353081187
0.73892394474798717 -0.57505509092282692 0.58786572349938293
0.30256135920918759 0.50722138190906696 -0.33599373604073079
-0.27644617264455196 0.22545733913933774 0.80371391670657477
-0.54830797025258682 0.12861640167162014 0.80302607329361653
-0.30132462964521967 -0.21702208802983677 0.77352432843749597
0.81390200340013097 -0.18957439892478467 0.39715310729763065
-0.57791390613378812 -0.26655785640864432 0.6846463049305207
0.26888537253484479 1.0587306761697755 -0.38124740246363409
0.60406881229314457 -0.64707086968971805 0.63397944039526877
0.26521870354704857 0.79811483982425413 -0.27785952412110504
0.17502439695523986 -0.17341252933470108 0.78190372628163907
0.66526917822450882 -0.50141749137856628 0.7064562283498721
0.058137580019879564 0.31052737476908915 0.75110372384383517
0.11964702043322717 -0.16074365415538328 0.79632189292940225
0.86738656917777401 -0.17800708213820682 0.44154915402457373
0.02926427762187922 -0.26841704821626833 0.59572430845730961
0.7189581171272903 -0.40643625803465055 0.39493227828900856
-0.33508348279452083 0.46686855667848437 0.81624693933067904
0.16495567762719032 0.75921854007217449 0.54949212981258322
0.33460253367210724 0.88695570894397502 -0.32889806846928282
-0.28163417582718164 -0.02911051346203064 0.76185611463607739
0.34907540369806833 0.50116011346709055 -0.26636946876569301
-0.39390180377578599 -0.48747050254771918 0.58155494391410967
-0.39634615907707693 -0.77549698788517296 -0.14683869704286323
-0.3566295932930923 0.23049951916843658 0.64314963399278868
0.4610176138384694 0.78701379156131679 -0.28036389519801252
-0.18785783556448088 0.69095189479077057 0.65994899636348059
0.10047277788222386 -0.15857119020102795 0.77140508649643857
-0.31553134825002838 0.14544422560091397 0.80138826233231253
-0.3697461581917314 -0.19727258648754559 0.80041164584047486
-0.18918676896758724 -0.15568371008996246 0.75017067399212856
0.026028053623923686 -0.41526966420454281 -0.38431643322339726
-0.058847645308385488 0.98813117536562589 -0.096801664134114951
-0.75107864389363277 -0.61848325588585928 -0.28105241559558802
0.77370126381865312 -0.26008518275539338 0.68011461088636871
0.86284918918642539 -0.3759269877750584 0.61411558245352404
-0.64586169010384031 -0.53964754074545596 -0.37100422655049003
-0.73938563302409221 -0.8223185853878956 -0.49067816050511048
-0.54464005071641752 0.78713617964326454 -0.30324828937274839
0.17490568908938142 0.78763488511293955 0.47687480277636629
-0.33647133223424586 0.40935514014506424 0.64735599852415904
0.49437154181581588 0.88812136621997828 -0.37487245729244245
-0.49297260032254941 -0.53618335515122806 0.41970236518351589
-0.053794938388074698 0.47414205923815178 0.78178753688824054
-0.78963099204612264 -0.98925179462806856 -0.41918216149135645
-0.44608854707062928 -0.37893425589078022 0.66360522151621426
-0.29354386751140593 0.31979032804455942 0.81266767542454721
-0.20374013094885113 -0.10983969509901886 0.73913670868955572
0.21008165015601055 0.7508369283466535 0.24825996264611128
0.78373836148639553 -0.29810654675242021 0.68621715434502484
0.2022516862670205 1.1291875837725411 -0.30448001035976668
-0.061786200908316324 0.6464547266933327 0.71414192610649341
0.84595450188385168 -0.40431527581060689 0.62134970210924312
0.7252653110316678 -0.30533934552993514 0.65329431305449237
0.11425485679689995 0.82591630733486709 0.21681820446470734
0.080886209700277156 -0.44586489373123883 -0.11619073906169142
-0.30395238074176234 -0.73106854001545074 -0.15201976004194462
-0.24471293827398366 0.33591355372736126 0.79083796378627191
-0.17364579232617627 0.4762371416363928 0.75551357573217715
-0.18650139987696734 0.9913524447452815 -0.10361833068173887
-0.60261985604177881 -0.34884994458827218 0.65339312039727915
-0.66713240564447629 -0.22748855616201047 0.70569454375524865
0.080972632105395626 0.47223011260318049 0.72652103713920635
-0.80455882655750632 -0.71610468306511033 -0.41713735765111126
-0.43887023212789122 -0.22165463196633639 0.77270076463010717
-0.19758567658231341 0.36458609187163743 0.71944123665119308
-0.72457819299244663 -0.97621805696331543 -0.3906611942727074
-0.014780749693969142 0.44264444195618802 0.78768696541506333
0.79681088083161766 -0.13074401609569297 0.44469416946827289
-0.4840107032352674 -0.33288550250213778 0.68328201297807745
0.633177836857167 -0.030922526241100146 0.57021193963941563
-0.71916251325670566 -0.28200730816540631 0.45088214241300717
0.21139982733533991 -0.06365700688162268 0.7990499025227038
0.076774450872766131 0.37696854298377841 0.77056212593579687
-0.087422502490479115 -0.50429192184445515 -0.17675397297378215
-0.37327022603497761 -0.637039576795837 -0.045352436420934783
-0.37208371824160302 0.013285363269065154 0.77064350093812406
-0.72857510327938346 -0.27700118961116693 0.65837383639046809
0.82818044758678422 -0.4245159236705226 0.46295839811556627
0.33568781459126074 0.40621874875053088 -0.23111969280792533
-0.69063632427752331 -0.69139856764963614 -0.34297343271739456
-0.22515115805322816 0.44528506931976286 0.67231093006411635
-0.60548885628973714 -0.1860740974278754 0.70465199197102502
0.53121507280494029 0.0097045376741055067 0.57622312956951527
0.19566125335640061 0.66370774087587003 0.57136660030280773
0.31529195044017655 1.0921930872988075 -0.41470868881359535
0.42682496517524715 0.042114487230740461 0.47923842332375211
0.60517323880564167 -0.41889112805520634 0.73013268165845302
0.5156407075932492 -0.20869406845856397 0.72362773789814216
-0.72332699241645781 -0.50038242189451276 -0.1526266776488403
-0.62093957903908192 -0.63546615256863137 -0.28221980195341123
-0.11574977678276666 -0.41617689249214984 0.40998635487098989
-0.87693003523695556 -0.064740915729477155 0.109488243661787
-0.52385021292661005 -0.0093523759170660581 0.75399193031784995
0.10469428995554653 0.5334290979762869 0.65644272258541836
0.62824903587580039 -0.60551827084715226 0.45530678682175063
-0.064711315751055043 0.86611128016787697 0.23299372034965771
-0.90064960582285036 -0.68031278879778689 -0.3890971960352676
0.28179278966245125 0.65865076057995919 -0.35860189448632562
0.280035553633176 0.13419985506548993 0.48360846999454532
-0.50857848615756351 -0.27252947705563407 0.67876005899162006
-0.43389765135479719 -0.35348739886908898 0.6814934970735762
0.38098905423260243 0.70369458886582892 -0.26200240186841883
0.44382138946636385 -0.013939970488646286 0.37139474118914251
0.29161294675019889 1.1032790245549144 -0.41123452087400247
0.082449660173987471 -0.14757611498204892 0.75312126893323184
0.29139787520748461 -0.13906256186272414 0.73644075738896397
0.77020265119832221 -0.35344135733681692 0.68817764966449557
-0.10659749743954805 -0.037368411740863583 0.75104365788954919
-0.30633888151105371 0.49329872475772679 0.5437098608190305
-0.87087479707123649 -0.85820283145125176 -0.46326295783666094
-0.30595185719866524 -0.41257832836666619 0.64423636096445946
-0.66367294624878559 -0.84390636831734245 -0.3870710596482323
0.046902262288128771 0.63706920442415171 0.65864022549992152
0.1795934169679021 -0.33684552006548407 0.64638437032230733
-0.26701159205681879 -0.13961440482353235 0.7879682897943816
0.66541940292008306 -0.62066561833222345 0.62987548687329786
-0.74368641127663704 -0.39066065865640875 -0.37565956590859972
-0.29682433190941859 0.25546494903844275 0.80026578384265967
-0.4538031817533712 -0.79448697737165674 -0.21340362337304031
0.25272944351414495 -0.2689549914747329 0.72569628124746766
-0.81836125475790245 -0.74055579188494036 -0.43239012778720021
0.19148423933252312 0.13886374983138472 -0.55998482820535189
0.68788062458270005 -0.51058502399150485 0.42797684949162651
0.092333220069881428 0.58097522816925773 0.60695110760416249
0.61402381912297255 -0.41779494387796201 0.70960981919203592
-0.16617508527150449 0.32699426526917963 0.77180539375574897
-0.45747694059665123 -0.21327003528185395 0.76676715772131088
0.08178377094494893 0.37525491520888343 0.76562920596092932
-0.38157323756332517 -0.32076839219139081 0.68981714951720052
-0.74337343454857718 -0.39239499599378969 0.48803320040708575
0.17363507644434284 0.77809128036605901 0.27452834710680962
-0.099562891261744779 -0.40794136200634967 -0.49018635802872623
-0.1785420076942108 0.51710739229289659 0.6760810700105484
0.38509757448448978 -0.24418238162871941 0.23679892829819371
-0.78856440038465991 -0.43229541250140935 -0.014989803572345917
-0.31746235751117213 0.05040157573237139 0.77522125689968746
0.44943883437772092 -0.53992713514493362 0.42216888102500993
0.031514198092597034 0.94761381564809044 -0.18132576324094574
0.26751333586691972 0.43813169517378747 -0.37967997436250123
0.34828792984623691 1.0951057268782072 -0.42393785589407473
0.71628240807580434 -0.30355939488882755 0.65547733143964226
0.67201421134112715 -0.57727176121408275 0.66587470628047329
0.3683633314239172 0.52420760892383811 -0.092672872809810958
0.19434727262322449 -0.17159897525093837 0.77147302088789971
0.33030214976770056 0.21561526282347848 0.29853691236121227
-0.28541169215446716 0.87964129921541856 -0.41333426429795939
0.052865136985830841 0.38763465922877294 0.78073894131851684
-0.64484126353284688 0.70965507577430764 -0.1268860862961918
0.1054738721975732 0.55946615614615225 0.65675092159917003
-0.54130482966430216 -0.24659154440057846 0.68409861669833605
-0.71160105352118874 0.40530795533124531 0.29287641448504687
0.060792870911431152 0.62304087691883103 0.65910948413897463
0.29052901409725118 0.1038517598093214 0.48414186669490222
0.22130865961134294 0.02118075431716282 0.74030141826471629
0.40246298100270073 1.1282490088066519 -0.45801536243938523
-0.81110868924987023 -0.64453068877129205 -0.33688847385119614
0.43700264247353626 -0.17166403090236268 0.28030700144919729
0.82667876017529585 -0.19810622698234603 0.62695039824079624
0.571637023202336 -0.23630965312199559 0.35346023267075299
-0.54997822947305508 -0.34336716827329578 0.66289695530975612
-0.90193663887586961 -0.72326000182648764 -0.52051424217814812
0.55476049261041194 -0.44587134068723233 0.72784491759488246
-0.55649454262793441 -0.3209155280358989 0.67064025276419414
-0.56599592075699068 -0.54669017397839781 -0.39493872121727014
0.67881384682531021 -0.44367820662605961 0.68065326143824789
-0.63211427438909107 -0.29104272564879941 0.67305622028696099
-0.86370688821537644 -0.86785554811995436 -0.481911388816191
0.62130940222619735 -0.37540007680887255 0.72790400053938686
-0.37855392452984726 -0.63905478492538315 -0.10277262826558564
-0.087115610684070699 0.74632469396870804 0.40047420461766992
-0.44380971202585129 0.44884225476652184 0.49343700603156693
0.30634361467412274 1.1235303721959209 -0.42031314366557204
0.45198900407924825 0.032854137458673716 0.57911684715025924
-0.31758914875895394 -0.05234018976628288 0.79145408162408559
0.12851875459932671 0.47225745852660317 0.67848501011388329
-0.069072635840564445 0.42759901224339114 0.79739079638163668
0.30719294587309909 0.99948811892396394 -0.35907521671815079
-0.13651965737016791 0.49580716619068382 0.75285843728235591
-0.33659336853984101 -0.64854095845911641 -0.096843638147408484
0.52124706788890096 -0.47442415793102588 0.39067796309699343
-0.14362814979018967 -0.26517396389605086 0.71193084550529528
0.69268080332934101 -0.33202549709693741 0.66207869947135345
0.021275591133843808 -0.30952703379380053 0.49466462123155619
-0.38197412485739957 -0.3556182714320722 0.64302314424425644
-0.58979856502595318 -0.92481613161835896 -0.33394727721068618
0.31523217340005916 -0.063884305359202531 -0.33847304110112386
-0.79750940711810725 -0.74649439320102062 -0.41476762893509189
0.74116022229453371 -0.3693845536839776 0.64710033080728779
-0.12963601095663613 0.38117870745426707 0.77135830069786371
-0.011973088608192128 0.36891335183736262 -0.65353551728582415
0.15039427441778619 0.35971259107422648 0.69854367025510422
0.1157193872310569 -0.22782093922983315 0.70686460965224107
-0.36192936758436156 -0.82107994655851879 -0.21918385634430226
0.10731158368384142 -0.13086973622847753 0.80060947691998807
-0.50797387851425979 -0.067774816958336481 0.74989651392253087
-0.59323353987789273 -0.29869829270385484 0.66874196470468705
0.36839021399133998 0.70526543246811824 -0.24779337352341635
-0.040923917843639579 -0.33215513162343041 0.53865170901154569
-0.75669760064452718 -0.46930000551260309 -0.087791331548921381
-0.72054289172316777 -0.52593646637276192 -0.21161539900540527
-0.39050858252542175 0.0083941356558027147 0.76595465887635727
-0.055826496066946341 0.26099517683790485 0.74889643700185493
0.29313912503745598 0.82459706713501735 -0.29989502504729026
0.083370134161984577 0.8155992593427861 0.59360409294475058
-0.45760372867254939 -0.39503894972830084 0.65348160368121233
-0.62028148733741451 -0.97526250537014381 -0.34638664456664348
-0.58692030458425681 -0.005949491237469795 0.75775808396657451
0.025956780407874191 0.49152417970126894 0.75626350841445911
0.40694228457870407 -0.57602540102300037 0.55051733497363209
0.255498798347078 0.0079802746078018183 0.74774097399633455
-0.54965999023484402 -0.2064496688698515 0.70578534702660978
-0.030767341397310854 0.5154224999946948 0.74199469014296326
-0.43270464377246221 -0.7866838700186316 -0.33406510901197928
0.030231530775891802 0.50410627957051124 0.73836222781651673
-0.25085666643610072 -0.24087832881150237 0.74360077397758984
0.12889568699704101 0.39258719189581992 0.69220510766920151
-0.55686815754859542 -0.18222852016472613 0.72310074983233585
-0.52192726836393999 -0.59714833561262504 -0.10930477093709623
0.17595195503274708 0.27057333491243907 0.68927202486729255
0.051428328467707729 0.59757825909019302 0.6643820320795375
-0.77917397134869604 -0.56319360168769061 -0.24220370218517084
0.11415074432159455 0.51240991535422709 0.66054615246567572
0.38213481179935549 0.57951053994813084 -0.28622982846371858
-0.097709430777980888 0.73320314551333599 0.59721649792663589
0.29102953294788714 -0.48443818749489242 0.55136343846927582
-0.88032299195136821 -0.076942756812751423 -0.35700183877868197
-0.89408444268813203 -0.95127460310475653 -0.53240291833448428
0.30728066060670134 1.14957983674599 -0.4006719815319626
0.25408215448192895 -0.0094254484888657286 0.78535561182600988
-0.38248625756289245 -0.37176683757189977 0.61790710487827516
0.18477917854801174 -0.10305620044627584 0.8027877513156314
-0.67484775554200294 -0.98693727424196886 -0.37278422952203005
0.81741898631025434 -0.3789847857193438 0.43026744095829939
-0.45108626661213602 -0.30811968942719875 0.68430280372388808
0.4818401841572082 -0.16758339426594504 0.72169195676233855
-0.45264479606716312 -0.31453303227434315 0.68658054643191768
-0.38200716913046873 -0.033408220930178117 0.78947535438115635
-0.45636319673031478 -0.32830098424177001 0.68848481322108146
0.28625829277494574 0.20689049110209518 0.46572030561754074
-0.18913427501829139 0.67395228167370003 0.60580398313008477
0.14213913638020426 0.80949794223459837 0.52602710339154379
0.19754088830818128 0.75298949852026276 0.40410845263129236
-0.33566964608910155 0.26767729749457658 0.69255019872946377
-0.22190575433537996 -0.45249242166878245 0.56118453092540355
-0.18172221438367675 -0.30494197646103438 0.69504038224715581
-0.5244700101560924 -0.31628136402127183 0.68117173712193368
0.11713119781094106 0.57105555896822802 0.65401705473217353
-0.88028975061840042 -0.83489019200783909 -0.47457788541435031
0.047627062248575491 0.32807219997016512 0.77574418953681157
0.45062394305539977 -0.48995038449941286 0.69810582826174672
0.29849096091864791 0.73943680344918961 -0.27014384932532653
-0.45920786948156356 0.039168629037252156 0.69497743267215562
0.2921202706840913 1.1297812375667475 -0.39667474462507468
0.50020886164166134 1.000969503762261 -0.40530919367385265
0.10502362442919244 -0.2623493661539909 0.65046892397812384
-0.22004799467489677 0.43460678720368484 0.76771503565714161
-0.59347510879930887 -0.033100818298139822 0.7512681307125173
-0.57419381931523938 -0.11572550536098425 0.72912946925623023
-0.57743241929488698 -0.63492365208491752 -0.27926147614743435
0.54542648877694644 0.80048345498625062 -0.38361719670041583
-0.23857706390405742 -0.24524615497422797 -0.62614284616923621
-0.66249553590590304 -0.49290836627463708 0.47033953158217212
-0.83141579467452331 -0.61886400317296442 -0.3119770868827807
-0.84609467587096132 -0.74083589487851143 -0.45368646291843628
-0.34202281825071612 0.22508582624433002 0.74324256673454236
0.037439636642230489 0.29849393842232597 0.75648180456984715
-0.16391968467780216 -0.357822081041544 -0.5627969853637067
0.34820867684036472 0.7327814756487887 -0.33801674235037238
0.87314767335251942 -0.25247007230567164 0.61558503374514562
-0.18435171527641669 0.67941257724146298 0.71247417972247717
-0.22021091610082766 -0.40105447811920358 -0.52682500795410236
0.75989175081769877 -0.30641981625495363 0.6968896730658205
-0.34611651463583915 0.58414093147662516 0.64835057913509786
-0.15193074270348017 0.46245237103005332 0.73642550479717794
-0.25151947206964076 0.033455775861679748 0.76823862621333161
0.26130513624788998 0.065271036306630781 0.64325011103362462
-0.58308913884455404 -0.1503353069812608 0.71834043326478181
0.69105001358028506 -0.30252418343952148 0.68279859789802266
0.27371511287244799 -0.026427916160559728 0.76834382978881122
-0.58164629911770716 0.2433249669150559 -0.63716259815266074
-0.34222540928773793 -0.05107210633690093 0.80990524722439572
-0.66815967947432919 -0.54903162627858393 -0.1566952952414491
-0.62918221880927039 -0.60744890801226092 -0.37647142010164236
-0.39686106649843444 -0.75110824939554988 -0.15144778959722194
0.37280465063664758 1.065364357821077 -0.41257661081178076
0.27168000842303819 0.74986506243744788 -0.25537818914052712
-0.16915221652722412 -0.1441991610517851 0.69784709644671006
-0.24830487890759034 0.48581993623602776 0.77906379106655566
-0.69706996292407619 -0.44085282615142507 0.30185170103923387
-0.039904438856855684 0.56244571511148489 0.70894947609288961
0.54786588286509907 -0.14507368363256196 0.35910169136083159
-0.65178544007869843 -0.26640344576722402 0.68799684100811609
0.40497707318253262 -0.53314089895678418 0.44084512147268828
0.14545738408599984 1.0508752961241492 -0.24819567366264783
0.29049668431161058 0.75246921940144107 -0.28396297684249472
-0.28199684662659319 -0.69194911470786136 -0.14994279867416305
0.48351599890056063 0.9657281614226545 -0.43875905920624758
0.18104041284449712 0.44559218246564802 0.65776176954741317
0.17955872328271338 0.93872057492549232 -0.20825287214210375
-0.5698831283577841 0.21398748065418705 0.71712491652031307
-0.50471797205376689 -0.65154506089655451 -0.28980196013081327
-0.69873017414235949 -0.17558814063725736 0.70875889120088953
-0.028056369597218023 0.24467096096688046 0.75544068601176884
0.23848943518024734 0.017600823668932009 0.76506094193641472
0.28393065859388722 0.80152656351065743 -0.34735310491453042
-0.71209693092291637 0.62249775617417802 -0.13847621799936904
0.13223850231689083 -0.28972569835391315 0.64375196317161354
0.19306685093408316 1.0031961090424901 -0.25050148745382073
0.57559190978141173 -0.66707268039973577 0.61063114799917395
-0.0062340677029713021 -0.27323343942397604 0.6280651644631372
-0.38890927148788412 -0.63666903771754146 -0.11438488373925226
0.86135987169967265 -0.23392534362014783 0.61847799396867842
-0.29147991706138709 0.0093502177310841317 0.77493266503830949
-0.35520452886416987 -0.63593102769221921 -0.02013743524864342
-0.49227397074655554 -0.53689417579647347 0.45246687224426418
0.74182915476116618 -0.31680972606708546 0.65955509858614958
0.38503149749867394 0.85538617307484377 -0.33278699541151102
-0.19085252843917244 0.52559904989562578 0.65516034646455346
-0.34106309088443565 -0.19553044697181299 0.80288326048352143
0.1242424366756536 0.34221762782344722 0.71340192831228944
-0.38022732809544135 0.17282722789552052 0.80187767452933789
-0.84248668994520304 -0.55856320849987062 -0.29566390337689841
-0.16024592520095426 -0.4541148964726629 -0.4216638105278725
-0.38501180143496172 -0.20247877903739933 0.79650440783672538
-0.41445378603612615 -0.065082686069231677 0.81162284223780601
-0.33334080958518664 0.30996023118057919 0.64321578439643767
-0.79037190139040026 -0.92930982295083253 -0.44740087185490696
-0.304460046571982 0.20353221466941837 0.79692527082108411
-0.53089868578884358 -0.29858170990481342 0.63055827000907083
0.47453940187948751 -0.6304334283253179 0.54748297431764081
-0.61095281074578245 -0.78144637145473927 -0.34169682660210388
0.2531349241435179 -0.21275138885245648 -0.36150855712854524
0.14277007104937223 0.92883919082806043 -0.30974746676994513
0.15499990984250589 0.81528592269130939 0.17300689968709282
0.17816082350228513 0.96092673035968534 -0.21466202857063132
0.28767845175166018 -0.048534906285354507 0.74383579697925795
0.27597834020521406 0.093081631696022959 0.54392166181242851
-0.6141758872016676 -0.14159350878668603 0.72241345023041692
0.82007516450664353 -0.25983884283508418 0.39435374157362757
0.37740763269379718 0.51989358287599152 -0.12505369704382208
0.19107556409361548 0.46385876897256939 0.59011467998601175
0.68793480005431462 -0.1889990348810886 0.37481154158209096
0.055814485060759367 0.81328640989569889 0.33578393637389148
-0.54918287939356425 -0.59344389314044643 -0.17354864116000757
-0.52639518011421793 -0.10215706187507162 0.74781887987601081
-0.65255145934317493 0.17137119977993509 0.77450992519284068
0.80522106213138889 -0.46305055865615374 0.63411640827769444
-0.32274018928750881 -0.058182231069363155 0.80541648428159451
-0.47153612729087402 0.0017600493755465796 0.7672699953781752
-0.80995073206195056 -0.90878459278916535 -0.47354845132941126
-0.31431630064415206 -0.20179878976278953 0.79855388105376113
0.41583209076113281 0.7709219735764905 -0.29267920151520155
-0.68410590489070122 -0.93436233550375403 -0.43296015777618635
-0.042857274886910268 0.23422468445988043 0.75720169987080732
-0.054946593618240058 0.36266689512661332 0.80348611422361449
0.14760198498668453 0.25668129114746507 0.61439799009937301
-0.86172088782577139 -0.84037130102153101 -0.48404540177579314
0.28129511012681752 1.0803103905650033 -0.39875846914748148
0.53230831254242661 -0.067844302549332325 0.38100186828758043
0.66878785851588018 -0.46341267959169663 0.7164796254407606
-0.14518644759851407 0.3771208652807273 0.76124537349057286
-0.58577115024940918 -0.58557698761985577 -0.18003544108321901
0.35590205992684609 0.57268370694606308 -0.066799676393619833
0.37650860113962104 -0.2422770529123511 0.19583283276310492
-0.36446705200231477 0.20999429499127864 0.66501064946582655
-0.63830772057451868 0.11601395033532302 0.61828847766038653
-0.029089400651117536 0.34663788843105037 0.80189941064947989
0.37949423290916462 -0.28725322805031883 0.28390036076833347
0.13235276679682517 -0.054996683068721741 0.74510826553930665
0.71526911257396231 -0.4666502055166506 0.70069529915266227
0.68734996851401364 -0.60264790832572523 0.62953050944760003
-0.53402957740007384 -0.78090400851833053 -0.38852169546632309
0.54526099008543083 -0.1694645270413655 0.71239630572136736
-0.62122405173154904 -0.74615596001924134 -0.33585454906783996
0.41882556251929071 0.72111372167056653 -0.23805054940644688
-0.099276579414239841 0.22697482091096871 0.75956821146353892
0.21093881248298807 0.83229848407621065 -0.19396174685993728
0.059292267340157689 -0.12660231918601828 0.75864494061516208
-0.21756266052895068 0.98775902508616653 -0.22936437749641714
0.36447171539327705 0.90391123606560231 -0.34704169001015961
0.3878328159294564 -0.40221355333148523 0.71470080880526243
0.36132707360276006 0.54277827158168668 -0.050582764956969672
-0.49269234740958323 -0.036345019713265869 0.73824020101018251
0.37066054279532468 0.81970103692076057 -0.31511604201810606
0.01935230439721991 -0.063337253917776559 0.75422042175304282
-0.095627984387988363 0.1106614101362251 0.74775398484752653
0.66594428032202391 -0.41740908454055825 0.657371318280628
-0.17930878158074215 0.41339122123806998 0.76737856921633307
-0.11032090743273537 -0.30226423579417944 0.67257991648984872
0.1734227473703096 -0.26260151536837606 -0.43765035580509792
-0.068683085040381897 0.26618180226811949 0.75019109612020518
-0.14166969720352451 0.71200688934558554 0.64327194786836861
0.46208230962992136 1.0649023393356047 -0.4423350086612774
0.35298961646144766 -0.2400602304670594 0.049243134217898277
-0.47018553272136021 -0.057197156767598401 0.76614826515089174
0.13482816565228362 -0.099218936725878004 0.80313237211973965
-0.78732946699679718 -0.84188291624356681 -0.43063476708847004
-0.38567515389781226 -0.72552032656441034 -0.1516510824409556
0.43979632499056853 0.63415666757892297 -0.28788324917481445
-0.3227208687422034 -0.50373662757023718 0.45448116019023344
-0.1741576677938208 -0.4317118720751868 0.48886253782226152
0.0037270546596577248 0.22683683696218582 0.74878551624870271
-0.21029350156513882 -0.52210081766854632 0.22676554585236897
-0.69360568286565494 -0.50968726747780946 0.085021728109779371
-0.54095889931527985 -0.17785748492448744 0.71489443007258258
-0.49551337250896021 -0.037752522355698648 0.75620267714743106
-0.05362888431146029 -0.28424066461809949 0.65585300619615339
-0.17156417614416042 0.99612957050813233 -0.22764837418795469
-0.50239412536979744 -0.36258280847266755 0.6647637778420683
-0.70301125467637116 -0.011271799313829489 0.73131787223183542
0.16459290033694973 0.0072626726828395327 0.77740375129185191
-0.4302190700522992 -0.73469478861353554 -0.25146692618488675
-0.78216779875341214 -0.97745754095656623 -0.41104254476615854
0.6827041963100946 -0.31774280025669444 0.68470250852877745
-0.033828101825001955 0.44487973369753298 0.79013346904905335
-0.26733103676900694 -0.31768766738213228 0.7008035289932657
-0.18393380270475257 0.48030639597598146 0.75483517138619671
-0.75575899575445149 -0.52031083903937292 -0.2863931274652316
0.42666621392451232 0.014015409614972774 0.40619209685329105
-0.47359269314376951 -0.58612352726589545 0.18457082585291751
-0.19795798200119874 -0.12426426236887064 0.76004134218220809
0.31030858274729356 -0.079752634940787326 0.73029889752373522
0.42720731014349722 0.75068082392148849 -0.27120118022823148
-0.93395343296166744 -0.69899094710209653 -0.40971355882649707
-0.13203937751616213 0.31054524583273868 0.75860186759680159
-0.45147692037815901 -0.75695475967851533 -0.27761283927916836
0.76326182805612808 -0.39130494201400512 0.68724091631835682
-0.93542854007397369 -0.61507216690973721 -0.40069456699592898
-0.28253992421833063 0.42160119603296964 0.80143034222669751
0.15506152234883475 0.84708785937679854 -0.34885686176474318
-0.53176179785189404 -0.67131075089705217 -0.30151443052333304
-0.6532706237278616 -0.12832553405437419 0.73522232456359493
-0.091856720779314838 0.60810034989839323 0.72136545580431566
-0.83900849065052263 -0.17075345545661236 -0.39918917783113628
0.87796488400692896 -0.36392845464094503 0.46894976722613402
-0.23171262714304453 -0.0072797779730457701 0.7652370687552783
-0.14354157434489734 0.54036061621463549 -0.65277147209337993
0.27931200834381675 -0.22627548053055435 0.73493972407269759
-0.0057539921174827313 -0.30575636741490381 0.51871769738576701
-0.23224659295700611 0.98154517534454322 -0.10116928912712586
-0.41374709090524542 -0.75895977854280616 -0.16918868150623112
0.10467786680281455 -0.3691442299634462 0.33586698161936424
-0.12761622442998588 0.22008183834044073 0.76197445538449715
0.10824616579178681 -0.31776560202124737 0.52208651037671849
0.4071860394796416 0.71668197568884828 -0.26466156704842581
-0.40379246986720818 -0.24006870446226622 0.77018786924858462
0.23572267642816502 -0.055228796375386802 0.79339039588403715
-0.16271404347193075 0.30525727212144493 0.77158843749182093
-0.094931035701855127 0.2801483066952184 0.75352289491301772
0.43035770363998926 0.88344793941489885 -0.37289933059489933
0.10655165782094089 0.6469412371171418 0.63234558676146868
0.06256488407955807 0.27266294431630428 0.74057850509079781
-0.040024147754491146 0.83555615542425732 0.27953149078276773
0.48887185482389617 0.84739413780188877 -0.33310253079213537
-0.89860448592864062 -0.096831491868176967 0.024336271882054117
-0.21909333339419801 0.72479392258825648 0.37738341190565583
-0.52724131019904519 -0.27358656760706862 0.67809137628716831
0.40992738269051943 1.1382350916433184 -0.4160185005667838
0.55607147667835299 -0.3806616633695532 0.35874543570999018
0.13400129497857138 0.39178831586877017 0.69513413558909809
-0.099664164317770254 0.44281663279765682 0.7884937178902427
0.33661203903559622 -0.29096213982560648 0.73240641122789096
0.53000476701696186 -0.67053663494201088 0.54679012115676917
-0.40983093915372004 -0.86627917504808316 -0.2900391458956646
0.30482552805556873 0.30145849007965453 0.51095897332283657
-0.29081768912933326 0.51926563786690816 0.61523591864775806
-0.026703039469410106 0.50668160302079368 -0.62290325347900133
-0.5351109785130026 -0.87674937997518687 -0.31216040637633613
-0.24210861038887899 -0.18027106833257364 0.75287143840279924
-0.6426350003489234 -0.55789864540151513 -0.088127418611349206
-0.69003167775935914 0.1354107014203606 0.64465232620584967
-0.69194647703388723 0.09770906221165232 0.62664392091161281
0.083372833020169512 0.79844347674251814 0.61258699740204747
-0.28456569524832842 -0.10121103052511693 0.80541635978459292
-0.028532124583567686 0.16384866305944579 0.74358725296180062
-0.53240750249341184 -0.051044263995360772 0.75150912404492276
0.44512341905789432 0.76442779773757574 -0.2657691694923594
0.24604432562830114 -0.0075869596729900568 -0.48292394467575717
0.08890596883113977 -0.12819925932768672 0.78947565646032425
0.16073386031451387 1.0824345360804957 -0.34244378635153438
0.24523592415077866 -0.039678940113811123 0.79088934887059059
-0.82838452118847594 -0.72138080619296163 -0.43574463982122058
0.036091704617205345 0.36176594169731968 0.78959798131370196
-0.25452083389552183 -0.27579946075442319 0.72575247318426817
0.12553510901174558 -0.25921604531507259 0.6758557375992611
0.056972999356842191 0.34622722953681817 0.78064989642391813
0.034305209670923098 0.67309193253149324 -0.53062722818080177
0.18264523216859363 0.91707375255124524 -0.20391964269952112
-0.34915288169962988 -0.45284348897523818 0.61574665898894398
0.25247438050329718 0.0082206429548116189 0.77343457036923935
0.49358439875141125 0.93022920919876206 -0.42460047616854601
-0.21595825936565838 0.34845242123267905 0.77611119830920039
0.28394253222063837 0.19711958908360666 0.53064271049984635
0.032522167794361234 0.80533324818985363 0.47397493247830891
0.80216165710801324 -0.15610968115464541 0.41518581212992345
0.043525597437097829 -0.34261733252246585 0.43411564334206876
-0.31688794767692796 0.64194076743893658 0.69931864850102166
-0.31537084097124879 -0.73194860546627527 -0.13250660954574389
0.1556151146876692 -0.052905299664197103 0.78210207413576383
-0.92828681899330667 -0.74057469389200437 -0.42933518617291666
-0.54750431724152904 -0.31243140609955911 0.67700394066410752
-0.92819281426251332 -0.7752237502755337 -0.43891588486486421
0.75707005703334351 -0.35483746177526521 0.6629541263396761
0.17655119158200083 -0.016872910211953362 0.79325196963392575
0.064167237556549406 0.6342240429590299 0.65336111241599726
-0.78361743427221908 -0.79956642871832551 -0.41261327462663111
-0.54104101261298565 -0.36586120753302598 0.65526064320381483
-0.67743733249681215 0.62213158718812345 -0.33999504358481802
0.62078443772556557 -0.55616195503406596 0.69153039964454788
0.023593463339652843 0.052691749904053675 0.74248001777257588
-0.36592908744507735 -0.64155906806198848 -0.087495716513874111
0.41318043039901609 -0.14573882913611741 0.19415954612604391
0.39464906085645035 -0.051094268562865641 -0.037199326073605654
-0.43254650851462007 0.063773497886480207 0.7760085707153932
-0.4627972595821328 -0.74719800173705564 -0.2871999923967925
