# XYZ point cloud file
-0.77109351899526501 -0.27857961593859049 0.27537832386882144
-0.34725239842906319 -0.0021208513509769489 0.77256966552550921
0.10024717013271456 -0.343105489691796 0.44075262617578659
0.59079021559278644 -0.5813069825977184 0.68082998975428666
0.60557544362724869 -0.031049204341933034 0.44725109291141862
0.69568637493946639 -0.072408485988399995 0.44291464645353074
0.37445616095861212 -0.034571411282748876 -0.26098232589336234
0.3386066790133917 0.79931396844889946 -0.313880188562905
0.73527353765865655 -0.20267706832068999 0.70169383195477764
-0.72999141457208339 -0.84747822401569817 -0.40291267645928031
-0.42204182565913939 -0.27860104578482314 0.7672295631763717
0.21122917997645985 1.0526621283055242 -0.33559789710327337
-0.0092401274306013192 0.81384604275011885 0.67276981446917716
0.36652757326277197 0.76133496310211868 -0.29599040947736199
0.010147877903200708 0.87105049244751331 0.59817262602215493
-0.23419759704638921 -0.58135932502506815 0.089258812216804984
-0.23049313085225265 -0.29019839887405308 0.72051402450972546
-0.57783675314940908 -0.72462181114233903 -0.33737809179902101
-0.35419754212805543 -0.561726914870051 0.36472974168700745
-0.16736439747325704 0.89946083610467031 -0.41423488269738229
0.66863540700185098 -0.15236057258563385 0.38395639110872892
0.27623892427899932 -0.013106718542584161 0.74412768805787977
0.31333833634451125 -0.034927677511744193 0.73206045125293073
-0.61906200434869874 -0.65177381403998336 -0.30773362188121922
0.11446660782715057 -0.11585105468471291 0.80214013216890123
-0.7881857260416183 -0.68330075419962544 -0.34270126537469636
0.7535081775111685 -0.32752143331983774 0.69287253505197199
0.0039099545014842363 0.93880413834797949 -0.093761189395412003
-0.44349067569956091 0.66760782288103382 -0.55948296266061348
-0.15556887689681886 0.43911617347641929 0.78059843891688629
0.18873144119027785 -0.15182485004035584 0.80891668752108359
0.35480926596050466 0.7245122550069043 -0.24621213555951371
-0.0070746631798819237 0.67045235506654244 0.67723187311987232
0.42283528525716463 1.1784791965735102 -0.53743839021904449
-0.056628127794386529 0.64516337178338734 0.69794632834932813
0.60599808073627415 -0.34632321185385528 0.3470924837343965
-0.8119177729978837 -0.41293200738784996 0.14719948921739956
-0.70188586573247491 0.63336559683059068 -0.0078611731014248676
0.32399419236168825 0.031502041672692549 0.66548879439075037
0.59212224457144913 -0.023359201197338031 0.63099353351203646
0.30329865400743472 0.73435499019845762 -0.25828563970170748
0.50262377114797374 0.88921044060787269 -0.38064213908394251
-0.43385124976884981 -0.59882527402468888 0.22769920329951532
-0.050494837230338874 -0.12216425198931979 0.75946477568171034
0.2288093767116699 1.0513593096337441 -0.36452215661713794
-0.70819696816208833 0.10852079145266913 0.66181391934475897
-0.82372965023462896 -0.88123132087253442 -0.44677050880508418
-0.74566937473298012 -0.24919446360734021 0.6527575199935356
-0.5170901091699136 -0.75380878327684897 -0.33269283756908408
-0.43680505850699802 0.1756791588742681 0.74350422221224832
-0.88321292602157087 0.18836477411465502 0.2080945293242209
-0.0061007510211510407 0.85781961529015849 0.24745765075084591
0.071075700086637994 0.85105585615183532 0.60847920284311741
0.1461993971344171 -0.04794467630340904 0.77890668882624325
-0.76252449420411139 -0.68652396416015904 -0.35250439889250273
-0.59701836265526254 -0.0068765200988014641 0.77357059858260868
0.77740898960525939 -0.39759404714948232 0.69583387635829297
-0.031900773090541179 0.31772354883921672 0.79942472405528164
0.695024270285451 -0.39448013434232543 0.65968106680682581
0.21551668253497525 0.00031334564998619641 0.80235996054011238
-0.53561011195369446 -0.96902345929914846 -0.35243491238487223
-0.56204670557789882 -0.14372673994122565 0.74704548430281648
-0.5381428109827624 -0.61374468447368891 -0.23807717098579673
-0.40660692123359254 -0.62507858180089571 -0.1110140485526685
0.21587366188581925 -0.32791889219817882 0.69060740111787666
0.34246414452099927 1.1810592308194559 -0.52146188556216799
0.36987756981294595 0.81849776571816246 -0.32164733292446002
0.30243662377049318 0.25207046904636421 0.53458906450029176
-0.84154047974006474 -0.31638174205132907 0.16074406793524076
0.30861509641083984 0.5436971483546138 0.32427194076253585
0.18982892355438707 0.29042645806426748 -0.58771366977073924
-0.017607301264213504 0.49229638268265763 0.78761041371140905
-0.013476554591470347 0.83205898858513638 0.65704370469403273
0.18936715884975186 -0.38073058777334268 0.59739230002859145
-0.43036644024534709 -0.63356016853710173 -0.0105994590148768
-0.25839432585718214 -0.27449426698786628 0.73153708837651266
0.55727696238172797 1.0692279772979747 -0.44331393885370574
0.39659706800842187 0.15496790406695249 -0.21204993029146735
-0.26567480775327468 -0.67780995820677159 -0.1686922584978845
-0.63421827569724698 -0.94786835416859994 -0.43298288868055934
-0.4477829026329907 -0.37598868875425406 0.64550469605499927
-0.2355354039614177 0.44241166563543555 0.71005980320942541
0.20354696176167408 0.96403623336340249 -0.27651404517890654
0.32233983716540138 0.75289583482901934 -0.28457439876608603
0.21194651458817759 0.36527592743169457 -0.55162575619413445
-0.64154739584351717 -0.82224050705742746 -0.38109006860106831
-0.11655514684226631 0.70008046081880693 0.72857544761866677
-0.58801249190696225 -0.68718240157127974 -0.32951810208389531
0.12396087150007062 -0.3889787251374397 0.23803298596092759
-0.24788880663391666 -0.21627123647179758 0.73874565314470075
0.67830606044759278 -0.28017273245717789 0.73084996333222918
-0.38850828614861754 0.020268242828549887 0.77388787423227967
-0.37929091426960326 0.27693459081361382 0.7184592334026263
-0.33072838394447501 -0.13527005471813069 0.81451035063155075
-0.13086251525131587 0.89449943918063113 0.17108894555034837
0.37629182910931291 -0.0012706469952714627 0.68812517698559006
0.94337514209081519 -0.22559071775943895 0.47922140278415526
-0.47642710791544829 -0.67439641678927176 -0.29107990136127881
0.73044108579831502 -0.14696431848694758 0.39761397501457196
-0.2123351970343208 0.28010429204526233 0.70198979998411559
0.43564439669868094 1.1798888838298804 -0.43386850523755527
-0.70156167895896004 0.44219449612956296 0.31525952600632223
-0.70920724354882836 -0.64669314161296665 -0.27881941543724764
0.38611830590160068 0.56758969587821984 -0.10125178882708852
0.0068015990910339497 -0.17006007776652154 -0.62154732634234122
0.041365893809576448 0.77882207690390093 0.65723762631321492
0.95134165274302518 -0.2338108784907682 0.53536181738711619
0.08666628484471417 -0.15570734948353326 0.75422665657851695
-0.29223544700920812 -0.077947175706803762 0.76546813218999432
-0.21285983721485024 0.49711650218184023 -0.70802006865655187
-0.35764324927800217 -0.12474828244219438 0.81546587198630505
-0.18796297042374022 -0.15547908153542522 0.74807378855728857
-0.59905194581020282 0.046919736692517588 0.53285354919614747
-0.66627879903435172 -0.63859802265806564 -0.40177144650795782
-0.28631208201373681 -0.39716719789108268 0.66522376754160462
0.70313722251389166 -0.43579274782380573 0.65103466161864532
0.30286370179148037 1.1987787370173519 -0.42350874448829501
0.81074849330222065 -0.09717708496360089 0.5100064538036726
0.54595649014944314 -0.59406105280465837 0.66936860741672888
-0.34842306809289525 -0.064347010900585033 0.77743668843801572
-0.73967368143988921 -0.30193158232638773 0.66326307822703257
-0.72737700861598498 -0.46694068983629666 -0.3438717640998874
0.67450283803473354 -0.47374809784611394 0.69121215081386111
-0.15528190426263677 0.51772230049782664 0.7485954641516841
0.29293201045171102 1.1485196359582686 -0.44891521668484202
-0.24224742813892419 -0.20374085983562118 0.7542816653544584
0.061874327466057366 0.20854392439858493 0.66146776915462979
0.75798582047582741 -0.40734539948461457 0.66758752983200509
-0.23852025651898856 0.39937680707680467 0.77288652883773423
-0.76041757163187995 -0.99405847018320337 -0.41183714697368501
0.12374876264441426 -0.15288714526483993 0.81120266680079212
0.9338169680298094 -0.19880340010161568 0.56363133878707572
0.39298742456618641 0.92063052109506316 -0.36868550649322529
0.15998998760134597 0.9178969885065742 -0.20923546143258065
0.89752135665016297 -0.3495446650892271 0.60179510496358546
0.16943108389767403 1.1023470511191955 -0.30212131111751361
0.37335217911686058 -0.49164678161296038 0.66309162715070613
-0.44101507495849646 0.55564424642151966 0.66873012020987233
0.36985206300114015 -0.5166248730201648 0.44428738251102828
-0.15517497117695811 -0.28828663418695299 0.70699928283299229
-0.56942445072096959 -0.61035102806276331 0.017312575980810152
-0.51932172787427078 -0.70092392115562108 -0.32705523461618213
-0.20672375764884166 0.4201339486453497 0.76561162046095887
0.031844303288707465 0.33104837400463261 0.77606802553782828
-0.42838111255461087 -0.18894117467843152 0.80184825560299799
0.1940690876524549 0.040641564792453622 0.75160507861322401
0.73746322379421514 -0.53744008407624388 0.65989548743582915
0.32545238746313743 -0.1523030849154603 0.7430265206318758
-0.45468396021179558 0.56085957256104368 0.77467377273692151
0.025073718258290967 0.84802048683187436 0.46390518156182736
-0.45280756044574844 0.0045658628032860804 0.772580142453684
0.74791443576750538 -0.34193650857102575 0.65300809266554083
0.362369054478755 0.68991056500074111 -0.21774172756375876
0.018637284883965322 0.6215842254894639 0.67460287913191763
0.23352947563186532 0.8377316531498944 -0.24312929220560164
-0.38780874344466199 0.24277105794173748 -0.73752439520812985
0.087700118303352781 0.76005849364998213 0.63262502236430151
-0.28578204635239501 0.41898844527848844 0.77837193125259319
-0.49154133753790319 -0.26310064476201944 0.73308220571942684
-0.0037076367412218758 0.40586990413353075 0.80712412512130527
-0.74412753348932981 -0.072291416063159808 0.72381510382555803
0.65052862989854532 -0.21846467320104601 0.36892588447859609
-0.56291769898635735 0.17910261041263364 0.74864868720235123
0.22628498055774315 -0.036462481396443813 0.81241778090504013
-0.19748729838901724 0.44805738141443818 0.76057497157687948
0.14411815789862104 0.23366105798745629 0.72436033994046767
0.3783583398059136 0.59504575497347867 -0.11367697399371224
-0.091376218797279307 0.77622925945701304 0.37471825341125609
0.3986005755844424 -0.57335247564656289 0.52191396860524364
0.46504163139623955 0.69352065318144307 -0.16995245566010198
-0.74751210092162523 -0.47069298085528022 0.55448551741045549
-0.066290826008675197 0.21512325580996094 0.71560000061780116
-0.55892463101196554 -0.041210330981513721 0.75607109506756842
-0.64590933632105774 -0.62810712065145058 -0.25496962807733325
0.28960095806254671 0.17485896861730765 0.48849144648249521
-0.49717969038010423 0.060228187953022427 0.78888826147751701
-0.59676434529850653 -1.0094513932733293 -0.39395821657886287
0.014981536486594393 0.9099298021265283 -0.35210161715230015
0.24655114242350606 -0.41505692185271048 0.63496143383888182
0.31938582913286595 0.41817839094547615 0.51299185222320887
-0.69580648207832141 -0.19095120611822303 0.48028205698961557
0.1192191102656146 -0.19437663751501688 0.79230015847894464
-0.5814973004105255 0.14518939640660822 0.80863299138476918
0.28597032459824945 0.76543051522560956 -0.2908173923587114
-0.24646114707923772 0.25733583116835668 0.7848066620759937
-0.42648346449295715 -0.73699481662165534 -0.30856729995175414
-0.2444189271570032 0.32544078506092422 0.77744969717758394
-0.56847473730617182 -0.34225499242080648 0.67676184583051935
-0.72420699212040773 -0.61208697084788266 -0.23557173488601535
-0.45793046550147309 -0.74460186622425084 -0.32002263061338709
-0.48266142807270285 -0.25472757105062982 0.74668459838504475
-0.69145259152402261 -0.37816256814395732 0.68027415569049765
0.28341127725134641 0.24837109097715082 0.59142098665422793
-0.56992364868246526 0.62833313168044214 -0.49683034862399822
0.66699959661169927 -0.46894982349245762 0.66168146072429934
-0.30553056227793363 -0.045256267309565779 0.7634878571100181
0.16407245512418456 0.50549831117019473 0.67078153801240248
0.37612670401137294 -0.12313506400440044 -0.17164286068482326
0.58525792883873251 0.89146309573172378 -0.39371387272877811
0.45834539322354573 1.0991072992027515 -0.4789324546736502
0.27160163576319718 -0.12067200163994851 0.78081680078823723
0.2843127884421115 0.70922927215096276 -0.086137034462922202
-0.20010831085086522 0.43434114751608366 0.76225916368705882
0.8903348354331051 -0.38962448983853815 0.51328127692730163
-0.13935405062422035 0.37550044213783806 0.7956053321194041
0.030534171874712968 0.14495910007648938 -0.70100818729642356
-0.24737246073918939 0.71174204659533213 0.68675890271487816
-0.66272654652599883 -0.96748467671546923 -0.41087554072170818
0.67561351069418407 -0.38068950101293897 0.68087270973800784
0.1207005010138289 -0.093231582725773698 0.76968947695315038
-0.88938007765971605 -0.74835721132786848 -0.39324307939378045
0.29159909308775411 0.74822741432913009 -0.2813583423322612
0.3003225065492785 1.1330562336449947 -0.44590433863963241
0.15440741449671691 -0.009568414572923345 0.76590628529359961
0.46326738791877631 1.2291586849176541 -0.52331501575346451
0.51610293484048597 1.0468656397012168 -0.41505160027647392
0.12916873348922309 1.0903415730487613 -0.28774443106565428
0.29950986883012831 0.71663513585566019 -0.223713106439547
0.24799326264671606 1.2307077113429479 -0.39471070372424322
-0.3160241501097687 0.6373690764325648 0.7779738714765152
0.51021644526926124 -0.12222014521857094 0.32801920838864973
0.25740137996387702 0.64350742302569941 0.54717753917855205
0.15522203499017806 0.66343219175190526 0.62425628419063273
0.7517011076842266 -0.33852412645676111 0.66011963226490522
0.14301818583715331 0.86670230787029645 -0.037904955020064079
-0.58578753061702216 -0.20262057350655827 0.66960915158191625
-0.194310599314651 0.51077393669734938 0.71552490201878882
-0.21042198794815192 -0.24531028066275073 0.7154708649995527
0.22059881310323348 1.0514232426463703 -0.35090152572393762
-0.70643432968847719 -0.59408550093013535 -0.22012127311502638
0.40342205401274356 0.053286278271766463 0.52905368557394894
0.085693232125393592 -0.13874387260193544 0.75902639934253813
-0.89108380408404742 -0.61223295759987195 -0.32430914463133576
0.062367010263354672 0.36617958239494186 0.76726402201844479
0.30734515476614632 0.23106660294618653 0.44900052297916915
-0.4079755536504841 -0.24461308726852771 0.78875554490659994
0.67608449395684289 -0.35072085082535498 0.71702474343650735
-0.38469687553378051 0.43233234774380946 0.81945887422630292
0.75313835146242525 -0.4993454652339242 0.67275720370673042
0.35411095178523766 1.0390050129906214 -0.39791094134401561
0.19090829056501235 1.0078631544681778 -0.28427987863125637
0.20317595216949869 1.1676525410161585 -0.35126530641164777
-0.50609160081042859 -0.9120351244638969 -0.31005101993285678
0.93584895649955158 -0.28429287067225317 0.49142749919523254
-0.80894437394910668 -0.46086639531727336 -0.10535768132327661
0.60258866316539184 -0.68450473860686323 0.6018772829725485
-0.30715847067878954 -0.64788662297256172 -0.15410709143925061
-0.37020837857281919 0.28567998960228991 0.6611859436965446
0.24942998758597312 0.19205327660584182 0.64147937515455666
0.82336599712693825 -0.22583155813655331 0.67086568748192121
-0.51987793125933734 -0.20763177569468416 -0.61070853853177809
0.40551411221789735 -0.062045631723210981 0.72105708092456666
-0.3367145913985361 -0.74153256087845287 -0.31394603607790117
-0.11632164622514196 0.33458770316606579 0.78778422731220132
0.39862980024725658 0.82993968511525296 -0.32492978644081916
-0.75876715784177406 0.027167972078631308 0.71993526626865645
0.21038248224154543 0.41504014006681089 0.66300721920727312
-0.48768643275670698 -0.70112441101269729 -0.31794155493758325
0.65708173150205695 -0.49438086950531623 0.71405610554121779
0.060111377670690302 0.71988997396414245 0.6501283919436176
-0.21663131367395749 -0.034598759286890157 0.75417232842403692
-0.71364461505364929 0.06278348481128937 0.63789678067982436
-0.81426631561906859 -0.20069755937818901 0.24721155098468017
0.63094896602043704 -0.45962704086732487 0.70337419911482968
0.43799056982728857 1.123872583011555 -0.48131180612934799
-0.3121998014899745 -0.69470758128542798 -0.16263027016364617
-0.40929033677354809 0.43535385217100409 0.81419340933500095
0.65038841134975911 -0.39071110482062821 0.71734015104584259
-0.43277381565340889 0.13873978603694015 -0.71828672896388568
-0.67866258684288638 -0.42932281903410718 0.65110494304980904
0.14518638983087229 -0.08690327495410699 0.77365086552654816
0.43668323077171678 0.62368246125304116 -0.28726586626867956
-0.19821298951000088 0.37186678433828924 0.76437935604087315
-0.046094179199251073 0.5870339668331539 0.70003629296102687
-0.14777493361882676 0.76698706421496965 0.65504095929015449
-0.57347785675284513 -0.081895812958061143 0.7487493602899491
0.039393187030324128 0.4658403185840907 0.78093011252372335
-0.50827304982483312 0.59487672863141716 -0.58191926190003329
0.20111156468312075 0.92169799562899879 -0.24853530437016857
-0.37212433618483587 0.25459613159699934 0.63758090491431574
-0.21293020580412758 -0.096184252003428838 0.75878355335410319
0.44263906678820319 -0.16446221336424749 0.73933124896252167
0.14856337676037512 -0.06480520440130455 0.7720821907881934
0.0045670269086564019 0.33836451205116624 0.80458651103960577
0.15298244733653021 -0.082126788939707041 0.79271451205250898
0.27966950631532939 0.71591758330301136 0.10573726211291401
0.18147959494055144 -0.20613663579208907 0.77843806077899558
0.54906962412243132 0.78164098193253961 -0.27413263318536352
0.26963121382513933 1.0340568421509904 -0.37929292500145451
0.6877410148841534 -0.53413191688289796 0.41081307475658235
0.22016257355892321 1.2014585896299876 -0.46509686790474802
0.55101612250218679 -0.55846889674704503 0.69012987932935133
0.39274655996082686 0.2376029851692989 -0.10516896839106948
0.28177028135310422 0.066091780943942524 0.61532700688250586
-0.53624881601768593 -0.33706725243180458 0.67772207105553406
-0.78962898026174599 -0.97138178614076942 -0.46673477643316019
0.74038624241401862 -0.37294214677737259 0.6511939325276721
-0.75640873205732717 -0.37078974988370117 -0.41103596754232186
0.38583516700972709 1.2783920853750042 -0.4904460050494599
0.25186818965102376 -0.065264988894540465 0.8028826446761137
0.36983665179974778 1.0756354376087733 -0.4210083288160078
0.27114742557753146 0.6594404694851761 0.30438063665279103
0.684085800922972 -0.12493242846418706 0.39596202279813042
0.367451678672154 0.94445407518221103 -0.36967552310655449
0.82644138729651218 -0.49022656089366556 0.59615560359409514
-0.14251321027365194 0.27174690991227557 0.77155567647526979
-0.70179211096317218 -0.19541214894709213 0.51532010666468153
-0.72917259577042515 -0.42364288024448093 0.63960920443059877
-0.098449615032244253 0.37940401424153958 0.8144166475461212
-0.064375841947246215 0.80660311260216755 0.53398243278238411
0.32605225890301526 1.0773618943297221 -0.40864300479060489
0.11501751149864603 0.888992577813422 -0.071202627287863862
-0.24378352542920112 -0.56865199086569351 0.17093421777700257
-0.081619241904281381 0.61568128982805259 0.71709058287662586
0.28458618342875042 0.15454272463141816 0.50355620581668248
0.45943977782086165 0.017358937632517168 0.63202754584976972
-0.79214878775577091 -0.74991496654284129 -0.39840206873237705
0.12917051397072754 -0.13820410554742502 0.81198330323641343
-0.14785880367844229 0.031899588425973846 0.74751620553859155
0.10153452551734432 -0.15170283977686694 0.8025219119310627
0.12497446014759461 0.42706579733179773 -0.60043157455163865
-0.13105326646312321 0.044526620977781484 -0.73029396893608833
-0.57194230583051109 -0.63045244720179161 -0.27088469547786787
-0.082216676040445691 0.96996717461011572 -0.22851144981686033
0.33950891287728524 1.1469132780228302 -0.46055057429400748
0.73025993281994772 -0.30602760730319645 0.700479016224552
-0.083395893382913755 0.21128199778848789 0.75831347696747287
0.32051428015786243 0.42342775118704257 0.35340445772904872
-0.75739954241222307 -0.022475996042813584 0.70943732594722775
0.35842938230646126 0.063730203628550086 0.50523047434690582
-0.55004176091233958 -0.12194498928147901 0.75405700747191418
0.12215920023739457 0.43414975768406538 0.70650321253762272
0.65432235494025903 -0.69604136634272606 0.54492433410278807
-0.13496497771186 0.28845096040807405 0.75924899053902095
-0.042744559457105424 -0.47278640078976331 -0.13032911945690984
-0.38952326416992733 -0.17850960843117392 0.81227261792054861
-0.7079049813161653 -0.18325123769625939 0.73593811236913353
0.4160023480057653 -0.081094335563070885 -0.054893430439030055
0.26755717148083136 0.80128985042529211 -0.28269837181313306
0.1083927358008232 0.43414444498682681 0.72499120816081231
0.33119684832447049 0.65777652694888999 -0.040703215247020808
-0.86271510676796836 -0.34811675809674014 0.1044967759215325
0.77625098414099014 -0.16898319802887141 0.40076421243408689
-0.23274159792130078 -0.12072781800228682 0.76097471470599842
0.78822880541446594 -0.34825221415967889 0.70232131504586803
0.74814277641805305 -0.33069555181958066 0.66493402817065927
-0.71636158974157027 -0.7957573900909769 -0.38331006123304689
-0.38363035939212153 0.47533251598708759 0.63145332479905747
-0.047190576318158151 0.60422755318759869 0.67851749747356749
-0.14966638772029484 -0.013926174618890563 0.74502720545833512
0.27521276405438044 0.77882514344842857 -0.2819823558795882
0.39827260621402871 0.73337459004068251 -0.28474826288483257
-0.49266340951675502 -0.68606212678072254 -0.31735404737405304
-0.20916739931061556 -0.22242093746957003 0.73896227331542974
0.17605181618521115 0.14470860004298203 0.73056313798889505
0.09596857769143341 -0.11016004066595286 0.76679264301693451
0.10988791744553339 0.51653838946469932 0.68547341941450668
-0.82694937902364885 -0.72154505566934812 -0.39374933138058665
0.85759200678005953 -0.37926326533210819 0.64061250636414258
-0.78517837254784695 -0.014260229841676519 0.35319090957752053
-0.34770212084952945 0.54394137027571166 0.80289215409924708
0.42399581704058065 0.68794496434172725 -0.19086751740629637
0.31547750820467968 0.67063272506268667 -0.093641060891155092
0.50905534049596213 -0.60550223114333157 0.41313472379654215
0.13135579504788097 0.89938421283368841 -0.33081227221363818
0.42888861393464595 0.041958706317252847 -0.034122916708799522
-0.50882041861980554 -0.030704129143201087 0.7058107486540095
0.17091089241286639 0.86324786328381009 -0.17498667976258631
-0.35073331781442363 0.24505516353648549 0.78700845593697011
-0.60856936968741593 -0.96030191724030578 -0.37229168647343513
0.20963618081283641 -0.37175468062980777 0.36022208569648839
-0.17025088933732491 0.32769290037875187 0.7571699193243866
0.12032387754352669 -0.20148490604533009 0.75610000411770528
-0.60450046193070506 -0.71138094427454845 -0.33758934698901299
-0.70995706787113733 -0.84178358923928531 -0.398815618207081
0.13616103618611675 0.56868551603135131 0.66694684824834738
0.13705158403041651 -0.087191110338332045 0.76341805944774421
0.10253349037036941 -0.27426246654462005 0.64722224467920242
0.11781706482471321 -0.32765953293959438 0.50734502742913179
-0.18894913278698411 -0.12921682780826949 0.75168005914180824
-0.49309415651912047 -0.061312233993454868 0.75857595448709958
0.79699184740743334 -0.2838555523126054 0.69546075272942431
-0.17136127097986886 0.50574468205174306 0.75383009580965776
-0.92313516221321734 -0.63693841650249094 -0.34957427188499679
0.20970738272448841 -0.18108229500661999 0.78800601623624189
-0.68337414575257682 -0.59168345884009099 -0.21546457942336872
-0.45528180778964256 -0.61348003499299431 -0.16389464821452293
0.050758679667325168 0.47156670599410866 0.77410765707566043
-0.40657663971409974 -0.34752142555046284 0.69454376391200867
-0.58209581562774559 -0.92911847526245772 -0.38343391185440368
0.031167162461684939 -0.42511118190046338 -0.23262266633951612
0.20148695596765265 0.66775421197384066 0.59128802352784149
0.44256044134928985 -0.4732135120732579 0.70279973167715681
-0.98876496612497888 -0.9399698581511724 -0.46510905184604567
-0.058169119809893033 0.27453133578273281 0.76399680025685157
0.30965394685336989 0.47740431127953276 0.39717067996956601
-0.41622486018918181 -0.57911943874312399 -0.40182365273352616
-0.57426464398801613 -0.64483923296368406 -0.30784916359796455
-0.59373365907382336 -0.59441204085855581 -0.16981725876877363
0.36930743258902865 -0.3395764744094194 0.29143294159609212
-0.64916726732710472 -0.36272140557781629 0.67902658956074191
-0.32469159257689029 0.27983855455566431 0.81099460355529374
0.32892710242032663 1.1789569634415908 -0.45775474082105561
0.076518503267305249 0.58441483351719725 0.67145455348315863
-0.38109009917227255 -0.29948434556142978 0.74837878741786312
-0.27801910921236228 -0.0070404922142683901 0.76554537085159069
-0.31614523048642695 0.24692673388683151 0.8074081205467678
-0.61821519365134492 -0.50757413582601973 0.59134673530270021
-0.36411870105354893 -0.007776348522011034 0.73595965295837118
-0.56420797781713716 -0.0087674304159701677 0.76574555883281192
-0.5370267347639377 -0.036513855842863485 0.75822342240470419
-0.38351752732610223 -0.27717862828341122 0.77649422841005844
-0.52783273630734229 0.79927357799804666 -0.27370527035055403
0.039442527348683143 0.0899256331003917 0.75465250011228946
0.17878230250839877 -0.34850709231351118 0.63113868268077056
-0.72582419810263943 -0.75986235359193799 -0.37602834341587155
-0.10811290728667444 0.42479697280129436 0.8115768298608188
-0.37868909083843505 0.2926469796063067 0.61884675676252954
0.21835258575400118 1.2093694642453459 -0.37359912600443579
0.73221628112345982 -0.44653434764451383 0.66818064171189917
0.55218263721267036 -0.090811898949342051 0.7027987911467406
-0.10386728910683374 0.30855907649713821 0.77743697277753299
-0.084537671161239558 0.12681174911509885 -0.73655568049325737
0.65939702717176374 -0.56038213600820974 0.40938441019707028
0.54072503647208237 -0.11336743986954545 0.35507098832218276
-0.18340668710452945 -0.30269483918279239 0.640057432820754
0.46808917416949214 0.90272546744511351 -0.39149895155471981
0.83999373974016578 -0.24272788948076762 0.66584042332234361
-0.43428023815969752 0.021270304341109991 0.77406717197789732
0.24858139496036813 0.62819014350274616 -0.42169891611320054
0.42765300633498882 0.57129527756159693 -0.24926514743800965
-0.098515330854908711 0.22954728050093731 0.7641097647168813
0.8200258558483533 -0.19073686252200606 0.40619479259118663
-0.77488735945323128 -0.42851925463166562 -0.32579395315887538
0.30381499425904934 0.49541640682966159 -0.37043123023176605
0.89780103895287411 -0.32322064004352669 0.61773797349031412
-0.22498176184879171 0.38217953313992048 0.77417064950495984
-0.47658284240177551 -0.64771871048548491 -0.28803690257499426
-0.43557297415479823 -0.011524687049504934 0.73301733863953444
0.13622602858510291 0.31970577840348113 0.68607769510045102
0.43648170410780196 1.2486770166005212 -0.51815921095574424
-0.77533825161305714 -0.62524853947668557 -0.41205695693434663
-0.23449075372392159 -0.38080247300085279 0.59491223378329039
0.3379850616324056 -0.10953060413722682 0.74066795982362876
0.14922605147278034 -0.04567617971896798 0.78730080374104716
-0.55914692310552283 -0.9010833566088472 -0.39105294446000372
0.31980749636938199 1.036398009492252 -0.38738052654129973
0.75690996201177541 -0.51466056408248928 0.65984544719529481
0.15538693978743723 0.47461154241580061 0.65666742252124521
0.85215570629620885 -0.46212884597984427 0.52270045665728659
-0.096583422799252361 0.79182380831758259 0.66520727426066628
0.40911203316504441 -0.41599267682061658 0.35698220362602129
0.096176900658075937 -0.31855156051717692 0.49136802342728814
0.1844636953472083 -0.20868940775924294 0.76975597685649788
0.25387163148801406 -0.36543363337967261 0.27201072245289382
0.052161696260608181 0.61622763537759262 0.67327015237393084
0.018753643472432913 0.92690442064710776 0.0012593936029290376
0.29883661953820706 0.58972515820903926 0.50691303945371402
-0.34187621883118879 -0.098487089571824171 0.81111672281974023
-0.15428569610463683 -0.17364685271537361 0.66460513536184607
-0.19710146463017963 -0.49378376612840214 0.40172251555977567
-0.42747329485901275 -0.77002033697467187 -0.27058328298672052
-0.18171381609919024 0.7066331764814846 0.73710514444710995
-0.21191975009239528 0.43622383580379775 0.76693214456484071
-0.74104088921147948 -0.25500499476353511 0.59431655409903783
0.56300627355738797 0.91243207124208059 -0.44882251645693216
0.22413590256592997 -0.014797019636349162 0.80909059131461802
0.27028620582345653 -0.37249559169067492 0.69149435220036182
0.097056053736935155 -0.16782594502864434 0.79524303698932997
0.23341772535259864 0.9103053805864274 -0.38136202346625581
-0.071306609073385374 0.12345765258013319 0.74649461583512178
0.51183398849510908 -0.33971846534946781 0.73832446314151667
0.26846430784503639 0.97389518608219383 -0.34987893814338378
0.44219363091333364 -0.57863090356957869 0.62949391369237517
0.015728140708155536 0.68776362869809482 0.66636780021666553
0.25453124708343466 0.75514622291431444 -0.017190823949142953
0.19665451206446605 1.2131753137907277 -0.43607248226478745
0.18960584324906193 -0.3661354477354708 0.3530861113081265
0.083590881994094701 -0.14145524639065687 0.78407269484853614
0.3406985381745784 0.64412013835403403 -0.0097082345340453458
-0.20978596979286479 -0.33886662032004455 0.63043738917074421
-0.017164480975147001 0.344774234667935 0.81046224321399407
-0.5335328039345022 -0.16618608971012705 0.73481478589601323
0.51119057089658426 -0.24611355240899346 0.3215041976977524
0.5204877255083673 -0.66063857294582551 0.4715952133032566
-0.46696530501183275 -0.2180715260026691 0.78323831359816154
-0.57128709599004424 0.50890615627977365 -0.59302978580989318
-0.97213101893558473 -0.92432267336568508 -0.43546267828570961
-0.55963364460684417 -0.040078856673112284 0.65650847592944217
0.059949864852903545 -0.30162271245506744 0.50927107423665774
0.52276747797905543 -0.041793308323251566 0.38668920554450636
-0.62172085847366532 0.015963194297192729 0.78734651681860868
0.36297600223878135 0.96510338496829595 -0.37661193624359868
-0.97679208252229088 -0.70399479661015985 -0.3833684078855768
0.6713316791365358 -0.47087594449089831 0.66912264152004752
0.39401729367639504 0.72732697480952435 -0.27198595850156693
-0.19937997002443808 -0.34822888074309954 0.60489287550161208
-0.43922646837762969 0.18707260817789617 0.61170331091348373
0.28314487448320236 0.76030237501209719 -0.28142021131268891
0.31630367410316396 -0.17111469988568206 0.74299302645916043
0.39551815540576385 0.89768708936005392 -0.35730182448978809
0.39475778529529038 0.67244415093726451 -0.20358215589659778
0.42904300585193056 0.72887596711495961 -0.25993690900716615
0.76169707565272304 -0.39576410700619036 0.66808934433532485
0.1442029534193523 1.0331351103168349 -0.36954292313284043
0.047238261842831974 0.89682272008390385 0.086788361254377833
0.50115008031354336 -0.52127275966394748 0.3815169548242423
-0.12656241226921949 0.97661373009890706 -0.22993409136179821
0.75093777597318834 -0.30653229665587478 0.71594472705060852
-0.74584178237704535 -0.3559273430248604 0.56359773429787197
-0.61597305893189258 -0.20787210926187427 0.62197956657751519
-0.65163611296982538 -0.28964096082230295 0.70683096157243597
0.1974943083485492 0.017415424845475869 0.75095085027087194
-0.47513055967468532 -0.55540238101147565 0.54187806718329767
0.31255012003284222 0.069439518037629711 0.54508190269763546
-0.35615135694463618 0.19795959981445765 0.78315424345143825
-0.40942275064884015 0.18184495431989411 0.7418123201073179
0.77232596119891284 -0.39804981153661601 0.69323984926058912
0.13804213599919635 -0.33921688912544123 0.56212770579629634
0.85463100229636524 -0.46179149560042188 0.54919340692111263
0.49819281713517327 0.83881946104989513 -0.30533423804027393
-0.37536868116348998 -0.5166869023452394 0.58318043350114124
0.3623018118200072 -0.017824789444317091 0.70731327885176043
-0.78826786344152566 -0.96883629689553397 -0.47068135227036123
0.66173227659640688 -0.083219879959321119 0.4147813958605866
0.36483584593907992 0.63881736887648621 -0.16215280597685222
-0.720064280257386 -0.28279003826713378 0.38896479960720143
-0.088687222292559653 -0.19869240908084418 -0.63538375211445342
-0.72852983665298865 -0.53568374590203849 -0.3137382027379445
-0.22058262438151033 0.75309725397970606 0.33208039099318754
0.25842377450882381 1.1023867863322341 -0.41372699596026052
-0.64122050579756618 -0.060350006528720357 0.5561679273803648
-0.59981839376741064 -0.97777930818805148 -0.36500587013036778
0.33516803744748813 1.1763298092267522 -0.46746889707511841
-0.67986852403228681 -0.13079678889747459 0.53727958082492222
0.44164656353862597 1.1931617986348177 -0.43828755993448709
-0.12917857945767963 -0.035709980007950115 0.74426771297225969
-0.58739558435034311 -0.24096960727809957 0.71103537939823269
-0.18792381007781245 0.3363651005363284 0.76831014879513759
0.041340620714507281 0.88110585738267311 0.5829205627233236
0.45485541683529718 -0.096284131593802336 0.2346796056893119
0.53886973937226657 -0.50923191375039956 0.70958023690442218
-0.43852627114215892 0.59385345024262293 0.68823262453778966
0.62144741810960724 -0.40431968577259525 0.73321802411819803
0.10493291502690383 -0.13275739482772853 0.80336968839104728
0.24269860352791639 0.0059635588688617958 0.7476646869973429
-0.4393283075815404 -0.087857185184322617 0.80248544114866149
-0.48274297597415128 -0.52514543850568973 -0.43810316166329599
-0.61715726496147028 -0.6605415256036391 -0.31768337281213377
-0.2387862211435845 0.47502108744521987 0.76070055061814656
0.12581716854197111 -0.18287305928279718 0.8060857531394241
-0.19764915881902212 -0.39823873635252305 0.64558360054067521
-0.37221962218449534 0.87258652645441082 -0.3470226318944114
0.46610750059291561 0.83209146468882356 -0.33488483835999361
-0.61877418337765278 -0.85802082968345594 -0.46684902624925684
0.3739679003505394 0.31035527441146815 -0.18254898589205482
0.7201699743099006 -0.51392499153929272 0.68636450708681807
0.14169093155657464 1.1270709418587286 -0.31141468474043421
0.12939237171219631 0.73139544234318876 -0.46781310924155761
0.19490066331114875 0.026569147253937331 0.75252824619979108
-0.17422395414946479 0.61066321340091534 0.74018251861021156
0.20979865084833094 1.2446284440499369 -0.40545310958462011
0.51106870931220882 -0.63412969733280633 0.43916600403997919
0.21472796456173882 0.25875799986177217 0.68297783021622038
-0.51660102432599331 0.10412104560976854 0.81061270015730358
-0.52812216313997595 -0.31990798642869045 -0.55698234866565244
0.40862155267577194 0.67702701337080295 -0.19636055826122956
-0.28319529121226239 -0.17437529734411328 0.79710249703283154
0.27073963051299543 0.76966965230803508 -0.25545141947722527
0.17077904201072158 -0.052925776841362904 0.8082245235164045
0.031163288770692077 0.4283622010675856 0.79366107994895785
0.64318504857534364 -0.46852706351215812 0.7103139223604984
-0.41160954936753669 0.022209081541642028 0.77433072052740926
-0.028421774976717273 0.94439965882413102 -0.28800995625510595
0.36735500738785021 -0.3674809176552909 0.31904896655774806
0.23357438667129315 0.92614052442316286 -0.30416565129964113
-0.40746704371659348 0.35501329486843325 0.69552730294085308
0.056904679894810073 0.37024464095962628 0.77621645844174125
0.13971063283485563 0.47052487232601514 0.67976102026732832
-0.65743387743847137 -0.97735278281253279 -0.39203515530884658
-0.44705707266438566 0.24388702478337621 0.59293971296659009
-0.7460948414159958 -0.25249874938651651 0.62436861159316237
0.30617250218997327 0.42146713029574823 0.56298157381149494
0.30186407556964312 0.2531585283464759 0.51355504660469364
-0.70929585700174158 -0.48782947671700327 0.4461572469258499
0.16311278134630669 -0.086522327944365429 0.80774144271108383
0.21054764395127279 0.98480780152420389 -0.30223658469057213
0.28676538434545051 0.1011797689206464 0.5142712176579991
0.1082603342459052 0.82528454724034006 0.26017745758053223
-0.21888242187977269 0.43705158377699949 0.76840754632262787
0.41333744481473289 0.69389221590239458 -0.21750233674612574
0.14623803583323536 -0.083215881003424919 0.76085868593474615
0.91257733737467106 -0.24455867380271279 0.44249584280048992
-0.91647310763168477 -0.80971807892129588 -0.42663311406155557
-0.53455055574318777 -0.25910755016024911 0.70041786858995181
0.21549499971402852 1.0877233813643707 -0.44432675371503194
-0.21986072527893441 -0.58515094230909348 -0.24133219475163514
-0.95801727179417284 -0.66611542012659375 -0.40435275032447038
0.0050625741651622036 0.63228775783153335 0.68043125925499126
-0.066217163501256948 0.8764608249732202 0.21699979741463338
-0.63019915689359252 -0.60366659920871735 -0.22316261010873717
0.51902746557245649 -0.14037556858917988 0.72664239087352911
-0.22237975800313592 -0.30986889824606978 -0.58868724081001389
-0.30529675877188467 -0.22755443507175066 0.7962024806686685
0.4097103049348263 0.79682259641453523 -0.31242097189221241
-0.28102916088073826 0.56664665389680113 0.77899714139077147
-0.63891441547684025 -0.75947195153734537 -0.3575513867214255
0.25713228203140304 -0.11333951555154798 0.79294304020972817
-0.37193519143410825 0.6308973419515489 0.64810673863939883
0.50547821410757621 0.88246570225632048 -0.35504049666965898
-0.72050115494099387 -0.40697307114966463 0.39743006351348242
-0.1208758141058901 0.4535179984574409 0.80508074183472544
0.67112144308757138 -0.67889499390541985 0.49304948873132659
-0.47766578698114159 0.15945874231599255 0.68821782929560982
0.57210845360306806 -0.37952092512299362 0.73623705237355708
0.64778931106657467 -0.26052506465290293 0.73137994277031737
-0.26313830887833944 -0.27219466308864426 0.72837809355678473
-0.75458826116872046 -0.43635604262350203 0.5683711207870914
0.12311111826895171 0.49091315979346195 0.69466988454648515
-0.0028883055166666338 0.5254168504394503 0.76604464217883006
0.13105480259460478 0.40749361195710421 0.71658806021869736
-0.23435969779846033 0.31665646368414002 0.70133327473797991
-0.1628338494379129 0.72104510367188634 0.41793117954232528
0.12057479701694263 0.60529183385106577 0.56708175791672488
-0.4627829387476794 0.48365673733106451 0.70157168342972298
-0.34729511246123579 -0.63317067883257749 0.010588836619362496
0.13709261373766068 -0.11026439565145729 0.80837994597071727
-0.96201749623689636 -0.79115535761787048 -0.40460611891731446
0.65870205873406107 -0.46617217707690628 0.65885264065245863
0.5129116794402222 0.67665484346019689 -0.27732854625272552
0.28228649014286589 1.2409690910403195 -0.41040620311432008
0.42461689872347819 -0.23658141264652421 0.25219699196603074
0.37394051413056317 1.0454552439395037 -0.40935330124974456
-0.6048976179006722 0.36106963507856538 0.43967033374140385
0.55286929491012771 -0.27315115242157972 0.7373592509167608
-0.46869659158302923 -0.58393120278217214 0.48399591154146293
0.36134570513080533 -0.21880993893612999 0.74283195496050425
-0.31761247776969626 0.7740808785401323 -0.50739490605951332
-0.27728497149268705 -0.29409054906181087 0.72134616448607147
-0.63862486410427977 -0.93702048397488147 -0.43317970711666121
0.9312815084934698 -0.18293885861015724 0.50105445204107824
0.32134952780897308 1.2709088739312429 -0.43513254104983545
0.53405431057488428 1.0580052316883051 -0.51098370643373769
0.66373148576104057 -0.67091222087621372 0.4663192035905297
-0.18341593986728455 0.33960119058753868 0.76336525890157958
-0.65421634171191201 -0.60362767212711255 -0.22527278108747595
-0.94859518184354741 -0.71429184752332509 -0.36507406309398149
0.41000457396053847 1.2472984970142993 -0.53685822119692972
0.49862597613165605 -0.39505820814416737 0.34918916712184611
-0.6562898266629702 0.086523771860487209 0.80821824122045882
-0.19287458506403965 0.51928447153799251 0.75437441549700068
-0.09120686263335287 0.27073345526339843 0.74874565400589077
0.41696966669047342 0.94146576194726572 -0.39037857899897688
0.26004756046597421 0.82479795333864026 -0.28339113465840882
-0.5732955888276976 -0.63538085098011443 -0.28474510951589593
0.29258607968624872 -0.046171892588932728 0.75052247423422358
-0.49521578720867865 -0.65621692066163106 -0.3157765655124436
0.62631567425397705 -0.42414312603995352 0.70821279513890545
-0.47343658543920242 -0.11000399935561411 0.79033450857284038
-0.4079009597622516 -0.3666309678812425 0.67189321934081647
-0.6737994949251096 -0.96401894799229293 -0.44727356165630994
-0.370860736249643 0.27526037548518634 0.77041694230348412
0.59985632730149874 -0.44335887922659101 0.73055432734584969
0.75355431752991819 -0.59420131627792117 0.56658607503134562
0.32391527447909141 0.52521298805814753 -0.3483972728725746
-0.31086732008548879 0.2135674321727894 0.80443904643689024
-0.58600102216070482 0.091202821850225213 0.80912703630524163
-0.3009400976423926 -0.25845276161462749 0.76456607448761815
0.8392367797443292 -0.16968775023596194 0.4189110141494794
-0.57687432994377374 -0.32409144315397942 0.68229624654760102
0.2548728810407539 1.0764411967020235 -0.40158906373714132
0.62229470715380941 -0.68487854756386302 0.59900920797927171
0.27229924109485992 0.80404106929365904 -0.29317262162250657
0.17897099764682878 -0.20216259902663136 0.78616289152688168
0.67255110941939833 -0.53650994873062885 0.69443464073991024
0.039722205525915655 0.31983728204894568 0.76530262039559815
0.12184869524660513 -0.18989584927158809 0.79986560323684941
0.88972295101520871 -0.15768297933251674 0.4688130967575681
0.044714678733729585 -0.29449264295771727 0.57870742853837953
0.74598946748157502 -0.39528477936317064 0.39129234132285262
-0.39403227704669774 0.47012781549273441 0.81869560074375158
0.13930785500118859 0.80917696129640149 0.56644524557554021
0.34115553677532162 0.90228793141726715 -0.34400034975228877
-0.29523715258869032 -0.058382589969794729 0.75635271643627178
0.37304378813607997 0.51831691982371453 -0.27469951484046717
-0.36790826110285124 -0.53551382159384797 0.55837979078327749
-0.36601559980545773 -0.7671943429225756 -0.18379238115269203
-0.38784875076666125 0.20706926303053219 0.63590945122930265
0.48197162011907579 0.81095307284330431 -0.2861729230822796
-0.24616908316221142 0.71159151881436777 0.65837770517116923
0.10372980126065912 -0.18677451288984592 0.7724601586381219
-0.34547887186306525 0.12569144222216266 0.80077782766673522
-0.37302671710770596 -0.24143897811765935 0.79462717943310679
-0.19044036219889193 -0.18874652821561178 0.74156702163910282
0.047483207828626917 -0.35140913710964128 -0.41551259481763125
-0.097129730740928011 0.97262189762947848 -0.11346500554832772
-0.75711495685492025 -0.64870439163414684 -0.2808646845894458
0.77963650363498616 -0.26878663697977778 0.70018680658848709
0.87089870186671092 -0.37944498691835804 0.62413223003105145
-0.65527389529804125 -0.54540306365252622 -0.38074481235699764
-0.74741757416147081 -0.84172676978178873 -0.4951814771118741
-0.59172850408136313 0.73455342810591961 -0.28833838397833844
0.15211476274801683 0.8326863551828021 0.49028294721871646
-0.38040373155322627 0.39558211126240295 0.6417499568336531
0.51193708109153846 0.9213343578112001 -0.38476451551811763
-0.46614560263178006 -0.5813292806188457 0.39720049652309086
-0.091305509952370301 0.49685958812421038 0.79314340565720087
-0.78126132917332924 -1.0323523718623218 -0.42183440589936794
-0.43162895070519625 -0.43079852110086847 0.64941217321089084
-0.33690422800452069 0.31434470686629634 0.81452355555877176
-0.20821369706943571 -0.14041331500338217 0.73099077408411262
0.20377319990676312 0.76803808444862565 0.25064494882975552
0.78866762233610999 -0.30932943369961485 0.70289633277484143
0.17320298344336038 1.1462487091971694 -0.32353662477643752
-0.10881938320731166 0.68108156259683916 0.72186717287829794
0.85369780084479885 -0.41144705907419965 0.6271962849978685
0.73420328177688887 -0.31796441188855251 0.66519052248019861
0.09588832826198157 0.83859149947072975 0.2123601941223825
0.11223476747584371 -0.40471310977403174 -0.15065355905704081
-0.27315992945361955 -0.71150780279070291 -0.19234617956193034
-0.28521898885292885 0.33361077783381177 0.79242220196524471
-0.2182934006365187 0.48804536468187987 0.7584420285973188
-0.23592513180186714 0.96261409712283097 -0.1170072636709385
-0.59357015252686907 -0.41095031519447467 0.65023210385204777
-0.67136856147743629 -0.29244309547587832 0.71271210707723043
0.056771904130474837 0.49832801069633526 0.74415318773607098
-0.81637396195027279 -0.7482293007174432 -0.41229671514439659
-0.44056655041929105 -0.27001543085088375 0.76700485549255148
-0.23311178620073036 0.36261234775879991 0.7184912490959583
-0.71121612820369862 -1.0070051428939402 -0.40101740995231694
-0.047758474927235284 0.46496927837723945 0.80185562972915392
0.81965118249430091 -0.1145746074018188 0.47063227038542266
-0.47477054723229628 -0.38611595632430262 0.67313346839343069
0.64885188949214267 -0.027245346168917273 0.59688438702047364
-0.72118372360344907 -0.34630494696265579 0.45636112272335083
0.2106394124198232 -0.082923019317094671 0.81265923964980047
0.054757342836513345 0.39572232868987545 0.78924691227568644
-0.06201978298180677 -0.46694778204364962 -0.21409821870812351
-0.34831056995726328 -0.6352753403706437 -0.079933954880225144
-0.39248992883017308 -0.018137734693194574 0.76700785256735315
-0.72861427367540088 -0.34945590759272083 0.66961310237586247
0.84858665801070998 -0.41510186272173755 0.46419695165460695
0.36053135465299491 0.42449376781053738 -0.23910806932017081
-0.69358481897353741 -0.70908943930905233 -0.35072565273168621
-0.26583121089486639 0.44364498707105149 0.6689067207199173
-0.61298722124366378 -0.24314051711056806 0.7067121413212476
0.5457504971501379 0.010506521858967055 0.59901433704009577
0.17798845932929197 0.70541889103582367 0.5912575323940743
0.30090664395753919 1.1183084170368804 -0.43543807998178607
0.44434338727339906 0.04235138642156322 0.49147631096962741
0.61203164617304751 -0.45330130845969396 0.72717331134902707
0.52292016537150232 -0.22936368739187163 0.73791068519646785
-0.72782596963907409 -0.53381134151121934 -0.15370860525968766
-0.62001734220099181 -0.64611704472209475 -0.29617170022421391
-0.090041483656580823 -0.4358059732071089 0.37814636198748985
-0.90052822057650062 -0.13276185722289657 0.13889160585537041
-0.54675681806671861 -0.052210167097884508 0.75485499596274508
0.083012105016525339 0.56114702810900141 0.67208672628883548
0.65726779888706588 -0.612069290681168 0.42542274398863711
-0.10342083784895451 0.86627857204482694 0.22190259395432577
-0.91639236658396328 -0.73043919997436291 -0.37091663682121734
0.29729475931877758 0.6705472676548081 -0.37394841620558239
0.29155510541228224 0.13172718781128268 0.49001890248587543
-0.5056890817517079 -0.32455225945729449 0.67126832355191368
-0.42183823623566852 -0.40439032563711041 0.6681362162979454
0.4005290978859648 0.71873492477805812 -0.27036628444794886
0.46702728987162345 -0.010029234292908917 0.37742603963299004
0.27402735852749416 1.1273169327748862 -0.43232784325905982
0.085908456804453692 -0.17450393857588598 0.75270164641533199
0.29742855942167523 -0.16101373175296274 0.74532906575829116
0.77501669919055871 -0.36966411679938993 0.69798260245855914
-0.11337454482534071 -0.060859294406006015 0.74760810749684481
-0.34916794399043027 0.47837860843811431 0.53504284312049677
-0.88110063687288331 -0.90762339273582593 -0.45246124761571593
-0.28619575928306062 -0.45747199603598521 0.62280398695375538
-0.65825814254991499 -0.85825924371163653 -0.40049318002317236
0.013653961884678267 0.6733333566557409 0.6711176953551572
0.19747222562671141 -0.36747199639177808 0.63239086423829249
-0.27263200644181751 -0.17536496259545231 0.78165779442163696
0.68050700224479499 -0.65302999437182407 0.60016182979119748
-0.76225673452711007 -0.4075357141267939 -0.37293035617001635
-0.33448078595133524 0.24432784553846343 0.80082911634353948
-0.4287512067838577 -0.78819101969673433 -0.24607186285419402
