# XYZ point cloud file
-0.72655730193188717 -0.39842364597673274 0.39391236093994308
-0.11432400705733059 0.45112981780391248 0.80463646908152953
0.66173130152221304 -0.68190109010671129 0.49876325639806751
-0.47463049454636774 0.16209050682251247 0.68786945265478749
0.57170565542592655 -0.37475838357697189 0.73684037444669315
0.64935435804357056 -0.25724033706173266 0.72946299192691555
-0.26486087282203385 -0.26761247830025869 0.73117548433014079
-0.76232637745139797 -0.42518955521659318 0.56627155422393471
0.12831344010545109 0.48790346484120928 0.69208290633631719
0.0036102336612060526 0.5218454815218978 0.76463818348049273
0.1357892509122216 0.4055773906218656 0.71384753696286296
-0.23026657218924385 0.31671738726431453 0.70152663491808909
-0.15920960380180915 0.71917866543044928 0.41993121686276424
0.1251054671707692 0.60157956312043748 0.56537459175962823
-0.45708755071643736 0.4839618692618135 0.70174291345828621
-0.35498476003368395 -0.63527830946103547 0.0099590338653534616
0.13832045683891891 -0.10583280646771964 0.80825062201185105
-0.96440462080187572 -0.7806809843837641 -0.40686421661721184
0.65624444638844182 -0.4637155901081309 0.66069673769143122
0.51111368395631374 0.67903309867266692 -0.27945918372576628
0.28498860000474835 1.2365076757313966 -0.40718703880630258
0.4170720130620893 -0.23918391948254669 0.25136373605960927
0.37408521889398827 1.0449274890531646 -0.4089062005763644
-0.60299644853888168 0.36445320546390336 0.43693476964910261
0.55334398060734102 -0.26887250108915417 0.73625316250414841
-0.47801828696527338 -0.57830626390490192 0.48592892654242448
0.36094394534153906 -0.21404703748273501 0.74226980648698415
-0.31953664542353266 0.77409283082018132 -0.5059937546620219
-0.27940135599860128 -0.28938378497270456 0.7242721768030016
-0.64447826238689387 -0.93577536174270115 -0.43480387742216564
0.93100213671394627 -0.18701344850054902 0.49678138501037949
0.3245790009821512 1.2656585464879782 -0.43228812000548089
0.53380445930060816 1.0584284563517148 -0.51269840632448904
0.65364981936799893 -0.67460685171475987 0.47172239435205654
-0.17838389662211185 0.33900967644900071 0.76337645188273129
-0.6552751377699586 -0.60218886325742893 -0.22773934856488864
-0.9499917615618827 -0.70528045213932544 -0.36787421085067962
0.41196288145290083 1.2434896890900324 -0.53586051870433238
0.48956856021729322 -0.39779692801820321 0.34986074223765584
-0.65327395342045946 0.091754752374443527 0.80723572954262934
-0.1864430818512588 0.51675787600940026 0.75469183352011271
-0.087181696276608989 0.27076806284570587 0.74825423404890046
0.41626573703648262 0.94247697678062847 -0.39085816381891192
0.25905688902342305 0.82599118180002717 -0.28267029959518553
-0.57398209491645247 -0.63633930740285094 -0.28631196006985959
0.29382378374983631 -0.042759255803948903 0.74850007005105823
-0.49617717612686008 -0.65925387248765421 -0.31680609198128806
0.62532496213513511 -0.42028009470451799 0.70939094486968912
-0.47225670991293001 -0.105311198517831 0.79179454178517972
-0.41170475892980107 -0.36116146808694438 0.67452362333552074
-0.68012067353168604 -0.96141394232620003 -0.44898718033996943
-0.3658752761160784 0.2760319655234964 0.77082488248035119
0.59901179450820763 -0.43864274272730075 0.7322253025511074
0.74823178082049679 -0.59587280375279761 0.5706265552106693
0.32195764245958713 0.52722613248869221 -0.34844194850223431
-0.30603850432105162 0.21450150432808801 0.80502452563991511
-0.58250107191512868 0.09535628946988739 0.80892528706974787
-0.30202499561255536 -0.25359019883717604 0.76749896801002748
0.83603141273169967 -0.17327048510635823 0.41516923541004758
-0.58040726410472487 -0.31690097172828269 0.6832657326115843
0.25501341505013642 1.075541890101253 -0.39939839900690188
0.61535606549317734 -0.68373478628300344 0.60545217638779647
0.27113627057515544 0.80548177125782239 -0.29262025928698776
0.17888547481349093 -0.19699986070841113 0.78672646224178422
0.67070930293519382 -0.53323290795214096 0.69771662549437607
0.044312038525745834 0.31909980333453269 0.76353406517507239
0.12203753421136909 -0.18479854581621158 0.80071129834615462
0.88838766252430545 -0.16132881345697836 0.46449421209042896
0.040381652940556734 -0.2915699478711371 0.58046134920162373
0.73846405024062989 -0.3999113128042131 0.39120837707992351
-0.38665515621229574 0.46898970940432783 0.81935088680537405
0.14617804811447854 0.80184979408541501 0.56523764062799842
0.34035177627880131 0.90328927322339236 -0.3437555355756281
-0.2938199619556805 -0.055133541018490995 0.75773911746176381
0.370893139232642 0.52022356859356389 -0.2754685338088656
-0.37575915995281761 -0.53060374181093195 0.56163363400644428
-0.37429284455697953 -0.77171554082188099 -0.18482753608131119
-0.38503496626428557 0.20883022953910668 0.63578832357599424
0.48112401866367094 0.81243444759246408 -0.28794988854396664
-0.23949499400407603 0.70825477699369266 0.66007005564645382
0.10343173057220412 -0.18204853508514862 0.77337240929906415
-0.3414701741861137 0.12758910393606282 0.80157760924754839
-0.37353319659591477 -0.23624180466745948 0.79754423294545518
-0.19096504617924026 -0.18473122044028756 0.74370214404768831
0.047301188207768519 -0.36190410352588376 -0.41458098342844707
-0.096486843508650111 0.97244084317747426 -0.10886367587342605
-0.75793525669739736 -0.64500526558535709 -0.28355967826919581
0.78207361973111134 -0.26761743398635485 0.69770477574111922
0.87123426028903239 -0.38113963342459023 0.62341809015698502
-0.65164680445463929 -0.54637400366710143 -0.38165412372136487
-0.74753053544387527 -0.83860085255133621 -0.49556529804918625
-0.59407225040709122 0.73561820557808666 -0.29065113426535305
0.15832297490677405 0.825726668369688 0.48950837913082523
-0.3761604243729515 0.39609507847925496 0.6419349730689845
0.51133869717476088 0.92262795094664707 -0.38653861034766734
-0.47524875189584037 -0.57671005633256556 0.39810812924846317
-0.084599499432059133 0.49385382505319075 0.79251762044553686
-0.79107408565278803 -1.0243798181726418 -0.42448907833485094
-0.43686149381407091 -0.42488357013618794 0.65224320873321773
-0.33098391014551964 0.31436826406313667 0.81505315107334297
-0.20823271209602012 -0.13680521542669943 0.73271616814885476
0.20661355097170997 0.76465022549063111 0.25007900561517005
0.79093684078895876 -0.30811854456669163 0.70110136395678779
0.17474745808142345 1.143647703246458 -0.3196097585463562
-0.10155239019274376 0.67623612807697775 0.72226531633986113
0.85354910002041606 -0.41281278456257287 0.62718775036346486
0.73441024528113985 -0.31659828985648719 0.66391336632080211
0.098778437620364201 0.83535174463281603 0.21372944837573371
0.10612786867729795 -0.41332421233713434 -0.15060994224570123
-0.28056504708791152 -0.71808401727862792 -0.19292228529997857
-0.27957092075828172 0.33330035722403473 0.79283275309307655
-0.21201505956204514 0.48598349366320903 0.75880886667370007
-0.23584618350294662 0.96365916989761446 -0.11241025101788082
-0.5991071890537043 -0.4029631391803683 0.65134863813638688
-0.6748795591293657 -0.28372143454854992 0.71266781245176603
0.062708962259421241 0.49510373725439383 0.7421253915732855
-0.81634385869417159 -0.74328093836943898 -0.41376326084421322
-0.44194300474143589 -0.26432711848080315 0.7696289846764337
-0.22841767650793088 0.36217006458648271 0.71872523028844526
-0.7207209742434344 -1.0019597319628044 -0.403564758133097
-0.041229817964214988 0.46220463960811387 0.80073427237427452
0.8181501442985244 -0.11701295774996545 0.46616641983871787
-0.47908762125164017 -0.37985087309736798 0.67549504585777953
0.64959953622854272 -0.026771610048589523 0.59212689435068455
-0.72634063146138317 -0.33775763469222797 0.45298374777987149
0.21242170261149695 -0.078631763988613379 0.8116088525890568
0.060453613438799181 0.3937950436259321 0.78707363284130238
-0.065959007825576066 -0.4752785860947264 -0.21406404219173325
-0.35471232748350445 -0.63853517502360035 -0.080807433412228846
-0.39037865591236809 -0.01480619460104915 0.76810070806904918
-0.73406534869991447 -0.33915727163813614 0.66859391051402994
0.84344891099967612 -0.41999147827505823 0.4641817661698866
0.35826531812125495 0.42572234452645041 -0.23995594816740962
-0.69408017126573185 -0.70730437612915997 -0.35239798639472042
-0.2611007773812446 0.44290396517137154 0.66936602682128665
-0.61515591619622967 -0.23594642639073404 0.70694596660722908
0.54610634609003483 0.01154454553058315 0.59470920943292427
0.18415602196391845 0.69942147094995732 0.58886964847570056
0.30140591027553398 1.1168448861810201 -0.43357789100289423
0.44270670084158326 0.043100600600869399 0.48814804711793158
0.61114848800970023 -0.44874082855873265 0.72898452996953012
0.5235501023613871 -0.225188757117742 0.736325902577736
-0.7290204143258876 -0.53037749501012299 -0.15730493903603104
-0.62049407023815917 -0.64605839494547956 -0.29790433837602137
-0.097306399377909969 -0.43532279697499376 0.38002856513112704
-0.9026618338219059 -0.1255873463295295 0.13030252569573619
-0.54539299543350239 -0.047352550885714884 0.75511669374765944
0.088496555907340735 0.55739133425995568 0.67018642893098246
0.64691187967143193 -0.61646077085245743 0.42942627587134297
-0.10060339624486403 0.86435104511871197 0.22530674246989335
-0.91769867100610725 -0.72218985183525231 -0.37344809486951291
0.29537355520493591 0.67300963269062386 -0.37363636535993905
0.29061084577347529 0.13256699472718392 0.48741877583483628
-0.50896252641210182 -0.31839517693086261 0.67280349210605195
-0.42640382496207963 -0.39857929759099209 0.67099860399139288
0.39904436206609262 0.72067514590645487 -0.27133686778280008
0.46336053368694152 -0.010110080780082242 0.37460755763354925
0.27456137456713492 1.1257398984901048 -0.43003551788484629
0.085399586197372201 -0.17012481204682661 0.75357689788693705
0.29737809646162106 -0.15661924182030429 0.74452542300464586
0.77633959728752444 -0.36816681309131383 0.69742022107353918
-0.11248017434017399 -0.057746866295556032 0.7485964134543579
-0.3456652746343849 0.4787334351175434 0.53547755065428504
-0.88500684675051744 -0.89826266886531925 -0.45403866199777099
-0.29201568409941103 -0.45280087406680014 0.62641201608960628
-0.66200534281770018 -0.85664975924514319 -0.40203189061206857
0.020139625160634722 0.6682291720785356 0.6703990630779586
0.1927079746028042 -0.36352984058824767 0.63463538438087852
-0.2723660294792758 -0.17110855018311355 0.78401420861593252
0.67467470220898562 -0.65264537875790118 0.60578070910132809
-0.75719439508491604 -0.40766074048442924 -0.37467931681173283
-0.32938543977792634 0.24507679470336274 0.80137554320878124
-0.43577740688564504 -0.79189726104923619 -0.24741680474683747
0.2613556600368554 -0.29544889654810014 0.72459222031779902
-0.83094564070255217 -0.76954485810399897 -0.42764785697361418
0.21216654507481536 0.19282888417301924 -0.57603944202543289
0.70609288890533861 -0.51215497632291385 0.41373984839842848
0.075016056934956055 0.60397998290403088 0.61766062097310126
0.62085209244248318 -0.44554014710878231 0.70799623157246927
-0.19495834306894366 0.32708719123091079 0.77477709516265136
-0.46155905368538086 -0.25632344620553571 0.76410549567450659
0.066073497068121156 0.39180241934627613 0.78206945294947872
-0.37562239464566716 -0.36235908753519741 0.67847895487312826
-0.74276098494984666 -0.4538364560076853 0.49239226209356701
0.16479647971046418 0.79340491552254155 0.27610405520485415
-0.08451713789188986 -0.3545720025903969 -0.51931648436454481
-0.21636178032190045 0.52287834175953485 0.67540336591156702
0.40844222976313205 -0.23422148174891788 0.22330703216712777
-0.79696491121272217 -0.47730743111904728 -0.011799680206618035
-0.33636370522197012 0.026838291132178504 0.77287057457759545
0.47220801130641377 -0.54977000673515697 0.39595598015828415
0.0074674042199092128 0.93626921203539748 -0.19643713162624366
0.28669963263624965 0.46217599357314243 -0.39367546960354005
0.33666029553152654 1.1241539133850176 -0.44292552957039533
0.72542614118064463 -0.31526530572893918 0.66594191725810248
0.67915350526486051 -0.61013994604792909 0.64775690587856971
0.38938617678719467 0.53587067051880677 -0.097195835142574794
0.19872469408983662 -0.19437457927063573 0.77636908819677686
0.34683108918227035 0.21858024515999119 0.29953326358269194
-0.32513131818281593 0.84605008784962321 -0.42048644876362218
0.034086592592814213 0.40502883106556631 0.79664919031321446
-0.69761006009063919 0.6505121397543383 -0.10837354974416868
0.088046465272828556 0.58620124040471477 0.67109460712433489
-0.54451138053651604 -0.29371673408015209 0.68055393916750972
-0.75899986648565942 0.34988229684430561 0.30391430668786867
0.036073382768069706 0.65374912705231036 0.67162861022444886
0.30183516598101434 0.10169067200323667 0.48758330701429387
0.22307924711270033 0.012983369287045576 0.75251232583821448
0.39091866333343717 1.1673146541292097 -0.47798172859112498
-0.82223357564961219 -0.67591983792430521 -0.33239551200580308
0.45941379153233441 -0.16347540280604633 0.27379435539871366
0.83893897698248665 -0.19580812602880471 0.65037898243680203
0.59349684043666429 -0.22894205942098189 0.35280255824382678
-0.54568235213867311 -0.39396545194237564 0.65769321608249243
-0.92293255114042694 -0.75813889711051541 -0.50430818880499118
0.56187732633778964 -0.47923063127320908 0.72263146701910586
-0.55413009537048552 -0.37137953595530382 0.66652704747379943
-0.5681446667236365 -0.54269401726919453 -0.41189223609147874
0.68565078763323939 -0.4683113198812876 0.67751189744379658
-0.63393901080842241 -0.34593207476256715 0.67490449043107859
-0.87799295701499958 -0.90602768824075741 -0.47357088795989455
0.62732781024035233 -0.40114996464129948 0.73124261325428463
-0.36150147049677273 -0.63679677113751976 -0.13755056670841626
-0.1216177454304308 0.74954078285600234 0.39504383220708661
-0.48686509064255645 0.42040542875216635 0.48614538175080568
0.28806336556745293 1.1493244046791387 -0.43926272959979329
0.46520147870295858 0.032844563902739488 0.59425970111001902
-0.33009425084245692 -0.081123000081285035 0.78906699433844807
0.11580278629181961 0.4936311337712036 0.69406319807020722
-0.098888664522487346 0.44325315029466772 0.80770428741445599
0.30219807014803379 1.0173696618690151 -0.37613652863199221
-0.17342069216709177 0.50947646296420768 0.75772408791023693
-0.31722300106645918 -0.64299774081616357 -0.13398943657255558
0.54312809821335151 -0.47674112391451473 0.37186581384887063
-0.13761434608024103 -0.29733770596708453 0.70072110291692624
0.70134785649240072 -0.34706501618567387 0.66931879422882901
0.0360139426001993 -0.32840588438663065 0.47295875068738269
-0.37335871575162116 -0.39652958121289439 0.62855072033318038
-0.57730159942672543 -0.93268926449742195 -0.35971960085872468
0.34229927495696799 -0.012243898745195381 -0.35095660719439437
-0.80806408602096269 -0.77379530690962683 -0.41278483360330043
0.74946589779252193 -0.38348922996490664 0.65242163419599564
-0.15945770281640392 0.38733232155944997 0.77637541729758297
-0.005876928066591347 0.40384495541684784 -0.67518135319114236
0.14237781130681881 0.37339724419744691 0.71430749556127537
0.12325333277643225 -0.25293788027770514 0.70208100452562761
-0.33831184561292815 -0.80847519962342063 -0.25981253354622069
0.10842567443896911 -0.15306139041587397 0.80607620540639502
-0.52447279801382152 -0.10707994451715264 0.74963532220681728
-0.5935484388329435 -0.3508172027601848 0.6673174992764892
0.38551072812546749 0.72062163087259323 -0.25729976561711254
-0.026890176511155772 -0.35569159469997391 0.51700486979319749
-0.76366384608578741 -0.50681953934582036 -0.08868124223851126
-0.72666436037904347 -0.55207202640753583 -0.2165428169520176
-0.40901053518107489 -0.02090573425900466 0.76338515845406363
-0.073696022323574084 0.26053808031185088 0.75399324050077254
0.29964525577522494 0.83524517971415779 -0.31458302882623457
0.050366511210128806 0.86395627519926421 0.60684182402723152
-0.44734889235983388 -0.44176803559599431 0.64184402566420928
-0.60732543913866621 -0.98790196948711662 -0.37113271309937801
-0.61081486095055482 -0.048232309616063063 0.7627491891110445
0.0012759030457658582 0.51574139594008095 0.77053809718194799
0.42679069380836765 -0.60315863153345628 0.52319453781870706
0.25808218680374395 -0.00024418581796492589 0.7617485282889298
-0.55625124375117352 -0.25318441185253571 0.70425147288767675
-0.060425536497554333 0.53701924042240279 0.75205077232985573
-0.41848236341972722 -0.77280892222006736 -0.36685894218761206
0.0060509522274365679 0.52820808027760702 0.7519099661246571
-0.24859604938132307 -0.27599271584453611 0.73479298721382236
0.1186980460742042 0.40765806945548988 0.70690098066746998
-0.56559926511515002 -0.22888448829342156 0.72313476916559338
-0.51326700889355692 -0.60823808010662905 -0.13407161128549561
0.17235021940520667 0.27752165688963348 0.70360291149668797
0.027194675689926839 0.62540291962275329 0.67615481542410905
-0.78796239183490613 -0.59491908179196451 -0.24100537114395593
0.099457138843654036 0.53525064522769217 0.67478281242069116
0.4041715644875552 0.59983014947636271 -0.29473189966871871
-0.14158287758301569 0.75537707999796133 0.59866495681367482
0.3106173544803994 -0.50891590262796793 0.52884585850937782
-0.90480296148774642 -0.11145242272393618 -0.33406086483673647
-0.91052545753228387 -0.99582401453186487 -0.52156980581363044
0.28605250063337095 1.177662462484971 -0.41871239808679661
0.25543438020050147 -0.019006827504794543 0.80133850507545645
-0.37268925912715645 -0.41209347132381602 0.60188875314084456
0.18614383139490798 -0.12172655836379587 0.81271545441090964
-0.6661351142793599 -1.0063896672518555 -0.39189915818629828
0.83492992177190217 -0.37029072191463541 0.43472654366060581
-0.44743538431036356 -0.35231055801372557 0.67540384515482899
0.48985752084310974 -0.1820183318030395 0.73560327723031449
-0.44853127026159711 -0.35915890699866804 0.67777609342332212
-0.39776915849855854 -0.064199295209717011 0.78786291286062848
-0.45124895417098543 -0.37377753913205813 0.67973841495070886
0.296654912642623 0.20771691894952937 0.47124816220755861
-0.23655218372352493 0.68400933073345627 0.603543904062942
0.11873509032510654 0.85373224976952855 0.53960435777010574
0.18797277811531288 0.78046174266841639 0.41339629760151908
-0.36715777986522724 0.25069998868828902 0.68769203754433406
-0.20388600412143632 -0.48618656422425177 0.53656225692421344
-0.17366134471743422 -0.33922330523614175 0.68153812190119467
-0.52172661601606762 -0.3648906780417609 0.67568360404555605
0.10016765825740848 0.59953744460232716 0.66924478331742421
-0.89613846145308074 -0.87466052514786785 -0.46352300916596434
0.031386049960573814 0.33924876146314453 0.78971551058253198
0.46183998795705605 -0.52647869312748519 0.68497059188475262
0.30960758992297954 0.74948846333546904 -0.28328860195219008
-0.48090696059219695 0.0065699490339570232 0.69061063881504481
0.27209811161075237 1.1542494982144573 -0.41478375149450386
0.50937958206045053 1.0424449578212398 -0.42035477552691702
0.11531020723325724 -0.28671156707815992 0.64043641850372524
-0.25925602670854886 0.43899826364409655 0.76980416813267638
-0.61532276193533519 -0.076920362197575365 0.7561894239936926
-0.58871191068573481 -0.16113615497231271 0.73107295897571234
-0.5746867281957293 -0.64064842099816577 -0.29865084171120415
0.57036416199709805 0.83886133688200148 -0.39156696101251853
-0.23338234644328537 -0.19609848507382688 -0.64962815733595392
-0.65184576886061407 -0.54854593451769462 0.46438016720209063
-0.84349285700161403 -0.65402587089295205 -0.30484137179602655
-0.86109827388998994 -0.77254093406090529 -0.44537828919606781
-0.3727365221187604 0.20795176410913241 0.74064190737716729
0.022707307928659048 0.30545179219164442 0.76779864704998602
-0.15331177580144484 -0.30465711805390472 -0.58948484401485146
0.36310200634799017 0.75003613708457717 -0.35101446372339495
0.88450731468164179 -0.24998453441648394 0.63664168063452564
-0.23748887707116495 0.70170576914592164 0.71489966924453441
-0.21105355044974417 -0.35472935581138743 -0.55432643945660587
0.7665906287824491 -0.31893295291285284 0.710395823377862
-0.40043731890728651 0.57923119457537631 0.64499198372955036
-0.18688114116368482 0.47096509466986181 0.73932505484544819
-0.2666736469863551 0.011863715147908849 0.76549469834945327
0.26702165732293182 0.060553166195386865 0.65272260685657457
-0.59505125685198124 -0.19751746619800237 0.72004775656036202
0.69912635320612537 -0.31708555853634923 0.69332386427986492
0.2764415963071869 -0.036799391933464598 0.78329271032958303
-0.59989077192580709 0.24641779035801914 -0.63718518817747949
-0.35594755212348517 -0.080950675962937702 0.80895962638325614
-0.66958950891498858 -0.57272047043738605 -0.16773779184501336
-0.63267069574233403 -0.61227103804756144 -0.38961489372085367
-0.37633420318487509 -0.74691877353464919 -0.18841403798637302
0.3663893106297067 1.095301109559542 -0.43085693031462924
0.28041482944118101 0.75712024244571907 -0.26913017744332635
-0.16990189670281453 -0.17091911542645111 0.68849658994064455
-0.2938310141682976 0.49300535632342779 0.78146347144381778
-0.69505581510548353 -0.49117845151236583 0.29654743844017872
-0.071624014422258853 0.5847865044365621 0.71705848724428023
0.56950149279175832 -0.137982395732406 0.36219192990458282
-0.65601174646496929 -0.32238071601855545 0.69243620987586141
0.42768189790674782 -0.54592168814399411 0.41422160472163227
0.12174614056859667 1.0543936285211259 -0.26303597143426671
0.30051146920954608 0.76226531763190719 -0.29782645430917043
-0.25964507461031872 -0.67733253545781125 -0.19026375135965878
0.49390632182464955 1.0042095667965758 -0.45483843044174677
0.17379234310716285 0.46560040224706878 0.67495563468154884
0.16910555460755461 0.94058477591628442 -0.22286061871567142
-0.60972097785435153 0.1801026375400161 0.72053786660229591
-0.49804012250959317 -0.64843049705851807 -0.31486122028254115
-0.71163194352418557 -0.23266835831093857 0.71917989517666925
-0.043942586014495078 0.24456661859424234 0.76202727075456167
0.23980368939641039 0.0096879912037346472 0.77985264517861808
0.29109786653391012 0.81297327770817063 -0.36338755673475731
-0.76108313478087553 0.56260673501560188 -0.11512886123582433
0.14381929518137326 -0.31458982656119883 0.63288443129716399
0.17834042050942145 1.0089860600444926 -0.26564360760855621
0.58927636217549662 -0.70313638154365066 0.5787064069740353
0.003869568283874969 -0.29891752229444357 0.61358983541960654
-0.37269260770389323 -0.63450679750530858 -0.14844103130299757
0.87309467130244656 -0.2312496980707186 0.64054952036315527
-0.30676147173539192 -0.01512035949481394 0.77211628830750456
-0.3354096676088183 -0.63776175566756099 -0.056592409055991055
-0.47388917667696617 -0.57934550219692804 0.43172883111454041
0.75034160721793697 -0.32845015138655675 0.67008675073780211
0.39636661985459298 0.87619812672028985 -0.34594925330216952
-0.22921047635899683 0.52931487538055322 0.65320070884859405
-0.34444684928301683 -0.23329074297411356 0.79969863231530169
0.11465272060224052 0.35413838191056879 0.72805096863577745
-0.41097705149279307 0.15289260493632373 0.80256724305126781
-0.85610313457095799 -0.59490562366645294 -0.28636732334232562
-0.14602521931494294 -0.41057936570556852 -0.45299123798635321
-0.38866895943344915 -0.24228850683135672 0.7936407206339311
-0.42928208086212294 -0.099224735287019694 0.81186687619429421
-0.36571763884715125 0.29251006342667818 0.63652334971461144
-0.79614410647786116 -0.96037585936798853 -0.45007588292727263
-0.33369977340821322 0.18945919876709905 0.79735470250382434
-0.52991224462463293 -0.34516770045920886 0.62321333911704002
0.49386509415970892 -0.65888465431365173 0.51624648738689771
-0.60681484533084173 -0.7886865035642574 -0.36070451891942668
0.27942691615009707 -0.15500028145321143 -0.3795938949649269
0.13066596493677451 0.92714219270204312 -0.32752592204639441
0.14507179322074748 0.82392045365060618 0.16971139457093898
0.16577344864304777 0.96354902574688461 -0.22930082924544237
0.29197189808698454 -0.060005222786638335 0.75669288848242644
0.28509999049164847 0.089893832852675715 0.54931196284787731
-0.62769234070410462 -0.19079127530160367 0.72658713146472564
0.84103397674177316 -0.24457892674211212 0.40798858694802931
0.39935906563612633 0.53341430143419188 -0.12987370131718379
0.18661564715037215 0.48062118359921602 0.60389897447965168
0.71005415865631605 -0.17759711344952755 0.38437499983075085
0.031852844693471383 0.82763204159387005 0.33478395044576104
-0.54361742617091124 -0.60310568523030461 -0.195585847668589
-0.54075847908512742 -0.14400698647685051 0.74810827198114183
-0.69344675052826688 0.13078496657863514 0.78635676278027589
0.81172666933928639 -0.47859016440770841 0.63237718106608654
-0.33530751483091947 -0.087570786822396052 0.80393865709245205
-0.49239084814667322 -0.032400562944358224 0.76695476178613831
-0.81910768336529216 -0.9405569682553816 -0.472889281035755
-0.31668179081318115 -0.23876717854878748 0.79462382273188936
0.43358409344665816 0.79225710622767131 -0.30228726175599263
-0.68205123625539699 -0.94980510896644166 -0.44776429445976973
-0.059102001450909825 0.23283113567805458 0.76299112933768143
-0.080385262874326457 0.37366372923385693 0.81409455729538394
0.14580622434449353 0.25814320161665094 0.62160117984664964
-0.87669185830779028 -0.87678299667418491 -0.47533129540331132
0.26604840726597345 1.0999625043168084 -0.41730797964537913
0.55326843718398422 -0.06166854893615703 0.38755615689390055
0.67384816358839927 -0.4931360672841949 0.71218983209514874
-0.1753045086534506 0.38136658898184272 0.7649293016831642
-0.58244082380941009 -0.59873462289071511 -0.1989293637356262
0.3748537478312457 0.58238224124411442 -0.071272142764374991
0.40056768992955583 -0.22926894856243418 0.1813637842658693
-0.39265855415050765 0.1879651313181121 0.65851110597475682
-0.6711828152040944 0.071731622074717727 0.621959002169028
-0.051994236554598672 0.35744774003318014 0.81357886726732076
0.40224797803562851 -0.2812485259422095 0.2688666103466737
0.13362212485738212 -0.07048357636906033 0.75043663511146264
0.7200713640445926 -0.49317361955861472 0.69695306652527833
0.69590579885652915 -0.6324406954734334 0.6081284554210491
-0.52746583379761702 -0.77512216844585857 -0.41298919259693889
0.55384023205285615 -0.18171697548298571 0.72846753624041582
-0.61877214301647854 -0.75451644845551025 -0.35314656016634416
0.43864913013493378 0.74054060332083127 -0.2452004840201667
-0.11817574971015432 0.22278014896633991 0.76290120741973766
0.21045578750397809 0.83388573810389133 -0.2079804352812431
0.060939176879863055 -0.14840239933190524 0.75943732120171958
-0.26626911903393946 0.95444126586426559 -0.23724436259660209
0.37126617026880737 0.92416445867944175 -0.36184936733127415
0.39832285299581116 -0.43500476209293382 0.70820075274500738
0.38109368649886477 0.55263520549551259 -0.054342416311840225
-0.51092635602682179 -0.073431655823765318 0.73686480005332911
0.38296191431466653 0.83800927025124894 -0.32774938145814758
0.017947278344106365 -0.081983097270198257 0.7553213642106158
-0.10814081035084655 0.098943070572673264 0.74839954696387778
0.67438433478535487 -0.43872381784898984 0.6556180443378814
-0.21428882391892756 0.41878341788323947 0.77054732586158181
-0.10108811794885142 -0.33360669053567094 0.6581493753060883
0.19745483523998786 -0.19995678159577635 -0.45900755157514084
-0.087562351727861198 0.26558209953444578 0.75486825692536996
-0.19017014805509547 0.73348664722905266 0.64456386082580863
0.46219582552670957 1.1066581020508424 -0.46062700166280734
0.37914169195863323 -0.21532638574182705 0.032410641485434155
-0.48654862201656357 -0.093825700211433549 0.76530497012146981
0.13529494579114854 -0.1185823006219584 0.81113826463670691
-0.79521015008060303 -0.87002087220673663 -0.43160883694399388
-0.36601135030271692 -0.72015954212201794 -0.18832414699013356
0.46388504407516962 0.65809082147828324 -0.29425124206916209
-0.3029839351672301 -0.53576644951798258 0.42658701356839757
-0.15635672280778579 -0.45839265685323927 0.46138212645782417
-0.009471397046048935 0.22644156378221147 0.7561562857050923
-0.18829509897302188 -0.53284069223146968 0.19008416977772669
-0.69210131074798653 -0.54987994070000268 0.076428606706553381
-0.54960007438810976 -0.22313353965010085 0.71358212214904171
-0.5139963256304938 -0.075072314711920107 0.7559440552605281
-0.044251664851493899 -0.31272878639469592 0.64171890464087511
-0.21741733221857729 0.96694209416530086 -0.23757382250611059
-0.49553103513561325 -0.41103820376023315 0.65654197105406809
-0.72974457001228643 -0.063275114367233876 0.74438159105925195
0.16376040223744326 -0.0032853849702032534 0.78891920760649015
-0.41534198298596081 -0.72643827042938069 -0.28430195265783098
-0.78322243607872721 -1.0113374430984774 -0.41696021693552865
0.69057048430562418 -0.33382992842693326 0.69364640249010279
-0.061860924107161708 0.46371538599584916 0.80221887005509984
-0.25976878153610272 -0.35531645300334347 0.68779248229029477
-0.22330078601516234 0.4896201230245012 0.75775350462838276
-0.76557664085773069 -0.54571001114761808 -0.28679461649551996
0.44477128461358717 0.01627713301583622 0.41079289383016615
-0.4564827649173715 -0.61157981095815117 0.15646793171853446
-0.20197050708056352 -0.1521291208933544 0.75477934882045616
0.31592682168876252 -0.092671393508802602 0.74182256599710783
0.44654287319930219 0.77216224997254113 -0.27938015643911385
-0.95327384580242835 -0.74530811346748749 -0.3897182834737265
-0.1572550883924464 0.3104876867781714 0.76179761676646862
-0.43752198735975867 -0.74918045889113394 -0.30935420665946722
0.76887897776587977 -0.40896534366103854 0.69249603866670029
-0.95591057785042466 -0.65886501502457939 -0.37928283146491992
-0.32643368563675779 0.42326558553714566 0.80397684734024466
0.15012445858134171 0.84698795618027867 -0.36766716467124283
-0.52609903773521438 -0.67045040079309071 -0.32491554765708131
-0.66892205975700136 -0.18025502178851704 0.74322967949500907
-0.1316942708996649 0.63232110777827444 0.72779843314689785
-0.86035544507605621 -0.19683324180073991 -0.38346548192495433
0.89359789139022539 -0.35490216963932397 0.47855105456231328
-0.24364438308310099 -0.030224649931011704 0.76193645313300706
-0.15068635384381324 0.55455826319743107 -0.67278155944948992
0.28675567142626335 -0.24994045153199096 0.73776620843526786
0.0079934943988320128 -0.32660096101835112 0.49767519459966891
-0.28449343340488298 0.94956500595464632 -0.10826578174311763
-0.39414825450124624 -0.75516505671232159 -0.20518389856292174
0.1253508629782516 -0.3757541909785056 0.30819262028404992
-0.1477052845246547 0.2142923502877272 0.7642700731228409
0.12373611942264873 -0.33666756053459146 0.50320120660551737
0.42648807225146967 0.73601445532306631 -0.27307060348821466
-0.40473887043664192 -0.28190917991296827 0.76559690200017982
0.23722948200732574 -0.068934612116326122 0.80704018554886758
-0.18995970617555358 0.30398985935981049 0.77440978231808799
-0.11612271882219716 0.27949353939407651 0.75748094130080545
0.44311569656794347 0.91084333186360356 -0.38641238577036319
0.085610924747896888 0.68081736613009181 0.64686856320820141
0.050915882586966887 0.2777358135114083 0.75164917549322396
-0.072634919281281185 0.83792985436333467 0.2732141094181344
0.50793078571975769 0.87867036486635763 -0.34255242107424877
-0.92369799266277752 -0.15613941695445899 0.047600573630596443
-0.26235902703722047 0.71401520378748851 0.36856034980759844
-0.5279854945106095 -0.32062447252623327 0.67312326860261962
0.39837121440432455 1.1790874213509088 -0.43422676724696174
0.57801133577865826 -0.37645720987670561 0.34803903087199473
0.12402764248399123 0.40726518040935922 0.71036009883889051
-0.13211720120492743 0.45726254162120394 0.79676874553535981
0.34520055947783135 -0.31797607352692481 0.73323144173508226
0.54833892444866805 -0.69988262097553999 0.51236696654612501
-0.38872742460767995 -0.85371643791240992 -0.32829724999183796
0.31336711243201165 0.30819345213806315 0.52294923835268037
-0.33420957851193478 0.51225811793997211 0.60982583415630742
-0.025830606268097966 0.52806647713001964 -0.64477824457440391
-0.5210603632244073 -0.8778568047567461 -0.34126241116699774
-0.24364841772371904 -0.21228381041531019 0.74584451575089616
-0.64076422488069795 -0.58299790721074485 -0.10223658297406146
-0.72690156282534346 0.087700086460125171 0.65415291982293766
-0.72569860562044042 0.04874966010657289 0.63529075441515204
0.050797496190746472 0.84702438477706998 0.62665444174830398
-0.29320904880836807 -0.13147137330523062 0.80326594575675969
-0.04038496642237277 0.15772084331249214 0.74769963528581229
-0.55096550761476237 -0.091265297264632839 0.75266756260202072
0.46509500176053109 0.78752923225896154 -0.27319722470868513
0.27047836190373431 0.050968598969796552 -0.49716235967877509
0.090050312312161651 -0.15027006072057159 0.79352269638519601
0.13517240565282407 1.0882433575737283 -0.35937145628999545
0.24672479601020214 -0.051909521895318278 0.80550734453880679
-0.8420981672955854 -0.75094446173177509 -0.42944032711703528
0.017031956064936793 0.37644840640013744 0.80456781732040383
-0.24981063327878061 -0.31210010522150178 0.71508755946958047
0.13512982154129816 -0.28440491113329625 0.6680618898963715
0.040289424256311435 0.35985376111394274 0.79596105333945744
0.031504730188604668 0.67999272927622445 -0.55239670884919079
0.17413566174710837 0.91843090068121747 -0.21849931840639769
-0.33283961538026574 -0.49472776002591701 0.59664350408836597
0.25396397831998385 -1.9350316426525183e-05 0.78919641793775952
0.50740625267653527 0.96793041633838239 -0.43911110924148744
-0.24931305419917749 0.34750483186714209 0.77802303153065822
0.29237375110368902 0.19840817169137992 0.53924727085800228
0.0011279785911533224 0.83218434014725418 0.47771346230639011
0.8241642357462311 -0.14092685987187803 0.43483754216651604
0.060905641855313775 -0.35770806095021701 0.40923172098688809
-0.37678598869012703 0.64792209510565302 0.69831766628324132
-0.29184569767152624 -0.72154991428481907 -0.17321012404749325
0.15596040324308191 -0.06810988753375824 0.79125251524858342
-0.94722515896363291 -0.78655357968079587 -0.41065195522314113
-0.54559602496512483 -0.36220610568477785 0.67273938528315469
-0.94681135211736134 -0.82219054553743209 -0.42077103565541663
0.76461597221694788 -0.36845833082266743 0.67075785217878803
0.1760007635916061 -0.028952245185619674 0.805642495347346
0.039331210238803038 0.66579257137712133 0.66594818948017931
-0.79179546224278852 -0.82675835838034351 -0.41331985499797952
-0.53476346542136355 -0.41643306060965912 0.6488027614056584
-0.72005043609414798 0.57263939433940136 -0.31840091237481971
0.62814976035173586 -0.59228179222508803 0.67524384225398393
0.018334691401502567 0.041241325154681263 0.74620144069109529
-0.34786129216228545 -0.6392978355514225 -0.12312583482160022
0.43698970427662331 -0.13236459604466999 0.18578372122185627
0.42140265695710966 -0.022966097233556138 -0.045781320873174991
-0.45678131275887779 0.034769971153459256 0.77539496360842364
-0.45017669824630957 -0.73993754348537011 -0.31771662918166754
0.17589114645796045 -0.012029009486596465 0.80112565793657353
0.55861446265787507 0.89705590634835586 -0.34620584112049713
-0.50186370892793164 -0.16239157276297655 0.77183827207715439
0.69658563075289948 -0.6082741364253792 0.4572815594267432
-0.89641342607927044 -0.17659596669668476 -0.33074033504148659
0.42480199145893138 0.70558794741081066 -0.21223081695149659
0.083853401265923111 -0.1359441149530376 0.76758906813481076
-0.40545084996808001 0.13611851197610081 0.80938702029838794
-0.71936600983813648 -0.95773849023128865 -0.4574695285205479
-0.051643520506839735 -0.15960869666523614 0.75822404297218782
0.49853611454156521 1.0404908320612125 -0.46950758681007088
0.50219016928775062 -0.43727112078024799 0.72666174992897226
-0.02451087251664319 0.25362278782179093 0.74732045665309954
-0.93491519920202748 -0.16557643531499666 -0.21033041356086457
-0.5311206863254192 -0.12454160525979718 0.7475815125886669
-0.87315668647956812 -0.29150609494922408 -0.30859962653944706
0.59645702693050495 -0.42989919061228132 0.36159696539632336
0.056922235561611245 0.37277992460891074 0.78680865843727688
-0.40103339212704014 0.040674683533203027 0.67681678893552188
-0.36459127690680759 0.6083059806250537 0.63460096657451359
-0.26163663627710321 -0.50388545694281639 0.55631862670884047
-0.51832418281841797 0.0071039892711186603 0.76722990190456741
-0.74163739863059064 -1.0496835423719866 -0.44641136058350739
-0.46772645099371246 0.85305456995923834 -0.26505512553707788
0.11196856076139383 0.40296021946493177 0.72794778988383513
-0.012981683615826967 0.24793923316871869 0.76202789233638768
0.47623764730737861 -0.3522335342585281 0.33390009123640851
-0.44669199795552927 -0.14129278188519123 0.80731415626444303
-0.47936025446976416 -0.63922537593615691 -0.28781842661067714
-0.44680873635925167 0.14934301103967185 0.80512782240156966
0.55896404922231113 -0.66311559951113974 0.42867836423956263
0.054354572375039822 0.59024739428649464 -0.5828764818053962
0.27312326901954975 0.64380134884398377 0.36051747370716924
-0.19174673515250262 0.3519100281772376 0.76873581124140244
-0.22885071496036602 -0.15605811526215252 0.76056480325827991
0.13759713845739086 -0.097710106943773134 0.80340065469379596
-0.97861373835728216 -0.83792694397764045 -0.52642061126092798
-0.84468820243678522 -0.69314816586471961 -0.35283580209380005
0.10117522779693999 -0.25273139110421905 0.68431324596591026
-0.19147957653517622 0.76040180110089417 -0.54671888307192518
0.73469541999043741 -0.51681972340251559 0.67620231950560949
0.76515510044829682 -0.40841865391393295 0.68676483743895389
-0.69831674967270629 0.043061149754829664 0.61907554794938946
-0.54618717680655138 -0.33592389340668793 0.68024780366035387
0.8726544853348166 -0.42925983440350901 0.54547777306465051
0.68005333622448205 -0.28117732691420194 0.36817014976680085
-0.75787169564105383 -0.96935398802120254 -0.4671520585482547
-0.61543318071024089 -0.387388311916399 0.65775930781383707
-0.58992408151299003 -0.10263077292663603 -0.61159729524539941
0.87331004591238326 -0.14189721533994071 0.57076468936708125
0.20237794031126555 -0.15066050565537825 0.80380022195521406
0.071495146619330541 0.41210133137431981 0.77736381583378744
-0.29012399918851628 0.62961962216271594 0.60395918111089131
0.94536424014523135 -0.24411974655919799 0.55957931123358762
0.39570414515107188 0.7901760754504763 -0.31427114148719326
0.64639144026698503 -0.45268853312339097 0.66155504955444755
0.28503522481240395 0.15395190893479072 0.52498665057870753
0.37058020787868173 -0.2718847695994393 0.17803970072681352
-0.28954661530832482 -0.15049224837726349 0.80713911853288067
-0.71364616561371719 0.30978973448342773 0.36875830983881386
-0.47153000949897361 0.17214248355222583 0.71745961538395164
-0.24104213572183752 -0.63973254221005171 -0.18891249886771888
-0.3919039997477114 -0.3911959116829351 0.67712255867998294
-0.27192253406490607 -0.12470926464362808 0.7777979580966452
0.77538732685203016 -0.48890261388519107 0.66165070333723008
0.77334243506498268 -0.42242747467706288 0.41403189255346362
-0.43569178214992021 -0.35289439519654364 -0.554648678086334
0.18156322905665689 0.76905499070155781 0.54762217332344676
-0.88833779595257667 -0.34671660205671129 -0.13679591263905877
0.15905798110258118 0.86655639434608656 -0.35591548788401184
0.19525497111931855 1.1770129609450266 -0.34520378186680034
0.7115134647379584 -0.31144598227297937 0.67957751880406647
-0.20940901024152581 0.52794817956518081 0.75164090053931432
0.70652659664280293 -0.30218132738957504 0.70436869023917481
0.9504363038858763 -0.2333172554140317 0.50263753375430298
0.36632162294356974 -0.55448853466498527 0.56777190663579802
0.34030504886363389 0.74878699109540303 -0.26740280309579489
-0.068959717569182288 0.18378158984344672 0.67438623822382837
-0.43510045210503279 0.54586043778190241 -0.65211017707106933
0.054137377315267798 0.83286208076338486 0.41284208721381788
0.28508713220896453 -0.14980619871502743 0.74975833246861967
-0.28589024450881695 -0.38902658071322938 0.61539146631956854
0.01985757653207898 -0.22091636934885717 0.71281650206324443
-0.70074804129675883 -0.11687655980638478 0.56758812147813487
-0.34503173113200702 0.22025806121189895 0.78497377017141901
0.48404451850398189 -0.072354231605893382 0.32667641593539898
-0.17683352227679805 -0.27326578904377463 0.71490008539199934
0.13256478943480232 0.88407821953358612 -0.12942643968650813
-0.7460434222285599 -0.55740919592257965 -0.22971233120983925
0.24918126126686246 -0.10352026157477923 0.79741287214948642
-0.19188313318555217 -0.040138170471131218 0.65677314411131604
0.14077156707683258 -0.012989099450505748 0.74666392950354421
-0.06679575765865664 0.32481960149506417 0.80557323479111531
-0.43824902865687676 -0.2577014282434078 0.77576135921713174
0.26569671221468738 -0.041391728310142817 0.79522748508374619
0.19113423709539745 -0.23554597627296037 0.73397825723985832
-0.66375161599459176 0.034307030914752179 -0.58916156066797498
0.66179846853771807 -0.62036307770818766 0.64885454258032738
0.26195968488703869 0.74875472619911276 -0.199727561593388
0.68168397512702583 -0.40795683943332772 0.66061785043378762
-0.41163400559419117 -0.74049034465235075 -0.26955286792329858
-0.63724857823621051 -0.95055295298696107 -0.42882297291307481
-0.43640191876318823 0.17448586263006405 0.71591126848267805
-0.49161915378244814 -0.22599517715060324 0.76072669919772906
-0.6879477999332515 0.15214231537372402 0.68908787799007953
0.31786661762187052 0.9217912690314245 -0.34456893808493305
-0.46911615036168186 -0.041705011644396439 0.76146359560592103
-0.020367894796383013 0.49778857034903634 0.78464135721565853
0.53696812759532619 1.1416905724427218 -0.51210225640785723
-0.34818893340676738 0.57971781376521747 0.8031508045883804
0.65792892821310289 -0.45923788807945787 0.6570896548364793
0.090468635633857986 -0.11732853528118348 0.75874171438644211
-0.029980074574773141 0.25031714735719746 0.75882078198522507
-0.53305335807578302 -0.10234666806474113 0.75496334172335366
-0.73442371990816468 -0.34240297892531757 0.49207923336269488
0.041016713595819709 0.50451872068810122 0.75782250490533087
-0.77034443440772193 -0.55354137342320375 -0.25829543893979334
-0.37958874476398208 -0.32407189721933927 0.72084414286446474
-0.15152343994807538 0.51812927702368405 0.75229665378974886
-0.53962118554065697 -0.35749096680158043 0.59696629007560631
-0.63065831315579857 -0.9494174719751044 -0.40713533084517906
-0.40892323891209514 0.35078270496320973 0.72470970927060563
0.42263094514456867 0.026297681739998247 0.41001891857529671
0.74875925844441227 -0.44135209352441773 0.69331390266220794
-0.28998515933259128 -0.13090847234097502 0.79654261027297224
0.08243644945541817 0.33849272742114156 0.72738638386354992
-0.73479369243382564 -0.53218869678864622 -0.0058439082190488989
0.11314758618368259 0.61713741851113468 0.65807946889233904
-0.68785108297553421 0.16733541543257324 0.74448467141248287
0.43554455074413312 0.75133588753846325 -0.27209499896450851
-0.79661607494556463 -0.72974115814796336 -0.39871846051450177
-0.19765909775217949 -0.2214079584013513 0.73526386735921889
0.9098150839391046 -0.35598866728141587 0.55680032716007233
0.78068762164832606 -0.35047824866345501 0.70307199392859943
0.1110506084111762 0.96176330397863286 -0.23740505901895403
0.019274594826871549 0.8796923575559914 0.17239144592652167
0.54637491386164783 -0.23684553249964768 0.33689351847722193
-0.52751544813794382 -0.65630394729143404 -0.32171233543592592
-0.0081833679877831855 0.58219765566342208 0.69462283117886869
0.16926881035823627 -0.11712620650658234 0.8146867686985928
-0.38417679339971755 -0.28270827846752011 0.76797513840242004
-0.10911873873081746 0.52430153962620629 0.75004184997320067
-0.75064028850392361 -0.12974895507064943 0.65229716949543359
-0.88188186584692119 -0.36515391304266887 -0.020133781110619253
-0.1508459927828163 0.41446360621665868 0.78375899343214073
0.29394688693535542 0.76290361736347689 -0.29526699054318684
0.14670869222425509 0.86999432504177099 -0.10426670536046245
0.28928138614728738 1.0551276423595461 -0.39171072265552098
0.37444685208397743 0.41410660048085779 0.053189815530924278
0.28345773269790087 0.13169739823797055 0.50507204304975062
-0.5928724107743335 -0.67125151718634146 -0.32540881186190518
0.29087086784790017 0.73853113209939725 -0.25590856186458311
0.38074998990312636 0.76684357029752226 -0.30502277533869915
0.32883424926660254 0.72378229554439066 -0.24117632680845702
0.76918025070281004 -0.39648676082639511 0.6873449969234251
-0.57821069730676911 -0.10101664480700512 0.74463962020759666
0.0060117854139924987 0.24890118983951037 0.76122220059808399
0.4773454046012624 1.0950312691410939 -0.52392670202883451
0.057953697523100089 0.65911676573658351 0.66267336882216554
-0.39097504812733419 -0.10753488602809824 0.81709506005941179
0.66517988675812845 -0.59117124563208368 0.66806815764499206
-0.17693722165238057 0.16922998486316665 0.76817980002237007
-0.70860579976307392 -0.43090059152719107 0.64007241211135835
-0.7527939319128869 -0.025739780591649719 0.65032361241102876
0.37027753008562314 0.3595655199791703 -0.17521470974032027
-0.73110914632179558 -0.28972284105576307 0.68490107842421821
-0.24895235334130561 0.54892206972987978 0.76662097982391231
-0.30313158171205501 -0.18630576343548721 0.80971941600407504
-0.16766653678497789 0.56321165546900609 0.74102763745424838
-0.4190723545708579 -0.074697701327403276 0.80117354473510005
-0.25921916397285116 -0.082658073797964526 0.75601740641445403
-0.16654399829278788 0.12790019297423783 0.76256894175140033
0.25488037000795316 0.82318553203987399 -0.27034844625714527
0.73979282193306517 -0.56915894670221956 0.63139127368204484
0.73181228066733439 -0.46376453812342167 0.69888162683653121
0.50426640182256222 -0.16036960735486616 0.73097492076989923
0.54106487585436014 1.0022365657798842 -0.39853078713647605
-0.48556291299795618 -0.73694784562790794 -0.32539708176571835
-0.12136175514313052 0.61816475650290137 0.72089777150747736
-0.44817256213649515 -0.77452092467278932 -0.2968157857827407
-0.38007829003325355 0.16020439979930678 0.79991319620243218
0.31457900078765988 0.41783865606373372 0.45059706247205611
-0.047660068971186575 0.62239033198014049 0.70705206117252573
0.47095132200933065 0.67494588976546677 -0.16340875703244961
0.24631591962856447 1.0754271539557485 -0.39218015441519327
-0.84511517015222637 -0.83440799315255276 -0.4469890228126232
-0.50951953688759843 0.03512945521029387 0.77611305142741926
0.23009752472649225 -0.40224231330166571 0.40999156489246502
0.46724506868468296 -0.60744558116251923 0.44344553393171893
0.62567801459874772 -0.28834141720231354 0.35392001021489961
0.065880911514074825 0.47298963925663884 0.7608108218732319
-0.16624963700111195 0.26535380398255271 0.77100002280172575
-0.11788211148945393 -0.33037885237140596 -0.55981744122456689
-0.51810302932331354 0.16305258757584573 0.68959925057469107
0.48078126115670372 1.1506785171004563 -0.43796082890638033
0.20463427584255101 -0.39976223187898441 0.45045488064140216
-0.22531795863951842 0.19953688514423717 0.78232310430367846
-0.26492964549190035 -0.048317336930574939 0.73731176429256706
-0.43962912861414338 -0.70816451096574018 -0.27418362319417255
0.14686513541413149 0.046806777136317812 -0.62624765527738901
0.6699610451716751 -0.67777719879516241 0.55573805231696127
-0.42606549189102694 -0.041419211709254 0.76414081192008254
0.40283457548590107 -0.14048891598233926 0.73795256436869749
0.22622060199099892 -0.08818252291969042 0.80785719959465041
0.24375741739247658 -0.14965392043163028 0.78649371334082474
-0.76884378635743644 -0.90540680154026454 -0.441811243464727
0.58362759197990499 -0.22480607981018697 0.73141565129359876
0.25680122504950376 0.0263471754643545 0.72487628519948544
-0.27724125652580511 0.39248114354680386 0.78117083749247485
-0.52056610836465467 -0.6103312162874186 -0.10100041444831831
0.72431779829436849 -0.42960148574208201 0.65312156334149662
0.39311978248759516 -0.064138425632462415 -0.16058312423768584
0.47300310725130146 0.82715939476884515 -0.327499100298553
