# XYZ point cloud file
0.15318887620244492 0.26264419892955149 0.46098518182213732
0.14281834910064486 0.32314662212179679 0.46332680553649852
0.13499539817909281 0.22655492636416541 0.48187730589147015
0.04781811976406708 0.30436454296409382 0.40985270322037581
0.155277578973397 0.47787199720186818 0.24498310823868499
0.17277802056260333 0.30952682446003771 0.39461960569742166
0.057651783737617257 0.48144557143927047 0.31998509784484386
-0.36495183880223403 -0.30407166981669698 0.1929701742719542
0.016808643108520316 0.043516111480806183 0.5995614342255865
-0.63236088035580729 -0.40679627933371587 -0.32086458571675613
0.052649580779573213 -0.21043821382933386 0.6505173500296384
0.19146569682196815 0.12106164542235748 0.15304556954869608
0.43489532021882371 0.60610444338467007 -0.0095724176600399669
-0.057010010042109649 -0.1882891582455819 0.42133312247711829
0.34396855107060698 0.41591129322460241 0.039702957547431361
0.0074087616471210094 0.45003759135851618 0.15728216719912
0.079723364495285665 -0.11280434306973047 0.6425758367768557
-0.30545847371126961 -0.095113350241064334 0.39759368957149183
0.036318912515288709 -0.051586920933987992 0.61586575614389116
0.11780108932566022 0.53263956489572906 -0.19528250104284411
-0.1345350206945834 0.0523703670660952 0.51904467979516378
-0.6606581916191212 -0.59585975043064698 -0.14771869965838674
0.17213477547901149 -0.24973377625641036 0.56095465071946138
0.46536517911027125 0.60763734563497629 -0.014357660386520643
0.40399655849471028 0.34013856721264302 0.020336903014675944
-0.04717460181658728 -0.32294975751327504 0.60605697520119606
0.063998647889719318 0.30269553457432874 0.44898045104669548
-0.43988862957668101 -0.30987291128806743 -0.064319564405200536
-0.57794029088684828 -0.34651324945886419 -0.2940769187426559
0.48425390400167323 0.54214766997134223 -0.036431186690278172
-0.059964156951965497 -0.23333731125915697 0.49176592958167298
-0.094112049059415781 0.35728950164867113 0.38859540198910725
0.10739055117740415 0.39021831516256655 0.41630377002101066
0.061426597934505889 0.24068608640316491 0.47168199412338135
0.29707019667560064 0.32365087200343134 0.067455934499349723
0.2063483692277876 0.32533427387526703 0.090492340918212344
-0.45455028797439773 -0.37181750979720818 -0.057130453482598764
0.061693716616896127 0.019867742279392281 0.58309555022761039
-0.46009990024999475 -0.41486801038198334 -0.038290313085004912
0.063799492538338803 -0.17937360888004356 0.66230843609057299
-0.11478045346976073 0.19577040250883401 0.47183213132349683
-0.19131613991671531 0.040039647216952287 0.47486160009078515
-0.68666999474470281 -0.60980091368039291 -0.17172802418369848
0.016711188216667172 0.33976340299597269 0.41769181046445164
0.056203821083717825 -0.17323164178713585 0.67393128413191028
0.033396241502620161 -0.29704344022539897 0.6401996504127434
0.077240418098572766 0.082727452369953797 0.10099114564556128
0.010828222443273472 0.2928602842342542 0.46128976040574321
-0.076792176706608095 0.33301284062454856 0.41117736462057575
-0.12592946107038944 0.081622079620810917 0.5302022062361138
0.11537640664408395 -0.23285780543454182 0.5206114424653796
-0.21448049135091396 0.10302362344086174 0.4210398845969282
0.33231650192535755 0.49787805109088212 0.010536954337373894
-0.025651176961009076 -0.27738349217899405 0.66614881277975235
0.19818389231327738 0.30453003172418547 0.091384334177522064
0.00052783912281356704 0.0006820148949172461 0.61091903026326166
0.053015858761414708 -0.22563077696629069 0.68114091113709496
0.099009929571391153 0.22224737774944137 0.49793325351308121
-0.008309474940484618 0.019343661969168348 0.60775492746029913
0.15181251133565093 -0.23401920584802843 0.54272253560184702
-0.084243554844566304 -0.046680546197977929 0.51032183460459823
0.021453506088279034 -0.28462905385257642 0.53103265624787199
0.061368083050955063 0.45122918439108606 0.40710186778216662
0.23750924661366113 0.39904204452461756 0.3764366346950192
0.25854423896204337 0.33591863732070787 0.075952613941694391
-0.062756867132180927 0.16083667701150475 0.48703287767243053
0.090403707379271947 0.075744002716018222 0.1420326478606842
-0.25540757362861144 -0.07003630769220226 0.45956137133910074
-0.46966172521814825 -0.44786265741936176 0.10028524092061508
-0.0057783558870066476 0.29668413087159884 0.35432853471101139
0.2492424646929863 0.21921523361254 0.13509902272110053
0.14741591035046397 0.51026722753188403 0.32795726427821192
-0.015346612738145637 0.019363037540006067 0.59128737044176782
-0.018997321341314599 0.26392035442812295 0.46610490245561237
-0.13588437745509302 0.11265514399862996 0.52727242104034344
-0.081803645945711101 0.078200513514216183 0.52663092910152309
-0.29482365920942327 -0.4053185161729016 0.065187201956272645
0.2324339280017107 0.61014632762879273 0.026048273539303446
-0.4896697246331147 -0.33070801323122301 -0.14293203221485912
0.15204429001530345 -0.18100965443969597 0.64523430613101929
0.14240035017254798 -0.25885132243496278 0.63472998493934407
-0.44070805522561324 -0.33046118677619013 -0.15625298819639866
-0.63495416642336355 -0.53714787633078731 -0.25109992507631573
0.10442037221699091 0.66939579173336528 -0.22831099090267337
0.24279980756936645 0.40641695729139793 0.34706998041537268
0.046595733571581144 0.39400820381518364 0.32868124155058676
0.3136736924871566 0.26692871961867903 0.088131601622807032
-0.31023948303275001 -0.12217877204464064 0.34885528615540962
0.12041951029492659 0.3432249554551548 0.46156819509765712
-0.74843466966321404 -0.6139767489309943 -0.20600926402515696
-0.22259222775606463 0.012244260028333873 0.46962650049783194
0.032333635744574429 0.35041912256909546 0.44403533947416707
-0.071567128516110634 0.099538864362619994 0.50808087548885805
0.21248220350923522 0.35129202773180113 0.27929139347879017
0.14779405619020558 -0.19481921660090395 0.65309549329817507
0.35293428173524288 0.59401729429046057 0.0095546239013843404
0.16181538311700683 0.43526443729379399 0.39906564607775102
0.12968414619709812 -0.2614767411513913 0.6400564725211878
0.11387495798686315 -0.1882100606547705 0.63392885969192714
0.21688078658210749 0.43358212705419164 0.22871954252675838
-0.24796523573941925 -0.33850125048568602 0.21429053558025637
-0.43034751680669803 -0.43864411775041073 0.12214268771876241
0.046127005289621714 0.33848286782421161 0.44147256579520056
0.095513476856465052 0.38508842409126143 0.41667901909831379
0.21759592262515798 0.67794025676400316 -0.030203869774472591
-0.25443075650152408 0.058800820045377511 0.4149886880256618
-0.22707120531110619 0.15212803929571397 0.40032916444580768
0.14602853401909821 0.28994395061513673 0.46869397135673463
-0.57813525254412035 -0.42620283646825907 -0.24440764496008044
-0.16180720821380534 0.11177832665000004 0.50030234405507501
0.060459518308309618 0.32737935696302306 0.4115966257404689
-0.71303677834136325 -0.60645309007621462 -0.1573951218415936
0.12098578448173782 0.31402833275809899 0.47907984752947474
0.13693812920379983 -0.19507296658985995 0.53420919179756421
-0.21445971858847351 0.04735324650645921 0.46097213856591668
0.13437155590470251 -0.088503804941517883 0.55937225826403369
-0.25805631958294684 0.073366926266082641 0.2396804478376206
0.04202992489028004 0.036261673241024972 0.60677075146000703
0.12301991196468798 0.25009927846717861 0.50187665184333374
-0.30511553572433198 -0.36011996490243164 0.14770332092910218
-0.38292136641415581 -0.33988766080569932 0.14536310046956014
-0.069172217696144567 0.20850260577696941 0.46186658829818039
-0.26492287894135169 0.13007419940712964 0.36398762875575069
0.075116406828942273 -0.30263435950773715 0.57048768624674484
0.054326568374098244 0.02904268994281986 0.16083230542177523
-0.52351734787517834 -0.4118275171283422 -0.14610874140534091
0.075222386065014829 0.37630365769109919 0.36677542140147573
-0.1921616412271584 0.15725458411855048 0.40659740397141841
0.11326432363480954 -0.047468542411821857 0.54415979310848317
0.21590859551248945 0.33555560889399844 0.40631177769580357
0.36753755786636672 0.50411150961451701 0.0020922375418314654
0.07264798125046501 -0.028356046014728076 0.48511146792643989
0.057493262253460603 -0.17973965157569091 0.67525901772325148
0.08023184348071552 -0.092789366899157025 0.63276496109094416
-0.40542487586035059 -0.22149736177668597 -0.066980690054206704
-0.46894234759044656 -0.37112884634844623 -0.084162059368908693
-0.18356671588781226 -0.13112258699026405 0.41601795698570482
-0.22126201431229492 0.18345943019188732 -0.048068776454500139
-0.11088475073753729 0.23894472580367115 0.41823458440875805
0.162164140412485 0.30572269958730747 0.43486896988701362
-0.047951971724005671 -0.31647521083163765 0.57580104573646151
0.20088208481939981 0.53960200105326883 0.1663420165700194
-0.58098165554155123 -0.36927904553819113 -0.27748530047458864
0.13501864088258436 0.1885218503097062 0.074160414345202208
0.063280664436706657 0.045667984940634981 0.45116805598932208
-0.1976198279274991 0.081599115787407944 0.43721453902741869
-0.20920055085659922 0.026249428698789552 0.47725362703542229
0.18517317330328414 0.19596946317730488 0.13460156149585017
0.040516512038682173 -0.07717848653224374 0.45004551997248915
0.36616352120128193 0.52481396089918386 -0.0047364804178095521
-0.018698570609980647 0.023760434498222349 0.57689151091196644
0.033929660368955089 -0.019126259170351045 0.59963637747510368
0.12827873816148291 -0.20851330436917026 0.65942867018550866
-0.029534803363341189 0.11058670157984704 0.52060388104302047
0.070531932681212189 0.42039902100040583 0.27412717612444137
-0.69355339708848618 -0.52388293743987502 -0.29424955824512522
-0.20089421352238551 -0.035171137696712609 0.49879521875496169
-0.61036734206924748 -0.53096348963213469 -0.14531227795288171
0.17953508357070191 0.3824455395739586 0.40583631858946589
-0.063451336018727378 -0.088102424230807289 0.57234639778586605
-0.092615482045177444 0.11135904709859316 0.52860997170802682
0.0034663654549337841 -0.28359182300131125 0.66319811354550118
-0.38869548608521359 -0.20334137799991769 -0.21469027243971284
0.014724163226690012 0.31497056312390409 0.44855533196598851
-0.50304614872908904 -0.47426457529681626 0.04300761681550952
-0.013484591484170194 -0.059717982955289045 0.61014145411853771
-0.59871917070611602 -0.44457791757149612 -0.25890593231023878
-0.10035465051988873 -0.17035113091650031 -0.012050966754746151
-0.0086903082987923319 -0.30456417334082792 0.5549894972284084
0.16840529333795262 0.33009360281023126 0.40406861186305493
0.056316642420678548 -0.18571849946851321 0.6658590772067724
0.058543639347857973 0.30389622952429718 0.4527937265050298
-0.16359487512968723 0.11904097558271498 0.4901781171622055
0.12327207050663014 0.24715086140604567 0.50088071379966237
-0.1833938671867329 0.032543959350740392 0.48673269429415889
-0.31447625235510129 0.025529879562387892 0.27831738485476898
0.21734511508811966 0.38425825231696753 0.27429900033819982
-0.32691307444345818 -0.41074302034373134 -0.027555001563243198
0.10258228690387991 0.40082676143205659 0.36930210670607982
-0.063579542751155516 -0.19271916704403277 0.40824734361625992
-0.37164548840074663 -0.12242930990170198 -0.025338548822163132
-0.046588298646520698 0.21196416500883522 0.46995374975162951
-0.09275252354040231 -0.26615351714913094 0.53446486252706571
0.22475518196162395 0.52780741012401033 0.036860853294557738
0.039794389531350921 0.041444730931832846 0.078057448423081655
0.38125515508717644 0.49140163723991531 0.0057983486000330875
0.11139420756804363 -0.18484208673981037 0.63391826468629864
0.026107658883951196 -0.26169175996989713 0.67395746787207955
0.12135763565305197 0.11528680939444394 0.21623204960520931
0.0046328531070386481 -0.0045299604479044769 0.60812364349561121
0.06643973017519067 0.036287718700434277 0.38107711035695524
0.15396246458855833 0.61034506284154488 -0.17197162700637891
0.12119713334335974 0.26386924745473578 0.49983362907738071
0.075030579815254961 0.66522821403313492 -0.18601597213193588
0.17003740008988955 0.31907725930850583 0.43168054974196723
-0.1965499398940842 0.10398932684320356 0.42567266492027966
-0.018027018224288927 0.49457397022152716 0.029282983716503286
0.17861766104377233 0.36949889805999031 0.41191444053662174
0.057292208700249175 0.030214249924862352 0.45671320929048853
0.059015035303248031 0.056263774776586423 0.5665563624277522
0.4246753164221177 0.49532428337495904 -0.003158758580481924
-0.52728713963901974 -0.35092649069542553 -0.20312964965659108
-0.022834148763359985 -0.16199114128753858 0.42701886868151911
0.17723715561414219 -0.18665830145704082 0.61994957124429784
0.01027140988641892 -0.19800803286189078 0.48140464464722621
-0.23681088263239963 0.05186837827474277 0.43384991076648538
-0.62641381829299547 -0.43894794998387326 -0.36145417921505507
0.031780099628667957 -0.17778289513920556 0.67426034827301706
-0.22967841719545101 0.066622031045096439 0.43138882261716804
-0.4334823424910248 -0.36149412229405303 -0.13514242727698439
0.066905170727502072 -0.21572821598476383 0.66095761718529233
-0.24005397743623802 0.10101684732799786 0.40485624236101081
-0.70030823422467048 -0.53831558543665725 -0.30235529616944312
0.074256762182104863 -0.16992313194875536 0.66897810916512901
-0.39405225219073775 -0.35948609024018824 0.11224615525778969
0.16790240836507397 0.47919534525473495 0.24213304794072671
0.037546547603027447 0.44058294808839316 0.21413104282475148
0.38371383782455859 0.5357337643329253 -0.0086859374711725224
0.096418342179857508 -0.019423596173365046 0.53114013731750953
-0.076967304920728674 0.1652496029746286 0.50072041850208848
0.15236147203758019 0.26930075638319262 0.45858970368773244
0.10570918478077362 0.3261488489509996 0.47307791439685487
0.31048343834207581 0.43282881068913787 0.040415807792668124
0.10777179590335711 0.38177703313330058 0.42199186094783597
-0.38956625242891468 -0.36944426154954108 0.13084494741119729
-0.060689375497337661 -0.26512395621054424 0.51862940410608438
-0.10843624198753893 0.013640698132180849 0.53750008806466554
0.096557252631830209 -0.18674686053712819 0.63833217218049576
-0.1116583012682078 -0.086166097084450957 0.46702387631703401
-0.19776800544809953 0.0048718358613228582 0.46713199682537049
-0.63046602021088849 -0.57506062773729827 -0.067373138160076229
-0.12540548197096485 -0.26350741909817932 0.13393347337233474
-0.59362530545977099 -0.44788661504029392 -0.23660987398076438
0.10193069809130126 -0.21465197628286753 0.64015430095219861
0.079866952298108584 0.31961493289361803 0.45239148616282548
-0.043117384968552774 0.040258158798390814 -0.12821949187520737
0.12800169373570691 0.21121801888587993 0.48733566819213536
-0.039078738102231281 -0.022689700694367598 0.57316450162930699
-0.49774163599014365 -0.50463544419309792 0.076676757842599474
-0.0026435816129465328 0.033879702574220835 0.60266323582768311
-0.12593298742934983 0.20226782260739787 0.43309225763674264
-0.23129184169752665 0.086295654460283977 0.41475218414885917
0.18335171344320156 0.20387114215226898 0.1378361734885612
-0.1252233057040249 -0.0739661646238641 0.48035814670208432
-0.38985100680620521 -0.17465085907168862 -0.048108248929610908
-0.42532341863077988 -0.25601507944965923 -0.097134375311853649
-0.07465788786132499 0.21050667013203325 0.45566577998796087
0.061546922771692464 0.23263031779561671 0.47873186683711499
0.21673858755832726 0.3098792503818843 0.085942290385517039
0.23877946201761024 0.4690770574792531 0.36191946137853903
-0.23223586586615313 0.0043625484251473452 0.46458645970506313
-0.67296749427370428 -0.60602910561855627 -0.080601696954591351
-0.12624725873174553 0.26137932759508736 0.40277533361421997
0.14113595754897465 0.32150403177272008 0.46639260940767879
-0.088992895949166706 -0.23568091870621397 0.59663461585163058
0.065405119093023656 0.044639820740497091 0.57773155105033402
-0.1842259013758607 0.13185833226080335 0.42728727353476942
0.13410698476219163 0.35243314491411026 0.44147140129637474
-0.51552176188688992 -0.51705434156247809 -0.022410055590354694
0.14419180243185975 0.32456615602226913 0.4570943970626582
-0.12292633710510104 0.05322830385563803 0.52859294081449104
0.13137258655223014 0.2322209476800845 0.47528823051012192
-0.1778075227047255 0.15032290265954323 0.43039465566687907
-0.40328999044447739 -0.31215423534872594 0.051460544939347097
0.10822032554784933 0.1627020433666454 0.50035011872172619
0.16944581152650881 0.35933496142688232 0.41534791073045574
-0.46206999152568329 -0.27546988419529767 -0.13801345424482953
0.15865935428256334 0.2921961971481441 0.44187276066728542
0.12897067519122038 0.11008648659999369 0.13445160777516085
0.17386859320554654 0.4926214902907522 0.32048798272973178
-0.094198196786952904 -0.18354915112617951 0.56749718693755347
-0.26910662432151372 0.078772167826348646 -0.29551669909045269
-0.7760447466398499 -0.60690243486005391 -0.34390754494423537
0.39972395671518901 0.559488334903677 -0.0045987388443414212
0.065971232410434372 0.044537271854587071 0.59827655025733595
-0.20492351505466166 -0.0089107814156652934 0.45607579406019172
0.024945089840600787 0.028174195297897581 0.61104477238887767
-0.70153659785194589 -0.61483094638975366 -0.12062286780037129
0.074158755271497567 -0.29234084904481428 0.5510249022965914
-0.19620768500646946 0.052234535692680426 0.46372174709635994
0.079739159987838953 -0.07197859327829001 0.62226442088074263
-0.19904365057964107 0.050062782729679234 0.46627967895637362
-0.085686843949300373 0.19177292690100667 0.48056363335315755
-0.20530080032562126 0.044762752876887364 0.46989850328782901
0.082228607698567852 0.072935788422962347 0.4374665196260521
0.14097688699058109 0.49425520715531196 0.30580774467331551
0.2465872100996202 0.43635683592580321 0.3532275142771214
0.2282017922221172 0.37116181851412589 0.33123136236843864
0.00938804083160516 0.31816738218983315 0.37827547667137978
-0.20189298041349846 -0.088928582100962078 0.47919746815848896
-0.13104717523793891 0.0005301869373587377 0.52921968222672422
-0.21896976551800212 0.06412624402103824 0.44524888146282332
0.17598278773437376 0.32090492941320287 0.4319636760090303
-0.68308159166648941 -0.50918633260836799 -0.30928521794030794
0.10361745306354575 0.23671644063236646 0.50493779355040525
-0.021513084854750397 -0.17763494314709699 0.65797003161356271
0.17957951362141775 0.25085160655094263 0.10917154704611104
-0.079791026493497508 0.23350347093053156 0.39080566236941805
0.38212852472562769 0.54875126663426876 -0.0030899149608469845
0.38395917385316924 0.34887612477217822 0.061469887636100895
-0.05885639840763246 -0.045879754838948364 0.54940174416019216
0.076110249950847392 0.38067930149085888 0.41780321018116195
-0.13669730016195025 0.24705427957750478 0.40316702977391683
-0.15883279450625998 0.19157037410286071 0.41379082294095632
-0.45916534141211457 -0.37892944184326965 -0.064132595463284647
0.28489137156604494 0.18188354529757583 0.10096881151112053
-0.30030919551776331 -0.31460860155146542 -0.15775713818272452
-0.33614314522108896 -0.05288055362805337 0.31754743180861633
-0.5150050816102707 -0.32093644827003981 -0.19983038613163667
-0.61018106991260157 -0.44486659991270194 -0.28673210631397711
-0.0026428434408742318 0.30492072678155469 0.41145619535144562
0.091707924820951192 0.22349954042377199 0.49769883061497283
-0.32716374938426396 -0.38868592346436109 -0.09108935917616362
0.18580242258986984 0.21758396613082709 0.091585456457013215
0.17988302051730262 -0.22096406375413843 0.62381963088814207
0.14586010364224811 0.50670157889967682 0.35647076892962148
-0.34493357667561464 -0.39073642298924477 -0.087378492062590463
0.13847410273891919 -0.18879612859410005 0.65700322295459612
0.091586200055240319 0.50824079676664125 0.29251480784712236
0.095384164649477826 0.36691109744897787 0.41530615508681112
-0.038076501608094615 0.18363547318798282 0.48486565769352613
0.066093487611580348 0.048468326740817497 0.52299428951976723
-0.1732124362175213 0.17322014820356962 0.41279474979266773
0.10867278290216369 -0.17243725682477651 0.64404489373123996
0.06422443306814718 0.03108442230263439 0.59555847326173583
-0.1324358599736386 0.16989742791175533 -0.33053616803025088
-0.082093838784279949 0.17621498034863564 0.50581748339195731
-0.41748193735625894 -0.26691284091547834 -0.04009805169604197
-0.4717364375607998 -0.38106302805786413 -0.14672226126079996
-0.45843980898306647 -0.43592700839624365 0.093835638756474632
0.37180819358776168 0.45548079241237605 0.022062416993040401
0.17877385469958551 0.27051834780858608 0.10778710209896486
-0.07732674548042523 0.067856352005091325 0.49998508891465354
0.083965890240256136 0.42247838283744099 0.40689342788345817
-0.32685814816916814 -0.063158902969393013 0.19306739689436453
0.14297256418259324 0.37793569066136362 0.41605138256691854
0.029568711815226523 -0.15625020974504844 0.47216395044596571
-0.23684144208507546 0.12281792178589587 0.40284245587803674
-0.09925328301327957 -0.25040091312577317 0.53708658536479781
0.29595060474338597 0.55551801204043494 0.030039774365185901
0.18283376496644521 0.2612662322391075 0.10002410705565573
-0.40802551051206515 -0.41996135806197055 0.12512399255839229
0.35543202042928579 0.32494517595330319 0.046659312565416389
0.15493648868616111 0.23761932896171989 0.46550236947077706
0.24850935902476126 0.45192997972453741 0.076884124220870265
-0.052031930080681965 0.37531249994150523 0.33494563497920682
-0.45472421998208673 -0.40726273558338777 -0.039063889563705545
-0.21702858439456985 0.19027977594624668 0.38047869709450521
0.063379325072510428 0.21756985781931606 0.49090517767917402
0.066055627827147523 0.054952695377133154 0.58186580361920948
0.20154754319001381 0.29127040281611005 0.065553452270750157
0.03789297253131424 0.61993576294716168 -0.20511575074680555
-0.061450420429120856 -0.062752987959004372 0.55535763962047646
0.28261183145016122 0.49389347602894329 0.053352248498608201
-0.04689550829206951 -0.28403142422531125 0.65645694969226487
-0.089227238179288293 -0.034747271979093997 0.52082332440907009
-0.39679847630895526 -0.36036089496470702 0.1019558835596274
0.1804140429766331 -0.21061211813578049 0.62245667581662034
-0.053141609912732646 0.18442008762655954 0.48426454192604762
-0.37502010598532076 -0.33367809714427354 0.16494730264395266
-0.30853476903578925 -0.1131290026297279 0.36858397020894706
0.11897126172443498 -0.19498639389346167 0.63955884488832682
0.2574564563801488 0.29145080290324515 0.089378045806262241
0.10186575500877421 0.40814649587719881 0.35441817267350512
-0.12812305218763431 0.10709107462484954 0.53456450372749398
0.1187233134634921 0.21264634751140998 0.49055796246808758
-0.024979715344608688 0.29946126189850408 0.4448417669221284
-0.48297534473655723 -0.27184919809463848 -0.20080038470623868
-0.34042283610788893 -0.40182843673810353 -0.0061296724324280683
-0.14150309895024349 0.11307917370506651 0.52274189568612595
-0.10365535518411484 0.18978935326848217 0.49342406599338373
0.020016783909717117 0.33380034520586355 0.34619729739057054
-0.71165269058016656 -0.58387892059419899 -0.23457976414918957
-0.0007950756875745868 0.28961723192531491 0.45483540652041288
-0.21335830655412613 0.061969967787547764 0.40813147478335743
-0.084675897435813219 -0.26776889866321524 0.61127235077638375
-0.553614371427264 -0.48534731856195251 -0.10046044180091801
-0.18848865795865771 -0.33664029326103878 0.11802044945093765
0.23219045468697749 0.45239384371942076 0.025830682742072064
0.21717987768027183 0.40651416238270521 0.22769954739539089
0.2588316428184394 0.46936119631585904 0.070298095667366056
0.058301900787771227 0.015780782220500361 0.58913452892437101
0.06102154997444259 0.039628535699412062 0.47972618016199253
-0.17901440793025947 0.18766191713034922 0.40478073065511605
0.097783012340077122 -0.26059262143441131 0.52545652787526953
0.11824122474619272 0.10386712311833332 0.20552741983454664
0.15410954661354342 0.23583018791450622 0.43728046377429686
0.064259805822295596 -0.20326727353412297 0.49911553677213416
0.21103230043206861 0.45864820380346938 0.25409897349830091
-0.41671963203892998 -0.32506729277650093 0.0040698557896705623
-0.14215992153922796 0.18913021626702126 0.43491122553126277
-0.089771790487016612 0.39072430918444623 0.35476186445556301
0.10077000936497527 -0.26610443743174983 0.65043668473416183
-0.07981192377029156 0.16665110785040285 0.50905699126758641
-0.095122952806317829 0.23152245738482027 0.43746768905712591
-0.70838339916222715 -0.57514108354134708 -0.26482267563472534
-0.12364551388185063 0.096974997149346084 0.53903332942849524
0.22576069730614512 0.22401000400285179 0.1223040600314011
-0.6795503515207153 -0.60188569194535513 -0.17345524542026558
0.057704815680940852 0.21726552007880542 0.49014400649796502
0.092102136476566343 0.28926174791250386 0.49001777070635033
0.088067734238169992 0.15400479697644531 0.46338401952984465
-0.68192708527888146 -0.52032348743686141 -0.30568554188247715
0.34891562925860053 0.50994924940240705 0.0022924168119536903
0.051111668265760551 -0.11735809493193541 0.47195147840078161
0.066615758057918084 -0.2119364068473516 0.68037627453834704
0.075309980053603398 0.32151016609004995 0.44401550672179779
-0.42127068817824564 -0.31481270833641339 -0.015186188965323255
0.14023837317290372 0.15272489114065571 0.21985960788600017
-0.072978998067818823 -0.20171092891159226 0.38961378926165441
-0.012236620633937267 0.29140289902849653 0.36707140988728998
-0.093693736604980926 0.32237083169610303 0.27840369518946839
0.093430742847116693 0.27280036424665921 0.49777434041824753
-0.067575896770064647 -0.19613777878596264 0.43170387635892199
0.017501715168047216 0.047502509633966551 0.56543572926903729
0.080144588522874372 -0.22798967318761468 0.67648948881512327
0.01654017839634947 -0.28286663671997359 0.66133867723361739
-0.5436723996602506 -0.51567493633841821 -0.097011372190394407
0.09815193480100623 -0.088471578679832436 0.6258469768676409
-0.53568672173153231 -0.45908293607511003 -0.10523323954516067
0.20573544136424649 0.19676618595136297 0.1511203963885564
0.044601006781572472 0.23090520099794751 0.47970947965436722
0.20604456432395102 0.36046255322601101 0.10710707745104314
-0.017643414724739126 0.037792822478789387 0.57205875988905641
0.20981714375365676 0.68440787103301626 -0.090563322751961495
0.27626789385684536 0.33456120533302097 0.07276789907234571
-0.013716106256785487 -0.13289167987635972 0.644355892788258
0.13173282220062593 0.13585703317186557 0.22975284272084159
-0.11158084340011609 0.21188888341979298 0.42301385930341878
0.2353178578400483 0.27335351011999343 0.097961033802271447
-0.0095937336419614772 0.070901089490109995 0.55139431457419752
0.01335608439866548 0.17339766046839064 0.4944946364507028
0.063240626416660922 -0.20914097981474578 0.64522652203026953
0.078414092319203599 0.35384677786232399 0.43213764379452924
-0.11608552525541382 -0.017118162477448469 0.53025980719037324
-0.22980974415690858 -0.37100846237818219 0.065229906155513218
0.06044181021467071 0.23919880748632003 0.47555413456934748
0.16133186062644939 0.50217013695744583 0.3309113363075511
0.40857869729689378 0.41505602433468947 0.02747647362383937
-0.10566401229097183 -0.23917397245233002 0.32393813949992567
-0.1136009358864094 0.20021035384488964 0.45026586563215604
0.013202577715792196 0.04036558452147837 0.6027624289857717
-0.65126361207513217 -0.51997364182764538 -0.23229434508846042
-0.44374898496010279 -0.42343697219605225 0.094009723064438
0.16857087031948906 0.12401980951543182 0.1407659381028209
-0.25328915122191947 -0.12506880746482027 0.40780056906229684
-0.19110316795386517 -0.10708720292154245 0.4463556235001318
0.064705340342018802 0.19916633345055487 0.49749707247811259
-0.26428390782017241 -0.21844942398260966 0.31942445896747573
-0.37508671801509086 -0.16569768170590618 0.082139730052441962
-0.17163912904127193 0.14644151710811057 0.42844949615774042
-0.11318299470501142 0.215688871777791 0.43338558769309588
-0.099687253601773052 -0.024128979861141341 0.52844150669698076
0.21811424706179633 0.66758309336028698 -0.071709683756381815
-0.23126124178115581 0.032274103691488837 0.45220587851799476
-0.15970260585747453 0.29066412951543241 0.35442775703515295
0.04611086675539669 0.069949160414501305 0.57704285598815086
-0.47422441128708903 -0.45710083294307635 0.021391510235655609
-0.73634772593826858 -0.60458690996824738 -0.1985750641721421
0.10198607324907738 -0.17489667531919759 0.64608451605325112
0.11750794837082301 0.32198693731924105 0.47531202274842743
-0.15461620020513289 0.013181146925377942 0.51780588910648251
0.094578083821380055 0.39120700391013946 0.41284429525762645
-0.44093088798041946 -0.2652206472918035 -0.15757695327673193
0.050721833035725417 -0.054298669344465228 0.4585335575716149
-0.34895471835054548 -0.22195895790555831 0.23090875308644199
-0.073628940789901176 0.096011193957207905 0.52381695731100941
0.053936048264978692 -0.0028476321239663399 0.59064265684571993
0.22048123249461488 0.20868848228791162 0.13587484521973314
-0.60565760522968348 -0.38018918439217181 -0.30640244090984325
0.060235384162164562 0.28229781549019206 0.457270849628165
-0.49424257186417708 -0.47596304396749789 0.00065694961815421227
0.11543306703107853 -0.21905930326117537 0.66320209102537542
-0.55495258380073853 -0.31712665624757802 -0.30847669217585477
0.060833207100921022 0.4016656785681994 0.42153820896461563
0.19442624348074683 0.37925401118933444 0.024797371223835407
-0.47168203691648608 -0.41809872852778041 -0.054790815963905559
-0.1865848975883399 0.20922487457295913 0.39899108638426412
0.14537144941463898 0.42534199645081538 0.40020679768397793
-0.308314779642195 -0.017322629537525731 -0.29051152537967395
0.11310358754826635 -0.29523024890219801 0.57038579544855672
-0.045873370950288206 0.15847048510531048 0.495760415358111
0.014878524761258727 0.22768533826952941 -0.18373196038844936
0.0068566476288305922 -0.047931648906736235 0.61112664443183984
-0.11255203696131277 -0.073954252392916559 0.47271527522543155
0.20886449849054439 0.69365526419495904 -0.046950560040851685
-0.46883971720427503 -0.44416466828429729 0.07868387837358165
-0.13823526516955204 -0.16682218719118372 0.41834409901769909
0.037335748251931644 0.23647915381288914 0.47555464898710276
-0.092573685278194318 -0.097859550205410734 0.49738940438032431
0.19851508305241505 0.19434303617118398 0.13773758814398579
-0.1592033016308414 0.094075636409338054 0.51122657933634885
0.049980535955439859 0.033070625268636133 0.60635716334059353
0.053499717717026052 0.29150050613440842 0.45732412427370783
0.059163248269061303 0.25456338487534275 0.46875295212979828
0.286906900316105 0.28950563416890374 0.07747785732293172
0.19427714687612629 0.36359501684903595 0.40953095664884714
0.088808367194592008 0.20216387550140197 0.49944063459689481
0.19703144388212324 0.51016641302778765 0.19761197451427553
0.28939084648740532 0.24408117321030492 0.11075026496365015
-0.24484447301289275 0.14987108084979686 -0.097920380879587376
0.14090588478224433 0.51968347248934899 0.19133811198248021
-0.20299290945192783 0.085387391771139826 0.43217333646763983
0.43298575925754329 0.50244564802167391 0.016799939088918192
-0.032104262774484693 -0.24702439045869082 0.4969547349854363
0.13268410938394826 0.23064519243044604 0.47787820788267343
0.10280227398850092 0.34377260758373329 0.45843475157955765
0.0048400592326409142 -0.0819380229839409 0.62811773004661964
-0.078166624772722515 -0.29283263421972205 0.62259970016658284
-0.54454318627351539 -0.55034337507603037 0.023419940211438783
0.12153982166143965 0.11717015102628231 0.44915413685034661
0.082558309173472511 0.43924863743785358 0.30671078909079924
0.012665122762672842 0.15660150017628563 -0.12585957059828146
-0.5839424303016032 -0.54633621910390728 -0.037720835070242487
-0.10096951249603853 0.079980613041864865 0.52240827041273297
-0.40680584682127241 -0.25740531672376643 0.01089185318416741
-0.10128510955802766 0.35793945793342324 0.27256047160571117
-0.11295821507948195 0.3316184781376913 0.26966112488172356
0.23454512111824491 0.45983391016313618 0.37257719143267187
-0.084326625338332017 0.13668919281180006 0.52675466045081898
0.040805993779241351 0.17867375258018536 0.49800373945058518
-0.12659351870801516 0.21867059011779499 0.42386316689447151
0.23327688455372148 0.21188839670073217 0.14051302345871708
-0.13703202339763015 -0.25654030140248618 0.046411848116115983
-0.0076781014114520318 0.036714739589962284 0.59336101303385469
0.31563262197601505 0.57090507311791372 -0.010039493031172464
0.05632983841875322 0.036260241174807278 0.60418103926150324
-0.5907298841693801 -0.42998989514921215 -0.26779028369329477
0.1111417389804398 0.25788138688480555 0.5041713641635065
-0.13616673663947765 0.034703910788793771 0.52536999917300786
-0.049811748399172906 -0.042948420436494342 0.56478996553489236
0.11104985650353105 0.2429768365754508 0.50675640200749394
0.092482388627393941 0.27460398931939811 -0.074837203729687662
0.2389326686555126 0.43431553238014009 0.082928403522433358
-0.22845922370609489 -0.052849903965664552 0.48200602366148904
0.068486261284722072 0.049560956634042357 0.58959045404466348
0.33803154235517696 0.29420373376932291 0.05955380529345089
0.054685238365545535 0.33297098363666039 0.43869256453530492
0.089618774601383955 0.079662842474334208 0.46398601174991616
0.21478774302146136 0.47401299312284806 0.29936633160535875
0.12458713467685972 -0.2128335435617123 0.52447233241358537
-0.12619869140555368 -0.11915305933481074 0.44808678449538974
0.11141623115756227 0.5396089566382497 0.3159054431313737
-0.4295816129699242 -0.43042627998169447 0.12951194542050798
0.028359821080048198 0.049649363630877283 0.58752128433194173
-0.63224626207540113 -0.41707222589017268 -0.31267330783094044
-0.22382984028788006 0.070379876929187069 0.43566442423281321
-0.65552970181720926 -0.4445965460578174 -0.31576243946729865
0.11607215748296948 -0.21071541990886522 0.64691142465175111
0.044705326224473541 0.060558476932723468 0.59078984451970629
0.18223334631103982 0.37395268888355304 0.40871917182475181
-0.6211699996863651 -0.48625459697012485 -0.22312693492735441
-0.24341129127967681 0.036683129573200038 0.43705727255742444
0.031339058998299696 0.58206332870216182 -0.27725886916511416
0.018295282842973687 -0.23655397653868293 0.67977677061093145
0.021787491675645587 0.11609377569648657 0.52645300730995792
-0.39033375802134712 -0.35775519046601412 0.12527954497676491
-0.038077444274530581 -0.16886707097579629 0.38589986728480818
-0.05759430165321211 -0.18615095771714774 0.28096822305864094
-0.067373986293001675 0.25385391940411961 0.43920265585506613
-0.49330271569887407 -0.47171945370196827 -0.010572487912953232
0.048305969941451921 0.065750854268862846 0.58593243271237694
0.3156288298742419 0.23358707483908098 0.11550894699826658
-0.14018171738185742 0.17406831199742084 0.4637929936378985
-0.02124644559879113 -0.31857444521800377 0.58959196764331401
-0.29625014573925434 0.026216887860343752 -0.28294494910470314
0.18888092078842833 0.18538000028066828 0.1647447021025647
-0.0083529188844688185 0.038545012958894981 0.57727024517348402
-0.028724887345347061 0.29046264445076109 0.45310526875841617
-0.69429054329176909 -0.60270689147683076 -0.19830401544293114
-0.044845813862868289 0.058620871539125881 0.55514625665158102
0.37939960860565225 0.34784104963427664 0.037039356025848125
0.022226531981497377 -0.15147169117758236 0.66304762760911085
0.068148636342441449 0.21407634498844494 0.48643165494531881
-0.2802402694261153 0.081468550048471339 -0.23973784928343328
-0.13326875445392272 0.19547616289334738 0.43347854326355156
-0.34124318361631178 -0.061652611826171815 -0.24774993255708794
-0.036830544552989841 -0.2653865512914822 0.51196583710569121
0.11697194730001947 0.24245591467858163 0.50386398936106713
-0.055615972791623447 0.22285912241752548 0.39990704677679501
0.10406693111017293 0.50864676712529067 0.29380548477423513
-0.21907039841830073 -0.080561626655411139 0.47989429551171237
-0.088128631474027386 0.25918456058597977 0.42258933327747333
-0.75786514205097377 -0.64901419181028674 -0.18978956605657404
0.15796019641485376 0.7084040946168344 -0.17674611470406126
0.13079194425749335 0.23376721293482788 0.48377704090362816
0.069955611874773449 0.20973314770882623 0.49641900324739741
-0.055177956761762181 -0.21924061358668559 0.47707770821247708
-0.12114288831613484 0.17515969998264283 0.49497644014719949
-0.44214657017507736 -0.39540159357201671 -0.016680749444759113
-0.032861534812845872 0.31065193960916554 0.43752233127413054
-0.087909434134226583 -0.30994430843057164 0.57812467677666346
0.051582962207949057 0.1861449242654066 -0.075566553607947951
0.19426125596195115 0.26932430978686395 0.34711579611675625
0.06520974389955958 0.31380298790214189 0.44665255734316561
-0.079940178820431695 0.10210519883067307 0.52211639588617498
0.018102468410742811 0.045655874525898719 0.59571260755651623
-0.69194269626745974 -0.48461522079255598 -0.40312569883044458
-0.54495421821022672 -0.36334667378677432 -0.22629926272821616
-0.04638527051188035 -0.02182727845228899 0.56145992015640522
0.11465738373590416 0.44916474889369634 -0.1581836720409272
0.075108743948310464 -0.24360108487805721 0.67228638306064581
0.11244106928058606 -0.21901799086021062 0.66031657077313233
-0.10845357619833396 0.31538068941939162 0.27203697907293289
-0.2134810194025914 0.084596598297298806 0.43410856174303747
0.1092409745528013 -0.29321565682992135 0.60794156570423197
0.025372899279904132 -0.23508148392162642 0.50188816358624611
-0.71197745435736781 -0.60527225510663663 -0.22385247097948829
-0.25221860563191595 0.071909497063468539 0.40992823573208581
-0.27771296425917108 -0.11163388305873444 -0.28705378982140933
0.18093036346832045 -0.19774400454267899 0.58319453390145382
0.020501145647522534 0.013649640779936578 0.6139522365447565
0.12916098784318689 0.25359250133770533 0.49709586277902185
0.1193460928572444 0.48679222904177311 0.29847564995120929
0.18385590894343945 -0.25811448984865271 0.5939505080683618
0.21496648891667958 0.2370326569685707 0.11032887703242567
0.051775369624950773 -0.2045169988144358 0.64821611156700543
0.073973811769968589 0.061549466738205272 0.46235489943895258
-0.091274833469535632 -0.21340488327350282 0.38901428349060962
-0.089283810980768041 0.12866283034871923 0.53352784956577082
-0.023897201040836813 0.45371142592728164 0.088406754187224657
-0.029109020596296331 0.31882184994914464 0.37791930550634362
-0.38844634402723255 -0.40306686353788768 0.12710466598275116
-0.19801641657813168 0.02352630976247079 0.48820093206356335
-0.07855153713226809 0.12911753001249426 0.51606064198965229
0.092716458398925602 -0.25094516868509603 0.6631865407358335
0.03448801413935737 -0.29555714656163756 0.54587737029396199
-0.36284694326849709 -0.32529602515300482 -0.17237845408185193
0.23362144398157528 0.36934566513909006 0.38175239209526424
-0.34392482873692726 -0.045604856183902212 -0.15548284520611139
0.20572590471054383 0.3910581033157513 0.029902333141632098
0.37628239441946909 0.60842606366333785 -0.00020084010709059408
0.11078235122942966 -0.17700452807442379 0.63817967862611669
0.10640909925469752 0.40463823605235649 0.40752693778463861
0.11756979195006201 -0.16795069026753168 0.64722354559137818
0.17113427574688211 -0.27057052409831472 0.56913606815579321
-0.083383409008893794 -0.19711171750397971 0.60067061030150826
0.18636831345321608 0.23982831332672314 0.12228535031723503
0.036731813379456385 0.18911828872288974 0.45415731869675424
0.0024308235619021068 0.35747220800817059 -0.28925022253585297
0.22071940342854476 0.45236789822172746 0.28903497971921849
0.033339221774807887 -0.013322764632735393 0.59932908508812766
-0.17688451351306189 -0.013195504961216659 0.480352540328362
-0.051557458488578289 0.011894736005651066 0.5563180020848838
-0.1638386163956112 0.21549566571506398 0.27244736167886974
0.0054382010811021009 0.30664734531361704 0.44007362832460684
0.018433275389940967 -0.11825323729863962 0.44093140869301023
-0.10803309095599994 0.034254710221353138 0.53223470287217489
0.22087538076828267 0.43572872216773406 0.10925050815229587
-0.43355493340330264 -0.25873636926677912 -0.11374663550096537
0.043085747711717276 0.017540190418341498 0.60906745310334842
-0.045479349788849044 0.12246834163293838 0.45591631313191033
0.033207926522049097 0.065802543380802159 0.55549079792459644
0.08205558616449396 0.26293565465292273 0.49561317084319489
-0.15860026388325321 0.11509430591752821 0.50339861442246647
0.062186086638261195 0.033813139438850198 0.60030196615377929
-0.014034978041441271 -0.024309240668360113 0.59451496664244829
-0.22040543246330702 0.031485654302750091 -0.3189857249495589
0.017624180863020145 -0.25971817467400304 0.67551181830362772
0.17695691666036156 0.28221266776678011 0.13199801982816617
0.073883040999974725 -0.20103867084996196 0.64278721884744805
-0.47753872519066748 -0.45954599718696137 0.033096983821762405
-0.66710281614525546 -0.60355243377216283 -0.13824227656876015
-0.022488879272117734 0.30729802754600549 0.38678593796637295
-0.15985386877301644 0.13975131844994854 0.47350979489081252
-0.074514159334441998 0.38564713557071695 0.29490553268578623
0.26318970286526261 0.35921913123321519 0.06860262389969296
-0.09312820229941049 0.21880721300848449 0.44260242940314948
0.13314650577770951 0.32173708835816911 0.47088912851790765
0.46008441891244167 0.40135167975404168 0.01252471518681042
0.095740078806294759 0.49262934721952933 0.39105948219380282
0.053269852911860038 -0.21041210251487052 0.64824007983268683
-0.0030634078359385586 0.042094663463341592 0.57075244382319701
0.067166817482023411 0.21547671233126586 0.49126199999640363
-0.12638976283294096 0.20821469883938876 0.43273113343123271
-0.26161072937770102 0.083181569575709796 0.25942080945510582
0.14526370355760376 0.30218868929531906 0.47019614616836947
-0.44076698076950138 -0.25930476720837597 -0.14282017223746624
-0.16906270838787818 0.059890058053855708 0.50112547881234204
0.11348512248574744 0.37736188914841984 0.42327116205850557
-0.22090523605698398 0.0518131015764998 0.39273774023849556
-0.66076440237991796 -0.59492258326822212 -0.12112175694696076
0.029833634490527283 0.38981959294857249 0.36887521043631688
0.048323136006979545 -0.044864971358782396 0.45400100581400765
0.10103722789178878 -0.22223942619454143 0.66761543632484199
-0.083631704171481636 0.13479823918946662 0.52362271877857813
0.1082128131834372 0.21578963239078272 0.48618313702345756
-0.38524860941738975 -0.17124888924018533 0.014686797817698993
0.18263843468892038 0.32409615005071901 0.42801900650736269
-0.073660906549063321 0.40257821210552691 0.32442366284866053
0.20812024125137912 0.20077744483106938 0.13858703598328698
-0.56376979030573371 -0.41711042630670381 -0.22550893815909495
-0.094863250941713995 0.0635024405384048 0.52816689266337813
0.14340911152456595 -0.28077135332858016 0.60451391807226995
0.13531829580341315 -0.20356526524624666 0.65951637257785123
0.24898358060824494 0.49380166003441511 0.050936091263204586
0.21909961002587316 0.49427426696985816 0.18388289155678955
-0.0076526705798558581 -0.19338911133689077 0.47102678702267065
-0.46427579431861421 -0.40804858725645138 -0.054969289128603049
0.15240189540779794 0.35232063460831037 0.42087320519942473
0.022214596956998178 0.033793423931929523 0.60891837846931884
-0.15461165599293669 0.089300558395211838 0.517807625689093
0.12219207715933142 0.36427356496782393 0.43119756557881594
-0.18318456684880663 0.24262271147976339 0.30438628435916115
-0.3365410185873649 -0.026556375204117154 -0.086216718731474851
0.088406936655192392 0.32972532749467542 0.45397907035761609
0.18209121685694526 0.26489315949810188 0.099572602269645871
0.21821360203535378 0.42153520491949487 0.12449774076043763
0.32852747565759755 0.46596121944028873 0.025661382626561313
0.094008323053280746 0.079956247651844364 0.27922446922479804
0.064514920452295288 0.049913559783096528 0.45693254173639691
-0.48251791644772385 -0.40354091247185198 -0.08499876588806049
0.17311456305403713 0.25544364190339575 0.11722365700198617
0.20076376786836853 0.22904515473971107 0.11328703300742748
0.17462863207712293 0.23199006945873632 0.13271771149973133
0.11667258397840274 -0.21665171466341912 0.65892644810804779
-0.13579034925375805 0.22080286461601806 0.41282785078404283
0.073709985982866322 0.20443362009735058 0.49952485289727233
0.4079316048568904 0.3939654671817564 0.0016719026873862619
0.18375490150899809 0.36375819043563778 0.41246209640763887
-0.09788962090107306 0.17612009625784802 0.50751830047781921
0.030476107896523746 -0.24754336974670113 0.6786023354275208
0.02072920687204538 0.2261902530945743 0.47858679794579928
-0.29738350599274488 0.069518885005523126 0.3761991022711606
-0.14552196041674686 0.30139768348868257 0.28207826238917433
0.039977228121697683 0.00053400771318004581 0.19398593785800688
-0.24377658068839497 0.15863918143930225 0.36444229489577618
0.10532828741721778 0.43203551868288798 0.40213285970855039
-0.10337483128405733 0.11803912077697752 0.53942052761339965
0.12197472130016912 0.40535515121099253 0.4074458515665299
-0.093529986767165285 0.19576533541584618 0.48488804785179096
-0.064284987640414237 0.139389289682115 0.4990525546636933
0.011430923886059818 0.20438584534255644 0.48479218481827174
0.20498139826699388 0.32671888773730862 0.094764846574508399
0.053433833899424604 -0.27093546347198783 0.66201113694967062
0.091344965126830296 -0.2225350066887796 0.67287898388779077
0.088218751571828236 -0.069584381157915001 0.6185520444748267
0.3704006975311917 0.30773025490524497 0.080468306347151797
-0.49891499466608563 -0.46607469268085494 -0.030375219454447044
0.1432839487159927 0.41384249867182077 0.40138435585350218
-0.50625849663904288 -0.48298318102590387 0.0067305849106957805
-0.017165619716961567 0.29194319809607316 0.44992712050984712
0.14274649885760304 0.15654346973199748 0.41093749186072065
0.15662390559483486 0.38680337380011159 0.41209748953988656
0.1903758799681633 0.15576882553250251 0.19471647495916861
0.33032306989528049 0.50257434698060965 0.011268601411422829
-0.64355194350712086 -0.49031942625796948 -0.27331962998950554
-0.077924866040732732 0.271599902355526 0.42486506656313205
-0.10667353234389204 -0.16621935365107199 0.48439849926691703
-0.097562426537227465 -0.26867052062833524 0.56569709452430872
0.0043470951539090752 -0.22698159843313898 0.49219970530745183
0.14232827833758088 0.28027499300182512 0.48061150429770627
0.047556144558767804 0.26576037258062335 0.46687328776691606
-0.32860728505882836 -0.40319955444570843 -0.061704381221107885
-0.039315022616214668 0.3270849887898114 0.3504567039479346
0.44252212811520358 0.44011978048854206 0.036323720086644196
-0.10350933093653458 -0.14945624223057208 0.49784621137894502
0.020734851321987935 0.25653671698063402 0.47028129447392436
-0.056059653390417019 0.15230451920052201 0.48153542965056234
-0.46686679553863342 -0.43802255781525667 0.01515516410149842
-0.17183170059259167 -0.26494159435533748 -0.046715141853787778
-0.018025869477845957 -0.30343354851866444 0.6453806671979847
-0.084325857630248247 0.20628241330321248 0.45559116337273831
0.064818690268576451 -0.03862321611079661 0.60708943041505625
0.042590161550014355 0.029386883660559103 0.60841975667470494
0.028660534852426672 0.0020063421160979034 0.61096996783475011
-0.6691676442819009 -0.55266278350788645 -0.22077200526607199
0.098603690254907672 -0.10813728761037791 0.63651682831113654
0.066185804725271802 0.048948438780354292 0.55724326502892452
0.061480657290917395 0.36538711993624323 0.42651415119869474
-0.39961890506758457 -0.29976625623929537 0.066840996256082807
0.08285110696100989 -0.22073835096834743 0.6461312749285254
-0.098364736875356185 -0.237614700854544 0.23139301980220056
0.25240452546032444 0.22665352611844655 0.11564485158153803
-0.32336493346349277 -0.10967510977852289 0.32962134595505144
-0.47863963162367362 -0.37596975254832454 -0.10008558854201777
-0.60440832897352004 -0.55887213835114202 -0.046021833470070328
-0.26825442675413375 -0.27335200638986823 0.26743668116990932
-0.027684497079678128 0.25107968114533541 0.4658770761080962
-0.56073837243595359 -0.36429588948866676 -0.24995300480844235
