# XYZ point cloud file
-0.16261443219298199 -0.054448366687372796 0.59804204807618211
-0.30818342184221775 -0.43480301323138826 0.010871593299886684
-0.07224849091212654 0.19361912503266426 0.53685325960540464
0.060358448734942616 -0.31968090531267396 0.67339998645816634
0.088002967442004559 0.0011728473005741952 0.65524177233129866
-0.28186370328079818 -0.18494365638018079 0.45039681746594684
0.21357560043469534 0.3547491565346913 0.39473067044216892
0.051541904198971367 -0.27354636344644834 0.71801602052907887
0.14493212536353145 0.29315495680966241 0.17474661720177481
0.0068419192816943641 -0.02337076219103762 0.66421487539985158
0.16396847442140935 0.39484829952318656 0.42550267716683782
0.076078843176464128 0.012086970238905398 0.66723137116876119
-0.11355175566126025 -0.22581129036164765 0.45717738726564622
0.18327378688111451 -0.18737149000817122 0.68255447383972845
-0.047219051958468317 -0.14133811779220859 0.63118033475434487
0.21958998102316768 0.36076139665264106 0.36061101833208659
-0.065535290779369648 0.023834901171402037 0.6182124683831911
0.078385621563316077 -0.20936368993736912 0.72546100842096473
0.41241025227753703 0.89032354106598721 -0.21400904627305889
0.097730031155799729 0.25169812295304228 0.55367899958014788
0.047707921094138905 0.18602226102552744 0.54957794408506477
0.11945069863624813 -0.21571166814193615 0.70816455524636313
-0.49763812897672993 -0.52662463665012471 0.01831843635765712
0.011641468849876102 -0.25031603399269198 0.70668424960169629
-0.033036969361670832 -0.31335297451445876 0.60343961711397276
0.14323909237522581 -0.22753166639913655 0.72095171393149404
-0.083771961221541014 0.16901664923964199 0.53673603256884783
-0.091153800126197448 0.15682854185639394 0.55522906051979692
-0.47736848711517577 -0.3512331475722878 -0.13411976062214326
-0.67766236861565399 -0.64170374633264504 -0.2307252935991258
-0.19257036262700966 0.0095692611415489903 0.55996180826814346
0.16948662257421437 0.8123085156222315 -0.084836526097440523
0.25973168541353747 0.65703149378839032 -0.071816371535635415
-0.61946105781522731 -0.62695372173167607 -0.12028288223875333
-0.45690095515291052 -0.44307146176684681 -0.0038401143027320672
-0.63860808954697279 -0.65870541921388204 -0.031479723115903746
0.1413948267543963 0.27090014466272205 0.52440180652758162
-0.022964061755589904 -0.18278275514040584 0.44691975494019925
0.17629908127806765 0.86743723243325588 -0.20354723209842657
0.068538681399765211 0.3587863256085525 0.47939708486969307
0.10791580756533037 -0.019963932784376859 0.63105950121078114
-0.27195354593002258 0.020053717760534055 0.13534156957365595
-0.056361242331876837 0.16387420793091895 0.55819803818323477
-0.094652646016618713 -0.14113110683658658 0.52656736632964929
0.074380801338312319 -0.23790275386014229 0.72613690954605681
0.12034435309724131 -0.097401644718879993 0.53186626478388388
0.14113417849026796 -0.13690650960137071 0.54356755233278142
-0.11423978834434928 -0.24079600977894525 0.19413877457684642
0.18773259135934842 0.42143675179577123 0.021800374875552198
0.20757704604134414 -0.15249501791716794 0.67042629283340704
-0.66392497203531153 -0.61598433570785038 -0.23652433821065771
-0.16272539092912502 0.051329205811273759 0.60076653051642692
0.28237738499149723 0.69926735804768159 -0.095540288656399408
0.20724827388303729 0.49334035506667051 0.37944860724243434
0.17807906020283998 0.37898629278541274 0.045779738969351003
0.22285821638630551 0.53086694705386805 0.3292160456554597
-0.32354261216392466 -0.3252538739301053 0.29434749677661409
-0.11805934454600753 -0.0027535026131737111 0.61415681011959478
-0.55101510615378757 -0.5364830072520993 -0.11290386104738542
-0.29163123645708022 -0.20193174729870783 0.41964493876767639
0.16380832538294976 0.74308395306448882 -0.22762128092950856
0.09745187098107766 -0.17614334797913594 0.53015614261260302
0.090111926224101996 0.014567845616193925 0.62751321529758664
0.09420223598722427 -0.0022294469631082836 0.62911779627713926
-0.51379479172426379 -0.46768036374549266 -0.11946471331773006
0.030770196568240871 0.013331396587541122 0.66523000755845996
-0.56934784057287058 -0.46645519121680262 -0.23773139992448356
0.19178266264854069 -0.19809623715116756 0.6883975803737854
0.20868789368684112 0.68179529233468583 -0.020348034929376924
0.040083448676900113 0.6120521164057332 -0.3692305969230234
0.094249750646118513 0.33075499839907202 0.49949653811915279
0.045550688155127805 -0.013002489990420418 0.68197780963074539
0.16395690370016744 0.356822600999397 0.074052608333632253
0.17174388964008935 0.41159974822838241 0.41387333327045794
0.40700937898467243 0.72005692389520215 -0.17562139613143624
0.15736104823328748 0.41317621653232545 0.42239558169809005
0.024068677745786471 -0.24941568804435468 0.53937396289259443
-0.35525251467310287 -0.097837412203962443 0.049692629385053144
0.062466437534435648 0.73929282138660746 -0.20656011326855556
0.098582555004027989 0.015857911783624917 0.58639655252233203
0.16526506019318465 -0.065141386461686213 0.60334013034130696
0.15647555517486123 0.38425140738746694 0.054085200085829566
0.26986854831826168 0.4265084650407524 0.0035741237710817941
-0.34816451107244212 -0.25787607089470627 0.31031794172771776
-0.020510889231957652 0.038159915095342944 0.62663043347204983
0.28462689585412354 0.69115902082618885 -0.10315103337959586
-0.099139510652812068 0.33031542892868793 0.34628458370072535
-0.71363065411031501 -0.63742388244164483 -0.32354243058264237
-0.24156011436266495 0.12215693035251352 0.40214539900370844
-0.55435827880576161 -0.56361075060113208 -0.07647381566127448
-0.025360374909285832 0.28211740069617874 0.47759561696420666
-0.108313302912589 0.4102481084184042 -0.060888392009365577
0.19719147453320041 0.58421326470062152 0.15394091923716463
0.2300996126120877 0.49361228282766706 0.3510875564576767
0.05147511460998605 0.030302958600766677 0.64121442110113136
-0.56807810940132597 -0.47865150364296538 -0.22891363823762306
-0.11548160793445006 0.23617716831192301 0.49353634271265173
0.19257577561551337 -0.22502727164336372 0.70219878098396382
0.092734386266158625 0.23133468566527263 0.55472694805657163
0.14453734260925447 -0.21056361848824937 0.68425927181289958
0.085411724791229604 0.036721243280669738 0.64845103259243564
-0.68565010752316691 -0.69788269112348567 -0.082871098584978431
-0.15270651522445361 0.14767358010995774 0.5164972045120052
-0.46554356080036846 -0.42963667987740017 -0.034314211955595531
-0.4198537981291392 -0.40688044622233488 0.10990523381775646
-0.0082550966813357829 -0.097078600891299313 0.66165072872420905
0.38402615880250413 0.76184731112711979 -0.18921984215572857
0.20302320044637434 0.42458530407253781 0.020870687837470092
0.11881040762111611 0.11138130731503745 0.48342114696468119
-0.31483233054494275 -0.01753915806974302 0.028033025972778181
0.16343471928994519 0.26473297759071618 0.33790356178801012
-0.085522990249780939 -0.037645443563665837 -0.056964202612946102
0.13469755002922587 0.31217606405568477 0.51227871726423002
0.21046224608522934 0.50791312157107704 0.36583218351696128
-0.048236140461564103 -0.13085742929494948 0.62380971136948138
-0.40714007773755723 -0.36790494794969147 0.1646231991957105
-0.11944234540285203 0.011462131849828958 0.61215720246951655
0.3868607072052847 0.55641075800074669 -0.065799164468551274
-0.037349578256982929 -0.098207766006140396 0.19934292614403343
-0.43128581568244873 -0.48060707268719927 0.13683445458907845
-0.71164946517097949 -0.71039497452212974 -0.19677123119385692
-0.21107029217659773 -0.016535416262275608 0.5333903223765547
0.077828043747223852 0.36290483603993035 0.44161660277304499
0.23973237503155431 0.62254637851791883 -0.043388247259025403
0.16591100659215779 0.39037301021867965 0.042526073349248183
-0.046723847321197609 0.033989733137731293 -0.041512457691046722
-0.62661198335418899 -0.60698173600915084 -0.17163373198619586
0.16104397544261537 0.46313973806001013 0.41757565388859608
-0.53141727431001029 -0.50661360069570793 -0.11533394183442436
-0.14721698707247216 -0.22273465662400427 0.43723004612877969
-0.098088345229194795 0.035684038203475828 0.6053303304970955
0.1784922240154897 -0.15982538422070508 0.69408238948042356
-0.05899398737682926 0.18681130889084524 0.54483282848066517
0.012140161457088128 0.31887624721953373 0.45257543238062653
-0.090020174038476286 0.10297031402144741 0.6194513710946431
0.19129161661306354 0.67753648675133815 0.067601722550950705
0.11156315541608211 -0.0058342039137389556 0.60744009918815034
0.22423566818804769 -0.25839969526986101 0.59141843026736762
-0.49672558151572477 -0.50202303789507652 -0.034320401558661284
0.12460498994132543 -0.18576137369995765 0.53896332737895825
0.041280226409624476 0.26559290877501296 0.47833625733265506
0.40891006292626364 0.70832791740791401 -0.12038174253465994
0.0090559594511088193 0.55969258044627979 0.039765393258340997
-0.52146816354464431 -0.43355622116261222 -0.15010499661444421
0.12499912436557453 0.23530594921052381 0.17748607868720123
-0.29608822002496626 -0.38721914921301454 -0.08585106819402466
0.20759120911752216 0.45658490265798307 0.38757111539478523
0.24622060505821405 -0.25188620405579021 0.61505705995321158
0.0064593894563567678 -0.0024345475339404565 0.64615402953806367
-0.06600062624815195 0.11228651404878313 0.58212512654184123
-0.04576954927043192 0.28929055236189094 -0.29890856437306124
-0.09367123858440668 0.11453308886914017 0.61230170243046123
-0.064642246755930666 0.051007048947347561 0.60773222965141827
-0.098541441222987358 0.23764595937653221 0.31621941758586636
-0.53556071908100344 -0.48670408754117278 -0.20950428759601714
-0.173755216941472 -0.050129289154692662 0.59271851627934047
0.13843150068001794 -0.22659977827392341 0.68802794468715556
0.38101625639716008 0.79030042728867611 -0.15762596728636979
0.20050347650856598 -0.16404242394100643 0.58047031244738423
0.049360736430981822 -0.23524632452500821 0.72250723896587976
-0.074549811509913522 0.13461115009311062 0.57525999606677181
-0.26272873289894294 0.093339557566807799 0.42382760147619403
-0.44683931638085894 -0.32265465592834752 -0.21547430224245445
0.13242775468282894 -0.22344039479382238 0.71175345339182672
0.11136928120557146 0.37429895148308967 0.46295771150566473
0.3506864731931722 0.75216543701809735 -0.15603841469385465
-0.091656922320572043 0.042716912137010538 0.61314954256716192
0.073037197056045333 0.15261618915005726 0.51777806598590648
0.17277997854531482 -0.22807709706440218 0.69143734124126288
0.069113513271159888 0.33831362307481139 0.48929284602773848
-0.76467693127280301 -0.70725724878676377 -0.25288797528044749
0.026331328840101587 -0.00088597087450051348 0.67879306507324078
0.25383567984261179 -0.22810278655853666 0.62095399669583173
0.25556072923409323 0.50101805857883364 -0.022191624967110801
0.21471289565399057 0.60032792103780941 -0.013086909953951731
0.22455930750130815 -0.26114082653719523 0.65752363279016679
0.30005281683421131 0.76116171466603377 -0.10994489180089118
0.00077255708259943434 -0.17893434031628649 0.69243393236066086
0.074638397108369003 0.51577799735531416 0.33852156312287857
-0.063351308467985978 -0.24255548497840307 0.59323364471127038
-0.09917162705827598 -0.018532790807076635 0.61866243159534728
-0.41882434802592983 -0.32190936233735795 0.11635239892971927
-0.52588851313040186 -0.52716373488427248 -0.077450552767429626
0.079609861113624669 0.33866898351799923 0.48592336998078922
0.10782293017724845 0.21987491122060096 0.54687967479294652
-0.13294932210964433 0.10050189970448083 0.60225844428293562
0.079873316363051505 0.053176416481922256 0.61311359132915866
0.14061006991858488 -0.26278636332947963 0.71071752111942188
0.075418358921726658 -0.046412689504637505 0.65864720839788382
0.071034550907972893 0.51862925251848535 0.40645239591614674
0.21211752339504733 0.5328751384691679 0.26827585455565844
-0.077987526108676375 0.19738581073153449 0.53190621247122172
0.17414109667645802 -0.20802295856352201 0.6739057077029541
0.15384425925824458 0.32798454229718976 0.096239366899187551
0.16451468851978976 0.37633222118731702 0.4276062828111058
0.18962916722671302 0.50084483776210065 0.016180158691351587
-0.17250233878659155 0.079107508246967967 -0.35508086353326895
0.21079180052236215 0.43283341654380802 0.38684768432775346
0.065453997713435019 0.36578642026977959 0.47936790275173174
-0.17703353335466571 0.066991316222084471 0.55499834011416183
0.11955519702599512 0.26479206697401464 0.54358112578465534
-0.17422738706761343 0.23928029001006046 0.4172881616355571
0.072712539413619937 -0.20276189787707724 0.53253308182990899
-0.049368668242123714 0.32858286056183228 0.44436562330019386
0.082408594947552982 0.021607364265143397 0.66192061090649457
0.087736604043898769 0.35071250290325745 0.47826374430449564
0.10595164921896807 0.14585906096084861 0.55425136767324001
0.13202201712261347 0.25748791648951858 0.16496109248047758
0.16834237928719192 0.54611367121643661 0.21243953666018583
-0.045873217055801607 -0.24258077502941511 0.64308091830867176
0.18498519943385849 0.2965309843084899 0.13749048223782817
-0.34180549224488271 -0.02700293711837904 0.37486841473294813
0.054073727513915759 0.19047114460888004 0.52586523351396219
-0.11708514686744109 0.20279353693482549 0.5007782611754219
-0.49525850906990448 -0.42483345419736507 -0.10029085640563745
0.088605902900792899 0.07330013188036047 0.47715829233926293
-0.071291337346055417 0.24247881743989694 0.51884119440894305
-0.7340475040756671 -0.73341407433803085 -0.14267627695900681
0.18487132471012416 0.6630266581606048 -0.12554772548016258
-0.031208786829640622 -0.142495136516018 0.65470206907316331
0.16077478550928156 0.19040637904501762 0.44328259077811566
-0.20610747330326545 0.10508118564544933 0.29102100236013595
0.012442877440258071 -0.01741810794767791 0.67749636497857768
-0.065700011414386805 0.32056513430967259 0.48958885477377717
0.16370855598952599 0.41527173533005107 0.027571845558643893
0.033520249377698375 0.26597768924863807 0.52709206868198533
-0.52347887914336488 -0.55651020570116461 -0.017441194307413588
0.050312462751848419 0.30074872327376834 0.50761033855922344
-0.2298468108151675 0.033006838076343394 0.50890595991412446
-0.49755186013455666 -0.38932872575175298 -0.13198418823854274
-0.53580129564013457 -0.56159666818895249 -0.039438652135100838
-0.17133492141346479 0.071829105743033944 0.56508426824589675
-0.28203882079520398 0.044668966200027423 0.47333504352591882
0.12312963448139361 0.11629756369177829 0.50625122606379069
0.025847212322209434 0.63569504963371526 -0.39538097488016932
0.12062503688921133 -0.22615206829160878 0.69773623714641941
-0.059755675766235972 0.13077146434768705 0.57081586306828003
0.16717994639754843 0.27114613608463423 0.47317573485977155
-0.12031001304699102 -0.26541630728526833 0.24814025544081536
0.29786670965087003 0.39295592594218981 0.011052779419276904
0.36971319669260883 0.62872980119547073 -0.11228489334469716
0.072657094483601303 -0.020757354228144481 0.66682114968029893
0.16038680136590855 0.38090697310265409 0.1294448775790481
0.0840653194530952 0.34414490709807311 0.48188331717380889
0.18337381154589968 -0.29175034837735248 0.62701544823478317
0.083310448968928086 0.2922291770270497 0.52504141296489104
-0.18068682868460662 -0.1545299486337641 -0.15291838579831551
0.14147449204680498 0.52906042614955162 0.36312976621148474
-0.72523929375332763 -0.70726004116936259 -0.19576910210875581
0.14514412420507239 -0.19810622436721564 0.69038557685117186
0.032771702593845375 0.016921221017946325 0.64390426467913953
-0.63750148938906204 -0.50777532254611779 -0.33297110429575427
0.15808116797584837 0.39892621509903381 0.037486379502963019
0.34379491951861341 0.73419517973233983 -0.14722433101109711
0.060278164987835892 0.042456795542221537 0.62718641810512543
0.45138870230617223 0.74501447447955838 -0.17537572965419385
0.35903806882009059 0.55540179098376008 -0.053138373510891346
0.28742009645102579 0.76952398086261042 -0.11311279065952362
0.15162186072214609 0.37353203150410574 0.072650823133827536
0.3849465385818634 0.84431300497618955 -0.17202879497751206
0.11239095412148364 0.50391910286640607 0.42435243548652518
0.039169062202522864 -0.14121242308785539 0.4890009627079871
0.21020326838086947 0.32421287557074185 0.40061852648227009
0.19973600494688798 0.35894522322971167 0.41525242886032709
0.17865906933345482 -0.20662007838886831 0.67642641748539523
0.20193319047167613 0.55766524358263092 0.070598074208692574
-0.18011288345333792 0.10780545824877225 0.46708350397615478
0.10153984549581918 0.38650993437069159 0.437569815169148
-0.099515736404932276 0.011328864244613011 0.60452202323782833
0.28327923820969447 0.69448988842443904 -0.099337594684691999
-0.48190112912355687 -0.37483600998156674 -0.11296617597268543
0.09762304499920893 -0.0048986173955237744 0.53113045673048997
0.010961299266215641 0.0048750065265480563 0.64491379857519382
-0.54776645912991428 -0.38179371904320775 -0.29312967293566322
0.12184361712266695 0.22807637861638416 0.53837790383157591
0.099259237313439386 0.094657439554176409 0.45214106614344768
-0.14643453552694535 0.06785087255132155 0.61099050377963193
0.16145785312970115 -0.18301410467637458 0.70064881629543774
0.050707275685918984 0.41013345346989349 0.48335529181205511
0.15803492897445104 -0.25312656233122621 0.70968644744454623
0.30610769278963396 0.62212719768304736 -0.07945469644043951
0.25796905788330488 0.66677480559776858 -0.064217797145735667
0.34010866827189801 0.80664387249055736 -0.14389527046299799
-0.63517041107835315 -0.64886611254896098 -0.042589083601465128
0.21449009678134329 -0.27462628097519015 0.60409661674407522
-0.41360386413042599 -0.21352708731879347 -0.10788504716743064
0.036184163228650312 -0.28687110722768172 0.71067255549936814
-0.42188860036869064 -0.45212074478232089 0.12646445312499904
0.014385113185829246 0.31943144313183075 0.41671195991219928
0.10998821470006559 0.099870806573013809 0.5358005315901655
0.2332501751325361 -0.18706348868921291 0.66463825175570723
-0.35792802819098546 -0.26475601405297355 -0.29366025364582826
0.11511177096240061 -0.031544180587140314 0.63606848070873101
-0.51082277455061975 -0.57420699750196846 0.019821977743194885
0.077950548200921344 0.26460049267966862 0.5328426075596906
0.21505170866868334 0.42233194608320895 0.023057590349001511
-0.14189038432354834 0.30434789670183221 0.38619200204219456
0.15554624696893804 0.21432911183412823 0.49490659862053049
-0.51834695109822371 -0.52875909221034689 -0.055668260015511173
0.1285329798417171 -0.22111431603481801 0.72542238785188551
0.19581306770605864 0.41821876892745385 0.40001771154718246
-0.037356504870255047 0.11247720640996059 0.579284767608929
-0.11499048826994901 0.29987535123174891 0.33734292292335688
-0.24957475177351235 0.080860879041028608 0.080866154180699479
0.1195914627682477 -0.20760415186782832 0.71356645940885788
0.3776732602348909 0.66057007377100219 -0.12574005132509275
-0.44651234136925289 -0.48175540742808631 0.124053718736857
0.046999122895483691 0.42182925539330918 0.47355401483214665
0.14380146876428584 -0.189218701742533 0.70737004380247959
-0.21835266946566156 -0.004862026276696324 -0.35136439011450993
-0.3008075839881682 0.0074640299799159232 0.46800470458846788
0.041607956721176953 0.015011418866098331 0.64672438353144757
0.13465563058951271 0.23734331695068836 0.095176423246110697
0.069593579678392359 0.31005914930124701 0.49745683580705002
0.14535118850124334 0.37739386047087781 0.43824102834913053
0.17016972258962706 0.52459138501451197 0.35273780992530168
-0.13417870134086163 0.1840509138096531 0.50015692309864312
0.14061266063374064 0.2818263316245978 0.52161968004529458
0.0032378199935805818 0.55452358714925931 -0.39771212570016523
0.22110655455880424 0.58642516063011296 -0.019077455518551889
0.0048020430554444049 0.30091567092752108 0.40884010223180611
-0.053088081172436907 0.08418549565540237 0.59660949924946616
0.11106607062087986 -0.072972553296231729 0.66630663994410033
0.04728024867416547 0.022640637922026099 0.64150740042049759
0.10597892659292091 0.23055959237762819 0.55763575439964419
0.047885304544562968 0.017342505860979948 0.65614735113044986
0.18399434092046238 0.38847344400790951 0.20511237298065449
0.025955759436302572 -0.0347108627668649 0.67749394183336165
0.23787682830049775 0.32521772799467974 0.087332494274134254
0.28392512602465442 0.65678390986951973 -0.092394385786325472
0.036452510570059049 -0.31366947065722006 0.60046748543979378
0.36437976042532494 0.84021497219754637 -0.20560294662715711
0.064258122794450534 -0.22195820416696802 0.72503733851395125
0.010548815320357285 -0.009341580999543686 0.23550447667675312
0.085061572763351634 0.034822264704478717 0.55280943287727502
-0.21869011910180935 0.028564477326505897 0.51924774773939864
-0.76751212755272435 -0.7124895072385935 -0.3125137593133902
0.16512682402309789 -0.21621478199889754 0.67817085180389958
-0.4183206362346889 -0.26225651885045781 -0.2830931219088495
0.45424172330066598 0.82552052936659481 -0.19485731046363458
0.082369004400454304 0.0051640594847957577 0.66489353133117068
0.32984790851208962 0.64780787685457419 -0.097663978138190166
0.18769971810237374 0.34689141932502909 0.29675927895263771
0.11220702720978004 -0.16565789821331023 0.53200978247029596
0.261111858894092 0.53294273670891812 -0.035306618561032177
0.16732108796491219 -0.28606248114607352 0.67626021336538078
0.056809443304100427 0.24118686043870702 0.53325695799834882
-0.20804256643650171 0.11141309130319017 0.3128954940605907
-0.3141449250767987 0.018808025690620782 0.43678059112112216
0.093629230123304152 0.28081953429751932 0.54126304960354599
0.18936958047100977 0.53221407576861757 0.29369774745963456
0.31947284995370306 0.66965378952168608 -0.10388081866263255
0.20419066745813852 0.58924922979948136 0.041483579645890833
-0.30328995411078224 -0.28688942700032932 0.33813398924877497
0.14661291092734385 0.40403421750572133 0.43549882564694176
0.085332260460157544 0.065647709273997601 0.48685760884324059
0.12919370395995994 -0.020793212745671502 0.58640896746797411
-0.61882271479492013 -0.53469878223680967 -0.27543996546042826
0.031390083575625838 0.0034748661151436933 0.67642059890866446
-0.005175623946507224 0.12582225686014284 0.57182372114380453
0.018857150994712413 0.0026551995833728886 0.67218764138133991
-0.037893469535789093 0.11084553634727587 -0.10182519875028673
-0.241983304604307 -0.20386124556838603 -0.21760461977085543
-0.48676960728685376 -0.44762712009020328 -0.071688024382808468
0.20813767087448093 0.76282027770766347 -0.12515168098210078
0.36182474010041921 0.7281643378563063 -0.14785461663822341
0.18739399367933651 -0.18452270894483225 0.68727574164023242
0.05352601053874223 0.19454636411943999 0.54790087221945716
0.13608051971724236 0.1913837954157058 0.37696536629289928
-0.15862231327316795 0.27154855570353043 0.38993898911823704
0.082755079531976028 0.0065738549854693906 0.51411975223165429
-0.14209649856776441 0.15691443125401638 0.5203104867377133
0.14459436606509643 0.24600889568480772 0.50021321688988207
0.038209702499701126 -0.31601350075672563 0.68775190743414005
0.061466727808628496 0.24715817323679698 0.52354721426573891
-0.29777834894946287 -0.37815708963659861 0.2126615784283179
-0.11893311369784926 0.097598621873869168 0.61585150396515975
-0.20710661377748213 0.16650352068870802 0.46553057829596345
-0.070761163201125299 -0.2080580501594379 0.30511002737687831
0.17674574733116988 0.45416887357597402 0.017385094320453598
0.14349605902918769 0.24907438717652683 0.50773302290387834
0.1554515611503251 0.32685512335191297 0.17122100993523154
-0.34038080444564589 -0.05057170387553514 -0.016400443421950239
0.13820094666596264 -0.20574072270735844 0.54601220841163911
-0.064540453654059193 0.078071021785667494 0.60007672615813146
0.20741575586114111 -0.21178386542443531 0.69676445867235437
0.17992770206229222 -0.20244167328924415 0.67702748606287544
-0.6267030390137025 -0.5761758786080331 -0.21737176862676333
0.061627109917164469 0.44161879700627266 0.35005423348792869
0.14794795177524925 0.38912604209919827 0.42233451095638613
-0.017617914859296258 0.1049206086576881 0.58031455261334985
0.16831112506131907 0.43174381076121504 0.025433684801188017
0.17380882584200572 0.34382671554620203 0.064501025844345916
-0.51145282762076261 -0.51804463564396497 -0.058787296653309562
-0.090150166574301027 0.025188372513875346 0.61382449114719329
0.094855320187756165 0.099319835181867017 0.57940639407136485
0.021655875380721612 0.014873380080955137 0.64378297630981574
0.15909252942544852 0.29160619139620025 0.4703139679035811
-0.60882232603880604 -0.50454386055192546 -0.29494745236732628
0.21441853550821396 -0.25127942728938024 0.67745192680075661
-0.1611596427959513 0.23058651418484538 0.12934018638909867
0.084473998116904425 0.46020859209835718 0.45517854120254658
0.16999362520978378 0.30562954437303808 0.12157553307239466
0.15064423403364863 0.33939908374305416 0.14280105738645127
-0.045178976858171183 -0.30141548850545657 0.60508981386130833
0.19540244069198281 0.59877893020133865 -0.071745358782946411
-0.027250155152653777 -0.12996307032622254 0.30071111338302731
-0.10208538641351311 0.18616363338656425 0.47889650565238739
0.19495760826717634 0.54873755582103456 0.020952442204088817
0.010272165240687803 0.29359027500989943 0.51085972661272572
-0.70054330156577926 -0.69290804540823558 -0.13762696737766328
-0.09330210823684254 -0.19027695156836077 0.5084847371651533
0.063889939368599324 0.27797699245403285 0.5078141360267624
0.0052745871897838525 -0.025387570403937201 0.66012002096314026
-0.54886685795262635 -0.52289606839589797 -0.12802627149503853
-0.65554682550588528 -0.61445962664051101 -0.22212538380439711
0.17576468364346762 0.31157019470929931 0.45371768789063588
0.037673138368967019 0.015349340332184061 0.6408306451977952
-0.036078599557980429 -0.067940451972800686 0.61760271210458706
-0.072487057477369166 -0.12097338727664037 0.55955497627839068
-0.057180403632876076 0.06318918181384961 0.60380063735880873
-0.10792615249698606 0.17296464087030058 0.5264562977991728
0.21949280600419127 -0.19509342052025525 0.68336127299858251
0.10585390336915387 0.37318453011876651 0.4659539330227952
-0.57300127630465369 -0.40085645338138459 -0.3299136970034196
0.041844639251234494 -0.029730936278325029 0.67896534648665019
-0.47550326712695024 -0.37646511570783447 -0.097236959855097116
-0.43480081742809873 -0.41383555743634337 0.053264227603433079
0.14388488254967227 0.28154544171678836 0.51812948626711697
-0.18639719696726809 0.00056252359657255752 0.57138120758690036
-0.67813298645682718 -0.68367387238277988 -0.13344518836575064
-0.29441940356100704 -0.40466450562427581 0.17079504671057849
0.20825948239698272 0.35004585151944201 0.40617937682299227
0.040630070096009552 -0.17619980084100828 0.71048127340290856
-0.79498364041151592 -0.64503186050866412 -0.44293443857906006
0.074166899945435183 0.21811917873376194 0.54075469078213356
0.15575370432017105 0.22558158772573134 0.38165588098134368
-0.46737084259768835 -0.49765792735594527 -0.085215036395375254
-0.50250649261463898 -0.47197043559565388 -0.096406643340399778
-0.45146254305503569 -0.37916165601526741 -0.01935891172035592
-0.060923425363152872 -0.22046343196891771 0.49169880517688219
-0.26209722702108412 0.042065296630979479 0.48571332171089476
0.024519259846950026 0.30408098943120815 0.52410501927962361
0.37730022701779009 0.76223266038800119 -0.16012524287828572
0.16698364370888599 0.33788334630031569 0.44346262961566807
-0.15946260466588724 0.029104638548948965 0.60270964985990805
-0.042736290392665688 0.14218545073582686 0.56885089477093009
0.017878743243440798 0.28378131570033105 0.53081795144572852
-0.31899892802679702 -0.061737159261789076 0.46557796407604174
-0.063067812094434461 0.16122513737422681 0.53208316759335261
-0.10792809268807529 0.22351592478342142 0.49869843634446864
-0.11033516124269821 0.19897919870584949 0.50790672936959957
-0.15121763589917975 0.045464974063084952 0.61587809697540297
0.11908070652807404 0.82602539574798362 -0.30730595390449789
0.052119713930459999 0.1080178411907472 0.58833908435406679
-0.036330272296783706 -0.1104459033177389 0.63297730550795384
-0.60657806415243232 -0.54704353135485273 -0.21968848256432794
0.10185933361251986 0.3065277457426312 0.52837689646471286
0.013347835834020605 0.32560007144751646 0.38680034589432077
0.36604859866070549 0.83842852611687646 -0.16410668511643067
0.1551255430536905 -0.23335922321723868 0.69796930323163764
0.15561329602616999 -0.073442811611239583 0.64268308305468302
0.073709663297783889 0.24799280404892421 0.53437876972212295
-0.20426691706354649 -0.14483456336115993 -0.21211865450641076
0.01980281708377335 -0.31635161102409848 0.60302673098592674
0.057181143480539542 -0.13747799252206619 0.50182333355662578
-0.1185020929874227 -0.033543093753784545 0.57733452791274509
0.26599084484083024 0.45225818149614638 -0.011856221109721177
0.23646736304797306 -0.19796068552783624 0.66577985680414364
-0.068818710337469002 0.20073525557196048 0.53379700466303059
0.085059447594193843 0.29255940136550312 -0.011919287654917232
0.11538876094151629 0.20353417882851674 0.12108278755185115
0.05519097839460102 0.20767254525203754 0.54495586449294997
0.15274846825662206 -0.22496250968797271 0.55337978267681365
-0.43199083568263869 -0.27357748586559888 -0.23412797999193968
0.044407908763825554 0.16249685478250075 0.052711375894578916
0.23445312802591678 -0.24948741728534607 0.66006269101609916
0.067511791114252984 0.32438477296609075 0.49639772151498901
-0.4828795973386531 -0.48361010346948097 -0.034404976079393412
-0.079656923635716748 0.17889982041426297 0.51341604657205064
0.1186606617567933 0.18755237988570744 0.51630509842735672
0.45396593843266242 0.77558613429445655 -0.18566729461886761
-0.54970753969980113 -0.45502636455745504 -0.28049565491951545
-0.16208041393918737 -0.069191373559403108 0.5570536870365066
0.087844261653985789 -0.03374733147279535 0.64979345189343274
0.054118605423081056 0.031379633604306068 0.64529346733132453
-0.65834608229199032 -0.67397436387431275 -0.12853119326561224
0.29639396909980326 0.6355242308278457 -0.082780864842101953
0.15310543520747852 -0.26111976593152653 0.70685693819133033
0.15601575407985444 0.25901385456912451 0.47171083927094132
0.15757192988888186 -0.30191903431608375 0.64116616533054116
0.18526389286586181 0.5167703848068228 0.36353612573253968
-0.050789291702946771 -0.23793883637861873 0.53847918693667385
-0.078656878744355951 -0.11778132969112748 0.54665271213347588
0.024749857617775317 -0.037364647772714615 0.67382137410253351
-0.10206153815949909 -0.21981721208665436 0.47150405996464084
0.1698777101995585 0.36239072245202791 0.43357179736657675
0.21060560432229997 0.65565867633162156 0.03083150389151279
0.20052546097939186 0.28636564682075716 0.40156564905626674
-0.081909992249757813 0.1218425419074643 0.60654623490745685
-0.070310817404414416 0.022436331628991973 0.56855217411204673
-0.22085024502213552 -0.17845697812869263 0.47479583750742788
-0.53156256531972701 -0.55881115704752637 0.010300147346378075
0.15137672564520957 0.49218340682204675 0.40939419279414629
0.082548481138644936 0.3491236216667789 0.48221361201956103
-0.24155555032700071 0.10394514103675777 0.36280410185296674
0.2993854453087178 0.41700342449515015 -0.024939755108619788
0.085825891918856007 0.02979824512705434 0.6555891100454988
-0.0012135205624391743 -0.1202432384579484 0.67540511416646831
0.012706130263768933 -0.0033417742839449149 0.67146619485810566
0.21480414836848916 0.56182233555824057 -0.067046282137270818
0.034022127337703656 0.14931770007268524 0.56237239278562079
0.10242531262751514 -0.14257592978535324 0.70281652141373141
0.25408322876202838 0.60320959148147402 -0.06073040209044106
-0.0011085345007856295 -0.22255000215745641 0.69745852510931527
0.17981271590310122 0.4142765773583949 0.40809072060212886
0.17985974837752863 0.42779144784143208 0.13936032796291242
0.36526606395910266 0.86082887998521584 -0.20349053280393936
-0.098439092072615086 -0.18709694615402847 0.50110983057601177
0.013461640918411011 0.0075018839516120817 0.65858773844848939
0.15633052388102234 0.31496092435255446 0.18905745084524755
-0.13771176304646238 -0.046682357936886451 0.57441973456995121
0.10304002489205474 0.23971749652152696 0.55693554497067654
-0.15325120575092943 0.12596586119398637 0.52178320109925647
0.0090748974613959477 -0.19747611998067433 0.50542259298945114
-0.034725561547883199 -0.30173818311886841 0.64308280916880711
-0.15355302649245334 0.09290599220263443 0.58642283701597142
-0.039029540166173604 0.48163565648034001 -0.4180736657938191
-0.77485254989730301 -0.62628436510088625 -0.410551335481525
-0.11679693124772367 0.1888069095332956 0.43135095346199631
-0.079446332386411855 -0.10107503964958625 0.54696353017489729
0.076519013760820098 -0.094814403361545507 0.50162376246155826
-0.11467526483445761 0.25901431480369436 0.49040140778814117
0.27026025104789203 0.55292757438911277 -0.045480134749073364
-0.62981142708544424 -0.44832541262141423 -0.38587664874035993
0.12452875091586685 -0.22619193383577191 0.70144983304140818
0.17136431194818305 0.34163067977547734 0.070704696529831912
-0.1412378582727003 -0.058394488225034881 0.56339550747956701
-0.025732730199239884 0.28121742674082295 0.3894415153025661
0.16173344609107126 0.41266309409751245 0.032350015148533418
0.068548610470817839 -0.051368223100327182 0.66183908847567996
0.24526046803555868 0.48037206303337715 -0.010121510769032671
0.15525141306294762 0.30301977331118407 0.1133937526646896
0.18156314506572541 0.33040333354011386 0.083152644695129785
0.17646208554768616 -0.22539830107040226 0.68974852679641763
0.26019635871852814 0.71615511728662229 -0.12715683523476834
0.20792577290636288 0.61017802118261844 0.086739401189661836
-0.038837582437227347 -0.28273450828926977 0.5752700108954425
0.20785241323243048 0.79213581983868409 -0.14669730048175778
0.20140658803931774 -0.18735170868826384 0.69448844302468316
-0.28695823904327772 0.039037298765274342 0.35910024678961644
-0.19019401306785805 0.10302475673291531 0.42409057569886771
-0.23240800697553698 0.087237206680321588 0.48906414190761477
0.075598490620787828 0.0430802556727342 0.61792256665294421
-0.30086869899190533 -0.12423738821851063 0.49395915550458774
0.080260626995842133 0.023202536469000945 0.52469645092343553
-0.0031114138628794419 0.27002255350247073 0.51782820772568583
-0.018442102068921051 0.27634998885649437 0.48202012321302673
0.18928379188369779 -0.22430547840611106 0.70107019109827895
-0.059247846343611132 -0.11595088222649472 0.59198818831453071
0.16820505495723329 -0.29610015514226434 0.65226794108675312
0.24765591745950158 0.3902088841388473 0.050431313833273705
-0.25182621784950543 -0.109281615229609 0.54432204979794863
0.10774796846821927 -0.0076859842086427488 0.61815534165289476
-0.76634803814477281 -0.71291778294865038 -0.31468852842721068
0.11888343747333055 -0.13880678392499637 0.53161372927747497
0.13995381208038601 0.29139034947821196 0.13215562271248538
-0.25413087052160177 0.032113990865528928 0.23636900398581673
-0.32069147182147606 -0.38979343725352089 -0.1244283080306039
-0.47492662489540977 -0.3630554527503565 -0.19171353945051339
0.14504080593565974 0.59015137858934663 0.15825665614782297
0.31713451847990642 0.72526122087397926 -0.13398304497728597
-0.14278046165123925 0.185658614553561 0.33804508172460451
-0.70804760025029023 -0.70077405234777257 -0.12605389220723878
0.37769297991729334 0.75744327458400629 -0.16230329385572828
-0.17737543399650918 0.14978574053877378 0.32413169862965918
0.41883846358040699 0.71723908436220296 -0.12540194445912972
-0.01872357346512149 0.09024083475159711 0.5878973783496777
-0.19493096689848499 0.096808418112727307 0.50429128854221084
0.063211355368013256 0.28805306934358021 0.5095358550603839
0.23097387444267892 0.52689251734702647 0.32504266439831492
0.0066347359762585212 -0.13996677804712784 0.43969741164603449
0.073893557729095283 -0.20208722907265 0.72384503675876433
0.084422471912286523 0.53843307692122533 0.34323018031412644
0.13389963215565354 -0.18433804408718205 0.71618140819058795
0.024352576511828095 0.0090674002833327216 0.66878144186355049
0.085166363006675544 0.029033401711353032 0.62258597916568126
-0.10306460870699719 0.15127275042209901 0.5768121223487791
-0.46000289945743605 -0.46123822977724382 -0.14372088693487983
-0.52013916606688537 -0.47808547722309003 -0.12455539675540744
0.086833274678096595 0.38031730064321095 0.46471264547736624
0.019236373439930343 -0.012645864458262809 0.68278027378648676
-0.15224561446760082 -0.069815975294018645 0.59919139657058351
0.14890417315482016 0.82277785114307322 -0.28542564798131825
0.23308199377329136 0.39576438111974194 0.032240342842042025
-0.66217420985245479 -0.67268626806585519 -0.21751327468029241
0.016751115005481598 0.030723491924625507 0.18634748667639328
0.14507221697090233 -0.24648974955349345 0.7178071080494357
0.30761400983014425 0.79813455526905908 -0.13227512691041143
0.10953611346279629 0.43232722340037766 -0.092420699725344613
0.077157255215628717 0.047405907352901969 0.61656653465238676
0.12978709537574734 0.43363589695739663 0.43387322399618294
0.38463995313603122 0.87888192703588308 -0.19528410253296186
-0.04269168105631499 -0.30234121400103642 0.62251953342488575
0.12310626456923487 0.13955733443125354 0.53726480931089615
-0.063094163966747441 0.2749548226956659 0.51897524229846925
-0.39787545540105357 -0.33787914300573735 -0.25563103775967033
0.16116171670694968 0.30219875749935587 0.11843662205586264
-0.090416938734624697 0.071740874879464622 0.62605953631529077
0.16574465902756941 0.42729578755765379 0.038426738288039664
0.061883805812579795 0.026278193676516376 0.65928027176087645
0.13134173426330503 0.26564849784372624 0.53555352357024122
0.12551366989294285 -0.21147235988333912 0.71859752797814558
-0.063513805284604208 0.19455950135770173 0.53927872793473242
0.19908194098573528 0.71536595580169071 -0.12297283655484781
-0.061104143712570502 -0.22357973034211509 0.50862235506054709
0.22611057215225311 0.57658668921609668 -0.035815536369489476
0.027605542441543895 0.37468055015805229 0.4126176743196231
0.12242072987425598 0.23128915773280401 0.54161338632047107
0.15415925953205983 0.26021759742730366 0.48159194020903695
-0.72634920930494862 -0.70510751790001769 -0.17831294102607498
-0.011419071940117098 0.31812724419619981 0.36230022575553611
-0.24233815508091389 0.11380407673732769 0.38180300063360734
0.16629321526654614 0.19490727021918114 0.46189730458241174
0.11517424488418654 0.111074655555641 0.47418039363119008
-0.34150224787392131 -0.077807918752715852 0.31808714792742993
0.052191861854554877 0.015289568161674733 0.66561238897009078
0.24983442094811736 0.63829192477113095 -0.059198889119431164
0.075195212749000317 0.040368771740750514 0.50206995089085926
0.20480884578592276 0.51422121482132654 0.19981492245054755
0.081537679550376885 0.35197101073148301 0.48168269161474414
0.16700067773123509 0.31192504266136917 0.10649070568895108
0.040703185308801904 0.014806181250378345 0.63948565278559877
0.1938629788338794 -0.26422950736973366 0.57853598938026418
-0.68674412539786167 -0.5576436534768362 -0.37169639488077649
-0.18764706097311068 0.072045995294935522 0.51825643786076014
0.30037407422807216 0.7347829900913424 -0.15748613221475549
-0.40029833726111136 -0.46520941811191108 0.099508003740873152
-0.60750224441625256 -0.43342732266683265 -0.38964872942521273
0.16489406200239251 0.38616687534433392 0.42609928604440483
0.19412471813376475 0.62783361634407275 0.1162253196251618
-0.47348848563251661 -0.39890919846822165 -0.072616763451877508
0.13988246373167376 -0.081216009672013867 0.66020718318923954
-0.36978617791967305 -0.42328033191266301 -0.13806560502066201
-0.11265038609750949 0.053717313198614031 0.63369567441773089
0.20310028815136175 0.39044580955624164 0.0394032606626597
0.10158782104865394 0.44750070829625216 0.44781103913951542
-0.58563735331607969 -0.55650650412416969 -0.15748750976055442
0.071991901947418335 -0.01409352579008602 0.6703108846856296
0.10349318070552074 0.53636172031161011 0.32654489135109704
0.26860187446501449 0.42095628367235882 0.017932833152144112
-0.30879762671548716 -0.042776927951174826 0.26416358094075648
0.10552894585101777 0.3255321087481346 0.51641797307135018
0.030962081024327015 -0.32958236769154137 0.66134927380574815
-0.03822852436979135 0.28265188137526209 0.43340894618359338
0.11853599540388149 -0.16648265343269464 0.71149793571540321
0.16917543686425299 -0.14681853300954018 0.68978679003436205
-0.12020663730413111 0.012728856287199573 0.60873411092261631
-0.32726666453863912 -0.0025337610457885004 0.37482659809666968
0.15690906735246768 0.27427993359344643 0.4823035129647481
0.14391624913509626 0.32546347382154966 0.49505601951457967
0.14160652800416698 0.2302585969474924 0.5120912198962726
0.046529099005888086 0.29242827225651269 0.46527398106409196
0.14608133474753768 0.53261711580023696 0.2288009359915017
0.17129150040671495 0.34422863632533029 0.39473487658692552
0.052426474508296683 0.47670011879022695 0.37129380439315973
-0.38583720145927242 -0.37020290814443407 0.21221749247627419
0.039462030657411162 0.011711036193715774 0.66908169711468624
-0.68216135684533041 -0.52375469282072129 -0.3870667703606061
0.11663572330254846 -0.22408750423130752 0.69578831916057027
0.17833496544841565 0.25350538135420925 0.10281945818484389
0.39946048010538215 0.83718274909273083 -0.17226208999972631
-0.031249836078008186 -0.19611705859486939 0.46470544666656594
0.314611958621204 0.61887795976799065 -0.081805189979506865
-0.0026448978729899375 0.45432864857834288 0.1819010386272672
0.1303953929911558 -0.13012436323920054 0.69121385306596062
-0.31707079280322409 -0.15708037562113528 0.46289808846838393
0.073226074281752374 -0.075896146739622306 0.67411180274011995
0.095534908597467494 0.67842194929331945 -0.30656236866119846
-0.13151659737270577 0.0047026025619082389 0.6065230173354107
-0.70588197623111859 -0.70314879279614872 -0.20011041780312999
0.2340302855391827 -0.2338339480581903 0.59395778282384415
0.42801950221547869 0.8461817828660011 -0.18297375972843077
0.37198314692152845 0.55725092583974101 -0.10116165197778443
0.020065738798330401 -0.33358061701123065 0.64765781813499101
0.064587730844698932 0.28831388149215204 0.50661183082996619
-0.47821428917143566 -0.394714327211521 -0.086888484627767493
-0.62577902697110055 -0.45666429897763916 -0.35361280825951774
0.44524348987433748 0.78955213857427131 -0.20166623531394212
-0.0207882332627084 -0.247018964292952 0.53966552842639204
-0.10177036954091445 0.31408504434713569 0.47848762048921334
0.10524785887513463 0.38838449713119766 0.45943912479658888
0.06520421010954508 0.22545506056806305 0.5282217218186489
0.27167450826675515 0.50816220233145826 -0.032611471553366966
0.1857745661912851 0.47751679535160696 0.0089469297972555872
-0.49249595225280091 -0.4563206478991067 -0.081207379369697519
0.08912112743173195 -0.00066589610164227708 0.63849584281138938
-0.4965943658376798 -0.49761984283999777 -0.06109943287516495
0.1251247919904826 -0.1954720726368411 0.70893661498688154
-0.11879384587937952 0.1478283305133449 0.56488223631940238
-0.19516314368730758 -0.013320421865485037 0.56025041361085337
-0.73329722526053587 -0.72042665397930938 -0.22888344906332164
0.014035948290317179 0.31642468666335638 0.48870733801230987
0.11725635089130798 -0.19154852721986843 0.72190795351075021
0.10726072098139477 -0.30468542324845649 0.68023225345861149
0.062885398599682313 0.18537537311677924 0.062350771062309185
0.010411430618388728 0.26460993611258937 0.53741491458296919
-0.083086009579770193 0.29163744943937597 0.50079779489362319
-0.12315434972450823 0.03351065907390028 0.62117564244108969
0.16892376227622352 -0.2190674230075817 0.55638711510157901
-0.22479162266956798 0.045349056590012211 0.50590604779505188
0.30258455085289199 0.70286863730792148 -0.12078895630803743
0.043939720903786617 -0.29174408194490542 0.70976202770744057
0.17805005239565691 0.45404935344574748 0.013212889596437682
0.027442027544678338 -0.031797050085069167 0.68042371554760728
0.12241618007618119 -0.24013256078713299 0.72491327689752039
0.10597096883442214 0.21256521256255792 0.54448051410133402
0.01545584792096627 -0.015253622366223629 0.68072297876890131
0.20915415663102183 -0.21812383839889432 0.57644048267745873
-0.068622569494498742 -0.080525845460784021 0.57909778104852361
0.078934803054393377 -0.28606493302445202 0.57307236117671156
0.058172338514682453 0.43568433321681677 0.47240045091020633
0.23039069230908732 0.45120752289415889 0.35199698474772806
0.23504219860376965 0.50817301959629058 -0.018250227171924205
-0.061567253713221193 0.12097935737977276 0.57134245826372887
0.079114190567602632 0.17559869236572689 0.10870597416053701
-0.25990939159899029 -0.12596989824498445 0.5343433963121782
-0.49745738949041624 -0.52523935287079782 0.095504898606986355
-0.010824026211201598 0.27778561836250842 0.41451151072278281
0.23094048150935315 0.37496819074361987 0.062772254616998202
0.14132871779373984 0.53188958898834016 0.34575306135216977
0.0066393668637075298 -0.014644255323637057 0.66407782116031666
-0.019768472753510347 0.23018088842168793 0.54797781008370228
-0.13558413185790813 0.062469009184793374 0.62211897273122729
-0.075348773929648227 0.03616650467478108 0.6109382942315098
-0.31213986406729216 -0.44061380483124157 0.063483051570052129
0.21212904169025559 0.76223996550569295 -0.078388169411573227
-0.53211990555137589 -0.42501269298096106 -0.17903599162210865
0.21555165808870827 -0.18510006132787393 0.68233245667210496
0.21500568798260089 -0.25839564226781603 0.67087346281001958
-0.48190915861411621 -0.41356691672706553 -0.19431823296876749
-0.68379478623967849 -0.64869102213656971 -0.31295894552255721
0.089597352892059001 0.78711430117936787 -0.32954614760281437
0.23401511602905389 0.47132640294470496 0.31253194796336603
0.04138288649767552 0.3897797618112448 0.37628966543981429
0.28945686736577525 0.44996070816503364 -0.0049241563629048302
-0.32443487232384077 -0.18532487620576032 0.40514292970989679
0.12082042244995278 0.33838202535973166 0.50422051891787167
-0.79745944340622021 -0.73162011237523672 -0.27058082392598454
-0.22790707267676902 -0.043558897953180048 0.55306394345655474
0.030775288208222618 0.3268147684894932 0.51628344325765962
-0.066733971731937403 0.059280798637686205 0.590608454165372
0.20255558919335709 0.44207052581047585 0.2338564896375766
0.21396975163414567 -0.19978131672821706 0.69047247773672837
0.32297695360149697 0.80017146761090219 -0.13359066520874674
0.15762371941747078 0.45014348803069482 0.4191219395724714
0.20298688370398388 -0.26287418550168179 0.67694046825048448
0.17603093006013973 -0.19498508451390528 0.67456720168843576
0.20341847308827718 0.53366650824113604 0.17207396123469998
-0.25209495085969996 -0.37161720201187276 0.23529462976660204
-0.45412268618955959 -0.50901054394796619 0.12249578847621295
0.045077836342045596 0.31892675860375119 0.50762325384370244
0.093472432342425249 0.38015590544924488 0.46424558563391133
0.199430128943203 0.82633007902647748 -0.13580847731954049
-0.26642751495404099 -0.0023025576985753089 0.49628367234001058
-0.23959571983673866 0.092329769748869708 0.48654667575213301
0.14872775898329074 0.29464231931248286 0.49712626288475148
-0.62564346020155648 -0.53345560120974755 -0.30015192765700316
-0.16483629359681518 0.059323199975258444 0.59396944467086599
0.059000996638648717 0.31726485708558749 0.46533184125390509
-0.75972816941135335 -0.71853627138442466 -0.21426016449784729
0.12301229677686931 0.30746478197294508 0.52226364110996837
0.18841799222334779 -0.18070322538573408 0.56806360689637869
-0.22110581625787079 -0.0088184734574142422 0.54640698483679206
0.17623917185585389 -0.083465472479054698 0.59407193750546972
-0.27839198230689188 0.010133124627682004 0.29311119889859522
0.067813848473552929 0.0077885876170135093 0.67072260441303255
0.12896024154984065 0.24347702903252949 0.54293263257339908
-0.32011860113371216 -0.40672709985412259 0.15815234218905677
-0.40673645241297562 -0.40818190939150478 0.15519416305677697
