# XYZ point cloud file
-0.3931877285552634 -0.11726426649572308 0.81660340046624746
0.48248234331632256 1.1938133466350509 -0.50047001942793035
-0.155891736100914 0.43225416216804335 0.75791642441190676
-0.41216000429447153 -0.63191527296169747 -0.070952701857864842
-0.18140633976379217 0.33335057592047113 0.73944597181726524
-0.41838594416637243 -0.73749417521808613 -0.26472100488133132
0.21341120889947529 0.14113026470653045 0.68864066267072888
-0.95924315822243678 0.040675707721546939 -0.1172206905130897
0.34758830893965964 0.78065690724950376 -0.30476587445445746
0.68963098800896683 -0.63191704353216505 0.60159101156466965
0.43661589304002701 1.1241673451509022 -0.43442068567596515
0.26649622596752831 -0.35324701535976522 0.13364620935137994
0.67212469366762395 -0.46630179070921463 0.71871638481450706
-0.12657338918257732 0.64873911938777229 0.74312051283575631
0.25807821222030203 -0.12186933106989528 0.78022844434248295
0.36089402180439567 0.76590613995195445 -0.29962541800858444
0.097035212046371555 -0.10029444527541909 0.78106031625422645
0.22935916755906316 1.0690647555432955 -0.34211091763346757
0.29626086004069929 0.2364083586916792 -0.43673360798501659
-0.12077867168012624 0.53345317714251195 0.75102321563826591
-0.073561153715529848 0.55908991352118642 0.73139167877688838
-0.33329922931924383 -0.38606649430446749 0.61799130198167607
-0.39363114390248821 -0.66614758951821762 -0.19449368870050843
0.86886744862514531 -0.34964831587589096 0.63350502140665288
-0.048785125699137399 0.3260491911365615 0.80311687074447624
-0.0043683412835382462 0.61961065535074211 0.68972759413221274
-0.012982764895171695 0.32182490028685828 0.80004810474527899
0.40714040762806025 -0.3612247447796757 0.33317586941571919
0.2828859863231683 0.15854418074751919 0.5074778341897157
0.033368464700261224 0.268932518155935 0.74955952323689834
-0.09886110471594467 0.41141894151162273 0.80460081688815244
-0.75727467572060103 -0.95483046369483038 -0.43127334218668034
0.7325763697376253 -0.43465609564709728 0.68260443058531362
-0.28540641959695279 -0.38518163452522036 0.59971844447586964
-0.52151479233567599 -0.45411775172442148 0.62030721208321404
-0.35105697052589235 0.031817812956217884 0.77627108353708696
0.54508280030425649 -0.40353800426065578 0.35650477593063368
-0.25986876064869868 -0.36877890039861816 0.67555433349706595
0.044050836794476744 -0.32789953294610341 -0.49363142915545977
-0.41765986138603051 0.026961114458705637 0.77647436312713269
0.68572015722970825 -0.64768263315750696 0.55007060636321192
0.27995451302284335 -0.046271752780261188 0.77259091266082613
-0.36791957652333629 -0.53956009370888813 0.42895181862954312
0.23077663884753363 0.65843375692568951 0.55355941172591283
0.59396863813679435 -0.63682758611806323 0.65255120849132009
0.34606107389318019 0.62416802334715249 -0.060806297187193437
0.11945126740924827 -0.18188677485537941 0.76481032849728292
0.013876938238634562 0.61797969502809735 0.68136549263264623
0.22900120303581728 -0.050767551967589419 0.80223655872604827
0.21644944058412019 -0.37353256853140748 0.25934779123407337
0.72876455489965064 -0.29889915559633451 0.68230829845589014
0.19835955956820506 -0.38701628526567466 0.60998007004534927
0.26850070828961448 0.6801323596818416 0.47214979872890162
-0.14201073075238391 -0.17590928049581911 0.74483689932904529
0.54994026892759962 -0.49747318486283332 0.71850633612193127
0.26993237168953543 1.2517572870605203 -0.43364611090117933
-0.027187103265803092 0.34352272966911945 0.80526710477217822
-0.07204856434393303 0.19471711533576008 0.75271551019555938
0.63987071854370114 -0.44887392855239749 0.69414025538864843
-0.41636743990407155 -0.72381799022353999 -0.25389325002306773
0.49295125883521607 -0.61095676656385844 0.64241451000046368
0.52983217128515037 -0.610565673976871 0.42143038559741219
0.68858380202397074 -0.46600152935146788 0.71422735157393724
-0.41501395521662232 -0.012909368358219764 0.76132310034306627
-0.41317066419242909 -0.039183485623738967 0.77797886345446932
-0.74208264180190309 -0.55465554983536514 -0.2209731755282287
-0.71338443784991235 -0.85970086089985687 -0.41094180297674343
-0.44325288999426693 -0.3118625017854606 0.69987261177036597
-0.35251734551697123 0.89549573861507548 0.084482592965835934
0.21695741361068333 1.0004148803935031 -0.30313378491852827
-0.57228194757679418 -0.841116303269414 -0.36146681436892547
-0.48329053529405552 -0.62111729456095865 -0.22719817693531041
-0.50519238759982965 -0.93048135852444602 -0.29743827608463813
0.076127192694570134 0.4390642708346344 0.76432425031225071
0.41996433696291469 -0.19438875332046512 0.22574830229933074
-0.36083880439647498 0.92979153015226745 -0.12324317049739486
-0.23742761782748012 0.4135440786556186 0.77389328496153498
0.37391055087834779 -0.038810984361628442 0.70984394813983442
-0.77015287888524675 -0.24335313324824082 0.27008922970033966
-0.3338383427466356 0.014001433278936215 0.77599750003834345
0.087346086951154867 -0.33575161518780616 0.4539528337963521
0.58232295128094691 -0.55804043656465874 0.69727184065881964
0.5954339395637418 -0.03266614026797221 0.43499468731884949
0.68486364396366373 -0.076420531144955284 0.4287997008442872
0.35804088329784189 -0.0597860030982163 -0.26459820291012859
0.33278836583443994 0.79582269912173831 -0.30740722890102279
0.73464979022306887 -0.19631545795633221 0.68868452111203515
-0.73261354054535222 -0.83153615760253885 -0.40151642052057634
-0.4228559888172736 -0.25009439659678834 0.7721021466232334
0.21912679817052805 1.0450566322830943 -0.32209033412699384
0.021910122477786675 0.77987061424428838 0.66663449215224002
0.35916405144746033 0.7577902093728931 -0.29121908170248578
0.040001082796263354 0.83685253523627479 0.59471112598354292
-0.25267518209914552 -0.58446492906935787 0.10809982804673135
-0.2332054392669507 -0.26780444847071694 0.72920821812399561
-0.58234863970384954 -0.72348251370247629 -0.33032485702422099
-0.37271898245642365 -0.54553504895079241 0.38171128552155409
-0.15783474037224909 0.90333620694571892 -0.39776859555716104
0.65505976605607774 -0.15769121385060991 0.37433140200414661
0.27869208462175488 -0.0043338223795408304 0.73404962024352338
0.31458301666722033 -0.02574496560459183 0.72197215009049165
-0.62103284130302505 -0.64671949024303732 -0.30281164718313325
0.11821761378093232 -0.10037807685715627 0.79794617225865405
-0.78669209183202682 -0.66406742913503969 -0.34596386831129022
0.75224601650859713 -0.31773839136665405 0.6878071967079209
0.017074221242009635 0.93943615980540351 -0.076498658504156491
-0.44079126125786505 0.65738127814160352 -0.5562533109122747
-0.12867215650392705 0.42988066903983602 0.77782794785853371
0.19121810128505956 -0.13481151066052544 0.80356281871364876
0.34732608388359587 0.72227725249961838 -0.24192090585905168
0.018305288370512152 0.64731975742070169 0.67156829568525733
0.4309669089896917 1.1534073199331409 -0.52691342342695369
-0.02914550038198005 0.62404622016136457 0.6940967048746729
0.58810177969984245 -0.35308999039250066 0.3481500719684969
-0.81432786743834384 -0.37617680693150923 0.13900626975297059
-0.68332608441336529 0.65071908422014313 -0.0080030983803625055
0.32390666663057388 0.037201037561855888 0.65559608836204619
0.58841904559899261 -0.020871473756664649 0.61466850466327561
0.2972034200235143 0.7332559876101864 -0.25178393609136562
0.4954034959602831 0.87726773846116057 -0.37806167550191638
-0.45147747326787702 -0.58421085566204156 0.2424083659697378
-0.046532734854629609 -0.10651638688402154 0.76149272364889597
0.23575360288701841 1.0432518519056473 -0.35131633761642478
-0.68868249878417931 0.13732332416746304 0.65821705735626468
-0.8234373002543629 -0.85565155376103075 -0.44961169870455908
-0.74547700738027434 -0.20594962425026292 0.64513918052896613
-0.52473672665379301 -0.75768997334416155 -0.32318039511013441
-0.41454301741395838 0.18794647351467209 0.74749228724646333
-0.87050326265181877 0.21911463476050885 0.19330092731970083
0.012286629797651827 0.84850791588409524 0.25908195081617791
0.097241097924594122 0.81548504932484023 0.60039110405805118
0.15064227961664534 -0.03617907249160579 0.77275943737938402
-0.76119780924312863 -0.67007480289962817 -0.35422161650176842
-0.5818421533327891 0.019675351380381789 0.77193548317650196
0.77653901265587821 -0.38614992883114807 0.69552392531091689
-0.012703342717350186 0.31259246439841659 0.79142176681430243
0.69035310369071512 -0.38234697836676812 0.6606909726525303
0.22110384881761069 0.0096381952380699687 0.79118787079542141
-0.55381201703063354 -0.97079348771890728 -0.34090204929348877
-0.55487268426051362 -0.11433815145960258 0.74759655798077285
-0.5428466802688332 -0.61241189763693127 -0.22999007669849769
-0.41867113703952974 -0.62769428509528868 -0.097545773710141059
0.20913020444263264 -0.30890989559801163 0.69607148590853196
0.35280493663601531 1.1601500818641495 -0.50908482318156989
0.3637977147946394 0.81366581386306824 -0.31598465707104539
0.30216320960753773 0.25118276332194811 0.52533701538410948
-0.84088354573866475 -0.27930644182806486 0.14998426728412118
0.30769915852536744 0.53813130167090795 0.31846416969047464
0.17933564431688431 0.26536423736881698 -0.58452218427804326
0.0062494034861928505 0.47626256361516983 0.77753054721299719
0.018093247887194241 0.79782312388731769 0.65202158003468869
0.17800694736028078 -0.36530795330923516 0.60790125582432752
-0.44479099643280229 -0.62985816405583706 0.0031435740672658419
-0.25995504769047262 -0.25170477019324045 0.73952960097987264
0.55654416155220954 1.04509400035855 -0.43909292011942958
0.38147436880891661 0.14053051322824331 -0.2158040741401841
-0.28298630114285039 -0.69369681821689166 -0.15197767659617956
-0.64315456469651 -0.94173590467583734 -0.42618572844638325
-0.45516776904951506 -0.34736536014247654 0.65398001421940055
-0.20830105451504188 0.43763908195341816 0.71373982426959071
0.20797896723840736 0.96030977013679208 -0.26397105585680292
0.3159507994013806 0.75080432937583397 -0.27835012307643714
0.20108540023753729 0.34536055005910704 -0.54789718614568761
-0.64649520806725302 -0.81531852096655788 -0.37586873467832849
-0.082802417422692898 0.67513598900573712 0.72604111421445561
-0.59118132225291919 -0.68528437599735348 -0.32311766114704876
0.10657490480906073 -0.39314406565791704 0.25292999826404827
-0.24643704701860347 -0.19537622622673867 0.74557378902546301
0.6779193444087781 -0.26762237774311437 0.72323022259637559
-0.37346711126431931 0.036758899059930794 0.77703096606014599
-0.35441418869803609 0.28358305991002042 0.72387951046433407
-0.32314801419743944 -0.11377764209425933 0.81725862178756392
-0.10753519277376267 0.89131894553333357 0.18947438004847506
0.37592529571093714 0.0052300739320063627 0.67645353941034791
0.93497317782120426 -0.2375079042574324 0.46377532130107246
-0.48342475942488417 -0.68019498189909022 -0.28074852374717074
0.71743781602772216 -0.1536595644268508 0.38545468392065318
-0.19228855648375198 0.28250295018115446 0.70569900341077796
0.44410346180039184 1.1539539276160462 -0.42530885484382841
-0.67777827539471325 0.46365392689466689 0.31877626480820798
-0.71008047248487305 -0.63254710008134341 -0.27827484578958228
0.37639946591199624 0.56646986850510783 -0.10143292247174696
0.0016914046185032561 -0.21146426070317004 -0.61651441815578267
0.06786437059434558 0.74703060925342535 0.64888855622316077
0.94581002547287074 -0.24344585840596444 0.52046806320577454
0.08786537577222564 -0.13970855008768446 0.75411824371620373
-0.28320940693642083 -0.060422594330824086 0.76968219934412341
-0.21616907045680023 0.47161114126843984 -0.69977283110847344
-0.34931739843050202 -0.10296118731240811 0.81793593813163135
-0.18404318112608031 -0.13740323815972322 0.75331479764671494
-0.58488530601901623 0.070652246341225744 0.53765103331813302
-0.66401572596195546 -0.6345292120327084 -0.39877139242153059
-0.29541430437058747 -0.37264914864110232 0.67707737954482372
0.69777248353442722 -0.4232312135051215 0.65501214656447759
0.3162563699568941 1.1785513353023491 -0.41100502688681972
0.80272720651324869 -0.10291003614513405 0.49222995189097096
0.53541400249519278 -0.57034512751182964 0.68722618135504687
-0.33785564444955085 -0.045780344126500561 0.78103296745891937
-0.74283857607003245 -0.25703870356227365 0.65585228327041856
-0.72279463079773176 -0.45955698895634978 -0.34495913301463887
0.6703035958082677 -0.45605116405721935 0.6981253378141532
-0.12658367935112835 0.5050556314129353 0.74728615982874835
0.30297987703877194 1.1323871141770059 -0.43611114275413132
-0.23993239734909988 -0.18295130764593948 0.76035340012618624
0.070532938423963465 0.2104069598485856 0.65825553969360895
0.75499300825814331 -0.39658137303888319 0.66850874167393481
-0.21062599151886019 0.39474860925771527 0.77353421662602795
-0.76865435291045703 -0.97054302079833921 -0.41068010543241174
0.12667128243598658 -0.13549743014452087 0.80754551951148112
0.92945844168351321 -0.2067791295397905 0.54718983509122943
0.38945583335924239 0.91186579311886695 -0.36199363748731717
0.16470561979507625 0.91673116702023194 -0.19622243508738668
0.89424835389038293 -0.35090126975046809 0.59611804312115746
0.18200843674579126 1.0933780259721102 -0.2873041098641782
0.36173062090911401 -0.46988324412133409 0.67524097224596069
-0.40373837788456512 0.55430299080581202 0.6776658868077754
0.34958886522438615 -0.51142045824189175 0.46014469873943975
-0.15849121423809187 -0.2675757618725807 0.71594936998443703
-0.58023392436328258 -0.5950080091826524 0.02525309768959394
-0.52493490475291615 -0.70470344059180356 -0.31806405529345261
-0.17932620995136528 0.413786968843884 0.7656131195172593
0.048570392128741702 0.32477734026517746 0.76633428895431743
-0.42350313982262566 -0.16265297288893188 0.80452981807504642
0.19897172974038746 0.04781080316183095 0.74251770967069408
0.73246068591433966 -0.52221388717500128 0.67160416599841932
0.32485549525356827 -0.13813038182239579 0.7366160562112043
-0.41272828153413332 0.55567830685105069 0.77907756540400452
0.048346695941273499 0.82466939074104895 0.46618711195450446
-0.43784377686519793 0.023898714950717492 0.77510665218072461
0.74433308632113127 -0.33369377543424283 0.64949283458425677
0.35421543068936234 0.68804641900855645 -0.21444623532256024
0.041007419869878436 0.60139639978177684 0.66797133245968787
0.23251325975062009 0.83696284930698384 -0.23306212061769083
-0.38786839218165081 0.20776151357563366 -0.73179048962173199
0.11030063493607534 0.72995671665934747 0.62281587095315594
-0.25535303114606211 0.41448970931620388 0.77995653521139063
-0.49159902922719034 -0.23330733863298414 0.73700034705591877
0.017602090387036196 0.39457459299894593 0.79615988774350965
-0.73358327125371225 -0.034091572639906864 0.71508137359323065
0.63559725676397427 -0.22428750509225215 0.36267829177747757
-0.53873779011449852 0.19673643499417071 0.74991195070015504
0.2313475988516247 -0.025227644407990191 0.80159797166763314
-0.16949521382851618 0.4400971708995649 0.76045593674714773
0.15332278568428848 0.23240174326652197 0.71404872776822748
0.3691410876274821 0.59399797347781325 -0.11313922019851663
-0.068750203215684813 0.76695939976954142 0.38642614140389497
0.37913693061255493 -0.5612545540840097 0.54055696959130772
0.45511045636037561 0.68893047006711983 -0.17155346895517942
-0.76046748941984621 -0.42277919122812807 0.54863715235146482
-0.052193529943518335 0.21748488908089469 0.7146797091881929
-0.54593616727864003 -0.015564986803639824 0.75645562200838201
-0.64816774334995664 -0.61865758987672326 -0.25138601673284477
0.28711189017124727 0.17668964352041616 0.48292660022211509
-0.47867284401167431 0.079261040911183467 0.78993840556336314
-0.61305845464489384 -1.0054735866398168 -0.38463322828643653
0.021407098400638702 0.91231485404872292 -0.33535410736752835
0.23521809228981105 -0.3968252397306582 0.6452629092355755
0.3207627506392754 0.41107748606941885 0.50077943257618696
-0.69194909657448278 -0.15713198936180683 0.47919841057353452
0.12025628982048397 -0.17570709827460718 0.79102528681778717
-0.55760279940693369 0.16484664817092154 0.80676547623018902
0.28076081605239356 0.76408184009808644 -0.28306519662601781
-0.22362147948037236 0.25981302642021675 0.7854535762630368
-0.43714442565942502 -0.74780552250208787 -0.29630351080098505
-0.21916056863740785 0.32467570044020944 0.77819162367661932
-0.57362893957938788 -0.30755386234083126 0.67957741719341658
-0.72512986470865837 -0.59539012460575336 -0.23616220094913443
-0.4675077925967166 -0.75322882443531713 -0.3086549161999057
-0.48213612844665921 -0.22525277955199496 0.7504145459662861
-0.69961194892229983 -0.33389306899709537 0.67612199927795702
0.28518852723882615 0.24698768714795127 0.58078327527301221
-0.56625410045377489 0.6202250373030016 -0.49956761862693333
0.66104360375261351 -0.45338295314864219 0.66857209134575557
-0.29487054185969264 -0.028654075208506269 0.76753580787540043
0.17708062184281204 0.49011189637930386 0.6574292077979873
0.35856646527587266 -0.14781305875287479 -0.17361286774409179
0.57643892441061162 0.87588258593980273 -0.39380756584417753
0.46104807442291396 1.0780049413636614 -0.47081529241346209
0.27331840212320113 -0.10636674523424672 0.77314414382292407
0.28026497599776512 0.70923038999166022 -0.080981179288708294
-0.17250300210848835 0.42715584431857168 0.76217787686767302
0.88190635386230465 -0.39562739146371317 0.51006843812711633
-0.11483483448856635 0.36910769997342063 0.79172241199421967
0.024317265648816644 0.10830363528082576 -0.69556603061585465
-0.20878868240505222 0.6932117972275571 0.69249264138652666
-0.67286314120595936 -0.95668204103555432 -0.40513277484805088
0.67180555804417308 -0.36703886379336526 0.68096714832728278
0.12391165852953723 -0.079533040116094966 0.76610911131779424
-0.88633850722239504 -0.71902983082189564 -0.40170040075190117
0.28589473583053415 0.7470163396003241 -0.27408873196421868
0.30919800992833713 1.1175386098882316 -0.43343021997760189
0.15924525684370749 0.00025815674304308089 0.75898425670544833
0.47411451440939478 1.1977189707035534 -0.51378442237369892
0.51516754025317724 1.0264403790990317 -0.41030984133818427
0.14258241647755154 1.0834663831934765 -0.27190568203579946
0.29347206276363202 0.71613740095063849 -0.21755207037427482
0.26567105047122253 1.2106005969525191 -0.380823178400717
-0.27452938840990981 0.62138631533289312 0.78085155079751045
0.4962427838585457 -0.12568151309838194 0.32362037767310792
0.26638423987178905 0.62298318106841122 0.53298311749117389
0.17126373715139209 0.63956423940924334 0.61173223985613845
0.74858882850768627 -0.33012210996430769 0.65622941448097372
0.14912033874328579 0.86470435868648421 -0.026744002965473523
-0.58241384480082914 -0.1714349833075573 0.67135082646470678
-0.16564336306273386 0.50101805032022573 0.71753739805054773
-0.2111118333184292 -0.2248246206653608 0.72350817112057353
0.22795478820482895 1.0435914417299716 -0.33755973867062794
-0.70757277861424583 -0.57858324174949827 -0.21984581961338079
0.39835914879298873 0.056069490471791994 0.52023137136769515
0.087580078803227934 -0.12327220786356241 0.758238020292751
-0.88759604738626763 -0.58549660424471828 -0.3348224880346895
0.078765662348954102 0.35759420871167302 0.75601150135586082
0.30432941146980053 0.23168805884949006 0.44291593371643057
-0.40654499771467378 -0.21721785527230786 0.79281648825403694
0.67445345300588766 -0.33601823704992784 0.71446541039542044
-0.34928518399935093 0.42926560784397227 0.82058988647432196
0.74967678582693642 -0.4849999227277193 0.68104507772584277
0.35661131622730435 1.0265144052680089 -0.38829567641712215
0.1977395851022532 1.0027647332517762 -0.27091393252888585
0.2182487384217473 1.1537938815539412 -0.33669972113906788
-0.52366500721891018 -0.91534015553061954 -0.29793901410579382
0.9276913891384857 -0.2948545557234552 0.47976310547803402
-0.80827900009696663 -0.43487260525932525 -0.11245207680022329
0.58788027972720869 -0.66543755144699146 0.62752853974362166
-0.32205270025321564 -0.65974407105374699 -0.1384293786188795
-0.34694155670593307 0.2928776085521555 0.66881404862355076
0.2525565529553413 0.19263501812350414 0.63140835764364311
0.82254795219172028 -0.22341737099292525 0.65796105458709198
-0.51351831275625948 -0.23155237725270306 -0.60458650956431759
0.40529405303470112 -0.052995441663432175 0.70934443618509357
-0.35049753179031029 -0.76016858918801811 -0.29959169904175909
-0.094309766206430723 0.3302742291827292 0.78377364127021787
0.39219391686194083 0.82393922810582754 -0.32013417615082163
-0.74287300394850497 0.062759176986494608 0.71069553201279834
0.21950848259996958 0.40473448936639889 0.64914165369519816
-0.49454048557061459 -0.70717359180505457 -0.30788801914547603
0.65352439080692459 -0.47362305799539239 0.72254928189832013
0.083176644433666347 0.69272713114987017 0.6414836038311118
-0.20701318737413743 -0.020291225861061912 0.75784840243066354
-0.69670926978301662 0.093278628261036861 0.634213089444434
-0.81051919255967864 -0.16512617461661705 0.23866023522433188
0.62656328022666852 -0.44027853293022678 0.70954058367984896
0.44258909984334416 1.1021576162223912 -0.47235940600799275
-0.32910027541947429 -0.70722816405436384 -0.1464302270752984
-0.37328570840585407 0.43329068763066791 0.81580683702869594
0.64792509091409078 -0.37364869077470342 0.71797931071528565
-0.43101224550120953 0.10446187344961055 -0.71266718295772169
-0.69001860152694228 -0.38521585896379884 0.64863168226937651
0.14844369258771417 -0.073519063429142495 0.7689639038592806
0.42481905818599852 0.61872216328403351 -0.28738429408462096
-0.17302562292344081 0.3679505655078803 0.76432745556746529
-0.021172942086537638 0.56947847010437003 0.69584242078176484
-0.11246081656123463 0.74290443438528819 0.65813037758283954
-0.5627720923940327 -0.054093089747391132 0.74878863171077814
0.059971159041673161 0.45071171843460167 0.7685382361835762
-0.50689616050315411 0.57969290786712424 -0.5824011210625577
0.20414302821676689 0.91946023816250833 -0.23652133767407513
-0.35077025894951586 0.26337477796976672 0.64593198957951925
-0.20587032108788161 -0.079623734885099218 0.76297377037855929
0.44163295891745102 -0.15120543926486274 0.73030277543013122
0.15230646517888946 -0.052427987648662633 0.7666853623969021
0.023436004545461131 0.33127756836910027 0.79432697204158265
0.15695746278651468 -0.068597790331488717 0.78675449124732921
0.27902238290571368 0.71187345998348772 0.10727406462332256
0.18141376815429444 -0.18766358894690294 0.77664351998563452
0.53847955072093434 0.77200124732145126 -0.27657226116024658
0.27431238234689159 1.0252113293760221 -0.36731738966422123
0.66877711488031721 -0.53879463056840926 0.42167554855295641
0.23586609192077024 1.1854388864109227 -0.45004512744108371
0.54245482244997056 -0.53440713075213386 0.70487566792606371
0.37906736822910503 0.23053618213654403 -0.10791355160235927
0.28124712706785315 0.070814688803479076 0.60806305287044893
-0.54104342184450349 -0.3042826094308001 0.6819195285187214
-0.79292211963114134 -0.94731449260839717 -0.46683896406835301
0.73635087053209158 -0.36360189299045231 0.64999849154213285
-0.74975776202388289 -0.36823704728201223 -0.41397598732866214
0.40244289634367592 1.2472204933443081 -0.47922725824772727
0.25572672045236233 -0.052940997829967085 0.79271226839569131
0.37369623495936199 1.0604116976939284 -0.41126786732492282
0.27345685789783092 0.65037526947637136 0.30032409213212263
0.67120517469530583 -0.13016282867401108 0.38464818718024008
0.36548685897091637 0.93576029734463395 -0.36181826293206187
0.82047709978891525 -0.48535392678988787 0.60264338820904362
-0.12248571713925749 0.27162898003912783 0.76989304552500526
-0.69812701806114585 -0.16028632439512558 0.51336689535955649
-0.74027210799381393 -0.37603208792955534 0.63370646333047698
-0.074464205163689456 0.37135277885936135 0.80772058124575263
-0.036048457323578642 0.78464415429512302 0.53842391136747692
0.33124676198969549 1.0639832520392776 -0.39770766503513744
0.12237409757976092 0.88778492833996259 -0.058318585586381033
-0.262459962876612 -0.56701856462542355 0.19006838004191762
-0.053411671387110893 0.5962481271769553 0.71365137919904997
0.2822738733829766 0.15683465022399345 0.49810779967056984
0.45666288341315031 0.021281324964519843 0.61878632080697304
-0.79037862257810687 -0.73065531725134392 -0.40095077803973245
0.13250958761930187 -0.12149869303216088 0.80764795349579543
-0.13701702718982034 0.042598265704919758 0.74954927614863598
0.10434188050974802 -0.13453945208983509 0.79980773982395226
0.11605431654909104 0.40728322493712876 -0.59374009696862395
-0.13280678506736887 0.0051083822310236116 -0.72261330750601072
-0.5754452290740204 -0.62783287713885372 -0.26410335288560249
-0.067401521736756287 0.97409625662178734 -0.20903846901900769
0.3480913788950053 1.1286476785480912 -0.44891810623192185
0.72905566375227115 -0.295736966554355 0.69422245726774445
-0.067538815385511874 0.21338868865303917 0.75591563275270124
0.3178202725543624 0.42077096015009174 0.34716734332927945
-0.74426725343873734 0.014707558402948934 0.70033159664151712
0.3534575615434683 0.066770933248462505 0.49864935562903145
-0.54157267415118771 -0.093843661291920566 0.75481561958890753
0.13611465592877892 0.42256770550525147 0.69459148087402545
0.6376587217655576 -0.68411763431821937 0.57108907891895555
-0.1149987324850068 0.28763303992129607 0.75784488936147598
-0.058366531888536244 -0.4943706104422454 -0.11555273153889489
-0.38401445550976909 -0.15367864025524414 0.81507228884032523
-0.70365761406607241 -0.14340613168944855 0.72910004393572447
0.39864348517420378 -0.098758431897002064 -0.057491700754523034
0.26395081704841239 0.8000778688884701 -0.27391127314489649
0.12349226433166294 0.42207671351463327 0.7127464082064674
0.32533023055410037 0.65711735203473587 -0.038621713573689043
-0.86238108463949548 -0.31096200319034795 0.092092543245973157
0.76330506535247444 -0.17721477965223231 0.38787053339053612
-0.22647853137676943 -0.10290150052860336 0.76556497423958358
0.78816153270909384 -0.33863976558289721 0.69808103194800042
0.74526213520429385 -0.32213031472802056 0.66051751849975959
-0.71818744266233292 -0.78187658687337525 -0.38173361043533072
-0.35306932894655585 0.47658500350003385 0.64111617015826239
-0.022419767084516984 0.58670060746143227 0.67546341871218862
-0.14057513787200637 -0.0014900178243515416 0.74778764293454225
0.27075465765686246 0.77772232206420777 -0.27374000175526625
0.38957020491283156 0.72937115195192737 -0.28169380698525015
-0.49879967439895445 -0.69172455020492229 -0.30758281071314331
-0.20831829392448942 -0.20198182221181638 0.74579495007243235
0.18278664443112458 0.14731536495278696 0.72051660359074132
0.098864025359820751 -0.095696426825878866 0.76455291493889366
0.1256957204922835 0.50084289482253541 0.6741877333297781
-0.82407935874848981 -0.69976071584381572 -0.39851614759632636
0.85553004067571159 -0.37552259421595346 0.63792994665677583
-0.77501183847739075 0.018661422469426814 0.34733993167053967
-0.30865965614022794 0.53374285297920787 0.80475962406650581
0.41463764401160219 0.6845848684486695 -0.19047160304100386
0.30958085160628279 0.67053698486151603 -0.089991155597322958
0.48579477359219592 -0.60469197338999914 0.43240022035373071
0.13433289086385347 0.89950732904182806 -0.31653690145727964
0.41305665900815924 0.029804020344004534 -0.038147815359973247
-0.49628689937757464 -0.0082367320608217609 0.7094502652752368
0.17362927910570747 0.86322891147681202 -0.16311126756789118
-0.32578593925335042 0.25089790555214009 0.78918704210687318
-0.62227198035082676 -0.95444343451789226 -0.36413709446996323
0.19319104076719285 -0.37025572490353165 0.37290273051765732
-0.14786943936689578 0.3256446597927054 0.75679626332694649
0.11991172786933557 -0.18378251707103788 0.75654294396046096
-0.60781272649016049 -0.70803730271071208 -0.33168540104836475
-0.71305450020346051 -0.82798778143351193 -0.39650640874357657
0.15173786394292321 0.54979656077661065 0.65445418184730597
0.1400363019525539 -0.073965800510082502 0.75944807885717891
0.096584277001292129 -0.25835117989544876 0.65418890725558843
0.10654211560015803 -0.31730286357006698 0.51885734527947314
-0.18378588604695167 -0.11197172223451179 0.75638003704355006
-0.48145748225658203 -0.038009945654749133 0.76086845430805816
0.79688999294337748 -0.2772554326776282 0.68658283491462457
-0.14230772787957413 0.49400638762801541 0.75293306769361612
-0.91913657382105374 -0.60749693800489757 -0.36184426114398915
0.21056283956667743 -0.16348308496021779 0.78412130096773724
-0.68495887711592207 -0.57792436617350607 -0.21396249390728728
-0.46413606248551975 -0.61498557983769686 -0.1524894641941914
0.070820645920125269 0.45610462055869183 0.76144213808366157
-0.41213880913202683 -0.31964965178254401 0.70268794238123622
-0.5943336632012759 -0.92712304492317177 -0.37460208925077665
0.016327022383241463 -0.45419590587948833 -0.2212335880301064
0.21465278924304121 0.64430890201537339 0.57769447681172403
0.43421958969626129 -0.44979202882763492 0.71216481421533206
-0.98660277585286682 -0.89234364586194737 -0.47729974258309071
-0.040807175296102116 0.27303236051861624 0.75963027214761736
0.30922172001015724 0.47189527395761721 0.38934839526289977
-0.41861072480312078 -0.5948757952947239 -0.3914698324653465
-0.57706879060714744 -0.64363148182333618 -0.30115891656082328
-0.59838202944960361 -0.58569019597992811 -0.16386527436467802
0.35109274538214397 -0.34458106964928681 0.29914172264724037
-0.65597074705495473 -0.32213625232538534 0.6775544521351049
-0.29805981630907219 0.28279984938039493 0.81166985121128432
0.3399382286734367 1.1590268155394792 -0.44567581034026449
0.095105751445702325 0.56556850150457638 0.6620106596872195
-0.38338197723046807 -0.272208244097917 0.75492151277196173
-0.26599101249414225 0.0075212827909643121 0.76908119203300096
-0.29126764674574268 0.25131334888154111 0.80819826842068698
-0.63418745787840525 -0.46762197340286643 0.59426658019255618
-0.3515330277628923 0.0088211673229006138 0.74081317852387851
-0.54931858152701185 0.016027114549197918 0.76565399624351871
-0.52384144140051436 -0.012110522143469971 0.75927804180295189
-0.38418514193196263 -0.24971806961142073 0.78179168348832295
-0.51299952240961844 0.80894066238758144 -0.2674103884049579
0.048536715937305352 0.096195123424502871 0.74995299499061829
0.16952097753240913 -0.33189373325607274 0.63976227144699171
-0.72649022133503749 -0.74574462365260175 -0.37520627181726796
-0.082274239942949468 0.41422838619095215 0.80507723976836987
-0.35622244143285187 0.30075892790420777 0.62795615818190553
0.23563294273726143 1.1921391655444002 -0.35911171348163196
0.72836772468768585 -0.43346353240400282 0.67246142180767388
0.55074162500464219 -0.083524726271348992 0.68842473371724333
-0.083519954843668032 0.30570642018872407 0.77375762406948789
-0.088003043711271545 0.088336603943552028 -0.72925634658450034
0.63933399713324768 -0.56413628924528414 0.42274498494133272
0.52731528705932806 -0.11636413306409676 0.34904927625105042
-0.18836773058946399 -0.28363392793097875 0.65130399442972875
0.46199071885574883 0.89153704496244168 -0.38735602237187017
0.83919775078031744 -0.24074365108837137 0.65374229314171473
-0.41864399556386189 0.03927934204157868 0.77678032727751978
0.23995607412183428 0.62314356149392613 -0.4144619422421707
0.41549007688501494 0.56700767486608883 -0.2500185850204395
-0.08144649671134907 0.23091172535426208 0.76173568464364827
0.80734503745694575 -0.20047404230462984 0.39273111913410697
-0.76983339538623774 -0.41799213679443881 -0.32987828120926066
0.2925534538418777 0.48843236528792755 -0.36710041155768547
0.89547533088576481 -0.324265157484799 0.61019338538226631
-0.19817112206357557 0.37807491054678577 0.77439341093668457
-0.48265592026560267 -0.65342018546032343 -0.27791635176755713
-0.4223314770754163 0.0075268383136466444 0.7373068906658018
0.14627150243870046 0.31505801795971733 0.67650816912902068
0.44940786766787921 1.2171705944391955 -0.50793814248292324
-0.77069323581413318 -0.6129821453469142 -0.41432864491799304
-0.24359721823273084 -0.36081402800102791 0.60851330535209147
0.33805487521415234 -0.097302225894913885 0.73223166384639793
0.15398667749636186 -0.033895721715917038 0.78058604704565981
-0.57025856245923734 -0.90222663485670207 -0.38170098806628983
0.32316318022111634 1.0254648218249722 -0.37683765832187133
0.75265700462582608 -0.50097459441405423 0.66941556615823794
0.16744335280324751 0.46200010262687741 0.64509852946997448
0.84287858951271932 -0.46472183726524907 0.5258569272727418
-0.062239951333812549 0.76335803239733568 0.66498703217866728
0.38982888447650055 -0.4180982468581016 0.36692561756234054
0.08512024058891754 -0.30882462755617834 0.50324243935735247
0.18400400182555332 -0.19043950362303619 0.76833873524086238
0.23579250341792424 -0.36981831811115273 0.28360487622966879
0.072851109419482807 0.59564133323479185 0.66480137158666652
0.032900341551076906 0.92466968955182405 0.016990404173216955
0.30393186907097114 0.57399879114734564 0.49326326701886458
-0.33239327965552512 -0.078274896081403256 0.81360912787765072
-0.15334544540214434 -0.15745513060705463 0.6727284997352303
-0.21373160741392461 -0.48220826925922045 0.42033721102770283
-0.44109911968992588 -0.77907023029729094 -0.25754396587816752
-0.14425984263434266 0.68302811497919969 0.73738818526304284
-0.18365322994336442 0.42907442704273979 0.76699441389968515
-0.74082464394641345 -0.21339809302106716 0.58816138797124062
0.55496324969751587 0.8962234500366959 -0.44693800490975666
0.22955670873470435 -0.0046942446570108487 0.79777164773058695
0.26235999314144731 -0.35219564029972883 0.69795843350513875
0.099148623111805279 -0.15014719299247847 0.79349348145940413
0.23335389223652481 0.90681778234920118 -0.36961953299719452
-0.058981388875875673 0.12946863577083034 0.74537953086485587
0.50873380378339172 -0.32030904463757626 0.73729951050485187
0.27055954696591833 0.96769691194188168 -0.33868466898240035
0.42769851848852136 -0.55742359576684608 0.64727541428876734
0.040286601171127145 0.66335380124079113 0.65983005389635263
0.25361404820108646 0.75369753185411148 -0.011645450279618164
0.21427190804908403 1.197446508351343 -0.42053744717027164
0.17345952897840622 -0.36471336459165182 0.36601653411352197
0.08623280424512636 -0.12518845397948875 0.78233434164219995
0.33473530126377149 0.6431328854078231 -0.0086555693275576218
-0.21647156673529011 -0.31886330189590706 0.64259285227776131
0.0028212862729883881 0.33748149879180289 0.80076778478417809
-0.52778676027882643 -0.13767946984069745 0.73684511129776809
0.49483755765944171 -0.25115648098079024 0.32126439388351047
0.49791091204477489 -0.65365609430270144 0.49524666980526355
-0.46395185052770316 -0.18964650597471366 0.78595629275517753
-0.57070225967084554 0.48962550625626911 -0.59667982472726466
-0.97111181548806957 -0.87817715142785691 -0.44733070301722522
-0.54789099212415326 -0.015313492082167812 0.65987483741270836
0.050236815327108886 -0.29085064503080149 0.52099468476710742
0.51129900357669555 -0.043086045298560194 0.37888237288119564
-0.60509280855950109 0.043155670537421198 0.7842026618817397
0.36193700671162743 0.95573515604246539 -0.36829011734139971
-0.97255993331623181 -0.6675619477614041 -0.39844797612441052
0.66585859129831171 -0.4548239405505492 0.67604643266100517
0.38539696735312479 0.72367386231041952 -0.26896777365487168
-0.20694897214856844 -0.32922328366699771 0.61784013383029057
-0.4198590324696525 0.20046639763367935 0.62018993678263978
0.27797526851846843 0.75920025401666691 -0.2736931875704578
0.31535311956186307 -0.1561007035808375 0.73762865402523747
0.39115818024768689 0.88968064452982665 -0.35112412157743345
0.38561136883071701 0.66995732576278089 -0.20197988380631227
0.41977783599313412 0.72432862851287505 -0.2584294495667625
0.75888833872640538 -0.38548545726689731 0.66808125542530439
0.15261141133541933 1.0288184963360392 -0.35419489739926768
0.060855531497132631 0.89173161891195529 0.099828707696317132
0.47945561454013141 -0.52348760951988105 0.39515745299998883
-0.10996989295541848 0.98172242298434342 -0.20996639241993176
0.75096596292180218 -0.29621767765325169 0.70912742216012559
-0.75137904781743892 -0.3115723098665526 0.55750254735578886
-0.61297752624868895 -0.17573321015932533 0.62331118014243669
-0.65372938017586435 -0.25061301955775855 0.70433071687827131
0.20181494283032553 0.025585854544608821 0.74243551130841334
-0.4940931629731482 -0.52521699686187673 0.55334820049376421
0.30949505652355214 0.073315409669174381 0.53898626291509455
-0.33328425312037346 0.20613178247915398 0.78557483484146706
-0.38740507495343302 0.19290606771060648 0.74606202184356141
0.77118082812152222 -0.38653802518251767 0.69305522375057782
0.12742659646072418 -0.32615038892020665 0.57267150812375478
0.84688070047187747 -0.46247423096254092 0.55253806847245146
0.49001951456801329 0.82930253611933102 -0.30444822742390665
-0.3921413677405523 -0.49012361054819142 0.59703703359352978
0.36250082056081689 -0.010248980733527091 0.69594697100909109
-0.79128163095089743 -0.94520423056801484 -0.4706930518340825
0.64990425251516237 -0.087093457061730106 0.4026157977445779
0.35618781477069472 0.63765187962983716 -0.16008454329475619
-0.72013000440971808 -0.24757050625179333 0.38682872519322808
-0.091034223040442619 -0.23857965111035218 -0.62835484367017302
-0.72559372700040026 -0.52471413550840618 -0.31466155476532465
-0.19488758752722468 0.75114088850260408 0.34923992295264661
0.26689277966791503 1.090508438019461 -0.40058983116587399
-0.63112581208901197 -0.031676969280093586 0.55784836083913492
-0.61537436878904828 -0.97247905017100167 -0.35617921429921706
0.34575885488790137 1.1562811650380567 -0.45546618266606775
-0.67306712425213 -0.098319460400952047 0.53667755139833972
0.45082040809967205 1.1657788912972047 -0.42978443352886742
-0.12128010159848746 -0.022744062853877089 0.74696973745606154
-0.58618939137202997 -0.20755322118354935 0.7117078496143967
-0.16427513187423148 0.33395308534840118 0.76787765021482457
0.069443569770990532 0.84593943741443445 0.57812526462272018
0.43998392603186609 -0.10201403605562009 0.23214006383978436
0.53199217930756548 -0.48530868317088194 0.72035311136523594
-0.39869115692645529 0.58981202133121402 0.69672054747559242
0.61911120077148185 -0.38489099777561808 0.73494900779685146
0.10831362689002155 -0.11644127207625798 0.79991843949959351
0.24604689309737449 0.014236811702176499 0.73800732859509521
-0.42875557742631454 -0.065149581091202613 0.80431069944385936
-0.48125595558854872 -0.53828692899029384 -0.42960378930662335
-0.61913249590229125 -0.65598119271735955 -0.31262943224040241
-0.20822098651306575 0.46668134665959515 0.7619116108910533
0.12765448711146909 -0.16427007751141121 0.80364231309455558
-0.20736376690698588 -0.37642130679335684 0.65869660061730295
-0.35814542912329461 0.88016919869603805 -0.33420289258529201
0.45813295063660675 0.82366913659164442 -0.33245524867179022
-0.62229107538077244 -0.85667223814205462 -0.46026702584805457
0.36074383499691098 0.30345893228300602 -0.1841037712848137
0.71648625988657155 -0.49671173034045157 0.69613944579051967
0.15665047523888065 1.1179550875389672 -0.29556392334077741
0.12519780404864189 0.72798444770879189 -0.45605162954584966
0.19951588308459556 0.034366886798439911 0.74376733870241374
-0.14126859673284109 0.59309896988360888 0.73996059993609187
0.22972082349202649 1.2256764890107157 -0.39033091342084036
0.48787122056114551 -0.63056994874919159 0.4606710656628672
0.22126531923820414 0.25615649910780158 0.67101018303867077
-0.49522923402339281 0.12222174999096258 0.8103981127135409
-0.52181149649875014 -0.33891677253995223 -0.55053245032692311
0.39932542467371679 0.6741792846439052 -0.19536970121262076
-0.27828051599749593 -0.15278546026649953 0.80113125887087655
0.26645374070965033 0.76906377223287692 -0.24734827065941101
0.1758726606653509 -0.040580387395210415 0.80001149580981368
0.051407042686472781 0.41542151985505571 0.78144254433481475
0.63936151919487294 -0.44866970619094948 0.71694014030931275
-0.39618033607141889 0.039385139785586443 0.77727811387461321
-0.017904290067396467 0.94783639360259253 -0.2698715814231829
0.34888688945553348 -0.37102761190777245 0.32791864703704432
0.23510379946241677 0.92286137616457531 -0.29270875577291111
-0.37927061351492419 0.36001519614312172 0.70218737612930049
0.073928202501545748 0.36120937549618715 0.7646368330352149
0.15302036167013666 0.4574632827373013 0.66783105290550537
-0.66933604069541541 -0.96622735103700608 -0.38593537686497836
-0.42574567261242091 0.25621036225042659 0.60213176759707343
-0.74593306780262392 -0.20981650926041165 0.61728245659064207
0.30943277200982866 0.41272994589729284 0.54907919887086898
0.30102536177216788 0.25255701163576916 0.50511339530629407
-0.7211975987083088 -0.44651106801483409 0.44442686664080733
0.16742170147565583 -0.072522666591061657 0.80089500762099997
0.21539969555972238 0.98013738912374559 -0.28952297593853027
0.28382336570823696 0.10456450319680721 0.5094792506566943
0.12071526025910284 0.81362062960084769 0.26563698557457771
-0.19028608659686963 0.42998934777722608 0.76861786329817194
0.40406816349470365 0.69058812812903225 -0.21627127422688375
0.149140166249214 -0.070259705395399052 0.75660257160687294
0.90194976946636718 -0.25669239549547562 0.42881358629179189
-0.91329901772366817 -0.77611864093960214 -0.43584038285641535
-0.53446355103307397 -0.22822418573239422 0.70369423922452046
0.22397385192689256 1.0781856514962553 -0.43002605256109971
-0.2325205364634817 -0.60609480839237784 -0.22659458364095908
-0.95263929543556447 -0.63501078663801813 -0.41797250100475147
0.028624537446069631 0.61137361637655507 0.67416488874691893
-0.045201994978952165 0.86971981401776099 0.23208457794840998
-0.63293101313160705 -0.59440959382799452 -0.21895177012458888
0.51800364504465657 -0.12977584557742006 0.71479537641721835
-0.22211539648451417 -0.34412764135210994 -0.57959224228021522
-0.30306332041480921 -0.20343913207854003 0.80096144100895827
0.40214710249625529 0.79126826185493626 -0.3086354374944682
-0.24418940873522743 0.55356899556931261 0.78059142105371526
-0.64235852984487352 -0.75298664965178608 -0.35273879595891988
0.25955154155687277 -0.098960342800941792 0.78487896688359449
-0.33397224747147103 0.62396008793700153 0.65812047626672232
0.49817380330305738 0.87089678341784738 -0.35304148450997852
-0.72679351475813547 -0.36850191127413146 0.39509743954408627
-0.093765024290008103 0.44166170449899744 0.79932450732458227
0.65246182745513615 -0.67339005744781577 0.51696834790654522
-0.45689128847156546 0.17440765485503995 0.69363585498179292
0.56928125825617881 -0.35974535324800971 0.73685923089608041
0.64708177533364131 -0.24783469213908527 0.72306631471555871
-0.26460209295830595 -0.24948901498003861 0.73641790530887885
-0.76546915193215703 -0.38847377781412035 0.56165231108706104
0.13807176782100994 0.47620739434668113 0.68248769347662863
0.020644768944203307 0.50773786248437114 0.75615093002523315
0.14441208634681102 0.39700858870992217 0.70407024609616364
-0.21232688114021414 0.31800613992968252 0.70551275947559411
-0.13793458499501021 0.714379545453801 0.43101325425589243
0.13435423357054255 0.58965025139752214 0.56047915727099928
-0.42716379910238 0.48526089497867253 0.70857376732849042
-0.3643124866698928 -0.63414553896921921 0.027072505939187863
0.14102459208108353 -0.094998395429426452 0.80306349541204636
-0.95878879593698052 -0.75236330274565377 -0.41746290259828289
0.6524423632356986 -0.45065534868292456 0.66566080818053175
0.50051793916367693 0.66973730507600493 -0.27988211618160053
0.29950202882782495 1.218364794303779 -0.3973379596028801
0.4077215385825852 -0.24338051930029847 0.25458905355758787
0.37617636445735236 1.031757045391416 -0.40015705912510979
-0.58080562135001923 0.37900890290732203 0.44796899397586021
0.55110448204613105 -0.2573324639656378 0.73155415970404647
-0.48905522306149329 -0.5560985051806373 0.49671067024284077
0.35942188153818799 -0.20224731167141075 0.73838654123280145
-0.31225258713901383 0.77185693649162057 -0.49729258198227289
-0.27994532527056926 -0.27062784450581168 0.72989948964082751
-0.64680186287195429 -0.93056294369527714 -0.42668735070347252
0.92387363994498806 -0.19354058008258379 0.48374926349197311
0.33949501905108059 1.2437925026140997 -0.42286757998288271
0.53278788492345441 1.0352916569249655 -0.5049973760219546
0.643679051926485 -0.66810321972382347 0.48927313566099251
-0.15996194668384955 0.33705846026372632 0.76303299882005504
-0.65641521137391212 -0.59250882604810773 -0.22221901852883597
-0.94530201248172663 -0.67909473036554058 -0.37832917428776169
0.42339486252935998 1.2175696938693628 -0.52567586053869464
0.47958786699649991 -0.39937767429576532 0.35580282887319292
-0.63549706497108183 0.1131055901164133 0.80289432901257252
-0.16242317676655471 0.50730775807701911 0.7542662047978772
-0.073512908023987578 0.27027516839852561 0.74648830625006513
0.41352250908262533 0.93086961545902813 -0.38397188134746019
0.25736812788102714 0.82338966862883356 -0.27406411902578354
-0.57651573485860119 -0.63325736182467729 -0.27802299516678319
0.2944920955683008 -0.036010606653452459 0.74073584196608167
-0.50022957611823671 -0.66172509431197413 -0.3063175196096759
0.62251556270372888 -0.40569976454596368 0.71173336934301457
-0.46409360005640998 -0.085288746922412395 0.7920528471228101
-0.41474491781960499 -0.33894651118953845 0.68080149156047631
-0.68147371587596428 -0.95349482319897971 -0.44200017344477882
-0.34463989028246633 0.28067973400804558 0.77353176237730326
0.59646445027775652 -0.42192426490310631 0.73544423934763747
0.74281940104599808 -0.58624085012593508 0.58275949050218712
0.3126739206462501 0.51948298459350473 -0.3453469276484038
-0.2876464158396228 0.21944239990112635 0.80538392127376524
-0.56495923126994896 0.11337325532571019 0.80687096267401692
-0.30091651267439978 -0.23424600495387571 0.77097375528112755
0.82736009393561716 -0.17960789333370553 0.40382000435362153
-0.58087478440145013 -0.28931488098904584 0.6844882348787602
0.26204685247109261 1.0660853145372637 -0.38864592245734775
0.60801186737633994 -0.66663638313594387 0.62461301440130912
0.26852863514014924 0.80255433674634713 -0.28444431588544417
0.17930478661909 -0.18357079958167333 0.78395814996866831
0.66778436042533684 -0.51613113662507804 0.70645628423667972
0.055492655928800705 0.3143947859167957 0.75599641014465835
0.12327367537422607 -0.17117291457029671 0.79804162760237229
0.88044040400592216 -0.16774836689751993 0.45149168368135406
0.036827640627086211 -0.28067476688511306 0.58909848476691984
0.72959397768997247 -0.4036506552290744 0.39115487191733811
-0.35657869962674482 0.46541413294856593 0.82009349622777972
0.15896220635531311 0.77781632982622884 0.55646544390237862
0.33841583617938209 0.89610830798506524 -0.33602890901885374
-0.28547011647971043 -0.041617416429678089 0.76076651059908151
0.36116702788880417 0.51389031914733896 -0.27378920565633647
-0.38592572632349675 -0.51001450363952672 0.57315743634279182
-0.38460940260559795 -0.77735824917937002 -0.16796529733957577
-0.36808321420967971 0.21786731715439389 0.64414785168900179
0.47346963985415957 0.80292459750057055 -0.28532664216027159
-0.20880827665789159 0.69465390315442077 0.66542401573287302
0.10441987104555661 -0.16904452118407098 0.77214576742185104
-0.32554580049425219 0.1365476742049363 0.80245177590425598
-0.371392888645107 -0.21509060732174712 0.79900122149518715
-0.18813068582633896 -0.16965173247379584 0.74762281241050399
0.036541115702334537 -0.38889909674372269 -0.40846949115422748
-0.07892678439305012 0.97546173787614832 -0.093360082281377821
-0.75717468070397143 -0.63032826578512857 -0.28295542975713617
0.77948526781535676 -0.26177332189002067 0.69053620182230491
0.86820548263077235 -0.37739127071556577 0.62122481327517409
-0.65197146755311408 -0.5432444500511231 -0.37783798341123731
-0.74547711339254441 -0.82846296211625514 -0.49386426701267794
-0.57956885940384595 0.74236818506835034 -0.28715559244828714
0.16956454843385727 0.80428272263180212 0.48332657501631227
-0.35297121443931445 0.39953954352919907 0.65057418064607964
0.50569635539031665 0.90779347238163921 -0.38197025973212195
