# XYZ point cloud file
0.36715670032441849 0.94537277560397737 -0.36986940838275117
0.82466714989427459 -0.49211658907128975 0.5969941390982676
-0.14014139412079984 0.27174960857688113 0.77143606229084938
-0.70376477752441957 -0.19103742129150714 0.51286649198760159
-0.73383550556576083 -0.41700661119420346 0.63911015474704058
-0.095117424791180127 0.37859097561492838 0.81417052580220428
-0.061418035694238426 0.80400742646562673 0.53432381135614904
0.32623530099097309 1.0772312216754569 -0.4082128824735598
0.1154561223560755 0.88865224619963268 -0.071002043297916373
-0.24977929428060719 -0.56990642678300496 0.17047389347051478
-0.07809981346349204 0.61349074314589291 0.71688353983119057
0.28422706030556455 0.15503605491841732 0.5014866826669433
0.45993842825815889 0.018399957426093572 0.62964362714123112
-0.7934387528502711 -0.74694323535867246 -0.39991714004172607
0.12969447341970408 -0.13531977537936957 0.81238022827436396
-0.14700103924790753 0.033195699554064539 0.74782325202216882
0.10179242830952262 -0.14885761156254951 0.80310688361909754
0.12620054702827588 0.42781633514455075 -0.59833000884056275
-0.12470008920196562 0.041108215070608356 -0.72642120367767049
-0.57323319204305534 -0.6310700810723664 -0.27269553815050429
-0.082536098956278892 0.97042733266063763 -0.22706240017988222
0.33988696023372356 1.1462836174648086 -0.45987338411185164
0.73124743268024872 -0.30509883367297075 0.69945372225530278
-0.081479141871628968 0.21168023607400421 0.75801716100964001
0.32093930721310571 0.42312190333828426 0.35081101645019785
-0.75764609514200032 -0.017764090706523739 0.7077433243286535
0.35755854013947186 0.064304884890836078 0.50318121135143201
-0.55000682059522532 -0.11885641710666661 0.75453371639428468
0.12505256484668692 0.4331541259290379 0.70480241469308069
0.64842752410834947 -0.69747032235101614 0.54865306487154442
-0.13263137897188315 0.28837372109702919 0.75904980815054657
-0.046654765811972254 -0.47794366941377397 -0.13081095753538108
-0.3893741181133521 -0.17582040827007628 0.81403269393834776
-0.70912477666426454 -0.17822126315392417 0.7355209340005544
0.41223264895458556 -0.084393318013435525 -0.055665134474814693
0.26702484788830816 0.80250861790717831 -0.28287761167969805
0.11143210939555459 0.43310769988802456 0.72338619619084099
0.33101135976778551 0.65818695808722971 -0.042212488761808942
-0.86543480293132902 -0.34300682325230403 0.09956485690464234
0.77357776670589118 -0.17151428812246827 0.39873300162987846
-0.23267551687921184 -0.11870683238321611 0.76208656008023112
0.78952135160063008 -0.34785280442701882 0.70152705745369914
0.74836257127023131 -0.33037333687603532 0.66414227356400346
-0.71873316414840005 -0.79388557766603807 -0.38498473811237943
-0.38141756845395491 0.47523164963728348 0.63121727074189238
-0.04402732247598351 0.6022402298607954 0.67805672518403526
-0.14911029853819713 -0.012420173093317999 0.74548779602292825
0.27462868432701271 0.78013060907714404 -0.28221814923633914
0.3975578125737016 0.73492964932129645 -0.28550031809457721
-0.49447857619657754 -0.68817667177042274 -0.31875644413706894
-0.21009838379224988 -0.22003913310258927 0.74044371870267156
0.17757604081858958 0.14569840991583849 0.72912366843346277
0.09608288921537067 -0.10776116388429724 0.76703178955509443
0.11302253401386153 0.51495528137662028 0.68386746734630677
-0.82792074814754457 -0.71808421279874324 -0.39530729700181766
0.85796208569164634 -0.38058723199149735 0.63999529100841812
-0.78626545183030672 -0.010268337210062928 0.34867566804697248
-0.34368802749636274 0.54256351786201762 0.80355120474844455
0.42344454926378816 0.68906415897195394 -0.1921748914405832
0.31514552713426269 0.67128445029505546 -0.09487056878308664
0.50127461464624545 -0.60791006070905684 0.41553597131056819
0.13081586384597799 0.90035911714685035 -0.33011771790835809
0.42584163724971091 0.039976993232084368 -0.035263198780523197
-0.50836605044978356 -0.028394271355124623 0.70571312058580205
0.17089340314970514 0.86356693486363589 -0.17494298417243215
-0.34815821585476669 0.24539025068033737 0.78735313587621647
-0.61548463029176759 -0.95995608514241937 -0.37453531071403745
0.20419377840203623 -0.37262755838820638 0.36062299777369944
-0.16773189829920909 0.32739475277709307 0.75706302266793557
0.11968811740189622 -0.19868675692331017 0.75680177164690932
-0.60608599637754779 -0.71171282250335643 -0.33919572348862204
-0.71306500038407705 -0.83987271189194601 -0.40049624214541168
0.13952600174970442 0.56668815865040756 0.66519455759324231
0.1373452664716055 -0.084862886601512422 0.7633344524511223
0.10014835367265817 -0.27212121395339306 0.64809404542457827
0.11381547472224796 -0.32675080612375496 0.50800837811181054
-0.18907079838209739 -0.12718580063120033 0.75273528615921848
-0.49248463476350679 -0.058900542221632435 0.75909660323163664
0.79870349233897997 -0.28368183340701059 0.69391972012015657
-0.16806292033412973 0.5043363572453412 0.75385554001950794
-0.92405761812122122 -0.63207402442263927 -0.35172655510949014
0.20981861100899124 -0.17801179806103029 0.78826907521057166
-0.68476396116119531 -0.59030555913851179 -0.21796158948257371
-0.45815308646989195 -0.61505984880582343 -0.16571115457488617
0.054358219065726132 0.47010686731233697 0.77291194944976027
-0.40892434812746359 -0.34437406552553718 0.69611163857290848
-0.58800104999519931 -0.92957327856969796 -0.38542190023451539
0.028244335910066809 -0.43133970505047259 -0.23275632759702702
0.2050849939666648 0.66504173396937993 0.5892158305169346
0.44011104117915778 -0.47017393545833208 0.70465134034115806
-0.99399923312376259 -0.93085325185213241 -0.46649945684715632
-0.055864988506804991 0.27455133861140624 0.76351615542706952
0.3107328855761331 0.47674941013896621 0.39451474822295296
-0.41536976490890254 -0.58283931292930369 -0.40226768469685936
-0.57522567993945728 -0.64564679065468988 -0.30945768688172137
-0.59582479882002559 -0.59407279559120996 -0.17217438248538031
0.36351231610275647 -0.34166344117972702 0.29142655123911609
-0.65237395987233526 -0.35748582105227023 0.6792701709778477
-0.32174730418753228 0.27986787067594232 0.81144125111973864
0.32956936868127684 1.1778755087186736 -0.45688990645429683
0.079808504419549564 0.58237297098984797 0.67016039003432937
-0.38256359953561159 -0.29641981391816419 0.75024415282384993
-0.27709381062337712 -0.0055278530094309275 0.76625084834514468
-0.31340136067119673 0.24713476697381775 0.80785033144652019
-0.62358865117196061 -0.50225077778575766 0.59164853329563272
-0.36334431381429511 -0.0061529123890400328 0.73642771340765023
-0.56324985786265103 -0.0061509476875354352 0.76587964440836487
-0.53628101717043464 -0.033954624904777297 0.75849143663634777
-0.38455609601995988 -0.27409872850207151 0.77848851435108202
-0.5291104416925414 0.80047546517887103 -0.27497117902635893
0.040668052403649568 0.091143428279912619 0.7541492730083732
0.17561672013035334 -0.34634025891654296 0.63233442984049759
-0.72759411028384946 -0.75797380802379388 -0.37768442374120781
-0.10459461169803674 0.42366012473049874 0.81137487549862186
-0.37721748259472321 0.29321098594910033 0.61826778397000837
0.21948130102802921 1.2076171531372788 -0.37187790640490093
0.73148047534220595 -0.44601466970316572 0.6687599859740132
0.55341826984814801 -0.089254371471684024 0.70060278151542477
-0.10126409338118947 0.30832410120443488 0.77715663116336131
-0.078872797166326336 0.12414642889136873 -0.73268330404908966
0.65249642697658672 -0.56396524759184974 0.41118840729553696
0.53740873365120478 -0.11446267372592978 0.3534284509541088
-0.18580862837168155 -0.30060271447645803 0.64132518727654286
0.46757792777706442 0.90419823687560097 -0.39219384503903498
0.84181893236554828 -0.24338859126010615 0.6637270208943562
-0.43297797324424536 0.02300396125445836 0.77462317925412449
0.24784662647959976 0.6301368054288119 -0.42119768941811486
0.42660783862875107 0.57276623192865284 -0.2501664239653465
-0.09644413542713437 0.22982518253552175 0.76385885142725485
0.81743103071719503 -0.19374874418346089 0.40419194228909916
-0.77301207999024868 -0.42745200743966238 -0.32779065280570663
0.30309459191211374 0.49684950390170979 -0.3702000835346233
0.8984976811120795 -0.32527601004028561 0.61636753672527789
-0.22201845586330649 0.38155564908826012 0.77428646073458296
-0.47823741514918083 -0.64988525960775778 -0.28948556249957491
-0.43479797003731235 -0.0096505682078387167 0.73333601085676747
0.13827114911358862 0.31957592652648525 0.68439361439076052
0.43771330613926551 1.2466508066784168 -0.51779159751088599
-0.77430091068950446 -0.62361139386577191 -0.41319093701182652
-0.23786019036450057 -0.37872601345550905 0.59625693867475604
0.33842816727870684 -0.10712578834941944 0.73972301692955966
0.15011155933333598 -0.043426635871277597 0.78697015633188627
-0.56423761359799229 -0.90217863482104788 -0.39283125245288275
0.31984273204441038 1.0365747217615375 -0.3870754329136652
0.75572673236072418 -0.5146069966932858 0.66118112490869763
0.15814328444743353 0.47341082141377289 0.65473714707545128
0.84927070038779817 -0.46549514080656085 0.52315701903940948
-0.092706997158142457 0.78865470152998896 0.66569135132760948
0.40283825451130539 -0.4178157735522392 0.35758842843510763
0.092197448263906523 -0.31777289463824854 0.49192665256886059
0.18406450355248083 -0.20565915023511216 0.77029282557882794
0.24804647959783921 -0.36742166869602144 0.27214884009351792
0.055573874715321381 0.61395653587368937 0.67220470499731633
0.019471875883251499 0.92620941410985136 0.0020266574133991355
0.30160584908715649 0.5878714143716639 0.50410572187906411
-0.34111788637314078 -0.096347831731224964 0.81251240350484011
-0.15547457472044002 -0.17181049173859453 0.66533200854563646
-0.20252892169221326 -0.49322911256410684 0.40243871525855468
-0.43203705919361823 -0.77290605090355236 -0.27217699788294425
-0.17769470091414163 0.70397954056900325 0.73769795417825534
-0.20879396389523563 0.43527554409969405 0.76703080816273683
-0.74371222462873732 -0.24948597196346523 0.59241799916745208
0.56227818799186835 0.9143884633327537 -0.44982438317027373
0.22572322239840048 -0.012534685204567353 0.80820819403141186
0.26778139404566303 -0.36959259396052779 0.69285318770816673
0.097102906612857254 -0.16495126100775259 0.7959322910235187
0.2327935338082554 0.91152158179546294 -0.38088970708918524
-0.069983623061336431 0.12435387865103742 0.74631008237365393
0.51149165944600128 -0.33679508953740456 0.73855426395842727
0.26827154808265519 0.97444289193044931 -0.34953478411977557
0.43759735637470598 -0.57664747659627036 0.63235278081391755
0.019364575776510407 0.68501105933749518 0.66573790020276391
0.25482343878470815 0.7550683644481655 -0.018263863080015597
0.19728346328817992 1.2119162253718261 -0.43411278480331461
0.18424717913655542 -0.36701410917262756 0.35343252205379372
0.083671835804345562 -0.13881639315982142 0.78460873755950189
0.34057971675546028 0.64440901596486277 -0.011384737000330603
-0.21255727962707383 -0.33670547016781693 0.63183065981473518
-0.013982939702131603 0.34424354317682138 0.80978741984101887
-0.53397496292243218 -0.16302250118784745 0.7353571837414421
0.50636339731705249 -0.24801696718831678 0.3207634536895192
0.51293448869135005 -0.66222277105989402 0.47479330064631498
-0.46745026330534856 -0.21493173930022369 0.78476566288059502
-0.5696935093226152 0.50733164594802993 -0.59369337800872302
-0.97746473690308378 -0.91560528707070565 -0.43718165408589016
-0.55957416350534217 -0.037434935258007229 0.65577442690651822
0.056303462160947504 -0.30065046218522884 0.50981859533139229
0.52031733852627227 -0.042343831308786939 0.38465471798502904
-0.62055489544597719 0.018935913091536527 0.78732874435110745
0.36274250742179959 0.96589009273380011 -0.37673217985669538
-0.97862670927688455 -0.69757460780830405 -0.38525977376060538
0.66989427629646059 -0.46974801433087077 0.67018504255131717
0.39332613827319207 0.72881814858947536 -0.27277909810208101
-0.20241186158576241 -0.34623220383995523 0.60617067583334361
-0.4381693029595084 0.188215460662712 0.6108892306549869
0.28252070332798596 0.76167143516622637 -0.28170403892059781
0.31623766670814746 -0.16840567753392577 0.74260690663870221
0.39509828331958019 0.89889655703153615 -0.35773263917528197
0.3941038572126736 0.67366603120258706 -0.20468698281344544
0.42839888483242561 0.73030875981937449 -0.26095125436000188
0.76161323135313097 -0.39554510186347702 0.66797431855643907
0.14395040577514706 1.03342902766697 -0.36832542215797659
0.048294850614286844 0.895736115500819 0.087179667103498559
0.493943153275751 -0.52377461415051307 0.38300229647969886
-0.12697027918869352 0.97717596516885497 -0.22839489981438632
0.75245810573358085 -0.30560853847416425 0.71481850995886731
-0.74977976696569471 -0.34982458578265163 0.56178593759324258
-0.61753176537994747 -0.20406127284396902 0.62112813200059946
-0.65384710930877077 -0.28473300684890823 0.7069873884686757
0.19847668129305873 0.019204368263842753 0.74997303137996596
-0.48091893688982523 -0.55176840500954061 0.54288624788859607
0.3119926587593298 0.070215552933984959 0.54319277632207275
-0.35383602592676411 0.19856075880365864 0.78351813460079356
-0.40749835114535315 0.18274528908459509 0.74187999508255587
0.7728874271875803 -0.39758167276129797 0.69309452324015908
0.13431714033915654 -0.33777515690120907 0.56306159218180696
0.8523170438151233 -0.46475227546853048 0.54962991289833951
0.49787024357867438 0.84006679901156822 -0.3065781312271092
-0.38036005357051295 -0.5137101720709305 0.58486800577059128
0.36306846515612889 -0.016072068490780467 0.70562463920865781
-0.79321628436085234 -0.96467423660891072 -0.47227675002292813
0.6595699939541646 -0.084405944417656364 0.41247509832908591
0.36418994130434257 0.63987121310207851 -0.16331441146683545
-0.72285597193580031 -0.2783197005206679 0.38576986399908009
-0.083482534265058916 -0.20416253541089802 -0.63250520226345941
-0.72778988677197987 -0.53460250230737327 -0.31565950323827607
-0.21941312467443552 0.75261907610620771 0.33243392503442948
0.25856997143010219 1.1021140993173866 -0.41276297574773224
-0.64185242220968064 -0.057092751212960202 0.55415318549300707
-0.60742735567811579 -0.97753954601604587 -0.36735848876536892
0.3357315536546821 1.1753505651084866 -0.46664078500305095
-0.68117963258739778 -0.12690014384133974 0.5349914375305147
0.44300450414860038 1.1913321542149795 -0.43834640840155714
-0.12878868841686497 -0.034090133415609181 0.74476870413309726
-0.58880957846551496 -0.23701921993361985 0.71139784844351794
-0.18524893694646138 0.33599787415347038 0.76829311947456347
0.045467171670384943 0.87703992628029859 0.5829235098928045
0.45096914783765385 -0.097856832914096969 0.23328502976205812
0.53690001528424247 -0.5064309494099728 0.71154863445819316
-0.435428884223235 0.59334540904722122 0.68845345923493539
0.62139775297298172 -0.40188825929377892 0.73369897828142072
0.1053392905251016 -0.13000465505712722 0.80381788918216301
0.24369475875488433 0.0078292568558913089 0.74650228058928647
-0.43854772306606193 -0.085514711298376511 0.8036504542423657
-0.48028872056816851 -0.52818039779374093 -0.43826851284775259
-0.61813829178179347 -0.66068384156086157 -0.3193671517573371
-0.23554019668162596 0.47391077277285731 0.76090184364077729
0.12594423744760164 -0.17978587068575003 0.80678949677934497
-0.20094726580515498 -0.39581846097671125 0.64749428522748431
-0.37342844513042195 0.87371608327918704 -0.34676225375466174
0.46556580242490853 0.83360892014309051 -0.33579104951944672
-0.62111242226846386 -0.85846710230488643 -0.46790534257124961
0.37252973741993145 0.31043890395496376 -0.1833442682964197
0.71923729124294411 -0.51299166210244707 0.68780627943197459
0.14229477789892186 1.1261527894395087 -0.30975997016386358
0.12864462353225292 0.73329465132075011 -0.46691298014467719
0.19595605483651113 0.028311875439239742 0.75151958857584589
-0.17059346405795495 0.608623584836673 0.74042904729757097
0.21097863891361257 1.2426952743691437 -0.40340479920473626
0.50331117998475605 -0.63618106414231246 0.44195871999518488
0.21657925202744366 0.25901217432009371 0.68093624732693314
-0.51449396578024675 0.10581764797585613 0.81105692980503363
-0.52212349681384751 -0.32305228040053713 -0.55576982386272888
0.40800642936023834 0.67820246104320958 -0.19756406913168689
-0.28317523426202129 -0.17194312085302066 0.7987658947873264
0.27021191478971218 0.77086082069942208 -0.25578187558201293
0.17193284383015595 -0.050495578233951122 0.80786420587902086
0.03468917381036718 0.42721236637073368 0.79261349291409289
0.64238477443802111 -0.46649477936400086 0.71145664272013676
-0.41030771748085471 0.023855590119541858 0.77492838337395753
-0.028913686034780284 0.94507542628902819 -0.28676440543750914
0.36140942951548283 -0.3693720693246032 0.31926580820608308
0.23334180624715017 0.92677795103530336 -0.30389342984777912
-0.40516422197150703 0.35526065636445026 0.69533235638447977
0.059982940342123925 0.36960494400020494 0.77502041026996338
0.14261287072587692 0.46930200532195787 0.67793326586174274
-0.66433523764457902 -0.97587897830590697 -0.39431310725754543
-0.44587453336503913 0.24491154363267942 0.59200164895751328
-0.74870959532560377 -0.24681235410269764 0.62271533208203778
0.30826579971672885 0.42070094211494968 0.56011690069437492
0.30230351156571089 0.25334519103887132 0.511111216419323
-0.71478870134867378 -0.48205661842208958 0.44417698278450501
0.16401482030634185 -0.083905652966349109 0.80762658474530014
0.21055120688808771 0.98499511549721408 -0.30167432349665901
0.28612504466597599 0.10181317321837824 0.51237215273515346
0.11004427512090587 0.82345045340076517 0.2596881833134006
-0.21573551842639205 0.43610381673368437 0.76853140416699972
0.4127142656128342 0.69515315752834539 -0.21863304894296576
0.14654507603809463 -0.080909233085914245 0.76070418141145879
0.91059535917983681 -0.24855373506883627 0.44060254048940806
-0.91897909366570829 -0.80372623639794971 -0.42809229774624669
-0.53607720105816981 -0.25554964291239202 0.70103792196244186
0.21524978955729779 1.08789152303493 -0.44310731809092374
-0.22276723136199195 -0.5902213043678235 -0.24211765447540046
-0.95871956741894948 -0.66071322871517313 -0.40593445175593956
0.0084973340054652624 0.62995286815679741 0.67972307792581077
-0.064908642825329821 0.87527866470237647 0.21772297551862252
-0.63166568082232288 -0.60312562710880613 -0.22541897555502999
0.52004120548072663 -0.1383076380575643 0.72500013300508925
-0.21728903675749933 -0.31532408811705848 -0.58659717947558221
-0.30571448341502361 -0.2248264358122718 0.79815821113495744
0.40910049691818529 0.79832978606308824 -0.31312136674865698
-0.27720225074521565 0.56501021096260828 0.77953690345227145
-0.64103816628282217 -0.75913841636072643 -0.35920155866105574
0.25794971355886531 -0.1105538748141166 0.79249308201483615
-0.36906878204857563 0.63006479060967369 0.64844809464358732
0.505114788143608 0.88380765447190779 -0.35612111098325272
-0.72476351472072409 -0.40178997984954989 0.39467409010321575
-0.11729390346159718 0.45219975340764762 0.80494238071735325
0.66449335190551295 -0.68156743139473797 0.49640644778571286
-0.47622548227680994 0.1608114798534297 0.68776340088883359
0.57188510989954366 -0.37679703615406979 0.73663790389380068
0.64899172063896771 -0.25866151050852881 0.73020899781536386
-0.26453848865651608 -0.26962069115831522 0.73006578112977039
-0.75971229747156599 -0.42953138631377641 0.56691552209894525
0.12622729951739231 0.48949362408294217 0.69295765340451609
0.00079040657140438952 0.52358074665803134 0.76524026367010478
0.13391945204070055 0.40667685587910274 0.71484191341792069
-0.23233471398220473 0.31661014697357004 0.70117156125730418
-0.16122819607745598 0.7200409812579025 0.41812485760596729
0.12321156539573153 0.60346432919865034 0.56555059362761995
-0.4599380371566717 0.48364694998582802 0.7014778708303524
-0.35285253121517002 -0.63483335564098375 0.009243826145258538
0.13777958086753728 -0.10754888745523239 0.80854675406122922
-0.96491003530857355 -0.78416083249296531 -0.40632624607012247
0.65698527901710335 -0.46509934754654658 0.65989463062284059
0.51201515531507624 0.67837192395370938 -0.27857501743104152
0.28370955789793229 1.2387645808144114 -0.40894946806217902
0.41957591972347075 -0.23873375493637994 0.2515236631283102
0.37401093057221857 1.0456524765769499 -0.40931296799481132
-0.60419856459528276 0.36291683045183287 0.43720817491609765
0.55330763060902299 -0.27063424163363869 0.73674584978672542
-0.47502428898988924 -0.58064335781147669 0.48463221467986983
0.36111496184619796 -0.21592642092390157 0.74261333703891097
-0.31833773215201333 0.77476889677930671 -0.5069517890147921
-0.2789312386100633 -0.29144171922088891 0.72309897078113039
-0.64360049017467702 -0.93647945923199338 -0.4349269937555782
0.93109150293676279 -0.18623422599591599 0.49836172227961129
0.32306211263610152 1.2682545003515076 -0.43380039513322188
0.53379354862418538 1.0588594913505092 -0.51168186903766255
0.65665179902430637 -0.67402992702718123 0.46951550657592023
-0.18077558658481152 0.33922420612259696 0.76331789391803895
-0.65564092606865998 -0.60272798175462405 -0.22760747872706943
-0.95068195210850703 -0.70818841869481419 -0.36714314355505451
0.41094679807961398 1.2455651862695176 -0.53622172386791789
0.49249424686365728 -0.39737068922385355 0.34953929914146897
-0.65458839429979321 0.089448731685787486 0.80802935874011794
-0.18951139011632279 0.51782667400416749 0.75450202631655472
-0.089072186667397801 0.27078444464844953 0.74836905694368738
0.41660662234146528 0.9425781607436825 -0.39078267711328607
0.2595741649247536 0.8259130470610927 -0.28350640604826438
-0.57445637621565027 -0.63606368752274989 -0.28648383212568618
0.2934326415486197 -0.044003230898436385 0.74939883311875377
-0.49651500842514196 -0.65829261293991959 -0.31713789505116452
0.62564946673848709 -0.42207711243604784 0.70889666229076198
-0.47294242696146327 -0.10740456682736177 0.79139774012213948
-0.41059253644496607 -0.3635055460416563 0.67335157184170313
-0.67916548158920165 -0.96260168666820478 -0.4490709575786056
-0.3682787296866934 0.27553326360121222 0.77064719477589705
0.599283338388517 -0.44073231545567637 0.73156326449642961
0.749701476216174 -0.59602465798036164 0.56887737436368369
0.3230638026599344 0.52676609229502702 -0.34837586225330952
-0.30832117062135822 0.21395958856404462 0.80489431001044665
-0.58407343669761858 0.093454343088955838 0.80931463363549128
-0.30190361348659778 -0.25571393683619892 0.76644210432287352
0.83713692158720932 -0.17265254266816044 0.41664124235959221
-0.57930324712751613 -0.31987783509417156 0.68283118172187685
0.25491894164690976 1.076374718621576 -0.40072599373785067
0.6173514659402457 -0.68478225525636827 0.60277232387522162
0.2717411824447673 0.80531001645780087 -0.29332847397311568
0.17882064387355356 -0.19903830406749456 0.78671731376651977
0.67118858822133021 -0.53494583104051774 0.69630889853505806
0.04237378567938066 0.31959213883853721 0.7642573598255531
0.12183786595340251 -0.18682401075116672 0.80061772995037117
0.88886804772639394 -0.16066956086442197 0.46613304741837069
0.041617514873120598 -0.2929236714112804 0.57952066712297068
0.74084448206885156 -0.39902181702055106 0.39130084891416672
-0.39012173070537415 0.46927896786730905 0.81929861443017415
0.14332352176847607 0.80543054442606454 0.56531705051444803
0.34076660574984885 0.90335174265166085 -0.34418661232479408
-0.29470554808501959 -0.056624278172541231 0.75718446291960717
0.3720093468966148 0.5196914185013517 -0.27522272214817889
-0.37325996642227821 -0.53270301695437627 0.55998364092997477
-0.37208537506644035 -0.77042910430943889 -0.18531857731121448
-0.38660372524505604 0.20792880527505098 0.63537312833204851
0.48159032821594394 0.81222296169168029 -0.28739431582338426
-0.24289503401113421 0.70967845921180128 0.6590495388419626
0.10337399821481341 -0.18395130407790283 0.773177084655714
-0.34339019989122122 0.1266280515574385 0.80136775327364518
-0.37357737682656378 -0.23850936580724813 0.79659608013535532
-0.19109665161547085 -0.18649614420461802 0.74286736303420753
0.047427737360763444 -0.3583247273675414 -0.41469488550124467
-0.097020001733362449 0.97268251844201714 -0.11198871337191463
-0.75852538570636341 -0.64625288232854006 -0.28321372839744896
0.78138919651991756 -0.26838930690619378 0.69855005542905957
0.87102666883414059 -0.38118406799452664 0.6234918982467228
-0.65357108487788906 -0.54579321730275288 -0.38185291833768176
-0.74866346386689386 -0.83969102980300159 -0.49589275946103228
-0.59291203446272434 0.73549254815134724 -0.29043333692031581
0.15573776602910172 0.82913252645016211 0.4892295616413378
-0.37838990931097882 0.39572830025813932 0.64139847360038615
0.51162167451447971 0.92259954958949741 -0.38577675353653262
-0.47241778924869493 -0.57868299304435311 0.39704129802068877
-0.087621550108366364 0.49523423333639727 0.79286934992927982
-0.78914079156286476 -1.0274890823895451 -0.424283225405933
-0.43521969542042171 -0.42737814389411621 0.65095636928634804
-0.333753378365099 0.31419447533046707 0.81498717950954003
-0.20857041941407317 -0.1384138143394873 0.73198637588144067
0.20546729110810347 0.76638719061901828 0.24931411693360417
0.79026575172290237 -0.3089544213227704 0.70165963942266885
0.17398077669020751 1.1450859990821716 -0.32194784823806799
-0.10498122231565787 0.67844510608951047 0.72200718230310912
0.8534788008330203 -0.41298415332889782 0.62698630395273014
0.73440166613454494 -0.31750696187782168 0.6643151084435388
0.097431972447285631 0.83699251522329909 0.21205973525709609
0.10807724108166639 -0.41064745266184133 -0.15083032658349182
-0.27856162314397181 -0.71607383221051046 -0.19347103544273381
-0.28224752980898415 0.33330843838348923 0.79271932467576889
-0.21502154136898 0.48682103727881199 0.75860366821847336
-0.23620665276683539 0.96329817935246709 -0.11557021740532392
-0.59727073572945244 -0.40620573248866343 0.65079566512831377
-0.67368536005523438 -0.28725547020995013 0.71281482942067953
0.060225075376404646 0.49674182476137219 0.7429136390950255
-0.81745468464554705 -0.74488911342384867 -0.41369047424783645
-0.44164545689516288 -0.2667788299416225 0.76873155880483779
-0.23074022367668334 0.3622842208105812 0.71841172797180519
-0.71874940774388918 -1.0040552167454067 -0.40344884311663876
-0.044093061109435894 0.46352500611553182 0.80132170327378205
0.81875948786735719 -0.11665827678284124 0.46784430732627413
-0.47774651407559077 -0.38248389801256089 0.67445455810444344
0.64959539926704579 -0.027073269536275646 0.59387262170271526
-0.72480942441639939 -0.34114477151674816 0.45379919895164278
0.21177172157249302 -0.08023234536559265 0.81228007401639957
0.058111659111052205 0.39484972133841811 0.78805406020540403
-0.064851951542053143 -0.47260760835067472 -0.21448571443756492
-0.35304467338713152 -0.6376646923831979 -0.081390412285713865
-0.39151809361969825 -0.016358183122237691 0.76770064245297931
-0.73216139546522285 -0.34323067973104138 0.66906735264361572
0.8449669682206995 -0.41908374439036145 0.46416516079337455
0.35941341754280387 0.42534871111313777 -0.23969712841824631
-0.69481665315943175 -0.70792899999920245 -0.35242648945880717
-0.26351563877480899 0.44313723948838657 0.6687951711220208
-0.61452927490712028 -0.23893746590215237 0.70688687059983835
0.54620508347617402 0.011114887091648207 0.59626426503161767
0.18172259644944688 0.70241322251138172 0.58945782226822985
0.30113318680429302 1.1179303049863023 -0.43464550852937123
0.44337898741504134 0.042710114742130045 0.48916888356313137
0.6114218548706738 -0.45079047824708596 0.72825238149981075
0.52347785920408541 -0.22686537641549265 0.73702186627210153
-0.72929767804204815 -0.53157796678517943 -0.15673353832048065
-0.62109059623936957 -0.64610963689374357 -0.29799139492259386
-0.095143229592721923 -0.43584122444434215 0.37869750881009523
-0.90221385048988623 -0.12812423845834653 0.13311470735040842
-0.54616318927193674 -0.049506108975145402 0.75510007180569971
0.086194221519694025 0.5592862867084305 0.67071413969700089
0.65006598052438846 -0.61563004271701782 0.42783015408997116
-0.10222088676947294 0.86530681809073151 0.22268561653113395
-0.91841444278977136 -0.7248836233033138 -0.37288175774878241
0.29641457130549753 0.67248909403808854 -0.37384937247963634
0.29094016372730991 0.13223116706933524 0.48799910298097515
-0.50800958015007325 -0.3209964055424841 0.67207019805525903
-0.42499861642950876 -0.4010430836892267 0.66974187390146511
0.39981672827898507 0.72024340250096586 -0.27119173296338417
0.46468980065502663 -0.010356610590721793 0.37542353282019647
0.27426661098341398 1.1268567743528455 -0.43132920243353823
0.085393051003133991 -0.17190599207489043 0.75333697379188536
0.29739709972656314 -0.15832752988914667 0.74495935817362735
0.77591851902739251 -0.36916658494583476 0.69749155851634725
-0.11313337789683686 -0.059099171716550103 0.74819814269156026
-0.34764022658742633 0.47846947603952206 0.53452125452267651
-0.88509283927936622 -0.90157729500607631 -0.45392897627582229
-0.29023562620982801 -0.4548320522985021 0.62476829262830336
-0.66177494954811067 -0.85739220661918103 -0.40216091436970203
0.017248416651252541 0.67068336299652742 0.67045970743482641
0.19416471913468669 -0.36525839143296146 0.63370376687165475
-0.2727644067580286 -0.17299184556578684 0.7832064763293296
0.67630393037939029 -0.65346327033019502 0.6034036686166786
-0.75951157361257771 -0.40707446302899175 -0.37442619366697016
-0.33179458646842619 0.24460007025323183 0.80124941062486599
-0.43407768818585879 -0.79088089737308698 -0.24777163256503343
0.26201581618548886 -0.29754129177023714 0.72422321703806958
-0.83198698036885332 -0.77140127287127891 -0.42759429087329792
0.21224572885653004 0.19442161691129822 -0.57603319508797313
0.70880991139902605 -0.51123938871747399 0.41301481937739837
0.072782380102211164 0.60594393006458791 0.61781038646508435
0.62126975993508893 -0.44739020951891639 0.70729660369581282
-0.19739284853994832 0.32723153037588304 0.77472431133050179
-0.46126905048733846 -0.25879951266871615 0.76328834416044344
0.063777099158070172 0.3928424844906413 0.78305018684532612
-0.37453984148188013 -0.3646157521241431 0.67721842818593103
-0.74018187568249161 -0.45786333569949988 0.49296169873081652
0.16339578587646386 0.79534211176576264 0.27509041767035924
-0.085862568446145815 -0.35086447831682133 -0.51980725909803738
-0.21904700912608277 0.52361158813237196 0.67480975694189382
0.41097095173865483 -0.23366173546044777 0.22348087592218135
-0.79643825365788956 -0.47963335966588305 -0.010601099074854403
-0.33770939277326306 0.02553271614736019 0.7724852953581447
0.47561790629436729 -0.54936462157771437 0.39472176413132232
0.0073870834003137986 0.93652438090622692 -0.19894817526311925
0.28773608108071969 0.46196989543304845 -0.39365550009512873
0.33630958532756594 1.1253249923719508 -0.44374322324332738
0.72543813644201549 -0.31622005892089078 0.6663414231116036
0.68024924511144391 -0.61138795823961534 0.64570151659494002
0.39021537521130512 0.5355303270538343 -0.096955907727348745
0.19871171184015068 -0.1963642791502842 0.77640758146047517
0.3475788057716116 0.21843162123007343 0.30005161410977266
-0.32400106256611849 0.84609796083337052 -0.42193616391185529
0.031604078314494188 0.40612972066249764 0.7975559887019763
-0.69681311031431648 0.64964202370228019 -0.10731423670105045
0.085613052271654055 0.58830997702625965 0.67161184267981255
-0.54366363057057399 -0.2964378020900309 0.68002594085386647
-0.75935494634629208 0.34781701782643815 0.30565957526866683
0.033264618732019358 0.65616867365083209 0.67180089888224259
0.30227536089323337 0.10128710965887322 0.48816512414607516
0.22247454058692639 0.011954800983210667 0.75334925337812564
0.39029511664838878 1.1688258014409962 -0.47843428466046589
-0.82302441265715487 -0.67762238184736123 -0.33198474698956204
0.46161673867501207 -0.16325327457453653 0.27424447779493732
0.83819566177124116 -0.19596593969238008 0.65176452764132264
0.59568730313549878 -0.22868989999173639 0.35341693599457003
-0.54407460551028208 -0.39689396957279577 0.65689929012451387
-0.9247683902443562 -0.76030125370927182 -0.50440136545388725
0.56248832834299378 -0.48143817543898226 0.72160014538956219
-0.55268062384508454 -0.37431906852723884 0.66582799193173159
-0.57018373747841622 -0.54142953961459117 -0.41233017925140913
0.68611170929364107 -0.46971880981001046 0.67668934580473916
-0.63243485583993575 -0.34929549439563079 0.6746809358738588
-0.87823268984489644 -0.90920724896703176 -0.47355640079494776
0.62739787666845359 -0.40305447711140285 0.73090969949705809
-0.3602184652520819 -0.63570781200509829 -0.13806071617865712
-0.12359125057268372 0.75060091754768532 0.39316234979778031
-0.48849865075124654 0.419425057902858 0.48565884448792929
0.28762523250603422 1.1506237071513552 -0.44052622702887589
0.46534909248537915 0.032343681454172213 0.5955883409430065
-0.33098651274793411 -0.082794818236528123 0.78849884278820426
0.11366814724579655 0.49523617514511642 0.69487972779464968
-0.10181720154385232 0.44432416549624421 0.80808423109696648
0.30225088724485616 1.017962604965736 -0.37703257972489723
-0.17645498058306686 0.51056001531155459 0.75758850523397214
-0.31569303322452669 -0.64162622829805915 -0.13455809460909052
0.54627263496976397 -0.47613983476539889 0.37121325762760193
-0.13696399498984491 -0.29923235632107215 0.69955396745826803
0.70152052876434823 -0.34818792851221225 0.66945789178567239
0.037727072585305166 -0.32928174811803501 0.47191819582135608
-0.37195844741960826 -0.39867633911616984 0.62724297551904584
-0.57542919480324173 -0.93287813880231241 -0.35982294880399124
0.34351439942502537 -0.01050320671682492 -0.35033941303051108
-0.8089211120002382 -0.77554311444992186 -0.41272674631524353
0.74965436504510663 -0.3843503507397763 0.652344554541191
-0.16208049937523583 0.38785837271815815 0.77641442096599178
-0.0060157967730276596 0.40569785932520697 -0.67576945818714051
0.1406370484419206 0.37429535043066853 0.71531440536323032
0.12387496839587797 -0.25477840094235393 0.70153503482911006
-0.33609608390142398 -0.80649743362045934 -0.26024839832836477
0.10806706992634929 -0.15496904702771097 0.80608521232435137
-0.52494509726295746 -0.10931726708975376 0.74941846838033399
-0.59214410016701891 -0.35392395846952684 0.66687368158785532
0.38624553262517125 0.72023686726417324 -0.25724857754384445
-0.02524891786527661 -0.35681919525808592 0.51578611651445527
-0.76354887885040768 -0.50857478188852667 -0.087810623156798329
-0.72727173315795568 -0.5530045590279058 -0.216106368083814
-0.41009883253029145 -0.022519033126705779 0.76300224688451479
-0.075554978349870794 0.26052965704433007 0.75416690545046805
0.30022642050428772 0.83510942516891351 -0.31516138955048589
0.046874549009032762 0.86775679438605202 0.60639213038452056
-0.44554968204939627 -0.44430251870646309 0.64054839186056967
-0.60487943704777081 -0.98854316695723199 -0.37114878768586124
-0.61142943519507753 -0.050712707422595038 0.76304944557801946
-0.0015572608429579304 0.51744747388903978 0.77116235455785542
0.42976187784967479 -0.6039325648725562 0.52127841195079938
0.25747171571429917 -0.001333833941890461 0.76271019356448022
-0.5556772653969837 -0.25590532364526819 0.70385482503587937
-0.063343437273353231 0.53861252268959703 0.75227436844365414
-0.41793196962346002 -0.77110208332254793 -0.36722084201465321
0.0032840963039433291 0.52995004800679091 0.75245223387037186
-0.24823468726831166 -0.27801861875965361 0.73365326053290403
0.11683998753395031 0.40871674813529513 0.7077714875046901
-0.56518768385551965 -0.23162037945446112 0.72282204607953204
-0.51265379961316881 -0.60820880502576902 -0.13428084142837804
0.17105582303964439 0.27784737242610191 0.7046044099296509
0.024476993281830062 0.62760134421762537 0.67633135872413419
-0.78848641324131563 -0.59639691219680557 -0.24040063788000765
0.097236991528074412 0.53703737749581482 0.67540308293048668
0.40525270414058667 0.59919663968968706 -0.29438102631475616
-0.14470567871957485 0.75727965822776078 0.59747662244727806
0.31325373272679968 -0.50994888132378513 0.52739882613252576
-0.90632720538990696 -0.11036489234568592 -0.3321557532965862
-0.91028525840129149 -0.99991389244607121 -0.52162399735960463
0.28530598139063557 1.179301048010017 -0.42016946581670211
0.25463947881119608 -0.020266221634730464 0.80236617466946569
-0.3711462054965331 -0.414169469562915 0.60057124442762699
0.18564049218541712 -0.12353726481361882 0.81312224593768079
-0.66382395262727201 -1.0077948660998728 -0.3918343107711415
0.83657018535841843 -0.36935594868312105 0.43508733724140569
-0.446345074094193 -0.35475626611301259 0.67435492968962407
0.48974873986981393 -0.18359565779443354 0.73645808903336984
-0.44739387926044927 -0.36163171022568363 0.67670445370723087
-0.39873205649864829 -0.065946637764208837 0.78739650299515418
-0.45000419905575839 -0.37630063810358205 0.67862280824147092
0.29680347895389758 0.20759760241793401 0.47189918055077129
-0.2395096937889285 0.68509911379042521 0.60234301881334673
0.11571850326403421 0.85746622240193204 0.53925887930451921
0.18601188559669524 0.78316883574915597 0.41304556556811178
-0.36907663578688243 0.25000746668579588 0.68733077042749358
-0.20169711010857228 -0.48766714069815542 0.53485425418075394
-0.17273358968903452 -0.34114373996136216 0.6802039346053057
-0.52041186900343206 -0.36767587858323214 0.67485003881167671
0.097699447657991101 0.60178078854510719 0.66981560015371144
-0.89657325460989767 -0.87785175024079609 -0.46344939854738953
0.029199470335512956 0.33989478813677998 0.79052422164734537
0.46325538236325414 -0.52866221535016322 0.68346402518696792
0.31033093732916583 0.7491651222556186 -0.28368742745947628
-0.48185518933525273 0.0048682566877467082 0.69041807367417007
0.27153590927603943 1.1556607481354959 -0.41625444039063453
0.50908478209009544 1.0432052014424249 -0.41972870374190308
0.11636597969572193 -0.28833837436246679 0.63967972337705348
-0.26220388887908541 0.43948892795990879 0.76959821354310165
-0.61574881034793449 -0.079506882547486057 0.75646041264420916
-0.58867754906368219 -0.16380315156524361 0.73103523882218369
-0.57523413163949044 -0.64032655680704886 -0.298838267093398
0.57099184832778249 0.83828186316209852 -0.39028955399094656
-0.23646483149245512 -0.1922265947875359 -0.65071610015433734
-0.64881876874461142 -0.55197417342235156 0.46410834121912359
-0.84414504934902368 -0.65594651209058985 -0.30424235986221859
-0.86228240943804124 -0.7746113637080545 -0.44532764514167056
-0.37472861199116991 0.20716131911269731 0.74039076067439424
0.02076367231706655 0.30583775506904587 0.76843376807615016
-0.15561388260454834 -0.300868893862412 -0.59026431419851377
0.36401031212136914 0.74952605101778857 -0.35101703747527324
0.88377290748564619 -0.24994446150022931 0.63771738160075842
-0.24119505597481705 0.70335287697580462 0.71415213313157366
-0.21334382058287815 -0.351153817953334 -0.55511443396927973
0.76598872036804977 -0.31995843063562379 0.71084936441860691
-0.40333684693959171 0.57929821547902804 0.64426095169509168
-0.18967306685187779 0.47174729244385105 0.73910332767947651
-0.26787641647645444 0.010620721633980423 0.76507154494210639
0.26682103126798751 0.059878522135977441 0.65353192824060002
-0.59475481649053208 -0.20030710181845013 0.7199649840016491
0.69901842870570619 -0.31830099294300584 0.69369043566573652
0.27581694824362657 -0.038101590504147964 0.78426739696878656
-0.60154490779608238 0.25061276070099403 -0.63698977804351742
-0.35691660889156651 -0.082693995941924392 0.80842302487129203
-0.66969240964690258 -0.57358571542412573 -0.16745828581637312
-0.63429865655326623 -0.6117840389995246 -0.38987933190435342
-0.37442540281337244 -0.74564948736926739 -0.18889006723779289
0.36611183171617157 1.0963292808075433 -0.43140353362137063
0.28107701676211505 0.75686239938622002 -0.26972060272629506
-0.1698766083276162 -0.17248779357443134 0.68767612469067529
-0.29711050314055143 0.4936587019438603 0.78123375557166597
-0.69300244181055248 -0.49419327310832362 0.29702225282726857
-0.074559265760914428 0.58651450926276816 0.71701314923119952
0.57132286299539103 -0.13796352349644092 0.36303820448552315
-0.65460342986144227 -0.32586223783624924 0.6923829240592454
0.43101195268101122 -0.545784517410425 0.41291004766281958
0.12133429760837799 1.0552924049754768 -0.26541126879413213
0.3012421851512066 0.76194825134799782 -0.29827882366369707
-0.25791144550550626 -0.67525914426633982 -0.19081419849587178
0.49405919714478941 1.0044568504278142 -0.4541823210471172
0.17193512428997693 0.46708675240263897 0.67598835624625053
0.16903065142318496 0.94111605269229859 -0.22461061753456235
-0.61129247075179194 0.17828087202626186 0.7211251556754732
-0.49844968583609273 -0.64747404477108983 -0.31519229706978535
-0.71063269594286638 -0.23631384206851624 0.71972102818357442
-0.045733686835088605 0.24452365291218925 0.76232098745696675
0.23904800125019321 0.0086085345358295484 0.78084251139572558
0.29189236523259154 0.81266127194933269 -0.36387868174775306
-0.76024027649777182 0.56201615934627469 -0.11322136170296915
0.14505073603213603 -0.31622965650323742 0.63207084062124963
0.17811338348149519 1.0097575723080894 -0.26751348532439323
0.59169203060179498 -0.703967706093926 0.5759063865322922
0.00497903948289391 -0.30043246644872212 0.6125720603874214
-0.37153997182241483 -0.63344339489267654 -0.1489261429612867
0.87234210766807507 -0.23126126003823888 0.6417419943953675
-0.3078979266356221 -0.016515811409032466 0.77165274624446667
-0.33354361703711533 -0.63687818386132244 -0.057237933175549927
-0.47097054718759068 -0.58144632041550359 0.43056077380558833
0.75022869123548119 -0.32934424386041439 0.67042658298779756
0.39685250241664605 0.87610818007603086 -0.3459671410308367
-0.23181782665897899 0.52995864809301185 0.65249481667953191
-0.3445384450709561 -0.23550300387026102 0.79872992951300503
0.11287750703367294 0.35489300048447792 0.72896889879964277
-0.41302259787467221 0.15184894859073417 0.80245177990423144
-0.85692001996317302 -0.59665464873131691 -0.28559727306249627
-0.14710578057785995 -0.40722266167498367 -0.45350329656339383
-0.3886486193808345 -0.24459630981244285 0.79269497284858303
-0.43012021605561301 -0.10119712652134716 0.8113856426637085
-0.36756350942189187 0.29188078491581759 0.63604191162690782
-0.79543288874591767 -0.96304952035154301 -0.45003434885750693
-0.33585993884487308 0.18874882183700414 0.79718750726797794
-0.52869402221212169 -0.34779911931147467 0.62256827189327879
0.49697049216255351 -0.65938024182554766 0.51396809091858131
-0.60674363348571347 -0.78879403547862958 -0.36088328329031683
0.2804695546639735 -0.15230278628996219 -0.37911134442882499
0.13106496060367689 0.9272736396910668 -0.32920988261242812
0.14397509040235335 0.82543549529903526 0.1682508897320858
0.16562473496195906 0.96417207376152358 -0.23113946068420788
0.29158859737504983 -0.061347948921087081 0.75754548679203992
0.28530754587498564 0.089410733394037933 0.54995769266186656
-0.62734097626742269 -0.19375535343416672 0.72669101058350094
0.84242665064824607 -0.24377937243534564 0.40912586884710933
0.40026524814116016 0.53300678468860951 -0.12957257689474133
0.18508555753350109 0.48199441489684069 0.60465037215724848
0.71172929852682287 -0.17727638249659261 0.38549948030467007
0.029962956002382413 0.82954771840797825 0.33309447319207663
-0.54355008081765988 -0.60298637390121268 -0.19573601233298632
-0.5409814407725051 -0.14642066697468259 0.74787590454878483
-0.6947128209390776 0.12833796981432233 0.78750035676963392
0.81198581771537803 -0.47903239938367204 0.63158607042699799
-0.33622523992361408 -0.089294571743275597 0.80337025046175015
-0.49336404115742027 -0.034308095080423762 0.7667643394423358
-0.81894047908576439 -0.94327573374274865 -0.4729253074396027
-0.31673756736418923 -0.24094278328850471 0.79361974692693238
0.43421345272289003 0.79193207896227058 -0.30199691248351712
-0.68124279679770794 -0.95097351635118277 -0.44786150845331818
-0.060879829437308075 0.23271244592312801 0.76322579931594703
-0.083036156067191058 0.37437015541164254 0.81456399453680817
0.14497438868367851 0.25821667237427715 0.62212156501798432
-0.87726081178946913 -0.87969319613391628 -0.47535031834667052
0.26587295051257698 1.1009187158875342 -0.41860052916499413
0.55471010928999931 -0.061811352193426927 0.38857846644238592
0.6740850897032864 -0.49490651185059509 0.71113272029850449
-0.17786573702100128 0.38179848310313869 0.76488111086566235
-0.58250652855119966 -0.59886985520500824 -0.19897942251126466
0.37549786770772897 0.58217567689625049 -0.071167443937341091
0.40313193719035567 -0.22853455589883964 0.18156947606504659
-0.39424314550332085 0.18700209505287901 0.65814744367437328
-0.67187650163831947 0.069343999759524877 0.62286874096156097
-0.05452844535980006 0.35810949298598249 0.81415130487732768
0.40486494942710038 -0.2807951975545695 0.26885919623810395
0.13328213827035285 -0.071891086925412573 0.75068014100012093
0.7202182938013415 -0.49461586205628372 0.69592818304843718
0.69735830901190354 -0.63319800486365629 0.60594157155483686
-0.52777913167824408 -0.77419394253400142 -0.41334373456356843
0.5536162151883488 -0.18313686032338428 0.72947469539890264
-0.61898389047646774 -0.75465546149783336 -0.35331162450309606
0.43927810712021298 0.74021771288178506 -0.24486672853176117
-0.12001555202998304 0.22254354298791679 0.76294723645771256
0.21071501088901101 0.83402770830184902 -0.20920192636116397
0.060797071667508362 -0.15011827350308238 0.75921942764283301
-0.26598486317978498 0.95393866751617784 -0.23998183437134557
0.37163098621885382 0.92427298732274554 -0.36209392467029744
0.39941513054780842 -0.43728919833931634 0.70727386681567594
0.38178205075512039 0.55241354740514836 -0.05416433051348335
-0.51157268484750062 -0.075501922726937565 0.73666627229571446
0.38354040596944472 0.83781304252029276 -0.3278139481707889
0.017520186940423343 -0.083434179401515429 0.75518612030579746
-0.10941745387351887 0.098174783318846437 0.74829407048099839
0.6750295911660622 -0.4399755387659221 0.65503359242111614
-0.21709422899938957 0.41931372478646356 0.77042544152146419
-0.10006453346581168 -0.33538855466723749 0.65688482374983437
0.19778785371408247 -0.19672927439733945 -0.45876698676148919
-0.089469218442484788 0.26558116251198705 0.75500399953796915
-0.19352874991788127 0.735227408425148 0.64350751813140405
0.46175831517988897 1.1077723955775833 -0.46040499402440815
0.38168982867065893 -0.21397570729240201 0.032761440440406631
-0.48719902468205945 -0.095898561918545511 0.76497867169899791
0.13478308995371791 -0.12036434925011719 0.81138306262930016
-0.79535119645480634 -0.8721845948246556 -0.43160211015309002
-0.36433050510140674 -0.71882282094416627 -0.18880549268102698
0.46488146708082567 0.65741509175519486 -0.29362136194470168
-0.30043758375002838 -0.53700839912458065 0.42507077349518596
-0.15421468867933896 -0.45940923576907267 0.45986788474228746
-0.011105992009824206 0.22633740388474699 0.75653443281552413
-0.18585362843979425 -0.53253548152127372 0.18892554924888572
-0.69071019052237403 -0.55208773444437131 0.076957404296784659
-0.54925189927637419 -0.22575714099790645 0.71322472102779955
-0.51467972794626249 -0.077179854654761293 0.75575031244202506
-0.043227325273047512 -0.31439347268896789 0.64058986786270822
-0.21723205586400596 0.9665824513387733 -0.24044792994900988
-0.49390186696680516 -0.41375851218822302 0.65548879126914628
-0.729744865397155 -0.066540173588783169 0.74546880202291277
0.16297428824081095 -0.0044715320415109616 0.78960437523717886
-0.4145325405015754 -0.72506128764755617 -0.28467920368658639
-0.78138084178754497 -1.0142960142317061 -0.41676683713331997
0.69054020724487586 -0.3351155954167977 0.69387984907978861
-0.064775504859113653 0.46499590551792025 0.80272237289815607
-0.25878888507149256 -0.35737124696306033 0.68640511657248737
-0.22633335850659719 0.49043509564025456 0.75751884327157626
-0.76676189560669172 -0.54646388023704051 -0.28636665281960205
0.44586766321222626 0.015955482114730302 0.41163476891695794
-0.45409721061108854 -0.6124608570792045 0.1557921802700335
-0.20231501729019286 -0.15383106009192726 0.75403507873998521
