# XYZ point cloud file
-0.56991847775404381 0.62829062079836984 -0.49696528141500096
0.66685147303566339 -0.46896327475797328 0.66175721646704844
-0.30551749476315848 -0.045163084779779261 0.76355068817616711
0.16428364263283513 0.50549601661765742 0.6705799286845604
0.37597680908885778 -0.12350196744606023 -0.17159150761312247
0.58525053089812218 0.89162107392999967 -0.39380033739130482
0.45836981091138185 1.0991616656427103 -0.47895218606110035
0.27165335552115621 -0.1204543731223584 0.78079204356813747
0.28430626019164507 0.70935725565261265 -0.086336254490344544
-0.19998822142897055 0.43427854567807866 0.76226691592137641
0.89012661647239355 -0.39005701347044397 0.51327751969013136
-0.13921680802783243 0.37546410317197143 0.79561065207709092
0.03097303100331672 0.14499651190142071 -0.70060968464516904
-0.2472641425730977 0.71158103428639663 0.68680168676993603
-0.66403537863312678 -0.96734604026835669 -0.41145630646524012
0.67556358725335386 -0.38067270102348694 0.68087284600422038
0.12071378855324255 -0.093047544181618314 0.76970073373215087
-0.89012738213395792 -0.74769805883156248 -0.39345521455998522
0.29157385638663413 0.74840417753338517 -0.28145021761861955
0.30033529470204456 1.1330848257131301 -0.4458811621853549
0.15446661696423902 -0.0093987325828992496 0.76586880467036522
0.46336281992374495 1.2290909755061823 -0.52328310808729483
0.51614245966761629 1.0469293088538265 -0.41513931129636816
0.12916329136743343 1.0903624532441274 -0.28773965226636378
0.29948883245815239 0.71679986434080156 -0.2238380594943834
0.2480725112860398 1.2306421286688725 -0.39463788831226054
-0.31589068968037282 0.6371985508353788 0.77805065782925809
0.51000027927898373 -0.12233937222845714 0.32790385404406663
0.25764487294031113 0.64348161255528691 0.54688383770219673
0.15546558692784274 0.66336426870947296 0.62405748953520046
0.75169112942338145 -0.3385942731194822 0.66006357444294039
0.14302481541447065 0.86676878679895353 -0.038064979045607572
-0.5858673479474561 -0.20241653074768884 0.6695935744103565
-0.19420133230500269 0.5106953301598125 0.71551527719553931
-0.21053107247812619 -0.24518454042580462 0.71554620988699824
0.2205877943597585 1.0514866518449963 -0.35092434847531706
-0.70679056207917412 -0.59390385628270614 -0.22037617318868286
0.40341314363750769 0.053370209345118269 0.52884747455935965
0.08566994102185177 -0.13856237887622225 0.75906187411742465
-0.89154250006554747 -0.61167255241965535 -0.324477652095851
0.06254418663801431 0.36619973071893774 0.76716679280365341
0.30735916159724752 0.23115174332009047 0.44875328874187659
-0.40805532137070699 -0.24444622152903328 0.78887019449830476
0.67611017142702323 -0.35066200415544468 0.71699823122398954
-0.38456373625725249 0.43224605275766415 0.81952985766220365
0.75303018454592063 -0.49943914810300249 0.67284209253259775
0.35411453670628745 1.0390893603147937 -0.39795600163310851
0.19089574280543431 1.0079336789198754 -0.28433557393196196
0.20321358732511285 1.1676327597923426 -0.35122695034545615
-0.50721634398183824 -0.91227847899034176 -0.31063019177639717
0.93571205029235927 -0.28474841083276381 0.4913358764715845
-0.80918017185437563 -0.46054713384264501 -0.10559829815161237
0.60214652619555054 -0.68460090207677826 0.60211957423387119
-0.30763964952756595 -0.64829695015348854 -0.15441162487603322
-0.3701490383156063 0.28568595021197574 0.66115197374989521
0.2495231365006596 0.1921661756786941 0.64128674185713308
0.82349559505620817 -0.22594649043323844 0.67068153521450213
-0.51946116086410399 -0.2076166493371705 -0.61053304621921711
0.40559762535840704 -0.061873062144186974 0.72092729572015202
-0.33733369057486584 -0.74200430475876678 -0.31430614326329476
-0.11619299482632428 0.33457649386008281 0.787778486845788
0.39860941401551386 0.83011255151006713 -0.32502195083711172
-0.75875048039424442 0.027458101907931187 0.71989353842792525
0.21057269107162213 0.4150838815245903 0.66278207917284604
-0.48818194917596713 -0.70132545447589578 -0.31825367516834646
0.6569887914442134 -0.49432153128803158 0.71415843119009637
0.060336994306133818 0.71976981586490485 0.65001818765315633
-0.21662266456694823 -0.034503775789311852 0.75422293408738028
-0.71361978925231284 0.063000363864072817 0.63780342996592054
-0.81436281527798826 -0.20039162138740352 0.24695091356211663
0.63085058050020848 -0.45955658682557488 0.70345245031367298
0.43802289390135485 1.1239070634132768 -0.48132056170953774
-0.31277963126019159 -0.69514391597020264 -0.16297319992427362
-0.40915997299649121 0.43527159855639752 0.81426205480145342
0.65037141192302172 -0.39063391421845406 0.71735599390036597
-0.43225661220433054 0.13879374325596494 -0.7180284440233855
-0.67899390365147028 -0.42896191258969996 0.65106162170184945
0.1452111957414175 -0.086714143397158772 0.77365317323123861
0.43666188470749745 0.62386934677147821 -0.28732666350928682
-0.19810141432036943 0.37183071099262843 0.76438487666545996
-0.045935062053530373 0.58694829613797506 0.69997573669220969
-0.14763948364879909 0.76681886191424287 0.65506245238556815
-0.5734740073223783 -0.081721121835230726 0.74878291063552638
0.039602966682906526 0.46580264830046136 0.78084644128672309
-0.5081902790485131 0.59485951508267032 -0.58197286874836252
0.20109055567871792 0.92180326121323475 -0.24863028993816627
-0.37207357144859188 0.2546132996340873 0.6375336543882284
-0.21294542171580488 -0.096072814636082526 0.75885105151525067
0.44269596136054545 -0.16427272835433016 0.73925291335411814
0.14859891042631546 -0.064621185447593099 0.77207294008374916
0.0047383843342565513 0.33837606243994145 0.80453833648031647
0.15302556051699412 -0.081929503545212334 0.79271997199040456
0.27971591002334506 0.71599337844482491 0.10546343248457646
0.18145235798684567 -0.20591303611053391 0.77848813377559622
0.5490642107903092 0.78179537095694673 -0.27427813563045689
0.26961832001105179 1.0341408169672799 -0.37932237844938754
0.68722815157263639 -0.53454666472501344 0.41092683584472667
0.22017722387931826 1.2014393784487947 -0.46499969906846061
0.55078245725144015 -0.55836876778435141 0.69030013879848084
0.39269784494106119 0.2375992431870646 -0.10523282108221466
0.28179650678477586 0.066216201186330537 0.61516600860695192
-0.53643291406575244 -0.33685762993680779 0.67773504486880398
-0.79098219699799088 -0.97086647462258302 -0.46721918113889771
0.74033142573484056 -0.37301816076484329 0.65117210839276041
-0.75633014382293595 -0.37056859131509068 -0.41107302223839071
0.38596379875258791 1.2782779812104375 -0.49037363770564113
0.25196192385927674 -0.065052530212616588 0.80284405802999714
0.36985133483769062 1.0756983115905592 -0.42103948798991908
0.27125561461413739 0.65948069144349475 0.30407310347357352
0.68391405666141125 -0.12510534017181207 0.39581613411254679
0.36743694009428651 0.94459052729727411 -0.36974506945986363
0.82625268332007451 -0.49051473782688326 0.59622749448518064
-0.14241066104413846 0.27175932413647619 0.77155350512949994
-0.70189020716330219 -0.19515240744808438 0.51517712227620649
-0.72952199247704286 -0.42322272403112215 0.63954339875937194
-0.098291784658947279 0.37936888378123257 0.81441690264538735
-0.06425332746743706 0.80648228787322029 0.53393992419006508
0.32606081315442736 1.0774222067627681 -0.40866586868437338
0.11501200536616807 0.88905844049535077 -0.071337573761613982
-0.24423844048518717 -0.56890581621628566 0.17072384666136742
-0.081457300716536452 0.6155676763647735 0.71706038877505307
0.28459010873080715 0.15463628157234055 0.50334594374654884
0.45950785605230493 0.017472815667347597 0.63181906059302406
-0.79281887411324092 -0.74948936914639219 -0.39864796924441137
0.12919284113730356 -0.13798842988633364 0.81203111865978173
-0.1478309198460579 0.031987750225059841 0.74753997608645051
0.1015361775733723 -0.15149429374162082 0.80257975025057959
0.12518786076784849 0.42725060143159421 -0.60018820672766182
-0.13052615899678344 0.04452136474606716 -0.72990420785552956
-0.57230778478119504 -0.63049692887027442 -0.2711512858501024
-0.082303834275275989 0.97001620214860651 -0.2285265005411965
0.33953535468096518 1.1469310586314174 -0.46052994828363225
0.73032363331024541 -0.30602967261082092 0.70039595542240107
-0.083307067796376089 0.21133094513464634 0.75829393492000463
0.32056425702483082 0.42350539027557943 0.35310045619058528
-0.75740539317467892 -0.022168775802739127 0.70939359319304174
0.35840293271524715 0.063812779550103116 0.5050341460500718
-0.55005635000216557 -0.12176950201694936 0.75410397522600192
0.12234560587249277 0.4341647659768606 0.7063430797305017
0.65380847246760609 -0.69628938037737687 0.54516446244064198
-0.13486386985958276 0.288460635472644 0.75923676779454041
-0.043035603159843561 -0.47329474577177777 -0.13047446399720286
-0.38955435688885487 -0.17836030563201977 0.81239538935266253
-0.70798866042117581 -0.18292630309459046 0.73594532563949855
0.41581715426649524 -0.081378532646249724 -0.054901266072398869
0.26752932833188581 0.80145381184832143 -0.28279342283025244
0.10858531588217701 0.43415250122534399 0.72484569510501018
0.33119570947601673 0.65789870350257029 -0.040929962466250913
-0.86293013592247547 -0.34772174089153829 0.10422426577225963
0.77606251585950758 -0.16925672972728645 0.4006367426750792
-0.23276627057207833 -0.12061203538537235 0.76105040210309483
0.7883004941018612 -0.34831927414681285 0.70225531976080191
0.74814398121067072 -0.33075532782772399 0.6648714920521428
-0.71712711497919202 -0.79549866467433139 -0.3836410549522995
-0.38357555789306019 0.47528980037109303 0.63141795034265158
-0.047039473099360407 0.60414227659533459 0.67845185163476884
-0.14965556744268582 -0.013827494922643346 0.7450603727863303
0.27518569047052921 0.77899496595151696 -0.2820764409558727
0.39825085918927527 0.73355753407221247 -0.28484641504254071
-0.49312279974946449 -0.68624981346570024 -0.31765146909509667
-0.20925499110514778 -0.22228884396249882 0.73904798678283967
0.17616125570486929 0.14483455960466429 0.7304449956352741
0.095966585916592351 -0.10997873344457876 0.76681706774556346
0.11008564862460446 0.51651910573907678 0.6853114629444903
-0.82757168189793262 -0.72105210583962842 -0.39396083459545039
0.85757736681975416 -0.37949389958571444 0.64056785125334059
-0.78519312450499967 -0.014016933193047976 0.35294479298606518
-0.34756690367324694 0.54380619793223506 0.80296520332470678
0.42398194358498031 0.68810041477082784 -0.19102672661295372
0.31546782447482968 0.67076742215044405 -0.093838127076249833
0.50845516424615056 -0.60580657432882479 0.41325774451671293
0.13130438729344363 0.89951443639452755 -0.33085669155417108
0.42875601570870003 0.041799891586855153 -0.034168240062278699
-0.50880238203175665 -0.030584313896814486 0.70581614805514903
0.17089004875892755 0.8633547265991881 -0.17511335262373606
-0.35063568152742519 0.2450535160780456 0.78705246378347482
-0.60985590988732952 -0.96031211089966639 -0.37290132754915106
0.20928188062232422 -0.37189283536761764 0.36019148258601774
-0.17014717433322701 0.32768112622196988 0.75716445319095627
0.12026993428069233 -0.20128634991575822 0.75615334390847622
-0.60502289633079442 -0.71137121632084988 -0.33788714530901487
-0.71085105677509119 -0.84152934021026882 -0.39919441694537028
0.13638092693229709 0.56865003480340359 0.66676372864847977
0.13706721561733914 -0.087007728456418576 0.76341885888251326
0.1023693382309574 -0.27413146064942495 0.64725904424429359
0.11755596422149495 -0.32764210223837331 0.50734122986187913
-0.18898323874733691 -0.12909677206984149 0.75174982755729758
-0.49307772855641474 -0.061182674254654401 0.75862651874673759
0.79710363191757949 -0.28392862704171851 0.69533364373769757
-0.17122878394709318 0.50565643160266038 0.75383251304412724
-0.92366457050970041 -0.63628513667204079 -0.34972844840717698
0.20971028247774015 -0.18085402037531928 0.78803856235703051
-0.68371878848848056 -0.59154228157108157 -0.21572235605872692
-0.45566338096938708 -0.61368602511072634 -0.16418793063892423
0.050971028267582597 0.47153065054474386 0.77401445304090899
-0.40675903422273052 -0.34736624464150978 0.69459912111977218
-0.58325376397026929 -0.92918658999750692 -0.38399363307734546
0.030953238262593885 -0.42567383061728847 -0.23270158970266053
0.20173920139507473 0.66769934714996637 0.59104689330137461
0.44236231911944301 -0.47304374939623273 0.70292570380041397
-0.99019011657811973 -0.93885823196448648 -0.46542224564601398
-0.058056599589317415 0.27456249367151386 0.76396305456617597
0.30974506335402907 0.47747107592894977 0.39685430988975057
-0.4164079561186611 -0.57937943275473636 -0.40198428956913546
-0.5746409661179932 -0.64488042602603901 -0.30810811450741582
-0.594082733527447 -0.59441439382412931 -0.17009957097483408
0.3689296318326214 -0.33980649879831137 0.29140263381246356
-0.6494039496594155 -0.36240713200365882 0.67901389884384855
-0.32457903975171476 0.27981813076596751 0.81105094694829205
0.32897125962842111 1.1789453312218154 -0.45771987325919739
0.076715608872127916 0.58436169872352828 0.67131343989106185
-0.38122065740283517 -0.29932345592383225 0.74847411162330246
-0.27799319106141596 -0.0069567256854483617 0.76560160238063446
-0.31603946613327949 0.24692061520087805 0.80746262596756324
-0.61863328380918858 -0.50728446409444672 0.59126812389113326
-0.36409536334572934 -0.0076943837363963041 0.7359964689625329
-0.56416832245256643 -0.0086216099612528296 0.76578481698221168
-0.53699950872655577 -0.036373361459767217 0.75826442959776585
-0.38362382759916258 -0.27701197816821121 0.77660794763092866
-0.52799225731071786 0.79924828843220519 -0.27386916753509993
0.039510228414449955 0.090041796653503425 0.75461741062994747
0.17855992541479182 -0.34838424757913611 0.63119444046682815
-0.72649619580849034 -0.75959072692952168 -0.37632214516182216
-0.10794880581676836 0.42473807932324448 0.81157972011329704
-0.37864038082540219 0.29265746669952186 0.61878916720283428
0.21841333787349981 1.2093206886314638 -0.37353317757995086
0.7321285416326333 -0.44659840162157938 0.66822344238752152
0.55229875262263661 -0.090687024909177794 0.70261840549753174
-0.10374778590828626 0.30856389265700379 0.77742304440441501
-0.084032890673348959 0.12685565168183599 -0.73615547252589408
0.65885291558175041 -0.5607878517556637 0.40951002661272184
0.54052672635977927 -0.11347650221316652 0.35494369481828869
-0.18357755055370717 -0.30259989119527653 0.64009809863403433
0.46807279095247623 0.90289012249601708 -0.39156792717969324
0.84011252786909196 -0.24287041485936101 0.66566692222811952
-0.43423164112254398 0.021357251859536852 0.77412348393332664
0.2485960644571108 0.62840649448535491 -0.42165706060271546
0.42763262235900257 0.57146328724975248 -0.24933767593943656
-0.098420899887742053 0.22958584512009939 0.76409525294938874
0.81983273920050692 -0.19106449260327807 0.40607706655367792
-0.77493969236328297 -0.42826531113716948 -0.32590755260546089
0.30385030357068388 0.49559251566908458 -0.37038177419056595
0.89781176928027762 -0.32351148493001158 0.61763721474608957
-0.22486681358842375 0.38213264781811951 0.77418830770147906
-0.47697074929535788 -0.64791955739892337 -0.2883141527176889
-0.43554607094287334 -0.011430633004604118 0.73304830181219671
0.1363618765527228 0.31977160305903674 0.68591845866097856
0.43658736025921741 1.2485920185883654 -0.51811093512962358
-0.77568548217874067 -0.62490445238451819 -0.41219549545010992
-0.23472886610866084 -0.38073062133294933 0.59493124301859268
0.3380318769811943 -0.10933516218736639 0.74059894483977473
0.14928205430311436 -0.045491227314803595 0.78728919788902729
-0.56019689251057159 -0.90119802636303792 -0.39157023963619153
0.3198054081279551 1.0364821328059102 -0.38742116365479262
0.75677104531135342 -0.51478020818649917 0.65994388395615289
0.15557132869601986 0.47462597969064202 0.65646897119935232
0.85188737350918231 -0.46253866544199784 0.52275882446442168
-0.096413004983656236 0.79163980209536255 0.66522191879426273
0.40867909053497442 -0.41621393223174774 0.35699177657419057
0.095920826973149076 -0.31854507766299456 0.49135413756906132
0.18442899439875404 -0.20847022553400141 0.76980279060915535
0.2534959948801081 -0.36566365866954254 0.27196729799533514
0.052358828972078442 0.61615366608032485 0.67314941593163979
0.018745184495745804 0.92693072198792947 0.001165994151755001
0.29904651355867529 0.58973523874355749 0.50658586732165034
-0.34186799209298258 -0.098369154528794134 0.81122440942121088
-0.15437215816097094 -0.17354654205223241 0.66463131548476539
-0.19748199182665971 -0.49386611244665168 0.4016405554781457
-0.42817544033777821 -0.77035081237745162 -0.27098984670094239
-0.18155899046086788 0.70644978563279537 0.73715168429435707
-0.21179878692073473 0.43615726463974891 0.76694565545406235
-0.74120407260105736 -0.25465446317910434 0.594214894292449
0.56298507042597379 0.91260959680084763 -0.44886137750784982
0.22424978492641756 -0.014600462727504038 0.80904172783246509
0.27010101437008416 -0.37231443233277517 0.69157869434169328
0.097043051013248061 -0.1676179776684954 0.79530575957915062
0.23337505916531143 0.91045798643833198 -0.38139555165622596
-0.071247031467422062 0.12353730683012554 0.74648157532678283
0.51180733362452813 -0.33953724856312117 0.738344949595092
0.26844311931328591 0.97400734733558725 -0.34993408123458636
0.44182354632490828 -0.57856488841801301 0.62966679568188866
0.015926540609193296 0.6876488750037586 0.66628287289643495
0.25454414283291982 0.75524568316129859 -0.017413699858487064
0.1966796726261073 1.2131410404099783 -0.43596941616992524
0.1892598012177551 -0.36627423150733307 0.35304951769009207
0.083581780233878078 -0.14126200912142295 0.78412195369788407
0.34070222056293531 0.6442356728681089 -0.0099507053450622607
-0.2099840467088967 -0.33877578100639383 0.63047648247903965
-0.016994689564640453 0.34477608536512339 0.81042673996119774
-0.53357587515345983 -0.16600938892496231 0.73485518512717363
0.51087949438272773 -0.24631404110954858 0.32144904874060742
0.5198839230298411 -0.66088287210297558 0.47176898270427259
-0.46702925569978504 -0.21789664599378433 0.78333600580605633
-0.57113534927405496 0.50888289768627626 -0.59308069643631001
-0.97349901679684692 -0.9232871162685603 -0.43579218118519236
-0.55962635830036689 -0.039939155152809214 0.65647203814034327
0.059716594276135737 -0.301599207722278 0.50925758511310448
0.52263262244760966 -0.041839536290434687 0.38651901563920532
-0.62166910164382472 0.016138249005946292 0.78739035909716293
0.36296376385053719 0.96523016214454138 -0.37667644075195739
-0.97752183762447231 -0.70314974156673316 -0.38351855827636783
0.67119524427215538 -0.4708840429594412 0.66919944097723061
0.39399636522818682 0.72750640469612105 -0.27209170403638083
-0.19959206213233927 -0.34815320488828139 0.60491842156287845
-0.43918179127166823 0.18711477913300723 0.61163902965806471
0.28311878303664173 0.76047643449219038 -0.2815130481431396
0.31630850146188649 -0.17090842109179238 0.74296836780882458
0.39550078419794943 0.89784344671797589 -0.35738175190093102
0.3947400193914774 0.67260658234788817 -0.20372316190760387
0.4290246080531297 0.72904968224734379 -0.26005683801342272
0.7616627849366111 -0.39584878743238594 0.66807989768325982
0.14415932646283025 1.0332116449857289 -0.36953980758963922
0.047258791927777821 0.89683809858173991 0.086663708476116597
0.50061650861950824 -0.52157112354651503 0.38159017212836943
-0.12666377909268789 0.9766533410553615 -0.22993924225886531
0.75103833455593261 -0.30653950771181737 0.71585217880663521
-0.7461109489715092 -0.35554157454560809 0.56347587249446462
-0.61606376801761442 -0.20765674023599345 0.62192371672109914
-0.65179604849696204 -0.28934105690331258 0.70683671817423033
0.19756794095713559 0.017581292881893695 0.75087920735585811
-0.47558227773620843 -0.55526219885668038 0.54180072462230555
0.31254149087618899 0.069540598716921309 0.54489971488219524
-0.35606260257379674 0.19797622321888486 0.78319873408166174
-0.40934806166727356 0.18187618853449727 0.74183064009886124
0.7723370511157448 -0.39811784117381066 0.69322620601575835
0.13779124025765199 -0.33915511322496528 0.56215083823865086
0.85440357993185145 -0.46216898747812962 0.54924571601868521
0.49818837391591941 0.83897369055314019 -0.30546315014319703
-0.37575086440578787 -0.51658318975919659 0.58316832282751108
0.36237988972652957 -0.017660296132608444 0.70717544860647408
-0.78960760876376668 -0.96832433090459569 -0.47115900758043239
0.6616026394537009 -0.083342433133900329 0.41460553929629995
0.36481848404713446 0.63897006528118272 -0.1623093750283644
-0.72022275409266712 -0.28252552179367552 0.38876053725638116
-0.088316131500995709 -0.19894433776777287 -0.63510731670234932
-0.72873305970360036 -0.53547208514803835 -0.31390503303519779
-0.22060146145678772 0.75306883947369307 0.33200275802836288
0.25842172467127611 1.102432213248739 -0.41371565184935832
-0.64123305360304883 -0.060170751497696351 0.55605270494815073
-0.60117420164674584 -0.97781742276181705 -0.36565264475526504
0.33520795137101089 1.1763230222421508 -0.46743230848199957
-0.67992123951359673 -0.13057109291170566 0.53714998682620774
0.44175299051012118 1.1931070935534582 -0.43831296487089233
-0.12917660594725788 -0.035602593637089619 0.74430302552277539
-0.58749932044239017 -0.24074096171904635 0.71105505453560625
-0.18781519972657534 0.33634425256002043 0.76831519334812981
0.04157927069288192 0.88092252706299679 0.5828675155913281
0.4546340523184611 -0.096428951483042091 0.23457357977849824
0.53869538695198216 -0.50909566694842923 0.70971849416305588
-0.43845270117766333 0.59375948302604797 0.68825018727005016
0.6214278182063353 -0.40420370713970932 0.73325484918825978
0.10494584787045014 -0.13255260164177951 0.80341848764359369
0.24277894757535989 0.0061366565631155723 0.74757771834722675
-0.43931376212725226 -0.087729768505870886 0.80257982089126045
-0.48279868816061011 -0.52528686915380263 -0.43819703609736393
-0.61757183825914908 -0.66050799855893771 -0.31794478873590037
-0.23866684140070049 0.47493646869050288 0.76072092476212205
0.12581015237332949 -0.18264931088402214 0.80615278903224308
-0.19789506958709069 -0.39813626824480775 0.64564655115003688
-0.37237036485015551 0.87259210399904008 -0.34708993642585995
0.46609117327426119 0.83226457644776897 -0.33498121579463103
-0.61964530706787002 -0.85796962053430992 -0.46723497901460576
0.37395159991841354 0.31040293761890858 -0.18258234980882904
0.72005464617842208 -0.51396653382996149 0.68646894015304127
0.14169782296189837 1.1270737125708434 -0.3113863591008581
0.12938350176858648 0.73159983667378015 -0.46777262406264697
0.19497898968716498 0.026732888457067006 0.7524543221051303
-0.17408184758152601 0.61052905443918881 0.74019909041828313
0.20986521020968851 1.2445594111040741 -0.40534533556575525
0.51046048652744958 -0.63440865400820901 0.43931223497365579
0.21486662528293365 0.2588540874346581 0.68279038650800317
-0.51651350353772685 0.10420382542855577 0.81068015295591067
-0.52782751655212223 -0.31991838500471825 -0.55687949266160075
0.40860522496915053 0.67718619341069886 -0.19651009629643568
-0.28323237135743895 -0.17423817680901443 0.79721713378695114
0.27071450219315096 0.76983323517585056 -0.25556033128996702
0.17085395738801523 -0.052727142444083164 0.8082163015322017
0.031365795056228052 0.42833829621111974 0.79358808193072861
0.64309728162702129 -0.46845844839384032 0.71039723294945389
-0.41156203635470945 0.022291357843934989 0.77438833367335391
-0.028502322661733359 0.94447691702550518 -0.28803232467246787
0.36696013572858988 -0.3676993905552024 0.31903011803526127
0.23354808485211365 0.92626200481285359 -0.30424167032846938
-0.40739136019996636 0.35499528814987258 0.69551496761829057
0.057087022307367619 0.37025974302553877 0.77612548181464902
0.1399013395968538 0.4705330714479361 0.67957929339738854
-0.65879053256124465 -0.97723314774038972 -0.39264655627448874
-0.44701157825645055 0.24391919179654753 0.59286298560523676
-0.74625806439111386 -0.25213281991639747 0.62428624088774143
0.30633973817070626 0.42152674778252752 0.56267905027023346
0.30192017536227311 0.25325091410649492 0.51330226473566398
-0.7097131163513879 -0.48749400489669625 0.44596185690631529
0.16316812474578057 -0.086315750309385209 0.80775151908599696
0.21052876615042138 0.98489721730678781 -0.30229719136664812
0.28675108888080558 0.10127375745944711 0.51408182729670671
0.10834786782258021 0.82527507918983378 0.25999304998521566
-0.21876157952171837 0.43698328889959104 0.76842366916037719
0.41332047513742509 0.69405653128409472 -0.21764196164868821
0.14625599254220845 -0.083032666048380221 0.76085371050270822
0.91240141393756602 -0.24500222907431457 0.44239607888675181
-0.91740319101687362 -0.80893691503929999 -0.42686422948433744
-0.53466376067488142 -0.25891222397891411 0.70044213964598612
0.21546374344927344 1.0877884894315009 -0.44429067821473822
-0.22020289863833398 -0.58564658507889611 -0.24155807739111879
-0.95861973148456059 -0.66534498136889209 -0.40446752722315438
0.005245842401958356 0.63219525819958644 0.68034442838165887
-0.066204996342353439 0.87643882421659836 0.21691991739536576
-0.63054683104610021 -0.60361383348896247 -0.22342839879429732
0.51912272366142886 -0.14021899765322754 0.72651303539240075
-0.22208777755746212 -0.3101381334524671 -0.5885230980895173
-0.30536449749669359 -0.22740265036475815 0.79632832951070753
0.40968946840371601 0.79700127558963763 -0.3125165908857106
-0.28089619499221641 0.56650915997030804 0.7790516390302642
-0.63956126207654762 -0.75939234245978504 -0.35788001066073605
0.25719341564624543 -0.11311861248298172 0.79292415460216503
-0.37187364964839986 0.63079456245655763 0.64811591748204833
0.50547161352566405 0.88262096437201087 -0.35514216885202998
-0.72079933407707841 -0.40666735388426112 0.3972210042022013
-0.12071262786200876 0.45344425083209217 0.80508660843652535
0.67055811562986278 -0.6792441514688452 0.49326770104662998
-0.4776049977131045 0.15951395696948545 0.68819738058105173
0.57208287321598306 -0.37936999811849059 0.7362691312194265
0.64788234542779577 -0.26042740763731942 0.73128745864617528
-0.26325811993310211 -0.27206030767504163 0.72846583634117934
-0.7549677068902092 -0.43592264132843717 0.56824578034931505
0.12331174001623424 0.49090534147700904 0.69450256873517091
-0.0026885988230311852 0.5253440798475193 0.76598142895488408
0.13124197441129226 0.40751955703293063 0.71642835166611718
-0.23428611012752043 0.31665110543949204 0.70131138929130543
-0.16281334177799778 0.72100216163393682 0.41785161574372509
0.12073793936099264 0.60527172943888985 0.56688453741583089
-0.46270272941347557 0.48360330876093549 0.70157283435593953
-0.34780131401988967 -0.63345776879751803 0.010285733007250997
0.13712883209100468 -0.11005629555084884 0.80841059601683796
-0.96295609205974841 -0.79026964081911144 -0.40481582621617207
0.65854790201699132 -0.46618148735589671 0.65892754964744071
0.51288796923046576 0.67683442855060072 -0.27742308860679188
0.28238127615414399 1.2408925956580559 -0.41033889292475578
0.42430476463122346 -0.23679877043027631 0.25213894533779069
0.37394725204415735 1.0455376332486011 -0.40939685826246119
-0.60487939728178475 0.36112945844123523 0.43949096710349167
0.55290807303251555 -0.27299200291985137 0.73731467445553989
-0.46919382465658543 -0.58382854504196757 0.48387395677434597
0.36133768646899256 -0.21859962596381077 0.74282020806793625
-0.31766857313002461 0.77412046710069715 -0.50742123421929719
-0.27742149595641408 -0.29395521034288397 0.72143229339366499
-0.63979678294021269 -0.93693796899367676 -0.43370421176791751
0.93123916108979898 -0.18331720702558574 0.50086914402653449
0.32147423115657503 1.2708023481644366 -0.43505658752003384
0.53405935107957347 1.058101398243585 -0.51099914142893965
0.66313956895602644 -0.67129583946771554 0.46652504111713711
-0.1833086211964563 0.33958096967520834 0.76336637480223857
-0.6545697292027981 -0.60353479305877844 -0.22553587343085724
-0.94932963867533715 -0.71351427876366103 -0.36525785451593507
0.41008804422788003 1.2472281771666234 -0.53678556986409021
0.4981992519995444 -0.39531885680510026 0.34920028892355148
-0.65621121210030253 0.086698001198031172 0.80826475960974875
-0.19274430300096057 0.5191867428800343 0.75438568200107881
-0.091108881896595051 0.2707607018535958 0.7487161528253381
0.41695613637907414 0.94161049468764091 -0.39044475836535142
0.26001939075531766 0.82495481679405014 -0.28348636515420722
-0.57366414148016176 -0.63542345444834814 -0.28500859637240694
0.29265976497881852 -0.045983093391341434 0.75044027089745313
-0.49560683185347543 -0.6563912234242979 -0.3160472663600018
0.62624782031772241 -0.42406040655190047 0.70826311660700725
-0.47343534376916452 -0.10986078271494826 0.79041956438077676
-0.40810477719981364 -0.36648225237662047 0.67193282600409532
-0.67507651806173996 -0.96384124709953412 -0.44781992027126094
-0.37076496668783676 0.27525135637740661 0.77045005047736126
0.59979266859036429 -0.44323197946622805 0.73062958386041643
0.75320231435479457 -0.59448358056228212 0.56675402415707765
0.32393234987726061 0.5253952000097124 -0.34837473456637014
-0.31076870275641966 0.21357514958958035 0.80449324363321395
-0.58591682910521925 0.091325322262806097 0.80918594062782745
-0.3010381678209022 -0.25830512346334 0.76467488160762542
0.83907762306654377 -0.1700121979431799 0.41876978870123693
-0.57705194641691193 -0.32385437450283838 0.68230237980606034
0.25486351294513909 1.0765024412381727 -0.40159103940940355
0.62185651878242609 -0.68499742573471778 0.59925197563757493
0.27227075960505687 0.80420783900735948 -0.293262145464535
0.178951460441926 -0.20193552438578255 0.78621500924340282
0.67240481657918849 -0.53649609268833487 0.69456854852206718
0.03987456440471604 0.31987305487103423 0.76522179413212754
0.12183223470862004 -0.18967459910952122 0.79993407027583885
0.88964428119022543 -0.1580191115605114 0.46863067583920071
0.044509458359392795 -0.29441811739085999 0.5787219589454331
0.74559607638476777 -0.39569079743682067 0.39132374676638193
-0.39389692272144217 0.47002581141175437 0.81877037739553771
0.13957249194230315 0.8090487931207786 0.56628101554054311
0.34113464668097748 0.9024375187532554 -0.34407845684750527
-0.29523217454451256 -0.058286933519572592 0.75641307758086285
0.37303751955492004 0.51847970529892429 -0.27473242094778527
-0.3683181273620697 -0.53542890193470072 0.55835054021677877
-0.3667561997578872 -0.76760485944804113 -0.18420998801077815
-0.38780138646370688 0.20709904081739161 0.63586188328659432
0.48196402312193243 0.81111175681785186 -0.286305852756918
-0.246074513397609 0.71144504425097654 0.65840689749135706
0.10369218649535128 -0.18657282824546328 0.77251853709481111
-0.34539858927482214 0.12573230973602278 0.80084073453089033
-0.37310270018980773 -0.24127793577630907 0.79474981656019139
-0.19050865717713705 -0.18861790684463831 0.74164571429999882
0.047469756935925034 -0.35194971158490507 -0.41545816297676197
-0.097200202899024646 0.97264838673908827 -0.11348882402415228
-0.75757966503451968 -0.64841049237121773 -0.28111531051359506
0.77975612003026029 -0.26883405628950197 0.70005172045824082
0.8708633434695976 -0.37971313869079104 0.6240889365906277
-0.65542630440931404 -0.54530049961725968 -0.38087933710053079
-0.74826947743682837 -0.84135065851590651 -0.49546986275461791
-0.59186322400472591 0.73451681932163071 -0.28854716697897231
0.15235208671238709 0.83257981809127912 0.49010008275991623
-0.38034559682627744 0.39556084487392695 0.64171023141821948
0.51193323206568664 0.92148050850688001 -0.38485313007765853
-0.46663544973623772 -0.58127988608825909 0.39702342875470009
-0.09113080304164356 0.49677366654342769 0.79313424847374847
-0.78288797008515587 -1.031862896357389 -0.42246839402451997
-0.43190267949515615 -0.43064052581933332 0.64943408410649539
-0.33678525463336229 0.31430894981400481 0.81458281943599786
-0.20825919002802351 -0.14029967186939984 0.73105065335474606
0.20387505918770898 0.76805589986727263 0.25038958932936239
0.78876833870934249 -0.30939001845860492 0.70279420292063577
0.17322773010781489 1.1462398093823749 -0.32350688205315592
-0.10865025453688659 0.68092686915566514 0.72186928241685777
0.85363432654710181 -0.4117000540016349 0.6271858649477835
0.73420673671939696 -0.31800758085668601 0.66512121280853975
0.095955374161039941 0.83859247695890637 0.21218598962985169
0.11195924796008683 -0.4052646195559797 -0.15072581661308249
-0.27377726025375537 -0.71201837466304596 -0.19269522074404222
-0.28510651374712737 0.33357374760543657 0.79246103388131317
-0.21817032454386975 0.48795769704186043 0.75845793292068819
-0.23604536846899293 0.96262725271842164 -0.11702057748818362
-0.59384756967677887 -0.41068631984889947 0.65021156610568909
-0.67153665676500651 -0.29211996067345858 0.71271814382155441
0.056976055352897959 0.49828930680805961 0.7440447404621473
-0.81704802118844455 -0.74774372980868575 -0.41252141341499282
-0.44067078982035923 -0.26983908521086608 0.76710148664211175
-0.23302526892410569 0.36258742658706389 0.71847893040476407
-0.71270961388195175 -1.0067338325473667 -0.40165396163484601
-0.047571284387100121 0.46490587174525544 0.80182822572505685
0.81958736087393902 -0.1148075387996208 0.47042757910888611
-0.47499695280932741 -0.38593341675960247 0.67316079782848703
0.64893338271303591 -0.027231016379899664 0.59662619573576947
-0.72141912313767875 -0.34599555183391573 0.45618399109596197
0.21071660520809843 -0.082706986705101571 0.81265079944577678
0.054956215931298402 0.39572150771599368 0.78916040305562518
-0.062251163764933892 -0.46747602557281631 -0.21422670350219164
-0.34878756177670667 -0.63560180102472597 -0.08024191486923371
-0.39245949696886129 -0.018046393191379906 0.7670670002958957
-0.72886907928647915 -0.34905633089009491 0.66957222768404989
0.84827668525676714 -0.41555355887982603 0.46423045478457681
0.36052977153929078 0.42461263291156115 -0.23913736656739104
-0.69412245388081928 -0.70890121774314663 -0.35099537696002159
-0.26575857984624562 0.44360169503161551 0.66887912594216559
-0.61309750225928639 -0.24289227354358722 0.70672295794314266
0.54581651310312296 0.010577493812984784 0.5987737453988764
0.17824424535386996 0.70534220405222925 0.59104043450026467
0.30091646180182252 1.118346039156684 -0.43542570955707305
0.44431203574930933 0.04240966522684797 0.49126409569081986
0.6119627175675717 -0.45318721407048734 0.7272532021353868
0.52297309795093483 -0.22919354074889497 0.73784488602469978
-0.728112899912432 -0.5336051403355091 -0.15395984441378374
-0.62041234159276826 -0.64607977237682235 -0.29643302249110448
-0.090380528816037753 -0.43591331618783968 0.37807832106855699
-0.90060116802457202 -0.13240653679199088 0.13860429707067112
-0.54673707022157458 -0.052059857094465478 0.75489394073946414
0.083204397885506154 0.56110637430339416 0.67193944600225919
0.65668708116353969 -0.61248046112951648 0.42558180263223377
-0.10342367600908275 0.86625681698693491 0.22183115573039558
-0.91713136731119249 -0.72972960828621192 -0.37112085473233591
0.29728379278859052 0.67075882981380008 -0.37395439220899007
0.29154336036339501 0.13181624354363031 0.48981450919329461
-0.50585885961798738 -0.32436720072335579 0.67128226050445505
-0.42208032036544552 -0.40423152636641202 0.66817348768266527
0.40050816597024053 0.71891486618393685 -0.27047152272831099
0.46690466053052049 -0.01004709209841792 0.37725020865413939
0.27403452451755683 1.1273476294447651 -0.43230386589258885
0.085862104485720181 -0.17431886505332006 0.75274915577205093
0.29743495172112588 -0.16080756222694337 0.74530597998069226
0.77505770129788942 -0.36972458447159706 0.697941483955546
-0.11338149455147928 -0.060742412074496599 0.74764982237395827
-0.34914230684364966 0.47835848790964874 0.53496108993602931
-0.88229998405430621 -0.90687054085529128 -0.45280696595403569
-0.28650059443072706 -0.45737309172542062 0.62284259523271857
-0.65918284311173281 -0.85812903061480439 -0.40091114679134066
0.013849269463587888 0.67322409042405784 0.67103193836136299
0.19723747341701525 -0.36734822064036088 0.63245477809521233
-0.27267537013393905 -0.17523200927126048 0.78176140067620636
0.68012428904161482 -0.65319557110052884 0.6003812853901529
-0.76224764553888136 -0.40730110629395622 -0.37300496518316706
-0.33437798965215748 0.24432377508892689 0.80088114217967643
-0.42951541019344219 -0.78852430400858964 -0.24650583582184282
0.26341166455270226 -0.30037221888558996 0.72344336170269585
-0.83135332650237359 -0.77462926765007412 -0.42651309160938311
0.21067810652935748 0.19574801874752357 -0.57808192546878345
0.71442800011393714 -0.50785510136644518 0.41193337339791114
0.070019537226432504 0.60787861842678304 0.61885676997148664
0.62210534654440508 -0.44941436913115407 0.70637948876512979
-0.19998638197986551 0.32753257870718677 0.77469476018085714
-0.46030997158848663 -0.26189649713880847 0.76180717301036793
0.060671295923633295 0.39368970995796815 0.78419166195537926
-0.37207166999735364 -0.36745423894648876 0.67565149178616224
-0.73521812890329841 -0.4637853613088847 0.49466760539046817
0.16160919263293749 0.79724292996170298 0.27584641773781371
-0.088488138982832254 -0.34489461326801019 -0.52120302761596804
-0.22162684165616042 0.52459837079970395 0.67477663394177867
0.41573597985763655 -0.23153526276675329 0.22411464040565576
-0.79396360109662467 -0.48338742960704772 -0.0068808863770328799
-0.33890502768149133 0.024159597091522933 0.77189325517538165
0.4824615642820369 -0.5473392113639326 0.39303719152027838
0.0074548104863119136 0.93630412420183085 -0.20003196466453588
0.28833970930939401 0.46088236987240094 -0.39402711508231292
0.33601211690330857 1.125826204580699 -0.44433285817068935
0.72527169628092736 -0.3168183255579029 0.66712870829229587
0.682912021498705 -0.61194407089331193 0.64313053431795453
0.3910483926180035 0.53485939719181008 -0.095604405391874536
0.19890401104413868 -0.19919507286075344 0.77602728265376442
0.34872849687113927 0.21846689702227806 0.30210038380875659
-0.32301843669206676 0.84513692117499239 -0.42243777188150489
0.028343664225953802 0.40710265164715764 0.79850308927397862
-0.69583681325070756 0.64800677267311535 -0.10399523696965574
0.0824591454516721 0.59036474745301959 0.67279467045275965
-0.54173331565070626 -0.29998867443547983 0.67946087603542082
-0.75915779356679991 0.34500109449661753 0.30986316509252987
0.029889156360443536 0.65864598271197394 0.67251154492372933
0.30306802270397881 0.10082910069267825 0.48992897802710189
0.22151314156780799 0.010265419164831258 0.75433518652393872
0.38975378447294062 1.1697405424080158 -0.47883069364690911
-0.82222177179184897 -0.68068020790022343 -0.33007444730957758
0.46564875299590369 -0.16175154034389294 0.2752932231014853
0.83640079362136888 -0.19535976222994655 0.65411720188748745
0.59970146699552629 -0.22693835823076025 0.35440882329696777
-0.54095062362701896 -0.40084550757650739 0.65600642507551044
-0.92530896007636088 -0.76454032931943239 -0.50417485185222688
0.56374262896328275 -0.4840786285865013 0.72011137731632502
-0.54983136086483242 -0.37827085282249229 0.6650233036910933
-0.57243985394059038 -0.53972183773182003 -0.41183165195693405
0.6871545040401017 -0.47082029270296033 0.67574960184070676
-0.62963361892376568 -0.35393046429113895 0.67439027423638009
-0.87570601858953978 -0.91426897687255604 -0.47263552629879513
0.62743898356681171 -0.40529673411235745 0.73047557322998813
-0.35663591559525898 -0.63331193634938465 -0.13689253212980645
-0.12518849562473022 0.75173988994903951 0.39283964795584225
-0.48961504868589856 0.41844366424891888 0.48689836604383174
0.28724890545587201 1.1513593840823653 -0.44151751549407692
0.46519139804855669 0.031625228361912505 0.59783166591758885
-0.33162202985668188 -0.084686579973460852 0.78743240429286843
0.11073878162234863 0.49668239495187816 0.69634228507714724
-0.10523479971592309 0.44553889936939495 0.80829880003426169
0.30229464211158685 1.0177433643828939 -0.37741428565553292
-0.17968277083512163 0.51191676827720389 0.75752013903813165
-0.31172955211172138 -0.63871640919174411 -0.13356470261535236
0.55251247267586834 -0.47365576234080198 0.37028715720259342
-0.13509616779975886 -0.30155593003939796 0.69797774677286384
0.70172404289847989 -0.34903075903868164 0.66984547924948856
0.041544532861443884 -0.32993755903832245 0.47133552121234956
-0.36887802962777627 -0.40137252135575352 0.62588815469253944
-0.57008823405783815 -0.93241828306699093 -0.3582833599403763
0.34469518857213544 -0.0071663186561634618 -0.35082866163555337
-0.80801487075477851 -0.77849060729722286 -0.41151802875656074
0.75003585629995939 -0.38455999799857921 0.65252315474623046
-0.16494188804050935 0.38855127177077176 0.77647607703254806
-0.0081934956589719832 0.40584368620801126 -0.67818032192735345
0.13811985515038572 0.3749053396825337 0.71691668144209686
0.1254450522191739 -0.25718211361068999 0.70069430981022762
-0.33079701271196171 -0.80245408988434885 -0.25933455560792851
0.10780679397763748 -0.1576670275711276 0.80553754950696543
-0.52507360072651821 -0.11201186209015024 0.74896787641127105
-0.58941284333862498 -0.3581408322574573 0.66639323123043681
0.38689232085610215 0.71899579000632041 -0.25652875483588744
-0.021532287908090808 -0.35789773162437832 0.51485921165970794
-0.76171267074030524 -0.51146017437555891 -0.084552894510800058
-0.72661555282735435 -0.55467840366600596 -0.21366836090980001
-0.41097328628372409 -0.024288657752216558 0.76241246614440428
-0.077591097135044862 0.26045214087382718 0.75454011649793529
0.30074065097989333 0.83399898694461738 -0.31507985297531249
0.042853703967093537 0.87171161657677665 0.60641325519408085
-0.44197610101229046 -0.4476456010123524 0.63905722373285556
-0.59838958736348147 -0.98876427786257803 -0.36943188203595412
-0.61191133552008381 -0.053770942909180164 0.76307808155010548
-0.0050587509002220088 0.51918163221244207 0.77189337039120787
0.43581491550391505 -0.60403840884886506 0.51863295293568967
0.25638137023373986 -0.0031498598485075746 0.76379862685159949
-0.55423394856506292 -0.25942670961130698 0.70332422767417313
-0.066688363857423383 0.54034201029296902 0.75264723728681204
-0.41549218747752903 -0.76764747030439251 -0.36643769163789131
-0.00010971910952761732 0.53171842205733455 0.75320547057965115
-0.24689916922653765 -0.28049257506458325 0.73197156309577949
0.11426201366768751 0.40954721912962899 0.70925272258764949
-0.56405140315125024 -0.23514593350691193 0.72227242891257504
-0.51006983419748408 -0.60774175272471886 -0.13246289918637189
0.16911994080106751 0.27779850157037167 0.70624378612095384
0.021231382990233527 0.62984995544096201 0.67705424528095293
-0.78749465339125635 -0.59903007916172202 -0.23788669350511782
0.094297631277004967 0.53871974857906935 0.67672480397696333
0.4062567491302147 0.59769313901872856 -0.29381738282993197
-0.14765569549905067 0.75942373609783687 0.59694784689873615
0.31857630131954551 -0.51067596674404836 0.5254981605479756
-0.90849281897977363 -0.11088600809146154 -0.32895132449763409
-0.90657443946703253 -1.0062587906707097 -0.5209385405636624
0.28457122212500963 1.1805479549996818 -0.4212682214094059
0.25318869574131497 -0.022372042583073792 0.80331492492000223
-0.36778175647600975 -0.41676812504710004 0.59934447498352483
0.18492598378179892 -0.12623095890486624 0.8130981187434152
-0.65736359277838474 -1.0092815575183809 -0.39003946611580886
0.83997255057714071 -0.36582180637154416 0.43559509693517739
-0.44393023135459231 -0.35789022496610468 0.67310304090771211
0.48916486165990136 -0.18586465526848261 0.7374844469143369
-0.44491772680439112 -0.36481112457792086 0.67539440941816764
-0.3995051743139264 -0.0679096511450199 0.78646241902513481
-0.44737832785809672 -0.37956705784126665 0.67721650612848094
0.29702684973560878 0.20738014335011457 0.47392767912078781
-0.24214499168403236 0.68645991891840286 0.60189359965068334
0.11197294850146022 0.86128543724752848 0.53977274402179631
0.18333191117470093 0.78586832407283858 0.41419061911273047
-0.3707870248023859 0.24945006260048341 0.6875417072429677
-0.19707394295067004 -0.48934794617336674 0.53319547859381089
-0.17039049907595327 -0.34348871012248239 0.67847649521359443
-0.51775265907647849 -0.37136538389287299 0.67383172218363541
0.094451473870652336 0.60396510266810743 0.67105776441146858
-0.8944120115676526 -0.8830783973358205 -0.46249638708174956
0.02635268986724526 0.34035801472965588 0.79141562795399878
0.46616139202475537 -0.53124762916699364 0.68123181116750331
0.31096693008330689 0.74790623895079111 -0.28338806294751251
-0.48241634981640047 0.0029632226806697304 0.69061585585822627
0.27100260661666908 1.1565986925038145 -0.41734005491271375
0.50881552596626989 1.0430978452438469 -0.41892115496149884
0.11878972702609403 -0.29032343909461211 0.63880092339956107
-0.26528518841868376 0.4402955172569305 0.76938563598833909
-0.61596030262765211 -0.0827411166112757 0.75647664200668885
-0.5881312295613057 -0.16719624549753398 0.73082722667963651
-0.57456606759478746 -0.63962161295818643 -0.29742895695468263
0.5717196765659196 0.83645175053171661 -0.38912999697264539
-0.24256205913532725 -0.18761018557272813 -0.65336667429035344
-0.64298707867328275 -0.5569564284562194 0.46486204116634866
-0.84311876225705262 -0.65940844067761084 -0.30203340843409876
-0.86180937575434768 -0.77829488757215959 -0.44440014892141377
-0.37665637664053619 0.2064975203655548 0.74032450852356746
0.018321713108260695 0.30603463177727619 0.76926458582267188
-0.16009354802753251 -0.29539824504672074 -0.59230113925953276
0.36484820833631915 0.74785545542413701 -0.35077391720119167
0.88222895208961916 -0.24871152466898394 0.63971821606820001
-0.24482505980864389 0.70540680835309555 0.71345226784928428
-0.21747233568413904 -0.34587212678521073 -0.55669729470830376
0.76461697210074675 -0.3207402073522081 0.71178637327868799
-0.40594436775294085 0.57964831207949441 0.64417597140265315
-0.19257272117726387 0.47277371367573551 0.73909324742445648
-0.2688524908570713 0.0092747684776766093 0.76448318782255598
0.26650851741070269 0.058774715882493389 0.65499770496482412
-0.59381135293248732 -0.20391378714608521 0.71973868554801612
0.69857963902551035 -0.31943390108109249 0.69437525969356884
0.2746328204975832 -0.040230367795075495 0.78523606131655299
-0.60579502182954315 0.25332000490335371 -0.63738408738147356
-0.35773323164393389 -0.084667408479514705 0.80722823830363311
-0.66819797152658467 -0.57490053195157831 -0.16503551616676049
-0.63552322709384157 -0.61119955371599666 -0.38898749632319962
-0.36963549663317252 -0.74287430857711545 -0.18776658683868419
0.36586622531677548 1.096619903526197 -0.43169354613544542
0.28165302462160824 0.75571514908877369 -0.26948956775072475
-0.16894545082273638 -0.17432353636456988 0.68684779215466563
-0.30054684096342399 0.49470971246281614 0.78085558319950721
-0.68835901738692229 -0.49856232053049876 0.29953350198367446
-0.077797455452934372 0.58841104638122577 0.71726916418240805
0.57451108384351812 -0.13681270340966112 0.36452396849509938
-0.65203756321777462 -0.330670225332236 0.69217530723762621
0.43769272742954257 -0.54430742645049079 0.4111713608669163
0.12096979523817808 1.0557893580177096 -0.2667269459532271
0.30188812417847544 0.76065556469094098 -0.29807528512882442
-0.25366628517008749 -0.67111474679427552 -0.19008740861502815
0.49434711256626329 1.0035567185610743 -0.45359225804957148
0.16916237661891387 0.46833265660337275 0.67782409479300654
0.16892024989585153 0.94110255354225014 -0.22514332630814238
-0.6128681438876562 0.17621852067487076 0.72197579818148938
-0.49768040954189985 -0.64560712456145897 -0.31409500213641195
-0.70884612507260059 -0.24134344528525453 0.72005958049157925
-0.047764763962529599 0.2443507279962347 0.76277389851344068
0.23773542736600106 0.0067783070025528858 0.781876869232768
0.29262497340711136 0.81119024915270321 -0.36397758276421754
-0.75933680004397175 0.56052250857421226 -0.10902013866370552
0.14776324985303191 -0.31821288174599527 0.63108617734702221
0.17786232175660999 1.0100175099069419 -0.26833632085859094
0.59701443005502242 -0.70383902013970889 0.57217683286669185
0.0076570738483425771 -0.30218892105292383 0.61155022498150657
-0.36817592609580529 -0.63110796175089234 -0.14772267176843457
0.8706864532098173 -0.23020746003753345 0.64388507081806878
