# XYZ point cloud file
0.826171875 -0.307861328125 0.34136962890625
0.7861328125 -0.3017578125 0.327423095703125
0.79345703125 -0.2705078125 0.347930908203125
0.81103515625 -0.2646484375 0.366973876953125
0.8447265625 -0.309814453125 0.362640380859375
0.802734375 -0.318115234375 0.33270263671875
0.755859375 -0.275390625 0.349700927734375
0.48974609375 -0.716552734375 0.653076171875
0.5205078125 -0.72509765625 0.656341552734375
0.50927734375 -0.715087890625 0.681671142578125
0.4541015625 -0.695556640625 0.655609130859375
0.47265625 -0.71240234375 0.63421630859375
0.50048828125 -0.71923828125 0.639556884765625
0.5390625 -0.72314453125 0.67425537109375
0.48046875 -0.70556640625 0.6878662109375
0.4345703125 -0.68798828125 0.610748291015625
0.68896484375 -0.190673828125 0.385589599609375
0.7275390625 -0.181396484375 0.41046142578125
0.7216796875 -0.21826171875 0.375701904296875
0.63916015625 -0.200927734375 0.36138916015625
0.6455078125 -0.1611328125 0.39984130859375
0.68310546875 -0.159912109375 0.419189453125
0.76123046875 -0.214599609375 0.39410400390625
0.6826171875 -0.225341796875 0.35382080078125
0.6005859375 -0.1728515625 0.3773193359375
0.3671875 -0.617431640625 0.6190185546875
0.3974609375 -0.65185546875 0.63623046875
0.38916015625 -0.63037109375 0.673858642578125
0.33154296875 -0.578369140625 0.61199951171875
0.34619140625 -0.59130859375 0.57098388671875
0.3759765625 -0.633056640625 0.5855712890625
0.42236328125 -0.6611328125 0.6761474609375
0.35791015625 -0.596923828125 0.662506103515625
0.314453125 -0.556884765625 0.57208251953125
0.56494140625 -0.255126953125 0.347930908203125
0.60400390625 -0.287353515625 0.349151611328125
0.54638671875 -0.28955078125 0.350799560546875
0.50927734375 -0.2333984375 0.34857177734375
0.58056640625 -0.23095703125 0.344207763671875
0.619140625 -0.258544921875 0.34185791015625
0.5888671875 -0.3173828125 0.355712890625
0.501953125 -0.2626953125 0.3607177734375
0.5322265625 -0.2080078125 0.360015869140625
0.349609375 -0.536865234375 0.47528076171875
0.3583984375 -0.521240234375 0.45074462890625
0.388671875 -0.5732421875 0.481903076171875
0.33642578125 -0.5517578125 0.499725341796875
0.31103515625 -0.505615234375 0.471710205078125
0.3291015625 -0.4912109375 0.451080322265625
0.40478515625 -0.561767578125 0.4688720703125
0.3740234375 -0.591796875 0.511444091796875
0.30615234375 -0.521484375 0.4942626953125
0.7216796875 -0.36376953125 0.349517822265625
0.7353515625 -0.336669921875 0.338287353515625
0.7578125 -0.379638671875 0.3519287109375
0.7080078125 -0.394775390625 0.36370849609375
0.68212890625 -0.339599609375 0.348358154296875
0.708984375 -0.3134765625 0.34063720703125
0.767578125 -0.349853515625 0.34149169921875
0.74755859375 -0.410400390625 0.37432861328125
0.65673828125 -0.36669921875 0.35137939453125
0.49072265625 -0.662353515625 0.551483154296875
0.5224609375 -0.681884765625 0.58966064453125
0.4697265625 -0.679931640625 0.57159423828125
0.45703125 -0.638427734375 0.526153564453125
0.5126953125 -0.64013671875 0.528717041015625
0.54833984375 -0.662841796875 0.57135009765625
0.5029296875 -0.69775390625 0.593017578125
0.43896484375 -0.659423828125 0.54681396484375
0.4833984375 -0.620361328125 0.511444091796875
0.42626953125 -0.163818359375 0.321533203125
0.4345703125 -0.136962890625 0.34783935546875
0.44873046875 -0.186279296875 0.346282958984375
0.4189453125 -0.192138671875 0.3267822265625
0.4091796875 -0.142578125 0.3170166015625
0.41357421875 -0.11474609375 0.3394775390625
0.45751953125 -0.15869140625 0.35223388671875
0.43310546875 -0.216796875 0.332061767578125
0.39697265625 -0.17333984375 0.3050537109375
0.212890625 -0.438232421875 0.43048095703125
0.24169921875 -0.45751953125 0.436370849609375
0.1982421875 -0.445556640625 0.469146728515625
0.181640625 -0.419677734375 0.425445556640625
0.228515625 -0.42822265625 0.40887451171875
0.263671875 -0.44677734375 0.411102294921875
0.228515625 -0.4716796875 0.4718017578125
0.1708984375 -0.419677734375 0.465576171875
0.19873046875 -0.418212890625 0.39801025390625
0.51611328125 -0.08349609375 0.43621826171875
0.55029296875 -0.078857421875 0.464996337890625
0.5517578125 -0.1123046875 0.4271240234375
0.4921875 -0.096435546875 0.394683837890625
0.4873046875 -0.0625 0.42523193359375
0.50634765625 -0.052490234375 0.48028564453125
0.59814453125 -0.10107421875 0.460357666015625
0.5244140625 -0.121826171875 0.391876220703125
0.45556640625 -0.072509765625 0.40118408203125
0.22607421875 -0.4853515625 0.59893798828125
0.25830078125 -0.51513671875 0.600311279296875
0.24169921875 -0.4970703125 0.6390380859375
0.18505859375 -0.453125 0.587188720703125
0.20654296875 -0.470458984375 0.544708251953125
0.24755859375 -0.49951171875 0.56427001953125
0.2841796875 -0.533447265625 0.64776611328125
0.20556640625 -0.458740234375 0.62957763671875
0.1748046875 -0.43603515625 0.535125732421875
0.31494140625 0.03173828125 0.4835205078125
0.328125 0.019287109375 0.481109619140625
0.3076171875 0.033447265625 0.45697021484375
0.30224609375 0.03857421875 0.4969482421875
0.322265625 0.031005859375 0.52166748046875
0.3388671875 0.0224609375 0.506378173828125
0.3212890625 0.0185546875 0.4410400390625
0.291015625 0.047607421875 0.4715576171875
0.30419921875 0.037109375 0.52520751953125
0.064453125 -0.309326171875 0.58526611328125
0.04736328125 -0.315673828125 0.551116943359375
0.07666015625 -0.32080078125 0.58514404296875
0.07568359375 -0.30029296875 0.614044189453125
0.0537109375 -0.294189453125 0.58184814453125
0.03662109375 -0.302001953125 0.554901123046875
0.05712890625 -0.32763671875 0.54522705078125
0.08544921875 -0.320068359375 0.6092529296875
0.06396484375 -0.29052734375 0.611785888671875
0.38916015625 -0.00830078125 0.44415283203125
0.41796875 -0.02490234375 0.44775390625
0.37109375 -0.02490234375 0.4090576171875
0.36376953125 -0.00048828125 0.44476318359375
0.40478515625 0 0.487945556640625
0.43408203125 -0.014404296875 0.483001708984375
0.3916015625 -0.0400390625 0.40509033203125
0.35400390625 -0.01025390625 0.414703369140625
0.3740234375 0.007568359375 0.492340087890625
0.1123046875 -0.37060546875 0.5859375
0.11083984375 -0.366943359375 0.54388427734375
0.134765625 -0.3955078125 0.58062744140625
0.12841796875 -0.377197265625 0.6195068359375
0.10205078125 -0.347900390625 0.58624267578125
0.09521484375 -0.350830078125 0.53875732421875
0.1328125 -0.38916015625 0.544769287109375
0.14306640625 -0.404541015625 0.62408447265625
0.107421875 -0.35498046875 0.610107421875
0.2607421875 0.05859375 0.516021728515625
0.26123046875 0.0615234375 0.529754638671875
0.27783203125 0.0537109375 0.5072021484375
0.25390625 0.06201171875 0.489654541015625
0.25390625 0.073486328125 0.51611328125
0.251953125 0.073974609375 0.5316162109375
0.27685546875 0.052978515625 0.524871826171875
0.2685546875 0.05810546875 0.486572265625
0.25146484375 0.077392578125 0.49481201171875
0.02685546875 -0.259033203125 0.5799560546875
0.0361328125 -0.265869140625 0.582763671875
0.03662109375 -0.251953125 0.6099853515625
0.01123046875 -0.255859375 0.583404541015625
0.0146484375 -0.26513671875 0.563140869140625
0.021484375 -0.275390625 0.565032958984375
0.04638671875 -0.2646484375 0.602783203125
0.02490234375 -0.248291015625 0.603424072265625
0.0009765625 -0.264404296875 0.568756103515625
0.26953125 0.16796875 0.481201171875
0.259765625 0.130126953125 0.49322509765625
0.26953125 0.164794921875 0.4600830078125
0.287109375 0.215087890625 0.468475341796875
0.2705078125 0.170654296875 0.500732421875
0.26318359375 0.132568359375 0.51470947265625
0.2607421875 0.129150390625 0.471038818359375
0.279296875 0.208984375 0.453094482421875
0.29443359375 0.21484375 0.485687255859375
-0.08544921875 -0.310302734375 0.58807373046875
-0.0830078125 -0.310546875 0.573577880859375
-0.052734375 -0.2802734375 0.5928955078125
-0.08349609375 -0.30419921875 0.6129150390625
-0.12548828125 -0.345703125 0.57745361328125
-0.12548828125 -0.346435546875 0.559356689453125
-0.056640625 -0.282958984375 0.580322265625
-0.046875 -0.27392578125 0.611175537109375
-0.11767578125 -0.343505859375 0.60858154296875
0.0673828125 -0.07373046875 -0.662384033203125
0.03515625 -0.015869140625 -0.69134521484375
0.1044921875 -0.017822265625 -0.640777587890625
0.1044921875 -0.13134765625 -0.607757568359375
0.0166015625 -0.1455078125 -0.67144775390625
-0.01806640625 -0.073974609375 -0.701904296875
0.076171875 0.05419921875 -0.661163330078125
0.134765625 -0.05712890625 -0.596160888671875
0.05029296875 -0.197509765625 -0.608917236328125
-0.1357421875 -0.323486328125 -0.621307373046875
-0.17724609375 -0.37939453125 -0.5921630859375
-0.16845703125 -0.270751953125 -0.661651611328125
-0.07861328125 -0.27392578125 -0.652252197265625
-0.10009765625 -0.370361328125 -0.5596923828125
-0.140625 -0.421630859375 -0.532073974609375
-0.2080078125 -0.329833984375 -0.62493896484375
-0.11572265625 -0.22265625 -0.69146728515625
-0.0498046875 -0.318115234375 -0.584136962890625
0.1884765625 -0.21923828125 -0.429656982421875
0.1630859375 -0.1953125 -0.493560791015625
0.21337890625 -0.148193359375 -0.42877197265625
0.2236328125 -0.249755859375 -0.349334716796875
0.14697265625 -0.285888671875 -0.428466796875
0.1171875 -0.2705078125 -0.49365234375
0.19287109375 -0.11962890625 -0.494873046875
0.24462890625 -0.176513671875 -0.344879150390625
0.177734375 -0.313232421875 -0.344512939453125
0.00341796875 -0.45361328125 -0.36077880859375
-0.04052734375 -0.4931640625 -0.335662841796875
-0.02392578125 -0.43310546875 -0.4383544921875
0.0537109375 -0.402587890625 -0.393768310546875
0.04052734375 -0.461181640625 -0.290557861328125
-0.005859375 -0.499267578125 -0.263580322265625
-0.0693359375 -0.476318359375 -0.410430908203125
0.02099609375 -0.38623046875 -0.460174560546875
0.0849609375 -0.417724609375 -0.3177490234375
0.2958984375 -0.26025390625 -0.051605224609375
0.2646484375 -0.258544921875 -0.155517578125
0.3115234375 -0.196533203125 -0.05718994140625
0.3056640625 -0.25732421875 0.039794921875
0.25830078125 -0.317626953125 -0.046600341796875
0.23583984375 -0.32568359375 -0.15869140625
0.2890625 -0.2001953125 -0.16802978515625
0.328125 -0.197265625 0.036102294921875
0.27294921875 -0.310546875 0.05560302734375
0.13525390625 -0.444091796875 0.02001953125
0.0771484375 -0.471923828125 0.03131103515625
0.10107421875 -0.46044921875 -0.097076416015625
0.18310546875 -0.41015625 -9.1552734375e-05
0.16455078125 -0.432373046875 0.1053466796875
0.1162109375 -0.45947265625 0.125030517578125
0.05322265625 -0.49609375 -0.091552734375
0.1552734375 -0.42529296875 -0.1141357421875
0.2041015625 -0.400390625 0.09002685546875
0.341796875 -0.248779296875 0.232635498046875
0.328125 -0.249755859375 0.18109130859375
0.35302734375 -0.20849609375 0.220947265625
0.345703125 -0.257080078125 0.259490966796875
0.32177734375 -0.29150390625 0.239501953125
0.31201171875 -0.293701171875 0.202239990234375
0.35009765625 -0.203369140625 0.17022705078125
0.361328125 -0.221923828125 0.243865966796875
0.33447265625 -0.291259765625 0.272125244140625
0.2275390625 -0.388916015625 0.293212890625
0.1845703125 -0.408203125 0.29888916015625
0.20751953125 -0.397705078125 0.24737548828125
0.26171875 -0.357421875 0.272979736328125
0.23974609375 -0.384521484375 0.306976318359375
0.2119140625 -0.400146484375 0.321990966796875
0.169921875 -0.41796875 0.26446533203125
0.24853515625 -0.367919921875 0.239166259765625
0.271484375 -0.355712890625 0.2989501953125
0.35986328125 -0.09326171875 0.290130615234375
0.3740234375 -0.10693359375 0.296112060546875
0.359375 -0.132080078125 0.2510986328125
0.34326171875 -0.0791015625 0.27886962890625
0.369140625 -0.066650390625 0.330780029296875
0.37353515625 -0.07861328125 0.327728271484375
0.3671875 -0.142822265625 0.266143798828125
0.353515625 -0.11572265625 0.234344482421875
0.3427734375 -0.047607421875 0.331634521484375
0.1259765625 -0.39892578125 0.403045654296875
0.14501953125 -0.410400390625 0.3590087890625
0.14208984375 -0.403076171875 0.410430908203125
0.1103515625 -0.38623046875 0.452362060546875
0.10986328125 -0.3984375 0.394256591796875
0.12255859375 -0.412109375 0.331329345703125
0.16162109375 -0.41357421875 0.3695068359375
0.1318359375 -0.392822265625 0.4588623046875
0.0888671875 -0.380859375 0.439300537109375
0.31982421875 0.59326171875 0.20440673828125
0.3115234375 0.59130859375 0.279296875
0.33837890625 0.533203125 0.205596923828125
0.328125 0.610107421875 0.14019775390625
0.3037109375 0.655517578125 0.21771240234375
0.29931640625 0.64306640625 0.27825927734375
0.32373046875 0.531982421875 0.276123046875
0.35009765625 0.5400390625 0.124755859375
0.3017578125 0.66796875 0.162506103515625
-0.498046875 -0.53759765625 0.261627197265625
-0.4462890625 -0.530029296875 0.29156494140625
-0.48291015625 -0.51953125 0.332763671875
-0.556640625 -0.525146484375 0.238739013671875
-0.513671875 -0.555908203125 0.196746826171875
-0.4560546875 -0.5625 0.222137451171875
-0.4296875 -0.506591796875 0.36029052734375
-0.5419921875 -0.51123046875 0.31292724609375
-0.5751953125 -0.526123046875 0.175323486328125
-0.09130859375 0.267333984375 -0.728302001953125
-0.14013671875 0.379638671875 -0.73492431640625
-0.03125 0.32275390625 -0.700927734375
-0.04736328125 0.16064453125 -0.734527587890625
-0.14111328125 0.202392578125 -0.760986328125
-0.19677734375 0.304931640625 -0.761474609375
-0.080078125 0.436279296875 -0.6951904296875
-0.0068359375 0.21435546875 -0.70794677734375
-0.09326171875 0.100341796875 -0.747955322265625
-0.31005859375 -0.039794921875 -0.75146484375
-0.34423828125 -0.12646484375 -0.721038818359375
-0.35986328125 0.04931640625 -0.76470947265625
-0.25 0.0458984375 -0.765960693359375
-0.25244140625 -0.125732421875 -0.739898681640625
-0.29345703125 -0.200927734375 -0.69091796875
-0.4072265625 -0.044677734375 -0.730682373046875
-0.3076171875 0.1494140625 -0.772003173828125
-0.1904296875 -0.045166015625 -0.754547119140625
-0.537109375 0.77490234375 0.080169677734375
-0.529296875 0.739501953125 0.15948486328125
-0.48486328125 0.84423828125 0.102325439453125
-0.5390625 0.79345703125 0.00518798828125
-0.6015625 0.692138671875 0.04571533203125
-0.5927734375 0.66796875 0.136749267578125
-0.478515625 0.806640625 0.1795654296875
-0.4833984375 0.862548828125 0.03619384765625
-0.59375 0.714599609375 -0.0294189453125
-0.75927734375 0.42529296875 -0.034942626953125
-0.80322265625 0.33837890625 -0.06732177734375
-0.759765625 0.397705078125 0.0618896484375
-0.720703125 0.516357421875 -0.003204345703125
-0.7626953125 0.453125 -0.106903076171875
-0.8046875 0.366455078125 -0.139556884765625
-0.7998046875 0.31396484375 0.01507568359375
-0.71435546875 0.489501953125 0.08331298828125
-0.72216796875 0.536865234375 -0.08819580078125
-0.47705078125 0.829345703125 -0.248748779296875
-0.50732421875 0.820556640625 -0.163360595703125
-0.4130859375 0.88232421875 -0.21575927734375
-0.43798828125 0.8134765625 -0.332916259765625
-0.53515625 0.755859375 -0.294403076171875
-0.55322265625 0.750244140625 -0.198577880859375
-0.43896484375 0.88671875 -0.139801025390625
-0.37353515625 0.87158203125 -0.3082275390625
-0.50341796875 0.74267578125 -0.3818359375
-0.70703125 0.490234375 -0.38677978515625
-0.74365234375 0.400390625 -0.3883056640625
-0.73828125 0.48583984375 -0.29278564453125
-0.6513671875 0.578857421875 -0.360595703125
-0.67529296875 0.470947265625 -0.46368408203125
-0.7109375 0.383056640625 -0.46282958984375
-0.7626953125 0.39794921875 -0.312591552734375
-0.67431640625 0.580322265625 -0.249542236328125
-0.619140625 0.570068359375 -0.452880859375
-0.30078125 0.654296875 -0.592803955078125
-0.35498046875 0.729736328125 -0.5230712890625
-0.25341796875 0.714111328125 -0.54443359375
-0.248046875 0.573974609375 -0.65185546875
-0.35595703125 0.58935546875 -0.633056640625
-0.412109375 0.657470703125 -0.55560302734375
-0.30126953125 0.77978515625 -0.47509765625
-0.1865234375 0.629638671875 -0.618560791015625
-0.2998046875 0.505126953125 -0.69671630859375
-0.53564453125 0.306884765625 -0.682861328125
-0.59228515625 0.216552734375 -0.668670654296875
-0.59521484375 0.3779296875 -0.608734130859375
-0.4736328125 0.413818359375 -0.674285888671875
-0.48095703125 0.231689453125 -0.73187255859375
-0.53125 0.1357421875 -0.715118408203125
-0.64404296875 0.27685546875 -0.593902587890625
-0.5390625 0.48095703125 -0.6063232421875
-0.4130859375 0.33447265625 -0.73468017578125
0.046875 0.80908203125 0.433837890625
0.04443359375 0.815673828125 0.47589111328125
0.07470703125 0.817138671875 0.419403076171875
0.037109375 0.806884765625 0.39141845703125
0.0087890625 0.79150390625 0.44439697265625
0.0146484375 0.802001953125 0.4873046875
0.07763671875 0.822509765625 0.45965576171875
0.06689453125 0.816650390625 0.38201904296875
0.0068359375 0.796875 0.39959716796875
-0.7353515625 -0.2890625 0.272979736328125
-0.7314453125 -0.32080078125 0.27606201171875
-0.74560546875 -0.3056640625 0.32080078125
-0.73583984375 -0.26123046875 0.27178955078125
-0.73388671875 -0.279541015625 0.2265625
-0.7294921875 -0.31201171875 0.2255859375
-0.74169921875 -0.338623046875 0.31512451171875
-0.74267578125 -0.267578125 0.32794189453125
-0.7412109375 -0.245361328125 0.230743408203125
-0.0166015625 0.862548828125 0.255584716796875
0.00634765625 0.8388671875 0.31195068359375
0.03271484375 0.8662109375 0.255157470703125
-0.029296875 0.904541015625 0.2138671875
-0.0615234375 0.858154296875 0.2618408203125
-0.03271484375 0.8291015625 0.3123779296875
0.04248046875 0.843505859375 0.303253173828125
0.00634765625 0.900146484375 0.212921142578125
-0.080078125 0.900390625 0.223358154296875
-0.77783203125 -0.209716796875 0.055511474609375
-0.78515625 -0.258056640625 0.05908203125
-0.76318359375 -0.230712890625 0.119781494140625
-0.76953125 -0.159912109375 0.05389404296875
-0.8095703125 -0.180419921875 0.004486083984375
-0.802734375 -0.2314453125 -0.003204345703125
-0.759765625 -0.2763671875 0.127655029296875
-0.75146484375 -0.19091796875 0.12939453125
-0.81103515625 -0.13037109375 -0.0086669921875
-0.07763671875 0.9794921875 0.077484130859375
-0.0712890625 0.96728515625 0.121337890625
-0.0341796875 0.982421875 0.07354736328125
-0.0849609375 0.994140625 0.0242919921875
-0.11669921875 0.975341796875 0.065399169921875
-0.11328125 0.9619140625 0.12213134765625
-0.0283203125 0.966064453125 0.12274169921875
-0.04150390625 0.991943359375 0.016448974609375
-0.12744140625 0.991455078125 0.0164794921875
-0.8466796875 -0.1298828125 -0.20184326171875
-0.84423828125 -0.190185546875 -0.18719482421875
-0.83544921875 -0.145751953125 -0.121490478515625
-0.84326171875 -0.07080078125 -0.22637939453125
-0.8369140625 -0.112060546875 -0.278106689453125
-0.8359375 -0.172607421875 -0.253875732421875
-0.83154296875 -0.202392578125 -0.12188720703125
-0.8349609375 -0.091064453125 -0.151123046875
-0.83642578125 -0.0478515625 -0.293487548828125
-0.041015625 0.99267578125 -0.17279052734375
-0.06396484375 0.997802734375 -0.110504150390625
-0.00439453125 0.97607421875 -0.168365478515625
-0.01806640625 0.97216796875 -0.2286376953125
-0.08984375 0.994384765625 -0.18743896484375
-0.1171875 1.007080078125 -0.125823974609375
-0.03076171875 0.983642578125 -0.107635498046875
0.013671875 0.956787109375 -0.2139892578125
-0.0654296875 0.97705078125 -0.24725341796875
-0.8056640625 -0.116943359375 -0.436614990234375
-0.798828125 -0.178466796875 -0.41058349609375
-0.82275390625 -0.108642578125 -0.3785400390625
-0.796875 -0.053466796875 -0.452117919921875
-0.77587890625 -0.13232421875 -0.479034423828125
-0.77001953125 -0.191162109375 -0.459381103515625
-0.8115234375 -0.171630859375 -0.35858154296875
-0.81640625 -0.0498046875 -0.40191650390625
-0.76953125 -0.071533203125 -0.504913330078125
0.08349609375 0.81591796875 -0.37982177734375
0.1201171875 0.740966796875 -0.42572021484375
0.04833984375 0.814208984375 -0.397003173828125
0.03125 0.88427734375 -0.33416748046875
0.09716796875 0.825927734375 -0.35308837890625
0.14892578125 0.759765625 -0.393829345703125
0.0849609375 0.732666015625 -0.45867919921875
0.0048828125 0.881103515625 -0.3529052734375
0.0556640625 0.8828125 -0.31005859375
-0.6669921875 -0.261474609375 -0.536590576171875
-0.6650390625 -0.208740234375 -0.567657470703125
-0.6240234375 -0.324951171875 -0.530517578125
-0.6767578125 -0.313232421875 -0.50225830078125
-0.70654296875 -0.208740234375 -0.541748046875
-0.70751953125 -0.15087890625 -0.570892333984375
-0.61181640625 -0.272705078125 -0.565185546875
-0.6337890625 -0.366455078125 -0.498077392578125
-0.71337890625 -0.2548828125 -0.497344970703125
-0.0791015625 0.797607421875 -0.452728271484375
-0.1181640625 0.783203125 -0.475982666015625
-0.1279296875 0.872314453125 -0.3905029296875
-0.0341796875 0.80419921875 -0.449554443359375
-0.02490234375 0.7099609375 -0.524627685546875
-0.0712890625 0.70166015625 -0.55126953125
-0.17626953125 0.849853515625 -0.40142822265625
-0.0732421875 0.875244140625 -0.382110595703125
0.00537109375 0.72021484375 -0.50250244140625
-0.65673828125 -0.01904296875 -0.61956787109375
-0.6982421875 0.048583984375 -0.5889892578125
-0.6416015625 0.04833984375 -0.63177490234375
-0.6025390625 -0.09521484375 -0.645111083984375
-0.66064453125 -0.082763671875 -0.613372802734375
-0.70654296875 -0.019287109375 -0.58709716796875
-0.69189453125 0.113037109375 -0.597015380859375
-0.5908203125 -0.028076171875 -0.65948486328125
-0.6103515625 -0.16015625 -0.6326904296875
-0.22998046875 0.972900390625 -0.182586669921875
-0.28662109375 0.95751953125 -0.175689697265625
-0.24853515625 0.982421875 -0.10113525390625
-0.1806640625 0.98583984375 -0.184844970703125
-0.20556640625 0.958984375 -0.254119873046875
-0.25830078125 0.940673828125 -0.2666015625
-0.30712890625 0.9599609375 -0.0911865234375
-0.19580078125 0.99755859375 -0.107391357421875
-0.1591796875 0.968017578125 -0.25323486328125
-0.79931640625 0.153076171875 -0.45733642578125
-0.82177734375 0.1611328125 -0.38323974609375
-0.7978515625 0.228759765625 -0.4342041015625
-0.77587890625 0.133056640625 -0.519012451171875
-0.80126953125 0.082275390625 -0.45404052734375
-0.8173828125 0.089599609375 -0.396728515625
-0.82373046875 0.232666015625 -0.3638916015625
-0.7744140625 0.207275390625 -0.50567626953125
-0.7763671875 0.064697265625 -0.508880615234375
-0.275390625 0.964111328125 0.103729248046875
-0.3447265625 0.93310546875 0.11578369140625
-0.26611328125 0.927490234375 0.16583251953125
-0.21630859375 0.969970703125 0.09234619140625
-0.275390625 0.979248046875 0.036041259765625
-0.3388671875 0.953125 0.0518798828125
-0.34326171875 0.9013671875 0.1722412109375
-0.21337890625 0.93603515625 0.144500732421875
-0.21484375 0.98486328125 0.01959228515625
-0.84375 0.10888671875 -0.189208984375
-0.83984375 0.08935546875 -0.115692138671875
-0.84228515625 0.184326171875 -0.163818359375
-0.8466796875 0.13427734375 -0.26263427734375
-0.8427734375 0.051513671875 -0.219970703125
-0.84521484375 0.029541015625 -0.144805908203125
-0.84228515625 0.15771484375 -0.080230712890625
-0.84521484375 0.203125 -0.237396240234375
-0.84765625 0.070556640625 -0.27374267578125
-0.19921875 0.8056640625 0.304779052734375
-0.26513671875 0.77392578125 0.323638916015625
-0.16015625 0.763427734375 0.349639892578125
-0.14306640625 0.832763671875 0.27923583984375
-0.2294921875 0.854248046875 0.262847900390625
-0.296875 0.816162109375 0.279754638671875
-0.2294921875 0.7412109375 0.362548828125
-0.11572265625 0.789306640625 0.32879638671875
-0.1767578125 0.879150390625 0.246337890625
-0.77001953125 -0.02001953125 0.094635009765625
-0.7451171875 -0.0625 0.1719970703125
-0.7705078125 0.039794921875 0.1441650390625
-0.80712890625 0.022705078125 0.03021240234375
-0.77294921875 -0.068115234375 0.06768798828125
-0.7431640625 -0.110107421875 0.143951416015625
-0.7333984375 -0.009033203125 0.209991455078125
-0.798828125 0.083740234375 0.061920166015625
-0.79931640625 -0.02978515625 -0.00335693359375
-0.1103515625 0.729248046875 0.481689453125
-0.1103515625 0.734130859375 0.52392578125
-0.06689453125 0.75732421875 0.469757080078125
-0.1220703125 0.729248046875 0.450653076171875
-0.16064453125 0.6904296875 0.489013671875
-0.16259765625 0.69873046875 0.529632568359375
-0.06298828125 0.760498046875 0.5142822265625
-0.07421875 0.76025390625 0.421722412109375
-0.169921875 0.696533203125 0.46112060546875
-0.71923828125 -0.14013671875 0.334075927734375
-0.73046875 -0.18408203125 0.3023681640625
-0.73095703125 -0.14697265625 0.36322021484375
-0.6982421875 -0.084228515625 0.358673095703125
-0.70947265625 -0.1240234375 0.279083251953125
-0.72119140625 -0.166259765625 0.26068115234375
-0.73193359375 -0.195068359375 0.3487548828125
-0.7138671875 -0.09228515625 0.40057373046875
-0.70263671875 -0.074462890625 0.308258056640625
-0.44677734375 0.605712890625 0.35028076171875
-0.3955078125 0.56640625 0.41204833984375
-0.37939453125 0.670654296875 0.34478759765625
-0.4794921875 0.650390625 0.299407958984375
-0.5029296875 0.5224609375 0.3582763671875
-0.4560546875 0.47705078125 0.423187255859375
-0.33544921875 0.636962890625 0.38629150390625
-0.4228515625 0.717529296875 0.29766845703125
-0.53466796875 0.56982421875 0.300384521484375
-0.6796875 0.267822265625 0.26702880859375
-0.7197265625 0.18359375 0.22509765625
-0.64013671875 0.20654296875 0.328216552734375
-0.62060546875 0.350341796875 0.3104248046875
-0.72119140625 0.314453125 0.197998046875
-0.7626953125 0.235107421875 0.1495361328125
-0.6796875 0.129638671875 0.282867431640625
-0.5810546875 0.297119140625 0.376129150390625
-0.66015625 0.412109375 0.2421875
-0.35986328125 0.55126953125 0.5899658203125
-0.375 0.50634765625 0.594696044921875
-0.3916015625 0.56640625 0.602203369140625
-0.33740234375 0.59619140625 0.595611572265625
-0.32666015625 0.537841796875 0.584686279296875
-0.35546875 0.486083984375 0.587615966796875
-0.41357421875 0.53125 0.59478759765625
-0.3818359375 0.603759765625 0.603485107421875
-0.29638671875 0.599609375 0.5845947265625
-0.64990234375 0.119384765625 0.497650146484375
-0.6640625 0.14404296875 0.513824462890625
-0.6083984375 0.158935546875 0.51336669921875
-0.62353515625 0.100341796875 0.4879150390625
-0.67919921875 0.09228515625 0.490020751953125
-0.7001953125 0.119384765625 0.505889892578125
-0.630859375 0.166015625 0.523681640625
-0.57763671875 0.14599609375 0.5250244140625
-0.6591796875 0.057373046875 0.483489990234375
-0.3046875 0.51513671875 0.517364501953125
-0.296875 0.5244140625 0.53778076171875
-0.2587890625 0.586669921875 0.50250244140625
-0.32421875 0.518798828125 0.490875244140625
-0.33740234375 0.445556640625 0.530731201171875
-0.32763671875 0.45166015625 0.55731201171875
-0.2626953125 0.591552734375 0.5333251953125
-0.27734375 0.5849609375 0.48040771484375
-0.3603515625 0.437255859375 0.5125732421875
-0.5859375 0.1044921875 0.459228515625
-0.62841796875 0.039794921875 0.4093017578125
-0.59326171875 0.08642578125 0.473114013671875
-0.533203125 0.167236328125 0.493377685546875
-0.5927734375 0.132568359375 0.436279296875
-0.63330078125 0.059326171875 0.391632080078125
-0.63720703125 0.028564453125 0.44952392578125
-0.5322265625 0.15087890625 0.508392333984375
-0.52880859375 0.202880859375 0.4720458984375
-0.38916015625 0.31005859375 0.561676025390625
-0.38134765625 0.30517578125 0.577362060546875
-0.3935546875 0.3349609375 0.55645751953125
-0.4013671875 0.29833984375 0.55169677734375
-0.38623046875 0.28369140625 0.57647705078125
-0.369140625 0.337890625 0.573974609375
-0.41552734375 0.319091796875 0.5382080078125
-0.43017578125 0.24169921875 0.553375244140625
-0.451171875 0.238037109375 0.53656005859375
-0.42236328125 0.231689453125 0.5662841796875
-0.41845703125 0.2587890625 0.549072265625
-0.44482421875 0.263427734375 0.531982421875
-0.4482421875 0.218017578125 0.5570068359375
-0.40234375 0.248779296875 0.56402587890625
0.1826171875 0.77978515625 0.3287353515625
0.18896484375 0.773193359375 0.377166748046875
0.22998046875 0.746826171875 0.272918701171875
0.1787109375 0.789794921875 0.25994873046875
0.13916015625 0.802490234375 0.35699462890625
0.14892578125 0.802978515625 0.407745361328125
0.228515625 0.73974609375 0.3326416015625
0.21923828125 0.76708984375 0.224273681640625
0.13427734375 0.810791015625 0.309173583984375
-0.68310546875 -0.43505859375 0.2432861328125
-0.65478515625 -0.47314453125 0.237945556640625
-0.67822265625 -0.4453125 0.293731689453125
-0.7080078125 -0.396728515625 0.25469970703125
-0.6904296875 -0.42529296875 0.19482421875
-0.6572265625 -0.47119140625 0.1820068359375
-0.6396484375 -0.469970703125 0.29071044921875
-0.7119140625 -0.409423828125 0.312164306640625
-0.7119140625 -0.385986328125 0.208892822265625
0.14794921875 0.851806640625 0.16229248046875
0.19580078125 0.823486328125 0.096527099609375
0.13134765625 0.87158203125 0.127044677734375
0.09912109375 0.864013671875 0.202880859375
0.1552734375 0.8291015625 0.191009521484375
0.201171875 0.8017578125 0.135406494140625
0.1875 0.841552734375 0.081268310546875
0.08349609375 0.893310546875 0.1669921875
0.11328125 0.84375 0.2410888671875
-0.740234375 -0.396484375 0.031494140625
-0.75244140625 -0.38330078125 -0.01910400390625
-0.7099609375 -0.442138671875 0.006683349609375
-0.7197265625 -0.4111328125 0.07061767578125
-0.76416015625 -0.34521484375 0.042266845703125
-0.7705078125 -0.330322265625 -0.0047607421875
-0.716796875 -0.436279296875 -0.033599853515625
-0.6923828125 -0.45556640625 0.059967041015625
-0.73974609375 -0.36669921875 0.08892822265625
0.103515625 0.914306640625 0.00079345703125
0.1494140625 0.873046875 -0.04119873046875
0.1015625 0.912841796875 -0.0491943359375
0.06103515625 0.951416015625 0.03289794921875
0.10888671875 0.907470703125 0.0472412109375
0.15771484375 0.867431640625 -0.00225830078125
0.14404296875 0.872802734375 -0.0902099609375
0.06494140625 0.950439453125 -0.0137939453125
0.0615234375 0.934326171875 0.079193115234375
-0.7744140625 -0.36181640625 -0.1768798828125
-0.77978515625 -0.355712890625 -0.223236083984375
-0.7470703125 -0.416748046875 -0.187286376953125
-0.76318359375 -0.37646484375 -0.125457763671875
-0.81103515625 -0.308837890625 -0.173583984375
-0.810546875 -0.30029296875 -0.225341796875
-0.74560546875 -0.412841796875 -0.222747802734375
-0.7373046875 -0.42431640625 -0.1385498046875
-0.8017578125 -0.31982421875 -0.120025634765625
0.1259765625 0.883056640625 -0.22613525390625
0.12060546875 0.856689453125 -0.28009033203125
0.0771484375 0.919677734375 -0.202056884765625
0.115234375 0.89697265625 -0.1724853515625
0.16015625 0.84521484375 -0.248809814453125
0.166015625 0.81591796875 -0.310546875
0.0869140625 0.900146484375 -0.2403564453125
0.064453125 0.929443359375 -0.14208984375
0.1630859375 0.860595703125 -0.199371337890625
-0.734375 -0.3505859375 -0.37432861328125
-0.767578125 -0.292236328125 -0.380615234375
-0.716796875 -0.3525390625 -0.42816162109375
-0.7109375 -0.3994140625 -0.356201171875
-0.75390625 -0.350830078125 -0.333740234375
-0.78662109375 -0.29541015625 -0.338165283203125
-0.748046875 -0.294189453125 -0.439483642578125
-0.69384765625 -0.39892578125 -0.41796875
-0.72021484375 -0.40576171875 -0.309478759765625
0.31591796875 -0.01220703125 -0.0823974609375
0.3232421875 -0.076171875 -0.07684326171875
0.294921875 -0.01123046875 -0.176177978515625
0.31884765625 0.044677734375 -0.07806396484375
0.322265625 -0.010498046875 0.00634765625
0.3212890625 -0.070556640625 0.0093994140625
0.3046875 -0.0732421875 -0.169586181640625
0.3095703125 0.047119140625 -0.17999267578125
0.328125 0.05712890625 0.014984130859375
-0.06201171875 -0.513427734375 0.04302978515625
-0.07568359375 -0.52197265625 -0.04473876953125
-0.0087890625 -0.501953125 0.039276123046875
-0.0400390625 -0.4912109375 0.131072998046875
-0.11376953125 -0.518798828125 0.06158447265625
-0.125 -0.53271484375 -0.035186767578125
-0.03662109375 -0.52001953125 -0.05035400390625
0.013671875 -0.479736328125 0.140045166015625
-0.09521484375 -0.4951171875 0.137603759765625
0.33837890625 0.245361328125 -0.09014892578125
0.337890625 0.273681640625 -0.02252197265625
0.3291015625 0.182861328125 -0.084808349609375
0.328125 0.225830078125 -0.1571044921875
0.33935546875 0.30078125 -0.101837158203125
0.34033203125 0.33935546875 -0.0269775390625
0.326171875 0.199462890625 0.0064697265625
0.3173828125 0.161376953125 -0.17022705078125
0.33740234375 0.271728515625 -0.180023193359375
-0.2607421875 -0.5625 0.063201904296875
-0.20849609375 -0.549072265625 0.0679931640625
-0.2626953125 -0.54833984375 0.134368896484375
-0.2890625 -0.592041015625 0.064056396484375
-0.25048828125 -0.56982421875 -0.01116943359375
-0.21142578125 -0.553466796875 -0.01654052734375
-0.20654296875 -0.5263671875 0.151092529296875
-0.31396484375 -0.575439453125 0.125091552734375
-0.28076171875 -0.5966796875 0.003448486328125
0.328125 0.33837890625 0.231170654296875
0.314453125 0.349365234375 0.30712890625
0.31201171875 0.2724609375 0.251739501953125
0.32861328125 0.320556640625 0.15350341796875
0.3369140625 0.3994140625 0.211944580078125
0.3271484375 0.409423828125 0.294891357421875
0.30322265625 0.286376953125 0.323516845703125
0.32568359375 0.2470703125 0.16748046875
0.34130859375 0.39453125 0.12744140625
-0.26513671875 -0.494140625 0.34375
-0.21826171875 -0.46533203125 0.377838134765625
-0.26806640625 -0.47216796875 0.4161376953125
-0.328125 -0.5048828125 0.330474853515625
-0.27197265625 -0.507568359375 0.280487060546875
-0.20703125 -0.483642578125 0.29815673828125
-0.20751953125 -0.4365234375 0.44561767578125
-0.328125 -0.4814453125 0.406768798828125
-0.3330078125 -0.530517578125 0.2486572265625
0.29296875 0.11083984375 0.341278076171875
0.28125 0.12353515625 0.3831787109375
0.29296875 0.07177734375 0.394012451171875
0.3037109375 0.085693359375 0.29888916015625
0.29248046875 0.158935546875 0.29833984375
0.2841796875 0.17724609375 0.353607177734375
0.2880859375 0.0859375 0.413848876953125
0.30517578125 0.05322265625 0.3521728515625
0.2998046875 0.130126953125 0.258544921875
-0.0537109375 -0.362060546875 0.45001220703125
-0.0087890625 -0.340576171875 0.486968994140625
-0.0625 -0.343017578125 0.480255126953125
-0.10595703125 -0.38916015625 0.419830322265625
-0.04296875 -0.37841796875 0.419891357421875
0.009765625 -0.355224609375 0.45941162109375
-0.01416015625 -0.325927734375 0.5096435546875
-0.11767578125 -0.370849609375 0.47052001953125
-0.1025390625 -0.404296875 0.376495361328125
0.333984375 -0.009521484375 0.2186279296875
0.3388671875 -0.03271484375 0.24072265625
0.3359375 -0.0087890625 0.165618896484375
0.32958984375 0.02001953125 0.244842529296875
0.33203125 -0.002685546875 0.283447265625
0.3388671875 -0.06103515625 0.1800537109375
0.32666015625 0.04541015625 0.18341064453125
0.01953125 -0.415283203125 0.3349609375
0.0068359375 -0.432373046875 0.2891845703125
0.05029296875 -0.407470703125 0.3409423828125
0.001953125 -0.40869140625 0.353118896484375
-0.03662109375 -0.426513671875 0.288787841796875
0.05810546875 -0.427734375 0.299835205078125
0.0380859375 -0.392578125 0.3863525390625
0.26416015625 0.121826171875 0.446380615234375
0.2607421875 0.137939453125 0.451171875
0.26025390625 0.103759765625 0.459625244140625
0.2646484375 0.12890625 0.435211181640625
0.271484375 0.162841796875 0.436981201171875
0.25732421875 0.11279296875 0.46356201171875
0.271484375 0.099609375 0.451141357421875
-0.04931640625 -0.296875 0.547943115234375
-0.0302734375 -0.284912109375 0.5557861328125
-0.06494140625 -0.299072265625 0.54986572265625
-0.05419921875 -0.31103515625 0.53826904296875
-0.02587890625 -0.29296875 0.54736328125
-0.04296875 -0.282958984375 0.5638427734375
-0.0947265625 -0.327880859375 0.5318603515625
0.19873046875 0.494384765625 -0.511688232421875
0.220703125 0.510009765625 -0.479644775390625
0.21240234375 0.41552734375 -0.49365234375
0.1708984375 0.467529296875 -0.53216552734375
0.171875 0.57080078125 -0.498687744140625
0.20849609375 0.59716796875 -0.454071044921875
0.240234375 0.440185546875 -0.4698486328125
0.1953125 0.384033203125 -0.524688720703125
0.14599609375 0.55810546875 -0.52691650390625
-0.4697265625 -0.47119140625 -0.473968505859375
-0.42431640625 -0.503662109375 -0.4405517578125
-0.49609375 -0.508544921875 -0.43121337890625
-0.5146484375 -0.432861328125 -0.5054931640625
-0.45263671875 -0.425537109375 -0.5081787109375
-0.412109375 -0.47265625 -0.47320556640625
-0.43505859375 -0.541748046875 -0.39862060546875
-0.5361328125 -0.472900390625 -0.46893310546875
-0.509765625 -0.387451171875 -0.539520263671875
0.0771484375 0.413330078125 -0.61138916015625
0.04736328125 0.5185546875 -0.595123291015625
0.1181640625 0.431884765625 -0.58819580078125
0.10546875 0.328369140625 -0.613433837890625
0.0419921875 0.39208984375 -0.640655517578125
0.02197265625 0.50048828125 -0.6239013671875
0.0849609375 0.531982421875 -0.57952880859375
0.14306640625 0.341796875 -0.576446533203125
0.07763671875 0.298583984375 -0.63836669921875
-0.42431640625 -0.30126953125 -0.62176513671875
-0.43505859375 -0.3447265625 -0.580841064453125
-0.48193359375 -0.240966796875 -0.635345458984375
-0.40625 -0.253173828125 -0.6622314453125
-0.37744140625 -0.351318359375 -0.5875244140625
-0.38916015625 -0.39501953125 -0.563812255859375
-0.49658203125 -0.289306640625 -0.611724853515625
-0.4765625 -0.19140625 -0.67620849609375
-0.3544921875 -0.30615234375 -0.625732421875
0.27978515625 0.248046875 -0.3795166015625
0.30517578125 0.22509765625 -0.31390380859375
0.27392578125 0.213134765625 -0.3990478515625
0.26806640625 0.29052734375 -0.42919921875
0.298828125 0.286865234375 -0.366119384765625
0.32177734375 0.269287109375 -0.299163818359375
0.2998046875 0.177734375 -0.330902099609375
0.25 0.253173828125 -0.45452880859375
0.29541015625 0.32275390625 -0.41046142578125
-0.29052734375 -0.575439453125 -0.25067138671875
-0.26318359375 -0.55029296875 -0.267303466796875
-0.2646484375 -0.576171875 -0.172332763671875
-0.314453125 -0.60400390625 -0.213592529296875
-0.33837890625 -0.556396484375 -0.322235107421875
-0.31201171875 -0.531494140625 -0.35516357421875
-0.236328125 -0.555419921875 -0.17767333984375
-0.2890625 -0.60400390625 -0.138397216796875
-0.35205078125 -0.58349609375 -0.28155517578125
0.2490234375 0.051025390625 -0.430206298828125
0.2431640625 -0.015625 -0.4296875
0.2314453125 0.077392578125 -0.485809326171875
0.26318359375 0.113525390625 -0.42266845703125
0.27490234375 0.025146484375 -0.361572265625
0.265625 -0.04296875 -0.35491943359375
0.2216796875 0.019287109375 -0.4901123046875
0.240234375 0.140869140625 -0.485748291015625
0.28515625 0.077880859375 -0.3603515625
-0.17236328125 -0.53564453125 -0.301513671875
-0.20166015625 -0.513671875 -0.3692626953125
-0.13330078125 -0.53173828125 -0.30230712890625
-0.1396484375 -0.53515625 -0.216552734375
-0.21142578125 -0.538818359375 -0.29058837890625
-0.24365234375 -0.5185546875 -0.371063232421875
-0.16064453125 -0.5107421875 -0.374267578125
-0.09814453125 -0.531982421875 -0.229217529296875
-0.177734375 -0.539794921875 -0.20477294921875
0.1640625 0.1328125 -0.5941162109375
0.15673828125 0.1728515625 -0.58843994140625
0.18798828125 0.12451171875 -0.57366943359375
0.14501953125 0.09521484375 -0.608184814453125
0.13134765625 0.1435546875 -0.62530517578125
0.1826171875 0.1875 -0.56781005859375
0.17041015625 0.070068359375 -0.578643798828125
-0.2626953125 -0.442626953125 -0.518157958984375
-0.255859375 -0.471923828125 -0.495330810546875
-0.2890625 -0.428955078125 -0.532196044921875
-0.24072265625 -0.434326171875 -0.53192138671875
-0.216796875 -0.467041015625 -0.4971923828125
-0.2900390625 -0.463623046875 -0.49859619140625
-0.26953125 -0.405029296875 -0.563079833984375
0.22900390625 0.9912109375 -0.207122802734375
0.2236328125 0.99609375 -0.21527099609375
0.22998046875 0.95166015625 -0.19610595703125
0.236328125 0.984619140625 -0.209991455078125
0.244140625 1.027099609375 -0.2113037109375
0.236328125 1.0419921875 -0.21429443359375
0.220703125 0.955810546875 -0.202606201171875
0.24072265625 0.947021484375 -0.1961669921875
0.25732421875 1.017578125 -0.2137451171875
-0.81103515625 -0.505859375 -0.368011474609375
-0.78369140625 -0.494384765625 -0.34588623046875
-0.8173828125 -0.489501953125 -0.388031005859375
-0.8330078125 -0.508056640625 -0.396209716796875
-0.80615234375 -0.52001953125 -0.362640380859375
-0.78173828125 -0.5068359375 -0.336181640625
-0.79052734375 -0.48046875 -0.36456298828125
-0.83544921875 -0.498291015625 -0.415374755859375
-0.82861328125 -0.51953125 -0.391876220703125
0.3056640625 1.152099609375 -0.263519287109375
0.27734375 1.114990234375 -0.24688720703125
0.3115234375 1.135498046875 -0.269805908203125
0.32763671875 1.182861328125 -0.274505615234375
0.3046875 1.161865234375 -0.269195556640625
0.27099609375 1.130615234375 -0.256683349609375
0.28271484375 1.1025390625 -0.24688720703125
0.333984375 1.1640625 -0.279083251953125
0.32763671875 1.197265625 -0.283782958984375
-0.916015625 -0.5830078125 -0.51141357421875
-0.9091796875 -0.591796875 -0.497802734375
-0.89111328125 -0.55908203125 -0.4698486328125
-0.9189453125 -0.57958984375 -0.51251220703125
-0.9404296875 -0.616455078125 -0.517913818359375
-0.92919921875 -0.62841796875 -0.50311279296875
-0.8828125 -0.568115234375 -0.4498291015625
-0.90087890625 -0.5478515625 -0.49072265625
-0.95263671875 -0.6083984375 -0.523956298828125
0.4267578125 1.20068359375 -0.31561279296875
0.3857421875 1.21044921875 -0.30291748046875
0.4189453125 1.180419921875 -0.3155517578125
0.45556640625 1.177001953125 -0.336517333984375
0.42529296875 1.2177734375 -0.321319580078125
0.38232421875 1.22705078125 -0.29949951171875
0.38525390625 1.188720703125 -0.297088623046875
0.44775390625 1.157470703125 -0.334564208984375
0.46044921875 1.192626953125 -0.34820556640625
-0.95458984375 -0.75 -0.50567626953125
-0.9365234375 -0.751708984375 -0.49810791015625
-0.9482421875 -0.696044921875 -0.521636962890625
-0.97119140625 -0.747314453125 -0.5435791015625
-0.94384765625 -0.798095703125 -0.484375
-0.93212890625 -0.793701171875 -0.477508544921875
-0.94482421875 -0.70361328125 -0.508331298828125
-0.9599609375 -0.69775390625 -0.549468994140625
-0.9482421875 -0.802978515625 -0.512451171875
0.5478515625 1.031982421875 -0.41302490234375
0.51611328125 1.087646484375 -0.385955810546875
0.53955078125 1.01611328125 -0.41314697265625
0.57373046875 0.9677734375 -0.430206298828125
0.55322265625 1.04296875 -0.419708251953125
0.5283203125 1.1044921875 -0.3944091796875
0.51025390625 1.07421875 -0.383087158203125
0.5615234375 0.960693359375 -0.4283447265625
0.57373046875 0.975830078125 -0.44732666015625
-0.8681640625 -0.928955078125 -0.407745361328125
-0.85107421875 -0.92041015625 -0.406646728515625
-0.89501953125 -0.88818359375 -0.43212890625
-0.87548828125 -0.941650390625 -0.40167236328125
-0.81494140625 -0.9599609375 -0.368804931640625
-0.80517578125 -0.951171875 -0.373626708984375
-0.88671875 -0.885009765625 -0.42962646484375
-0.9033203125 -0.90234375 -0.431671142578125
-0.82421875 -0.97509765625 -0.365478515625
0.5693359375 0.767333984375 -0.4365234375
0.5771484375 0.827880859375 -0.439849853515625
0.55419921875 0.766357421875 -0.424285888671875
0.55810546875 0.701171875 -0.416900634765625
0.57666015625 0.762451171875 -0.449554443359375
0.5859375 0.82861328125 -0.4654541015625
0.56640625 0.83154296875 -0.437042236328125
0.54931640625 0.708984375 -0.417510986328125
0.55712890625 0.696533203125 -0.434814453125
-0.67138671875 -0.978759765625 -0.244659423828125
-0.6748046875 -0.964599609375 -0.245269775390625
-0.7236328125 -0.983642578125 -0.2783203125
-0.67236328125 -0.995849609375 -0.250579833984375
-0.61376953125 -0.96337890625 -0.19927978515625
-0.62109375 -0.951416015625 -0.20965576171875
-0.71435546875 -0.97216796875 -0.28936767578125
-0.73486328125 -1 -0.285491943359375
-0.6162109375 -0.97021484375 -0.204681396484375
0.509765625 0.545654296875 -0.3223876953125
0.52880859375 0.58642578125 -0.351959228515625
0.50439453125 0.56298828125 -0.319061279296875
0.47607421875 0.489990234375 -0.286102294921875
0.51123046875 0.52685546875 -0.335205078125
0.53564453125 0.5751953125 -0.36358642578125
0.52587890625 0.604248046875 -0.350250244140625
0.478515625 0.505859375 -0.286285400390625
0.482421875 0.471435546875 -0.298370361328125
-0.49853515625 -0.860595703125 -0.076995849609375
-0.5068359375 -0.853271484375 -0.08245849609375
-0.52880859375 -0.897705078125 -0.12298583984375
-0.486328125 -0.866455078125 -0.086639404296875
-0.4453125 -0.81591796875 -0.043304443359375
-0.46044921875 -0.8125 -0.05523681640625
-0.5419921875 -0.890869140625 -0.128143310546875
-0.52197265625 -0.908203125 -0.12493896484375
-0.4326171875 -0.81884765625 -0.0518798828125
0.48779296875 0.60791015625 -0.339141845703125
0.509765625 0.63232421875 -0.368682861328125
0.4892578125 0.618896484375 -0.357666015625
0.474609375 0.573974609375 -0.30474853515625
0.4931640625 0.591796875 -0.330780029296875
0.513671875 0.62255859375 -0.35784912109375
0.5048828125 0.63916015625 -0.381805419921875
0.4677734375 0.58544921875 -0.3187255859375
0.48095703125 0.552734375 -0.29571533203125
-0.533203125 -0.84228515625 -0.12933349609375
-0.5439453125 -0.839599609375 -0.152740478515625
-0.56982421875 -0.87646484375 -0.173980712890625
-0.52685546875 -0.84375 -0.11383056640625
-0.50634765625 -0.8134765625 -0.10382080078125
-0.5205078125 -0.818359375 -0.124969482421875
-0.578125 -0.872314453125 -0.19219970703125
-0.5595703125 -0.87939453125 -0.14300537109375
-0.49609375 -0.8095703125 -0.08514404296875
0.5341796875 0.778076171875 -0.43701171875
0.541015625 0.828369140625 -0.43377685546875
0.53173828125 0.781005859375 -0.44183349609375
0.529296875 0.72998046875 -0.427947998046875
0.5439453125 0.774169921875 -0.428558349609375
0.548828125 0.830078125 -0.427886962890625
0.53955078125 0.830322265625 -0.448974609375
0.5244140625 0.732421875 -0.43798828125
0.537109375 0.72509765625 -0.418670654296875
-0.6787109375 -0.93896484375 -0.27764892578125
-0.68505859375 -0.934814453125 -0.296173095703125
-0.7109375 -0.9443359375 -0.3148193359375
-0.6796875 -0.945556640625 -0.26263427734375
-0.634765625 -0.920166015625 -0.241973876953125
-0.646484375 -0.917236328125 -0.25439453125
-0.71435546875 -0.938720703125 -0.326171875
-0.708984375 -0.951416015625 -0.302642822265625
-0.63134765625 -0.92724609375 -0.229827880859375
0.5234375 0.98779296875 -0.4259033203125
0.509765625 1.03271484375 -0.41375732421875
0.5263671875 0.9814453125 -0.43377685546875
0.54296875 0.935791015625 -0.434051513671875
0.529296875 0.9970703125 -0.41748046875
0.50732421875 1.041748046875 -0.400054931640625
0.51123046875 1.0234375 -0.430389404296875
0.53857421875 0.929931640625 -0.441680908203125
0.54736328125 0.943115234375 -0.42950439453125
-0.8173828125 -0.903564453125 -0.411468505859375
-0.81640625 -0.90087890625 -0.4139404296875
-0.857421875 -0.87060546875 -0.43408203125
-0.83056640625 -0.905517578125 -0.404815673828125
-0.787109375 -0.927001953125 -0.3817138671875
-0.78662109375 -0.927978515625 -0.38934326171875
-0.85205078125 -0.875 -0.440643310546875
-0.87109375 -0.87548828125 -0.43194580078125
-0.79443359375 -0.9345703125 -0.3743896484375
0.43115234375 1.1181640625 -0.35614013671875
0.39794921875 1.127685546875 -0.340423583984375
0.43310546875 1.1025390625 -0.371185302734375
0.4560546875 1.094970703125 -0.364013671875
0.42138671875 1.13818359375 -0.338531494140625
0.390625 1.14794921875 -0.315277099609375
0.40478515625 1.108642578125 -0.3516845703125
0.45751953125 1.08447265625 -0.370849609375
0.45458984375 1.108642578125 -0.3480224609375
-0.9072265625 -0.763427734375 -0.489837646484375
-0.8994140625 -0.771240234375 -0.49151611328125
-0.9208984375 -0.7275390625 -0.506866455078125
-0.91796875 -0.758544921875 -0.4884033203125
-0.89453125 -0.80126953125 -0.474700927734375
-0.8837890625 -0.805908203125 -0.479339599609375
-0.90966796875 -0.73779296875 -0.511444091796875
-0.927734375 -0.717041015625 -0.499176025390625
-0.90625 -0.796142578125 -0.468719482421875
0.3369140625 1.08349609375 -0.302734375
0.30615234375 1.0537109375 -0.286041259765625
0.34326171875 1.06982421875 -0.326690673828125
0.3583984375 1.108154296875 -0.324310302734375
0.32666015625 1.10009765625 -0.28729248046875
0.30029296875 1.071533203125 -0.27154541015625
0.32275390625 1.0390625 -0.30889892578125
0.36376953125 1.092041015625 -0.33380126953125
0.3505859375 1.123046875 -0.303497314453125
-0.8642578125 -0.630615234375 -0.48907470703125
