# XYZ point cloud file
0.12615966796875 0.048095703125 0.740447998046875
0.111083984375 0.03076171875 0.742279052734375
0.1160888671875 0.01513671875 0.750152587890625
0.12384033203125 0.0235595703125 0.756622314453125
0.12811279296875 0.0321044921875 0.763153076171875
0.13409423828125 0.050048828125 0.76690673828125
0.14276123046875 0.06005859375 0.765380859375
0.15673828125 0.0693359375 0.760589599609375
0.06292724609375 -0.050048828125 0.782440185546875
0.06695556640625 -0.0374755859375 0.77789306640625
0.0762939453125 -0.024169921875 0.771575927734375
0.088623046875 -0.015380859375 0.76373291015625
0.0924072265625 -0.0125732421875 0.756744384765625
0.096435546875 -0.0076904296875 0.748382568359375
0.076416015625 -0.007568359375 0.745086669921875
0.0667724609375 -0.0255126953125 0.75140380859375
0.06109619140625 -0.047119140625 0.755157470703125
0.1148681640625 -0.002685546875 0.749298095703125
0.12066650390625 -0.0069580078125 0.756195068359375
0.123779296875 -0.009033203125 0.760833740234375
0.12615966796875 -0.0086669921875 0.764739990234375
0.12957763671875 -0.006591796875 0.768951416015625
0.13128662109375 -0.005615234375 0.776702880859375
0.13470458984375 0.0035400390625 0.786346435546875
0.13232421875 0.0133056640625 0.78033447265625
0.1304931640625 0.0269775390625 0.77777099609375
0.1021728515625 -0.0133056640625 0.7791748046875
0.11553955078125 -0.01025390625 0.78179931640625
0.125 -0.0059814453125 0.784942626953125
0.22808837890625 -0.0740966796875 0.76971435546875
0.2291259765625 -0.078369140625 0.76226806640625
0.23291015625 -0.0845947265625 0.7587890625
0.246337890625 -0.0152587890625 0.76348876953125
0.2423095703125 -0.03466796875 0.7706298828125
0.234375 -0.0511474609375 0.777435302734375
0.21270751953125 -0.0828857421875 0.78253173828125
0.193115234375 -0.0965576171875 0.788848876953125
0.17742919921875 -0.10546875 0.792388916015625
0.2158203125 -0.0552978515625 0.794036865234375
0.2215576171875 -0.0604248046875 0.791168212890625
0.22430419921875 -0.06591796875 0.784454345703125
0.24456787109375 0.0054931640625 0.7686767578125
0.24017333984375 0.00634765625 0.775360107421875
0.23431396484375 0.007080078125 0.782501220703125
0.232177734375 -0.0020751953125 0.790679931640625
0.22784423828125 -0.014892578125 0.792327880859375
0.22021484375 -0.0325927734375 0.799591064453125
0.1937255859375 -0.0618896484375 0.8072509765625
0.1788330078125 -0.0721435546875 0.809326171875
0.1636962890625 -0.08349609375 0.8131103515625
0.15533447265625 -0.096923828125 0.81353759765625
0.1552734375 -0.101806640625 0.808502197265625
0.1553955078125 -0.1075439453125 0.804534912109375
0.13458251953125 -0.00244140625 0.795562744140625
0.13946533203125 -0.0009765625 0.803253173828125
0.145263671875 -0.0032958984375 0.80865478515625
0.160888671875 0.0103759765625 0.810577392578125
0.15570068359375 0.021484375 0.80487060546875
0.15484619140625 0.0333251953125 0.800323486328125
0.14556884765625 0.0411376953125 0.792388916015625
0.14019775390625 0.0406494140625 0.785736083984375
0.1348876953125 0.04052734375 0.78021240234375
0.088623046875 -0.019775390625 0.781097412109375
0.0914306640625 -0.021240234375 0.79022216796875
0.09619140625 -0.025634765625 0.796142578125
0.10931396484375 -0.0262451171875 0.808624267578125
0.12286376953125 -0.0238037109375 0.814697265625
0.13720703125 -0.0196533203125 0.814605712890625
0.1544189453125 0.0450439453125 0.79559326171875
0.16375732421875 0.0537109375 0.7911376953125
0.17242431640625 0.059814453125 0.78912353515625
0.17578125 0.068603515625 0.78387451171875
0.1759033203125 0.0718994140625 0.776580810546875
0.173095703125 0.0718994140625 0.7685546875
0.06597900390625 -0.064453125 0.795135498046875
0.06903076171875 -0.063232421875 0.80035400390625
0.07562255859375 -0.061279296875 0.80389404296875
0.08319091796875 -0.05029296875 0.81109619140625
0.08819580078125 -0.0419921875 0.8076171875
0.0946044921875 -0.0343017578125 0.803375244140625
0.1873779296875 0.0638427734375 0.791351318359375
0.197509765625 0.0589599609375 0.792999267578125
0.205322265625 0.0521240234375 0.792816162109375
0.2255859375 0.0523681640625 0.78729248046875
0.22784423828125 0.055908203125 0.777801513671875
0.2294921875 0.0582275390625 0.770965576171875
0.10430908203125 -0.107177734375 0.809539794921875
0.10638427734375 -0.099365234375 0.815704345703125
0.111328125 -0.0914306640625 0.822052001953125
0.10699462890625 -0.074951171875 0.825592041015625
0.09619140625 -0.0689697265625 0.818756103515625
0.08734130859375 -0.0628662109375 0.81756591796875
0.2235107421875 0.0355224609375 0.79150390625
0.22747802734375 0.0247802734375 0.79071044921875
0.2296142578125 0.0135498046875 0.789581298828125
0.14752197265625 -0.091796875 0.816802978515625
0.13702392578125 -0.091796875 0.822113037109375
0.126220703125 -0.086669921875 0.827362060546875
0.178466796875 0.00537109375 0.810546875
0.19281005859375 0.0218505859375 0.805755615234375
0.20745849609375 0.034423828125 0.79864501953125
0.12677001953125 -0.0675048828125 0.82745361328125
0.13690185546875 -0.0523681640625 0.827911376953125
0.14801025390625 -0.034912109375 0.82086181640625
0.17132568359375 -0.0230712890625 0.81329345703125
0.18780517578125 -0.0306396484375 0.81317138671875
0.19891357421875 -0.040771484375 0.808685302734375
0.0218505859375 0.0653076171875 0.7344970703125
0.0517578125 0.041748046875 0.735595703125
0.07513427734375 0.023193359375 0.739166259765625
0.158935546875 0.072509765625 0.738250732421875
0.15679931640625 0.084228515625 0.74176025390625
0.15435791015625 0.1029052734375 0.742095947265625
0.02154541015625 -0.064453125 0.769622802734375
0.0364990234375 -0.06201171875 0.763214111328125
0.0523681640625 -0.0638427734375 0.75994873046875
0.23577880859375 0.050537109375 0.718841552734375
0.24298095703125 0.0543212890625 0.707275390625
0.24871826171875 0.057373046875 0.69287109375
0.23504638671875 0.06689453125 0.686798095703125
0.2130126953125 0.083984375 0.70068359375
0.18865966796875 0.1036376953125 0.721282958984375
0.022216796875 -0.1087646484375 0.756103515625
0.046875 -0.1312255859375 0.74676513671875
0.0628662109375 -0.154541015625 0.740997314453125
0.08251953125 -0.159912109375 0.75079345703125
0.087890625 -0.1458740234375 0.758758544921875
0.0914306640625 -0.1357421875 0.765106201171875
0.28057861328125 -0.0069580078125 0.7095947265625
0.29754638671875 0.0052490234375 0.6895751953125
0.31072998046875 0.0137939453125 0.66754150390625
0.30120849609375 0.028564453125 0.648345947265625
0.28228759765625 0.0364990234375 0.65533447265625
0.2667236328125 0.0443115234375 0.66278076171875
0.08740234375 -0.1920166015625 0.73614501953125
0.10089111328125 -0.205078125 0.73822021484375
0.1146240234375 -0.21728515625 0.740203857421875
0.142578125 -0.2064208984375 0.7513427734375
0.153564453125 -0.1861572265625 0.760101318359375
0.16558837890625 -0.1661376953125 0.76220703125
0.40106201171875 -0.0250244140625 0.6431884765625
0.36590576171875 -0.00390625 0.642730712890625
0.34100341796875 0.0091552734375 0.64910888671875
0.1461181640625 -0.2451171875 0.74755859375
0.16510009765625 -0.26611328125 0.75018310546875
0.1881103515625 -0.29443359375 0.754486083984375
0.40142822265625 -0.0081787109375 0.505584716796875
0.376953125 0.00732421875 0.5093994140625
0.351318359375 0.0189208984375 0.508331298828125
0.331298828125 0.0291748046875 0.5411376953125
0.33062744140625 0.029052734375 0.581512451171875
0.32598876953125 0.0245361328125 0.61724853515625
0.11761474609375 -0.2529296875 0.72076416015625
0.10150146484375 -0.2769775390625 0.693817138671875
0.0899658203125 -0.295166015625 0.667694091796875
0.0888671875 -0.3277587890625 0.63885498046875
0.1044921875 -0.3492431640625 0.646728515625
0.11993408203125 -0.373779296875 0.652374267578125
0.3104248046875 0.035888671875 0.51397705078125
0.29852294921875 0.041015625 0.52093505859375
0.2877197265625 0.0479736328125 0.52276611328125
0.2706298828125 0.0592041015625 0.56463623046875
0.26483154296875 0.0576171875 0.605316162109375
0.2598876953125 0.05615234375 0.64385986328125
0.0693359375 -0.19677734375 0.7125244140625
0.060302734375 -0.2177734375 0.68408203125
0.045654296875 -0.2315673828125 0.65399169921875
0.04742431640625 -0.259765625 0.62542724609375
0.05633544921875 -0.274169921875 0.6279296875
0.06353759765625 -0.28955078125 0.62994384765625
0.2591552734375 0.06298828125 0.539520263671875
0.2451171875 0.0738525390625 0.545257568359375
0.23773193359375 0.0875244140625 0.545806884765625
0.00347900390625 -0.2137451171875 0.621917724609375
0.0189208984375 -0.22021484375 0.625518798828125
0.028564453125 -0.231689453125 0.624237060546875
0.5654296875 -0.28955078125 0.692657470703125
0.56640625 -0.28173828125 0.695526123046875
0.56695556640625 -0.27490234375 0.693939208984375
0.52117919921875 -0.3343505859375 0.739715576171875
0.5250244140625 -0.3389892578125 0.736175537109375
0.526123046875 -0.34326171875 0.730865478515625
0.537841796875 -0.332763671875 0.7139892578125
0.5452880859375 -0.3184814453125 0.707855224609375
0.55731201171875 -0.304443359375 0.6990966796875
0.4857177734375 -0.3792724609375 0.7598876953125
0.4979248046875 -0.369140625 0.749267578125
0.51275634765625 -0.3585205078125 0.73577880859375
0.4652099609375 -0.389892578125 0.7786865234375
0.47332763671875 -0.3870849609375 0.775848388671875
0.4765625 -0.38720703125 0.775146484375
0.603759765625 -0.3233642578125 0.6702880859375
0.60943603515625 -0.322509765625 0.6728515625
0.6187744140625 -0.321044921875 0.66845703125
0.571044921875 -0.2928466796875 0.684814453125
0.580078125 -0.29931640625 0.6783447265625
0.5911865234375 -0.3111572265625 0.673858642578125
0.500732421875 -0.4290771484375 0.76239013671875
0.48724365234375 -0.4169921875 0.7664794921875
0.4781494140625 -0.4041748046875 0.77093505859375
0.51190185546875 -0.4530029296875 0.773529052734375
0.5126953125 -0.4432373046875 0.766998291015625
0.51324462890625 -0.4398193359375 0.762725830078125
0.60943603515625 -0.3883056640625 0.673828125
0.6177978515625 -0.38671875 0.670806884765625
0.6231689453125 -0.3861083984375 0.67041015625
0.6031494140625 -0.345458984375 0.665130615234375
0.6099853515625 -0.3597412109375 0.667755126953125
0.6077880859375 -0.3736572265625 0.6651611328125
0.54754638671875 -0.446533203125 0.7325439453125
0.5401611328125 -0.4466552734375 0.739532470703125
0.52703857421875 -0.44580078125 0.746307373046875
0.56280517578125 -0.4583740234375 0.728057861328125
0.564208984375 -0.4512939453125 0.726531982421875
0.55908203125 -0.446044921875 0.72515869140625
0.591796875 -0.4251708984375 0.692779541015625
0.597412109375 -0.4267578125 0.692901611328125
0.60321044921875 -0.4306640625 0.6917724609375
0.6026611328125 -0.399658203125 0.671112060546875
0.59832763671875 -0.40869140625 0.675262451171875
0.59259033203125 -0.418701171875 0.68115234375
0.57830810546875 -0.43115234375 0.6907958984375
0.5736083984375 -0.437255859375 0.698516845703125
0.56793212890625 -0.441162109375 0.70709228515625
0.57000732421875 -0.4273681640625 0.668975830078125
0.57684326171875 -0.4261474609375 0.67108154296875
0.57958984375 -0.4287109375 0.677642822265625
0.59918212890625 -0.3914794921875 0.66015625
0.5916748046875 -0.392333984375 0.649688720703125
0.5855712890625 -0.3907470703125 0.643310546875
0.5762939453125 -0.3978271484375 0.6453857421875
0.57373046875 -0.407470703125 0.651153564453125
0.5689697265625 -0.4163818359375 0.655731201171875
0.5545654296875 -0.43212890625 0.6729736328125
0.5482177734375 -0.4364013671875 0.67864990234375
0.5394287109375 -0.4442138671875 0.684295654296875
0.54168701171875 -0.449462890625 0.691314697265625
0.55047607421875 -0.4461669921875 0.700836181640625
0.55419921875 -0.4466552734375 0.710205078125
0.59326171875 -0.3310546875 0.6611328125
0.58734130859375 -0.336669921875 0.6524658203125
0.58251953125 -0.341064453125 0.64453125
0.58062744140625 -0.3553466796875 0.639739990234375
0.5823974609375 -0.365966796875 0.637847900390625
0.581787109375 -0.3768310546875 0.6380615234375
0.52618408203125 -0.4501953125 0.697784423828125
0.51544189453125 -0.4503173828125 0.70452880859375
0.50872802734375 -0.4462890625 0.714569091796875
0.50408935546875 -0.4422607421875 0.727630615234375
0.5074462890625 -0.442138671875 0.737762451171875
0.51129150390625 -0.4393310546875 0.7476806640625
0.56219482421875 -0.30078125 0.680023193359375
0.55975341796875 -0.309326171875 0.67584228515625
0.5596923828125 -0.319091796875 0.66650390625
0.56622314453125 -0.326171875 0.652130126953125
0.57232666015625 -0.3299560546875 0.645782470703125
0.57757568359375 -0.3365478515625 0.64202880859375
0.49505615234375 -0.441162109375 0.718658447265625
0.486572265625 -0.435791015625 0.71783447265625
0.48248291015625 -0.423828125 0.717010498046875
0.4791259765625 -0.4080810546875 0.727294921875
0.475830078125 -0.4014892578125 0.7403564453125
0.47796630859375 -0.39404296875 0.755828857421875
0.52587890625 -0.3541259765625 0.711029052734375
0.5238037109375 -0.3607177734375 0.70330810546875
0.52685546875 -0.3690185546875 0.69097900390625
0.53857421875 -0.366455078125 0.67437744140625
0.5472412109375 -0.35302734375 0.667205810546875
0.55328369140625 -0.3402099609375 0.660369873046875
0.49053955078125 -0.407470703125 0.708038330078125
0.50384521484375 -0.3985595703125 0.70166015625
0.52001953125 -0.390869140625 0.690643310546875
0.53607177734375 -0.391845703125 0.67254638671875
0.5423583984375 -0.4058837890625 0.665374755859375
0.55401611328125 -0.4144287109375 0.66510009765625
0.5723876953125 -0.375732421875 0.644287109375
0.567138671875 -0.3602294921875 0.64483642578125
0.5623779296875 -0.3436279296875 0.648590087890625
0.49566650390625 -0.4251708984375 0.7047119140625
0.5064697265625 -0.43359375 0.69903564453125
0.52166748046875 -0.44140625 0.6907958984375
-0.06256103515625 0.3167724609375 0.7369384765625
-0.06719970703125 0.3067626953125 0.731903076171875
-0.07330322265625 0.2947998046875 0.7264404296875
-0.007568359375 0.2750244140625 0.72943115234375
-0.0081787109375 0.2891845703125 0.732818603515625
-0.00616455078125 0.299072265625 0.73773193359375
-0.017822265625 0.3094482421875 0.734344482421875
-0.0303955078125 0.31201171875 0.735382080078125
-0.04534912109375 0.3145751953125 0.735687255859375
-0.23614501953125 0.0565185546875 0.730224609375
-0.22308349609375 0.04638671875 0.733367919921875
-0.21551513671875 0.0333251953125 0.737274169921875
-0.20355224609375 0.0274658203125 0.7381591796875
-0.1961669921875 0.0277099609375 0.734527587890625
-0.18341064453125 0.02978515625 0.730194091796875
-0.22503662109375 0.0849609375 0.728271484375
-0.23699951171875 0.0784912109375 0.73028564453125
-0.2442626953125 0.07080078125 0.7318115234375
-0.11419677734375 0.36083984375 0.734344482421875
-0.1234130859375 0.35302734375 0.7301025390625
-0.13494873046875 0.3416748046875 0.729888916015625
-0.0693359375 0.3316650390625 0.735107421875
-0.0830078125 0.3431396484375 0.73699951171875
-0.09478759765625 0.3541259765625 0.735107421875
-0.2877197265625 0.0970458984375 0.725341796875
-0.2716064453125 0.087646484375 0.7286376953125
-0.2576904296875 0.080078125 0.729461669921875
-0.290771484375 0.134033203125 0.72027587890625
-0.29547119140625 0.1224365234375 0.7222900390625
-0.301513671875 0.1103515625 0.72174072265625
-0.1578369140625 0.4267578125 0.729644775390625
-0.16925048828125 0.4259033203125 0.731292724609375
-0.1802978515625 0.420654296875 0.733978271484375
-0.12237548828125 0.381103515625 0.736419677734375
-0.1297607421875 0.397216796875 0.73199462890625
-0.1416015625 0.413330078125 0.735748291015625
-0.3538818359375 0.1136474609375 0.7088623046875
-0.33642578125 0.111083984375 0.713592529296875
-0.3193359375 0.107421875 0.716156005859375
-0.36920166015625 0.1470947265625 0.70281982421875
-0.3702392578125 0.1341552734375 0.70330810546875
-0.37103271484375 0.1231689453125 0.705657958984375
0.0609130859375 0.2882080078125 0.714202880859375
0.0592041015625 0.2984619140625 0.7225341796875
0.05517578125 0.305419921875 0.7265625
0.03802490234375 0.3033447265625 0.735107421875
0.02142333984375 0.3016357421875 0.736572265625
0.01214599609375 0.3023681640625 0.738525390625
-0.20452880859375 0.01171875 0.7406005859375
-0.201171875 -0.002685546875 0.74395751953125
-0.20159912109375 -0.020751953125 0.7442626953125
-0.19671630859375 -0.0408935546875 0.741302490234375
-0.18701171875 -0.0408935546875 0.734893798828125
-0.175537109375 -0.041748046875 0.732086181640625
0.16998291015625 0.365478515625 0.66754150390625
0.16131591796875 0.3709716796875 0.67791748046875
0.1551513671875 0.3768310546875 0.682769775390625
0.13055419921875 0.3642578125 0.6995849609375
0.1048583984375 0.3446044921875 0.712432861328125
0.08135986328125 0.3253173828125 0.72412109375
-0.2069091796875 -0.0672607421875 0.74517822265625
-0.2203369140625 -0.098388671875 0.743255615234375
-0.2333984375 -0.123779296875 0.74072265625
-0.24114990234375 -0.1553955078125 0.73883056640625
-0.237548828125 -0.1611328125 0.732666015625
-0.23077392578125 -0.1683349609375 0.725677490234375
0.20654296875 0.4664306640625 0.63311767578125
0.19805908203125 0.46533203125 0.639556884765625
0.18701171875 0.46826171875 0.651123046875
0.17962646484375 0.446533203125 0.66357421875
0.17242431640625 0.4241943359375 0.67010498046875
0.16558837890625 0.4041748046875 0.6815185546875
-0.26348876953125 -0.17333984375 0.737518310546875
-0.28656005859375 -0.1878662109375 0.733001708984375
-0.3055419921875 -0.203369140625 0.724273681640625
-0.32476806640625 -0.226318359375 0.71240234375
-0.32269287109375 -0.235107421875 0.7076416015625
-0.3218994140625 -0.246337890625 0.699005126953125
0.2003173828125 0.6033935546875 0.6148681640625
0.192138671875 0.595947265625 0.621551513671875
0.18206787109375 0.58837890625 0.62890625
0.17718505859375 0.559814453125 0.639617919921875
0.17803955078125 0.5291748046875 0.64801025390625
0.17987060546875 0.4989013671875 0.652435302734375
-0.359130859375 -0.230224609375 0.6966552734375
-0.38592529296875 -0.238037109375 0.684326171875
-0.41192626953125 -0.242431640625 0.674591064453125
-0.43682861328125 -0.2528076171875 0.660736083984375
-0.44195556640625 -0.2615966796875 0.6563720703125
-0.44891357421875 -0.2720947265625 0.645721435546875
0.13848876953125 0.6793212890625 0.628082275390625
0.1337890625 0.6668701171875 0.636566162109375
0.12689208984375 0.6566162109375 0.6412353515625
0.138427734375 0.63671875 0.639068603515625
0.150390625 0.6241455078125 0.637725830078125
0.1619873046875 0.607421875 0.633087158203125
-0.45330810546875 -0.239013671875 0.6527099609375
-0.4774169921875 -0.23291015625 0.643035888671875
-0.49822998046875 -0.222412109375 0.636474609375
-0.52044677734375 -0.2183837890625 0.6278076171875
-0.5302734375 -0.22412109375 0.62127685546875
-0.5423583984375 -0.234375 0.611480712890625
0.0556640625 0.69287109375 0.656890869140625
0.05633544921875 0.681396484375 0.65863037109375
0.05499267578125 0.66943359375 0.66265869140625
0.07122802734375 0.6673583984375 0.65582275390625
0.09002685546875 0.6644287109375 0.65179443359375
0.1070556640625 0.658935546875 0.6422119140625
-0.52679443359375 -0.1982421875 0.629913330078125
-0.53594970703125 -0.183837890625 0.6251220703125
-0.54144287109375 -0.1656494140625 0.62066650390625
-0.54925537109375 -0.14794921875 0.617431640625
-0.5594482421875 -0.1551513671875 0.609649658203125
-0.57122802734375 -0.1585693359375 0.6077880859375
-0.05816650390625 0.6309814453125 0.706512451171875
-0.05145263671875 0.6229248046875 0.7088623046875
-0.04742431640625 0.6162109375 0.713714599609375
-0.02227783203125 0.6279296875 0.70758056640625
0.00384521484375 0.6414794921875 0.68994140625
0.02655029296875 0.6536865234375 0.681610107421875
-0.53564453125 -0.117431640625 0.6304931640625
-0.52545166015625 -0.089599609375 0.643035888671875
-0.515869140625 -0.0599365234375 0.654571533203125
-0.51605224609375 -0.0303955078125 0.65386962890625
-0.52386474609375 -0.02685546875 0.646514892578125
-0.53668212890625 -0.023681640625 0.64166259765625
-0.14013671875 0.5655517578125 0.71820068359375
-0.12744140625 0.5596923828125 0.713043212890625
-0.11932373046875 0.5550537109375 0.71771240234375
-0.1025390625 0.5640869140625 0.716461181640625
-0.08251953125 0.57861328125 0.7197265625
-0.06512451171875 0.59423828125 0.717864990234375
-0.49908447265625 -0.0079345703125 0.672119140625
-0.492431640625 0.01416015625 0.674560546875
-0.48760986328125 0.03662109375 0.673370361328125
-0.48382568359375 0.0576171875 0.6705322265625
-0.49127197265625 0.06591796875 0.662139892578125
-0.5074462890625 0.076171875 0.6561279296875
-0.17779541015625 0.5047607421875 0.727691650390625
-0.16461181640625 0.501708984375 0.724395751953125
-0.154296875 0.5015869140625 0.726837158203125
-0.14068603515625 0.5145263671875 0.72637939453125
-0.1334228515625 0.5284423828125 0.725433349609375
-0.12530517578125 0.5418701171875 0.722747802734375
-0.46759033203125 0.0682373046875 0.677154541015625
-0.45562744140625 0.07958984375 0.6793212890625
-0.44891357421875 0.0914306640625 0.682586669921875
-0.4403076171875 0.1046142578125 0.68182373046875
-0.444091796875 0.1160888671875 0.677703857421875
-0.4520263671875 0.126953125 0.679351806640625
-0.15106201171875 0.4482421875 0.73077392578125
-0.1497802734375 0.4674072265625 0.731842041015625
-0.14617919921875 0.484619140625 0.731048583984375
-0.42181396484375 0.10302734375 0.687408447265625
-0.4039306640625 0.108154296875 0.698944091796875
-0.38916015625 0.1121826171875 0.7054443359375
-0.125244140625 0.497802734375 0.72259521484375
-0.12872314453125 0.4981689453125 0.726409912109375
-0.13482666015625 0.49951171875 0.73046875
-0.1380615234375 0.431884765625 0.728485107421875
-0.13043212890625 0.43603515625 0.729278564453125
-0.12542724609375 0.4366455078125 0.724395751953125
-0.12237548828125 0.45263671875 0.720611572265625
-0.12310791015625 0.468505859375 0.721527099609375
-0.1229248046875 0.4833984375 0.72039794921875
-0.41058349609375 0.0828857421875 0.690948486328125
-0.39874267578125 0.0823974609375 0.689422607421875
-0.3873291015625 0.085205078125 0.6932373046875
-0.3707275390625 0.0941162109375 0.699737548828125
-0.37091064453125 0.0985107421875 0.701934814453125
-0.37030029296875 0.105224609375 0.7060546875
-0.4305419921875 0.0904541015625 0.684661865234375
-0.427490234375 0.0848388671875 0.686248779296875
-0.42620849609375 0.082275390625 0.688323974609375
-0.09893798828125 0.5421142578125 0.71258544921875
-0.1024169921875 0.5472412109375 0.71856689453125
-0.107177734375 0.5496826171875 0.72015380859375
-0.11700439453125 0.5076904296875 0.71923828125
-0.11090087890625 0.51806640625 0.715972900390625
-0.103515625 0.530517578125 0.714080810546875
-0.45257568359375 0.05078125 0.675811767578125
-0.4451904296875 0.0587158203125 0.67742919921875
-0.4337158203125 0.069091796875 0.680084228515625
-0.47308349609375 0.04931640625 0.6787109375
-0.46685791015625 0.044921875 0.678375244140625
-0.46148681640625 0.0408935546875 0.677642822265625
-0.0419921875 0.598876953125 0.710235595703125
-0.04443359375 0.60302734375 0.71612548828125
-0.04150390625 0.6063232421875 0.717681884765625
-0.0849609375 0.5517578125 0.7083740234375
-0.07354736328125 0.5654296875 0.711151123046875
-0.0615234375 0.5789794921875 0.710845947265625
-0.48358154296875 -0.0147705078125 0.66754150390625
-0.47467041015625 0.0067138671875 0.67181396484375
-0.4649658203125 0.02294921875 0.6748046875
-0.50115966796875 -0.0352783203125 0.6673583984375
-0.49932861328125 -0.0340576171875 0.66937255859375
-0.49505615234375 -0.0335693359375 0.664093017578125
0.0465087890625 0.6397705078125 0.661407470703125
0.04742431640625 0.6463623046875 0.666778564453125
0.04827880859375 0.6536865234375 0.667449951171875
-0.01654052734375 0.607421875 0.700836181640625
0.00323486328125 0.6207275390625 0.686676025390625
0.02691650390625 0.6248779296875 0.669403076171875
-0.5069580078125 -0.1102294921875 0.629974365234375
-0.50372314453125 -0.083984375 0.643951416015625
-0.49853515625 -0.0577392578125 0.64935302734375
-0.53179931640625 -0.142333984375 0.627960205078125
-0.52288818359375 -0.1397705078125 0.6304931640625
-0.51641845703125 -0.1357421875 0.62835693359375
0.1124267578125 0.6287841796875 0.64068603515625
0.113037109375 0.6358642578125 0.643035888671875
0.1177978515625 0.6427001953125 0.644012451171875
0.065185546875 0.6356201171875 0.647064208984375
0.0792236328125 0.635009765625 0.641326904296875
0.09259033203125 0.6282958984375 0.6424560546875
-0.49383544921875 -0.1806640625 0.621307373046875
-0.5009765625 -0.167724609375 0.62225341796875
-0.507080078125 -0.15185546875 0.620635986328125
-0.5054931640625 -0.2066650390625 0.63287353515625
-0.49774169921875 -0.1988525390625 0.62884521484375
-0.48931884765625 -0.1962890625 0.6270751953125
0.1539306640625 0.571044921875 0.634796142578125
0.15985107421875 0.5740966796875 0.636322021484375
0.1658935546875 0.580322265625 0.634429931640625
0.120361328125 0.61083984375 0.63641357421875
0.128662109375 0.5982666015625 0.635467529296875
0.1375732421875 0.5853271484375 0.6341552734375
-0.4420166015625 -0.2120361328125 0.6434326171875
-0.456787109375 -0.2095947265625 0.637176513671875
-0.4720458984375 -0.19873046875 0.6297607421875
-0.433837890625 -0.2335205078125 0.663543701171875
-0.43255615234375 -0.227294921875 0.662933349609375
-0.42987060546875 -0.219482421875 0.660430908203125
0.16510009765625 0.4742431640625 0.656494140625
0.16796875 0.474365234375 0.6590576171875
0.172607421875 0.475830078125 0.658843994140625
0.1510009765625 0.5472412109375 0.63507080078125
0.15728759765625 0.521728515625 0.640960693359375
0.1585693359375 0.4976806640625 0.65203857421875
-0.361328125 -0.2056884765625 0.687255859375
-0.3858642578125 -0.21142578125 0.6744384765625
-0.40460205078125 -0.2147216796875 0.664764404296875
-0.33209228515625 -0.212890625 0.71453857421875
-0.3331298828125 -0.2088623046875 0.710296630859375
-0.33489990234375 -0.203369140625 0.70574951171875
0.13665771484375 0.392578125 0.689483642578125
0.14093017578125 0.3914794921875 0.692108154296875
0.1451416015625 0.3865966796875 0.693878173828125
0.15679931640625 0.4488525390625 0.657379150390625
0.1571044921875 0.4295654296875 0.67034912109375
0.14727783203125 0.41162109375 0.681610107421875
-0.27874755859375 -0.15673828125 0.721527099609375
-0.29486083984375 -0.171142578125 0.7191162109375
-0.31329345703125 -0.1873779296875 0.710205078125
-0.2508544921875 -0.147705078125 0.741302490234375
-0.25628662109375 -0.142578125 0.7381591796875
-0.259765625 -0.1416015625 0.734100341796875
0.0511474609375 0.3260498046875 0.7193603515625
0.05242919921875 0.321533203125 0.7275390625
0.05426025390625 0.3162841796875 0.72796630859375
0.11572265625 0.3779296875 0.694610595703125
0.09600830078125 0.3582763671875 0.708465576171875
0.07427978515625 0.3408203125 0.7103271484375
-0.22821044921875 -0.06591796875 0.733306884765625
-0.23699951171875 -0.0938720703125 0.730133056640625
-0.25 -0.1180419921875 0.731842041015625
-0.20867919921875 -0.0421142578125 0.742706298828125
-0.213134765625 -0.0430908203125 0.7391357421875
-0.2169189453125 -0.0426025390625 0.73565673828125
-0.003173828125 0.3197021484375 0.7249755859375
-0.00164794921875 0.3145751953125 0.729278564453125
-0.00396728515625 0.309326171875 0.73419189453125
0.03363037109375 0.3243408203125 0.72039794921875
0.02099609375 0.3209228515625 0.724884033203125
0.00750732421875 0.31982421875 0.7210693359375
-0.22161865234375 0.00390625 0.72296142578125
-0.22149658203125 -0.0087890625 0.727294921875
-0.21844482421875 -0.02392578125 0.727752685546875
-0.2139892578125 0.02099609375 0.73779296875
-0.216552734375 0.0196533203125 0.734771728515625
-0.22015380859375 0.017333984375 0.72833251953125
-0.1019287109375 0.3712158203125 0.73431396484375
-0.0982666015625 0.37451171875 0.73150634765625
-0.0948486328125 0.376708984375 0.7242431640625
-0.100341796875 0.3914794921875 0.720458984375
-0.10888671875 0.406982421875 0.720733642578125
-0.11322021484375 0.4229736328125 0.716400146484375
-0.35888671875 0.0894775390625 0.692596435546875
-0.34381103515625 0.0863037109375 0.695831298828125
-0.32733154296875 0.085205078125 0.699249267578125
-0.31494140625 0.087646484375 0.7091064453125
-0.31243896484375 0.0906982421875 0.713348388671875
-0.3094482421875 0.096923828125 0.718353271484375
-0.05633544921875 0.3289794921875 0.733489990234375
-0.05474853515625 0.3350830078125 0.728546142578125
-0.0535888671875 0.3402099609375 0.720916748046875
-0.06298828125 0.349853515625 0.716064453125
-0.07171630859375 0.357666015625 0.71929931640625
-0.0836181640625 0.36865234375 0.7181396484375
-0.30072021484375 0.0784912109375 0.705810546875
-0.28631591796875 0.07080078125 0.70892333984375
-0.275146484375 0.06201171875 0.71063232421875
-0.2593994140625 0.056640625 0.720458984375
-0.25543212890625 0.061767578125 0.724639892578125
-0.25213623046875 0.0648193359375 0.727386474609375
-0.01495361328125 0.327880859375 0.717193603515625
-0.0264892578125 0.33154296875 0.716522216796875
-0.03997802734375 0.3365478515625 0.7152099609375
-0.25396728515625 0.0435791015625 0.7100830078125
-0.24542236328125 0.0345458984375 0.71563720703125
-0.23443603515625 0.0260009765625 0.7161865234375
-0.2979736328125 0.301513671875 0.58172607421875
-0.298095703125 0.3004150390625 0.612457275390625
-0.29901123046875 0.299072265625 0.645111083984375
-0.3026123046875 0.395263671875 0.6478271484375
-0.29296875 0.3975830078125 0.619384765625
-0.2843017578125 0.4068603515625 0.592864990234375
-0.2760009765625 0.3748779296875 0.5675048828125
-0.28173828125 0.343994140625 0.566162109375
-0.2896728515625 0.3214111328125 0.56427001953125
-0.31182861328125 0.288818359375 0.55767822265625
-0.3349609375 0.2720947265625 0.558441162109375
-0.3612060546875 0.25634765625 0.54827880859375
-0.3935546875 0.2540283203125 0.56488037109375
-0.38916015625 0.2664794921875 0.600006103515625
-0.38958740234375 0.275634765625 0.632904052734375
-0.36993408203125 0.55859375 0.650146484375
-0.358642578125 0.5582275390625 0.6185302734375
-0.33941650390625 0.5589599609375 0.600860595703125
-0.30706787109375 0.5390625 0.586883544921875
-0.28973388671875 0.50927734375 0.57440185546875
-0.27313232421875 0.4715576171875 0.5694580078125
-0.452880859375 0.2332763671875 0.525115966796875
-0.4952392578125 0.2420654296875 0.524261474609375
-0.52734375 0.24658203125 0.5223388671875
-0.5560302734375 0.2667236328125 0.533172607421875
-0.565185546875 0.2816162109375 0.555389404296875
-0.57000732421875 0.287109375 0.58416748046875
-0.3154296875 0.6883544921875 0.654144287109375
-0.3045654296875 0.6834716796875 0.624176025390625
-0.28631591796875 0.6712646484375 0.600555419921875
-0.28875732421875 0.642333984375 0.584442138671875
-0.30389404296875 0.6124267578125 0.5794677734375
-0.3162841796875 0.5821533203125 0.585723876953125
-0.57672119140625 0.24169921875 0.50299072265625
-0.59759521484375 0.223876953125 0.492431640625
-0.61199951171875 0.200927734375 0.487030029296875
-0.6407470703125 0.1884765625 0.493682861328125
-0.65240478515625 0.1953125 0.510650634765625
-0.66473388671875 0.2025146484375 0.52978515625
-0.12701416015625 0.7476806640625 0.6400146484375
-0.125244140625 0.7440185546875 0.610321044921875
-0.12127685546875 0.7294921875 0.5770263671875
-0.17364501953125 0.68408203125 0.567718505859375
-0.21514892578125 0.67431640625 0.574249267578125
-0.2474365234375 0.66455078125 0.579681396484375
-0.62408447265625 0.158203125 0.475433349609375
-0.62322998046875 0.12353515625 0.4649658203125
-0.61846923828125 0.0809326171875 0.455780029296875
-0.64453125 0.015869140625 0.458831787109375
-0.6583251953125 0.01220703125 0.476776123046875
-0.669921875 0.0118408203125 0.50592041015625
0.05303955078125 0.833984375 0.59185791015625
0.05694580078125 0.8243408203125 0.56103515625
0.05755615234375 0.8138427734375 0.52984619140625
0.017578125 0.7864990234375 0.50238037109375
-0.0289306640625 0.7655029296875 0.514495849609375
-0.07586669921875 0.7381591796875 0.53167724609375
-0.64141845703125 -0.0384521484375 0.41656494140625
-0.6522216796875 -0.0972900390625 0.4068603515625
-0.66192626953125 -0.1497802734375 0.395538330078125
-0.684814453125 -0.188232421875 0.418609619140625
-0.69573974609375 -0.1884765625 0.440399169921875
-0.70074462890625 -0.1864013671875 0.466766357421875
0.1766357421875 0.8612060546875 0.533660888671875
0.17535400390625 0.8516845703125 0.50537109375
0.16937255859375 0.8424072265625 0.473480224609375
0.140380859375 0.8392333984375 0.455108642578125
0.11688232421875 0.83203125 0.46435546875
0.08740234375 0.8140869140625 0.47772216796875
-0.6856689453125 -0.22265625 0.381439208984375
-0.69342041015625 -0.2532958984375 0.37322998046875
-0.691650390625 -0.28759765625 0.37225341796875
-0.6942138671875 -0.326416015625 0.405517578125
-0.70367431640625 -0.3319091796875 0.433013916015625
-0.70806884765625 -0.333251953125 0.461029052734375
0.3043212890625 0.693115234375 0.4039306640625
0.30084228515625 0.690185546875 0.376983642578125
0.29315185546875 0.6807861328125 0.34588623046875
0.26336669921875 0.7288818359375 0.332000732421875
0.23541259765625 0.771240234375 0.3660888671875
0.2001953125 0.80615234375 0.402099609375
-0.6650390625 -0.354736328125 0.36724853515625
-0.63909912109375 -0.3858642578125 0.367919921875
-0.5999755859375 -0.41650390625 0.371063232421875
-0.5478515625 -0.4359130859375 0.418792724609375
-0.5506591796875 -0.4378662109375 0.4512939453125
-0.55230712890625 -0.43798828125 0.4735107421875
0.3328857421875 0.4661865234375 0.428253173828125
0.3282470703125 0.4598388671875 0.399993896484375
0.32330322265625 0.4595947265625 0.36236572265625
0.3184814453125 0.510498046875 0.303192138671875
0.31549072265625 0.56982421875 0.301025390625
0.306396484375 0.6229248046875 0.30303955078125
-0.49951171875 -0.4488525390625 0.39996337890625
-0.449951171875 -0.4539794921875 0.411407470703125
-0.4044189453125 -0.4488525390625 0.430023193359375
-0.343017578125 -0.4273681640625 0.497283935546875
-0.33599853515625 -0.4212646484375 0.535430908203125
-0.33544921875 -0.419189453125 0.56170654296875
0.29583740234375 0.2684326171875 0.462615966796875
0.29400634765625 0.263671875 0.441162109375
0.28948974609375 0.257568359375 0.418914794921875
0.29644775390625 0.2957763671875 0.3663330078125
0.30426025390625 0.3486328125 0.34429931640625
0.31689453125 0.400634765625 0.332916259765625
-0.3037109375 -0.4222412109375 0.46875
-0.25567626953125 -0.3980712890625 0.48138427734375
-0.20916748046875 -0.3736572265625 0.49505615234375
-0.16241455078125 -0.337646484375 0.549774169921875
-0.1622314453125 -0.3363037109375 0.577545166015625
-0.15936279296875 -0.3319091796875 0.601654052734375
0.37353515625 -0.3028564453125 0.3587646484375
0.3614501953125 -0.33447265625 0.3634033203125
0.34759521484375 -0.362548828125 0.367523193359375
0.303466796875 -0.3671875 0.361602783203125
0.283203125 -0.346923828125 0.34515380859375
0.271484375 -0.3372802734375 0.3267822265625
0.276123046875 -0.300537109375 0.290435791015625
0.29217529296875 -0.265380859375 0.282318115234375
0.30596923828125 -0.2296142578125 0.280029296875
0.32940673828125 -0.2064208984375 0.301177978515625
0.34130859375 -0.2249755859375 0.3203125
0.3575439453125 -0.246337890625 0.33892822265625
0.218994140625 -0.42724609375 0.414215087890625
0.19488525390625 -0.4149169921875 0.40277099609375
0.1756591796875 -0.4066162109375 0.388275146484375
0.17901611328125 -0.395263671875 0.352325439453125
0.20550537109375 -0.37744140625 0.330963134765625
0.23529052734375 -0.35546875 0.322265625
0.3121337890625 -0.4071044921875 0.3863525390625
0.2921142578125 -0.4200439453125 0.3984375
0.26959228515625 -0.43408203125 0.4117431640625
0.498779296875 -0.4219970703125 0.383453369140625
0.4874267578125 -0.4490966796875 0.397674560546875
0.4742431640625 -0.478515625 0.413482666015625
0.42034912109375 -0.470458984375 0.415496826171875
0.387451171875 -0.4405517578125 0.40472412109375
0.355224609375 -0.41162109375 0.392974853515625
0.4129638671875 -0.2984619140625 0.360748291015625
0.44549560546875 -0.32666015625 0.3682861328125
0.47705078125 -0.3590087890625 0.37872314453125
0.33758544921875 -0.5340576171875 0.473724365234375
0.30926513671875 -0.5035400390625 0.4608154296875
0.28082275390625 -0.4742431640625 0.44244384765625
0.4383544921875 -0.5235595703125 0.43798828125
0.4189453125 -0.5396728515625 0.45635986328125
0.3931884765625 -0.55322265625 0.4727783203125
0.63128662109375 -0.49072265625 0.443817138671875
0.616455078125 -0.5179443359375 0.470245361328125
0.5987548828125 -0.53857421875 0.48779296875
0.557861328125 -0.5572509765625 0.484130859375
0.5283203125 -0.547119140625 0.46319580078125
0.492919921875 -0.5289306640625 0.44244384765625
0.5499267578125 -0.416015625 0.379638671875
0.585205078125 -0.4415283203125 0.3917236328125
0.6175537109375 -0.453369140625 0.404083251953125
0.46124267578125 -0.642578125 0.55511474609375
0.4327392578125 -0.6221923828125 0.532623291015625
0.4066162109375 -0.597412109375 0.505615234375
0.564697265625 -0.586181640625 0.524658203125
0.538330078125 -0.6090087890625 0.541900634765625
0.514404296875 -0.6314697265625 0.562286376953125
0.66314697265625 -0.4644775390625 0.4381103515625
0.682373046875 -0.4581298828125 0.44512939453125
0.6917724609375 -0.45068359375 0.470367431640625
0.6253662109375 -0.5474853515625 0.58038330078125
0.61529541015625 -0.558349609375 0.554351806640625
0.600830078125 -0.5670166015625 0.533721923828125
0.530029296875 -0.641845703125 0.6488037109375
0.5186767578125 -0.6483154296875 0.62445068359375
0.50372314453125 -0.652099609375 0.606964111328125
0.69403076171875 -0.3731689453125 0.357208251953125
0.71234130859375 -0.36865234375 0.370452880859375
0.723876953125 -0.35791015625 0.39410400390625
0.65362548828125 -0.4388427734375 0.3963623046875
0.66766357421875 -0.41552734375 0.37225341796875
0.67431640625 -0.3929443359375 0.358612060546875
0.41473388671875 -0.7010498046875 0.615386962890625
0.4371337890625 -0.6927490234375 0.60662841796875
0.46063232421875 -0.6746826171875 0.592681884765625
0.4327392578125 -0.70703125 0.69305419921875
0.42144775390625 -0.7156982421875 0.662261962890625
0.40972900390625 -0.7127685546875 0.640777587890625
0.607177734375 -0.2764892578125 0.353729248046875
0.640625 -0.27294921875 0.368011474609375
0.668701171875 -0.270263671875 0.38873291015625
0.6661376953125 -0.3585205078125 0.345306396484375
0.6397705078125 -0.341064453125 0.3377685546875
0.6094970703125 -0.3135986328125 0.340118408203125
0.33349609375 -0.6561279296875 0.592529296875
0.3619384765625 -0.6873779296875 0.599639892578125
0.38372802734375 -0.6993408203125 0.61395263671875
0.34783935546875 -0.666748046875 0.691925048828125
0.32708740234375 -0.6595458984375 0.64947509765625
0.314697265625 -0.6431884765625 0.613677978515625
0.4857177734375 -0.1507568359375 0.385772705078125
0.5247802734375 -0.1424560546875 0.40765380859375
0.55517578125 -0.140625 0.438568115234375
0.55120849609375 -0.2540283203125 0.3475341796875
0.5150146484375 -0.224853515625 0.3564453125
0.48291015625 -0.19189453125 0.3634033203125
0.2252197265625 -0.525146484375 0.531707763671875
0.25177001953125 -0.554443359375 0.542510986328125
0.28302001953125 -0.59375 0.5545654296875
0.2471923828125 -0.5380859375 0.661651611328125
0.220703125 -0.52783203125 0.612213134765625
0.202880859375 -0.5107421875 0.569000244140625
0.557373046875 -0.3023681640625 0.338958740234375
0.5428466796875 -0.325927734375 0.34619140625
0.52587890625 -0.355712890625 0.365570068359375
0.398681640625 -0.23974609375 0.3509521484375
0.41107177734375 -0.2073974609375 0.354827880859375
0.43096923828125 -0.1824951171875 0.35906982421875
0.19622802734375 -0.4759521484375 0.486053466796875
0.20989990234375 -0.464599609375 0.46514892578125
0.22711181640625 -0.455322265625 0.444732666015625
0.35015869140625 -0.5821533203125 0.508941650390625
0.32928466796875 -0.596435546875 0.523162841796875
0.314453125 -0.614013671875 0.546844482421875
0.32037353515625 -0.1566162109375 0.2938232421875
0.3236083984375 -0.122802734375 0.3131103515625
0.3326416015625 -0.0908203125 0.33868408203125
0.36798095703125 -0.0904541015625 0.3701171875
0.39093017578125 -0.1121826171875 0.37408447265625
0.4219970703125 -0.1400146484375 0.373748779296875
0.17315673828125 -0.4664306640625 0.5142822265625
0.149658203125 -0.4376220703125 0.508056640625
0.1259765625 -0.412353515625 0.50537109375
0.10888671875 -0.3948974609375 0.46795654296875
0.11968994140625 -0.3990478515625 0.430267333984375
0.1326904296875 -0.403076171875 0.39898681640625
0.37017822265625 -0.0531005859375 0.399017333984375
0.39190673828125 -0.0400390625 0.437896728515625
0.412109375 -0.0289306640625 0.466522216796875
0.13189697265625 -0.4058837890625 0.623016357421875
0.1165771484375 -0.402099609375 0.5809326171875
0.109375 -0.397216796875 0.541290283203125
0.3218994140625 0.02001953125 0.481201171875
0.31072998046875 0.0140380859375 0.450897216796875
0.29949951171875 0.0050048828125 0.417449951171875
0.28271484375 0.0277099609375 0.38916015625
0.2772216796875 0.0465087890625 0.407562255859375
0.270751953125 0.05615234375 0.42620849609375
0.2647705078125 0.05322265625 0.464874267578125
0.27020263671875 0.04931640625 0.481536865234375
0.27191162109375 0.052490234375 0.503753662109375
0.03033447265625 -0.25439453125 0.598052978515625
0.025146484375 -0.2584228515625 0.576568603515625
0.0130615234375 -0.2664794921875 0.553802490234375
-0.00244140625 -0.2862548828125 0.525115966796875
0.00579833984375 -0.3018798828125 0.515289306640625
0.01617431640625 -0.317626953125 0.4993896484375
0.05078125 -0.321533203125 0.531524658203125
0.05841064453125 -0.3148193359375 0.56756591796875
0.06732177734375 -0.315185546875 0.603179931640625
0.3311767578125 -0.053955078125 0.37237548828125
0.31390380859375 -0.041259765625 0.371551513671875
0.2989501953125 -0.025146484375 0.373199462890625
0.05999755859375 -0.343505859375 0.4881591796875
0.07745361328125 -0.3551025390625 0.49346923828125
0.090087890625 -0.3736572265625 0.5023193359375
0.2388916015625 0.1048583984375 0.47528076171875
0.2421875 0.102294921875 0.494598388671875
0.24322509765625 0.10546875 0.514404296875
0.2509765625 0.072998046875 0.450042724609375
0.24273681640625 0.0799560546875 0.462005615234375
0.24102783203125 0.09375 0.46630859375
-0.02825927734375 -0.2509765625 0.54833984375
-0.0167236328125 -0.2515869140625 0.544342041015625
-0.01116943359375 -0.26025390625 0.540283203125
-0.02044677734375 -0.232177734375 0.597198486328125
-0.02703857421875 -0.2413330078125 0.57427978515625
-0.032958984375 -0.24609375 0.557769775390625
0.24755859375 0.1279296875 0.461578369140625
0.2552490234375 0.163818359375 0.447479248046875
0.26763916015625 0.198486328125 0.42437744140625
-0.1181640625 -0.30908203125 0.54510498046875
-0.08612060546875 -0.285400390625 0.549346923828125
-0.05865478515625 -0.2645263671875 0.548919677734375
-0.03857421875 -0.292236328125 -0.576080322265625
-0.0643310546875 -0.2442626953125 -0.627655029296875
-0.09515380859375 -0.1798095703125 -0.673736572265625
-0.0755615234375 -0.0413818359375 -0.71051025390625
-0.0316162109375 0.0228271484375 -0.69232177734375
0.0113525390625 0.08154296875 -0.662689208984375
0.0760498046875 0.0540771484375 -0.60992431640625
0.09271240234375 0.0047607421875 -0.5914306640625
0.12359619140625 -0.03076171875 -0.5572509765625
0.11083984375 -0.13525390625 -0.5196533203125
0.071533203125 -0.2005615234375 -0.524444580078125
0.03515625 -0.2711181640625 -0.530364990234375
-0.06201171875 -0.391357421875 -0.49896240234375
-0.10479736328125 -0.43603515625 -0.46173095703125
-0.14422607421875 -0.4677734375 -0.437042236328125
-0.20831298828125 -0.462646484375 -0.459075927734375
-0.22381591796875 -0.430419921875 -0.503936767578125
-0.2520751953125 -0.38671875 -0.55462646484375
-0.25244140625 -0.285888671875 -0.627166748046875
-0.21502685546875 -0.2291259765625 -0.66864013671875
-0.1724853515625 -0.1693115234375 -0.699554443359375
0.07977294921875 -0.4039306640625 -0.307647705078125
0.0418701171875 -0.3914794921875 -0.389068603515625
0.008056640625 -0.3665771484375 -0.461334228515625
0.16339111328125 -0.1004638671875 -0.4521484375
0.18487548828125 -0.1300048828125 -0.394866943359375
0.21002197265625 -0.1513671875 -0.326751708984375
0.207763671875 -0.2279052734375 -0.2354736328125
0.18035888671875 -0.2899169921875 -0.234466552734375
0.14501953125 -0.3538818359375 -0.227935791015625
0.05828857421875 -0.4525146484375 -0.1893310546875
0.02239990234375 -0.4913330078125 -0.171722412109375
-0.01922607421875 -0.5140380859375 -0.152099609375
-0.08917236328125 -0.53515625 -0.205352783203125
-0.12908935546875 -0.523681640625 -0.283905029296875
-0.15423583984375 -0.5128173828125 -0.353363037109375
0.17901611328125 -0.3677978515625 0.081512451171875
0.15594482421875 -0.3873291015625 -0.01580810546875
0.131591796875 -0.4007568359375 -0.1123046875
0.24273681640625 -0.16650390625 -0.142852783203125
0.25543212890625 -0.16650390625 -0.05010986328125
0.26715087890625 -0.1629638671875 0.047149658203125
0.2713623046875 -0.213623046875 0.132659912109375
0.2525634765625 -0.2674560546875 0.14056396484375
0.2314453125 -0.3138427734375 0.15106201171875
0.1763916015625 -0.3856201171875 0.183624267578125
0.143798828125 -0.4095458984375 0.195465087890625
0.105224609375 -0.4271240234375 0.218841552734375
0.03778076171875 -0.468017578125 0.154541015625
0.010986328125 -0.4942626953125 0.060150146484375
-0.01904296875 -0.514892578125 -0.04022216796875
0.2452392578125 -0.3284912109375 0.288482666015625
0.23529052734375 -0.3338623046875 0.26068115234375
0.22613525390625 -0.3372802734375 0.22119140625
0.29443359375 -0.1661376953125 0.201995849609375
0.29742431640625 -0.1734619140625 0.238677978515625
0.306396484375 -0.1810302734375 0.262420654296875
0.13568115234375 -0.4061279296875 0.35589599609375
0.11993408203125 -0.407958984375 0.3316650390625
0.0992431640625 -0.4190673828125 0.30511474609375
0.29541015625 -0.103759765625 0.210540771484375
0.2952880859375 -0.0670166015625 0.259429931640625
0.290283203125 -0.0360107421875 0.306854248046875
0.0419921875 -0.364990234375 0.429931640625
0.04766845703125 -0.3873291015625 0.37591552734375
0.053955078125 -0.4124755859375 0.32562255859375
0.28582763671875 0.6981201171875 0.153350830078125
0.28826904296875 0.6907958984375 0.20941162109375
0.29254150390625 0.6795654296875 0.26123046875
0.3253173828125 0.45166015625 0.26092529296875
0.33343505859375 0.4488525390625 0.192474365234375
0.339599609375 0.4400634765625 0.103790283203125
0.344970703125 0.511962890625 0.035400390625
0.3323974609375 0.5848388671875 0.046234130859375
0.30767822265625 0.6531982421875 0.073211669921875
-0.5596923828125 -0.5028076171875 0.1295166015625
-0.51251220703125 -0.5274658203125 0.146484375
-0.451904296875 -0.5457763671875 0.16070556640625
-0.37713623046875 -0.5147705078125 0.256927490234375
-0.37213134765625 -0.486083984375 0.33172607421875
-0.3602294921875 -0.4591064453125 0.39202880859375
-0.5592041015625 -0.4461669921875 0.322235107421875
-0.57037353515625 -0.456298828125 0.2529296875
-0.58349609375 -0.46484375 0.19061279296875
-0.15142822265625 -0.010986328125 -0.746337890625
-0.189453125 0.0908203125 -0.759613037109375
-0.233154296875 0.1990966796875 -0.754486083984375
-0.21343994140625 0.380126953125 -0.7235107421875
-0.15179443359375 0.4388427734375 -0.701019287109375
-0.09130859375 0.48974609375 -0.666473388671875
-0.0050048828125 0.4219970703125 -0.655792236328125
0.0142822265625 0.314453125 -0.65380859375
0.034912109375 0.213134765625 -0.65716552734375
-0.32098388671875 -0.2784423828125 -0.6248779296875
-0.3692626953125 -0.2093505859375 -0.652435302734375
-0.41156005859375 -0.1337890625 -0.670257568359375
-0.4232177734375 0.036376953125 -0.706573486328125
-0.379638671875 0.1236572265625 -0.73419189453125
-0.32763671875 0.21826171875 -0.746246337890625
-0.5379638671875 0.6484375 -0.07818603515625
-0.53826904296875 0.62255859375 0.00152587890625
-0.53436279296875 0.59326171875 0.085540771484375
-0.4571533203125 0.6466064453125 0.181121826171875
-0.39263916015625 0.72802734375 0.193511962890625
-0.3238525390625 0.7913818359375 0.20147705078125
-0.27703857421875 0.8677978515625 0.144439697265625
-0.2904052734375 0.8966064453125 0.076019287109375
