# XYZ point cloud file
0.080718994140625 0.30331993103027344 0.537109375
0.0901336669921875 0.31472969055175781 0.5445556640625
0.0698089599609375 0.32278633117675781 0.5311279296875
0.0702972412109375 0.29062652587890625 0.528564453125
0.0950927734375 0.28766059875488281 0.5419921875
0.1024322509765625 0.300933837890625 0.5498046875
0.0804443359375 0.33139228820800781 0.53857421875
0.0579833984375 0.31177139282226562 0.5206298828125
0.086639404296875 0.2728424072265625 0.533203125
-0.21343994140625 0.24106407165527344 0.515869140625
-0.21295166015625 0.26098442077636719 0.50732421875
-0.22613525390625 0.2477874755859375 0.5220947265625
-0.2176513671875 0.22170829772949219 0.5240478515625
-0.19921875 0.23308181762695312 0.5103759765625
-0.19866943359375 0.25592041015625 0.499267578125
-0.225830078125 0.2644805908203125 0.512939453125
-0.230010986328125 0.23045158386230469 0.5291748046875
-0.204254150390625 0.21223831176757812 0.51953125
0.0596771240234375 0.38457489013671875 0.509765625
0.0706634521484375 0.38740348815917969 0.520263671875
0.063934326171875 0.40552139282226562 0.503173828125
0.0471343994140625 0.38138771057128906 0.49609375
0.059051513671875 0.36284065246582031 0.51513671875
0.0705108642578125 0.368194580078125 0.5260009765625
0.073974609375 0.40549278259277344 0.5147705078125
0.0520477294921875 0.40432167053222656 0.4893798828125
0.04620361328125 0.3573760986328125 0.5037841796875
-0.234100341796875 0.31464385986328125 0.46826171875
-0.2476348876953125 0.3289794921875 0.4569091796875
-0.24493408203125 0.31224441528320312 0.47900390625
-0.223236083984375 0.29730224609375 0.4825439453125
-0.2223052978515625 0.31631851196289062 0.45849609375
-0.2372894287109375 0.33329963684082031 0.444580078125
-0.2571258544921875 0.32546043395996094 0.4678955078125
-0.2351531982421875 0.29714202880859375 0.491943359375
-0.2099761962890625 0.29754447937011719 0.4736328125
0.0150604248046875 0.36916351318359375 0.4461669921875
0.0242919921875 0.37348365783691406 0.4642333984375
0.0218353271484375 0.39808082580566406 0.4361572265625
0.0059967041015625 0.36396026611328125 0.42919921875
0.0133514404296875 0.33790397644042969 0.4571533203125
0.0232391357421875 0.34445381164550781 0.473876953125
0.0307769775390625 0.40088653564453125 0.4542236328125
0.0140228271484375 0.3949737548828125 0.418212890625
0.004241943359375 0.33095932006835938 0.44091796875
-0.1877899169921875 0.31832122802734375 0.416748046875
-0.2066802978515625 0.33950996398925781 0.39794921875
-0.1985015869140625 0.31887435913085938 0.4324951171875
-0.1728668212890625 0.29377555847167969 0.4344482421875
-0.1774444580078125 0.31787109375 0.399658203125
-0.1974945068359375 0.34032249450683594 0.3802490234375
-0.2162933349609375 0.33914756774902344 0.4151611328125
-0.1842041015625 0.29643440246582031 0.4482421875
-0.16143798828125 0.29113388061523438 0.419677734375
0.0762176513671875 0.46820831298828125 0.4176025390625
0.080596923828125 0.46590232849121094 0.43603515625
0.1028289794921875 0.48247337341308594 0.4134521484375
0.0728912353515625 0.46944618225097656 0.3961181640625
0.0535888671875 0.4490814208984375 0.421142578125
0.0594024658203125 0.44899368286132812 0.4412841796875
0.1051177978515625 0.47977256774902344 0.4339599609375
0.101165771484375 0.48532676696777344 0.3934326171875
0.047882080078125 0.44870376586914062 0.3997802734375
-0.283111572265625 0.37066078186035156 0.346435546875
-0.31146240234375 0.36831855773925781 0.33056640625
-0.2875213623046875 0.36661148071289062 0.367431640625
-0.2548065185546875 0.36717414855957031 0.36181640625
-0.278594970703125 0.37291336059570312 0.3250732421875
-0.308929443359375 0.3714447021484375 0.3087158203125
-0.314422607421875 0.36517333984375 0.352294921875
-0.2613677978515625 0.36370468139648438 0.38134765625
-0.2481536865234375 0.36966896057128906 0.341796875
0.0986480712890625 0.45261955261230469 0.4876708984375
0.1048126220703125 0.44784355163574219 0.50146484375
0.1165771484375 0.462188720703125 0.484375
0.0917205810546875 0.45786857604980469 0.471923828125
0.0835723876953125 0.43982696533203125 0.4927978515625
0.091400146484375 0.43683433532714844 0.505126953125
0.1202850341796875 0.45627975463867188 0.4979248046875
0.112152099609375 0.46884346008300781 0.468505859375
0.0747222900390625 0.44360542297363281 0.4783935546875
-0.30078125 0.35007095336914062 0.423095703125
-0.3197784423828125 0.34861946105957031 0.414306640625
-0.3043975830078125 0.34438323974609375 0.4365234375
-0.28094482421875 0.34706306457519531 0.432373046875
-0.2963409423828125 0.35683631896972656 0.40625
-0.3180694580078125 0.35471534729003906 0.3956298828125
-0.321563720703125 0.34324836730957031 0.42919921875
-0.287109375 0.34148025512695312 0.4459228515625
-0.27459716796875 0.35387611389160156 0.416259765625
0.17877197265625 0.46532058715820312 0.4835205078125
0.175933837890625 0.45850181579589844 0.4976806640625
0.1996307373046875 0.45850181579589844 0.4854736328125
0.1817474365234375 0.47323417663574219 0.4683837890625
0.1572265625 0.46880722045898438 0.48388671875
0.1565093994140625 0.46200370788574219 0.4970703125
0.19476318359375 0.45287513732910156 0.4989013671875
0.204986572265625 0.46487808227539062 0.470703125
0.157684326171875 0.47656440734863281 0.468505859375
-0.3755035400390625 0.3236846923828125 0.3980712890625
-0.390350341796875 0.309112548828125 0.3985595703125
-0.3709716796875 0.320037841796875 0.4156494140625
-0.359130859375 0.33466720581054688 0.4005126953125
-0.380828857421875 0.32741355895996094 0.376953125
-0.3975677490234375 0.31024551391601562 0.377197265625
-0.3842010498046875 0.30832672119140625 0.416748046875
-0.3561248779296875 0.33039474487304688 0.41845703125
-0.362640380859375 0.340087890625 0.3798828125
0.193450927734375 0.48966407775878906 0.414794921875
0.1897735595703125 0.4857025146484375 0.433837890625
0.223419189453125 0.47859382629394531 0.4180908203125
0.198150634765625 0.49261093139648438 0.39404296875
0.162933349609375 0.49446487426757812 0.4127197265625
0.160858154296875 0.49083709716796875 0.4320068359375
0.217254638671875 0.47577476501464844 0.4361572265625
0.229949951171875 0.48203468322753906 0.3984375
0.1651763916015625 0.49849510192871094 0.392578125
-0.3935394287109375 0.33217811584472656 0.3052978515625
-0.4148406982421875 0.3106842041015625 0.3048095703125
-0.389678955078125 0.332244873046875 0.3304443359375
-0.36773681640625 0.35066413879394531 0.3106689453125
-0.395721435546875 0.33116531372070312 0.282958984375
-0.419342041015625 0.30833053588867188 0.2818603515625
-0.4098968505859375 0.31084823608398438 0.3289794921875
-0.3668365478515625 0.3492431640625 0.3358154296875
-0.368682861328125 0.35077476501464844 0.286376953125
0.2952117919921875 0.41490936279296875 0.432373046875
0.284637451171875 0.41579246520996094 0.45068359375
0.310272216796875 0.38519477844238281 0.4400634765625
0.305633544921875 0.41311454772949219 0.4161376953125
0.2753448486328125 0.44075584411621094 0.427734375
0.2653350830078125 0.44002532958984375 0.444580078125
0.298370361328125 0.38826751708984375 0.4560546875
0.3219451904296875 0.38070297241210938 0.4232177734375
0.2845611572265625 0.44134712219238281 0.4080810546875
-0.4551849365234375 0.23045158386230469 0.332275390625
-0.4580841064453125 0.20343589782714844 0.34912109375
-0.4468536376953125 0.23733139038085938 0.3551025390625
-0.4469146728515625 0.258575439453125 0.3199462890625
-0.462860107421875 0.22436332702636719 0.3089599609375
-0.466705322265625 0.19356155395507812 0.3280029296875
-0.4498291015625 0.21233177185058594 0.370849609375
-0.4388885498046875 0.26383590698242188 0.342041015625
-0.45306396484375 0.25378799438476562 0.295166015625
0.2491912841796875 0.41310501098632812 0.49560546875
0.23870849609375 0.41255569458007812 0.5076904296875
0.26007080078125 0.39306640625 0.4993896484375
0.2605438232421875 0.41487503051757812 0.4815673828125
0.2349700927734375 0.43277931213378906 0.491943359375
0.226409912109375 0.42857742309570312 0.5048828125
0.2485809326171875 0.3941802978515625 0.51123046875
0.2729034423828125 0.39193916320800781 0.4874267578125
0.2451629638671875 0.43510246276855469 0.4766845703125
-0.4159393310546875 0.25527191162109375 0.4173583984375
-0.417510986328125 0.23600196838378906 0.4276123046875
-0.4067840576171875 0.259918212890625 0.433837890625
-0.411041259765625 0.27396011352539062 0.4075927734375
-0.42633056640625 0.24979019165039062 0.3973388671875
-0.4282379150390625 0.22864532470703125 0.40966796875
-0.407623291015625 0.24232673645019531 0.443115234375
-0.4024810791015625 0.27715301513671875 0.425537109375
-0.420684814453125 0.27048301696777344 0.3865966796875
0.22515869140625 0.41257667541503906 0.5294189453125
0.2272796630859375 0.41196632385253906 0.524658203125
0.2143707275390625 0.42633056640625 0.526611328125
0.222930908203125 0.41321945190429688 0.5335693359375
0.2325286865234375 0.39835929870605469 0.531982421875
0.2354583740234375 0.397125244140625 0.5272216796875
0.21661376953125 0.42638397216796875 0.5216064453125
0.212432861328125 0.42611503601074219 0.53125
0.2299957275390625 0.39883613586425781 0.5360107421875
-0.393768310546875 0.26815986633300781 0.45947265625
-0.3907623291015625 0.28319358825683594 0.45361328125
-0.3956298828125 0.26643753051757812 0.455078125
-0.3938446044921875 0.25455284118652344 0.466796875
-0.391815185546875 0.26934623718261719 0.464599609375
-0.38897705078125 0.28428840637207031 0.4586181640625
-0.3925628662109375 0.281158447265625 0.447265625
-0.395904541015625 0.25176429748535156 0.4627685546875
-0.3913726806640625 0.25655174255371094 0.47216796875
0.1713409423828125 0.45363616943359375 0.521240234375
0.1724853515625 0.45343208312988281 0.515380859375
0.154876708984375 0.45630455017089844 0.5208740234375
0.1705474853515625 0.45343780517578125 0.52587890625
0.1870269775390625 0.44777870178222656 0.5230712890625
0.188690185546875 0.44759178161621094 0.517822265625
0.1555328369140625 0.45613670349121094 0.5157470703125
0.154693603515625 0.45557403564453125 0.52587890625
0.185821533203125 0.44726943969726562 0.527587890625
-0.3648529052734375 0.31992530822753906 0.446044921875
-0.3519744873046875 0.32800483703613281 0.4478759765625
-0.3657684326171875 0.31882476806640625 0.439697265625
-0.3760528564453125 0.30967330932617188 0.4466552734375
-0.36395263671875 0.32009124755859375 0.451171875
-0.3515777587890625 0.32811164855957031 0.453125
-0.352264404296875 0.32769584655761719 0.4417724609375
-0.3775177001953125 0.30801773071289062 0.4403076171875
-0.3745574951171875 0.31020545959472656 0.452392578125
0.1121978759765625 0.44439315795898438 0.5250244140625
0.111358642578125 0.44353294372558594 0.5201416015625
0.101470947265625 0.43538665771484375 0.527587890625
0.1130523681640625 0.44438552856445312 0.5302734375
0.12445068359375 0.45100021362304688 0.5240478515625
0.1243896484375 0.45067977905273438 0.5181884765625
0.10015869140625 0.43458366394042969 0.5220947265625
0.10260009765625 0.43518829345703125 0.5330810546875
0.125030517578125 0.45073509216308594 0.5286865234375
-0.3100128173828125 0.33917617797851562 0.4635009765625
-0.2954864501953125 0.33683395385742188 0.4710693359375
-0.3087005615234375 0.33854866027832031 0.457275390625
-0.3244476318359375 0.33875083923339844 0.4560546875
-0.3108062744140625 0.33919334411621094 0.468017578125
-0.2966766357421875 0.33652496337890625 0.475830078125
-0.294342041015625 0.3365478515625 0.4644775390625
-0.32373046875 0.33834457397460938 0.449462890625
-0.3248291015625 0.33855438232421875 0.4609375
0.0845489501953125 0.39313697814941406 0.5408935546875
0.08306884765625 0.39167594909667969 0.5350341796875
0.085052490234375 0.37743377685546875 0.5452880859375
0.086669921875 0.3945465087890625 0.5445556640625
0.0872802734375 0.40868759155273438 0.5364990234375
0.085479736328125 0.40716171264648438 0.5311279296875
0.083221435546875 0.37471389770507812 0.54052734375
0.08673095703125 0.37908172607421875 0.549560546875
0.089324951171875 0.40895271301269531 0.541015625
-0.2594451904296875 0.31261253356933594 0.499267578125
-0.2511138916015625 0.29941749572753906 0.509033203125
-0.2569580078125 0.31154632568359375 0.4935302734375
-0.270111083984375 0.32280158996582031 0.48876953125
-0.2615814208984375 0.31316184997558594 0.50244140625
-0.2534637451171875 0.30043601989746094 0.5126953125
-0.2489471435546875 0.29848480224609375 0.5047607421875
-0.267852783203125 0.32240486145019531 0.48291015625
-0.2719268798828125 0.3231201171875 0.4931640625
0.10223388671875 0.33331680297851562 0.561279296875
0.1002349853515625 0.32958984375 0.5560302734375
0.1128997802734375 0.32154083251953125 0.5645751953125
0.1038970947265625 0.335845947265625 0.565185546875
0.0939178466796875 0.34677314758300781 0.55517578125
0.09210205078125 0.34371185302734375 0.5516357421875
0.11163330078125 0.31702613830566406 0.5606689453125
0.11370849609375 0.32481002807617188 0.5682373046875
0.09564208984375 0.34906578063964844 0.55908203125
-0.2431793212890625 0.25881576538085938 0.5352783203125
-0.246673583984375 0.24538040161132812 0.5408935546875
-0.2407989501953125 0.25604820251464844 0.5303955078125
-0.24267578125 0.27274894714355469 0.52734375
-0.2455596923828125 0.26081657409667969 0.5386962890625
-0.2490386962890625 0.24788665771484375 0.5438232421875
-0.2438812255859375 0.24217033386230469 0.53759765625
-0.2403106689453125 0.27068519592285156 0.5230712890625
-0.245452880859375 0.27450752258300781 0.53076171875
0.1544036865234375 0.29751777648925781 0.5703125
0.1539154052734375 0.2927703857421875 0.566162109375
0.1690673828125 0.294830322265625 0.5699462890625
0.1544647216796875 0.30160713195800781 0.573974609375
0.1390228271484375 0.30343818664550781 0.5706787109375
0.1384124755859375 0.29886817932128906 0.5660400390625
0.169281005859375 0.29007339477539062 0.5657958984375
0.168670654296875 0.29881668090820312 0.5732421875
0.139923095703125 0.30733299255371094 0.5732421875
-0.2710113525390625 0.21018218994140625 0.5504150390625
-0.2832794189453125 0.20205307006835938 0.5501708984375
-0.2693939208984375 0.20597267150878906 0.546875
-0.260284423828125 0.2205352783203125 0.54931640625
-0.27252197265625 0.21354103088378906 0.553955078125
-0.28448486328125 0.20561408996582031 0.5526123046875
-0.2820587158203125 0.19769096374511719 0.5460205078125
-0.2584381103515625 0.21682357788085938 0.5452880859375
-0.2622528076171875 0.22371673583984375 0.552734375
0.2119293212890625 0.30486297607421875 0.5623779296875
0.213165283203125 0.30049514770507812 0.556884765625
0.2231903076171875 0.31343841552734375 0.557861328125
0.2100677490234375 0.30830764770507812 0.5665283203125
0.1984405517578125 0.29841423034667969 0.5673828125
0.1997528076171875 0.2934722900390625 0.5621337890625
0.225128173828125 0.30928611755371094 0.55322265625
0.2210540771484375 0.3168182373046875 0.5614013671875
0.19732666015625 0.302398681640625 0.5699462890625
-0.3288116455078125 0.19221687316894531 0.5355224609375
-0.34442138671875 0.19368171691894531 0.5263671875
-0.3288726806640625 0.18804168701171875 0.531005859375
-0.3128509521484375 0.19301223754882812 0.5413818359375
-0.3285064697265625 0.19616889953613281 0.538330078125
-0.3434906005859375 0.19718551635742188 0.529541015625
-0.3450469970703125 0.189422607421875 0.5224609375
-0.312652587890625 0.18844223022460938 0.53759765625
-0.313568115234375 0.19728660583496094 0.544189453125
0.2408905029296875 0.35224342346191406 0.544677734375
0.2436676025390625 0.349212646484375 0.5411376953125
0.24090576171875 0.36747360229492188 0.5401611328125
0.2383270263671875 0.35434150695800781 0.5487060546875
0.238037109375 0.33774566650390625 0.550048828125
0.2405548095703125 0.33400726318359375 0.5457763671875
0.2440185546875 0.36544418334960938 0.5361328125
0.237701416015625 0.36903953552246094 0.5443115234375
0.23516845703125 0.34050750732421875 0.5533447265625
-0.3788604736328125 0.21576881408691406 0.4970703125
-0.385894775390625 0.22697067260742188 0.4864501953125
-0.3805389404296875 0.21201515197753906 0.491455078125
-0.3697967529296875 0.20566558837890625 0.5076904296875
-0.377227783203125 0.21903800964355469 0.5001220703125
-0.3838653564453125 0.22998619079589844 0.49072265625
-0.3883209228515625 0.22370529174804688 0.4818115234375
-0.371124267578125 0.20157623291015625 0.50341796875
-0.3682708740234375 0.20922470092773438 0.5106201171875
0.216400146484375 0.36412811279296875 0.5576171875
0.2109222412109375 0.35829925537109375 0.5614013671875
0.2254486083984375 0.36035537719726562 0.5555419921875
0.2119293212890625 0.37276077270507812 0.55712890625
0.198028564453125 0.3698577880859375 0.5615234375
0.2219085693359375 0.34962844848632812 0.5595703125
0.22418212890625 0.37237548828125 0.55224609375
-0.360687255859375 0.23628425598144531 0.509033203125
-0.3675994873046875 0.22917556762695312 0.5059814453125
-0.352935791015625 0.23443603515625 0.5172119140625
-0.3611602783203125 0.24433326721191406 0.5048828125
-0.372344970703125 0.23831558227539062 0.4989013671875
-0.3595123291015625 0.22286415100097656 0.5162353515625
-0.3466644287109375 0.24859619140625 0.51416015625
0.1959228515625 0.33079338073730469 0.571044921875
0.2017364501953125 0.32192039489746094 0.5699462890625
0.1988067626953125 0.33976173400878906 0.5684814453125
0.1867218017578125 0.33209800720214844 0.57275390625
0.19097900390625 0.31836509704589844 0.5740966796875
0.209930419921875 0.32943916320800781 0.566650390625
0.184295654296875 0.34811782836914062 0.5714111328125
-0.3262939453125 0.21884536743164062 0.5386962890625
-0.3330841064453125 0.22518348693847656 0.532958984375
-0.3270721435546875 0.21024513244628906 0.5399169921875
-0.3179931640625 0.22341728210449219 0.540283203125
-0.323944091796875 0.23790168762207031 0.5330810546875
-0.3386993408203125 0.21307945251464844 0.53271484375
-0.31488037109375 0.21198654174804688 0.545166015625
0.1555938720703125 0.32716941833496094 0.5771484375
0.148651123046875 0.33392906188964844 0.5758056640625
0.1551055908203125 0.31708717346191406 0.578125
0.1633148193359375 0.32974815368652344 0.5760498046875
0.1572113037109375 0.34577369689941406 0.57470703125
0.14398193359375 0.32232856750488281 0.5765380859375
0.1663818359375 0.31653594970703125 0.5775146484375
-0.2862091064453125 0.23257637023925781 0.548828125
-0.2803802490234375 0.2253265380859375 0.552490234375
-0.283721923828125 0.24095916748046875 0.546875
-0.295074462890625 0.2313232421875 0.546630859375
-0.291015625 0.21976280212402344 0.5509033203125
-0.2732391357421875 0.23443412780761719 0.55126953125
-0.29736328125 0.24553489685058594 0.5401611328125
0.1190185546875 0.35117912292480469 0.5697021484375
0.118011474609375 0.35967445373535156 0.567626953125
0.1128387451171875 0.34603691101074219 0.5693359375
0.1277008056640625 0.34799957275390625 0.571044921875
0.1329803466796875 0.36181831359863281 0.5692138671875
0.10699462890625 0.35594749450683594 0.5653076171875
0.1213531494140625 0.33714103698730469 0.572265625
-0.266448974609375 0.26575088500976562 0.5372314453125
-0.2576446533203125 0.26523971557617188 0.5394287109375
-0.270355224609375 0.27273368835449219 0.5318603515625
-0.27227783203125 0.25991630554199219 0.5400390625
-0.26129150390625 0.25471115112304688 0.5445556640625
-0.2584686279296875 0.27463722229003906 0.532958984375
-0.2841339111328125 0.26819992065429688 0.532470703125
0.106689453125 0.39183616638183594 0.55517578125
0.11248779296875 0.39897727966308594 0.553955078125
0.098419189453125 0.39332008361816406 0.5521240234375
0.1112060546875 0.38346099853515625 0.5589599609375
0.1246490478515625 0.38913536071777344 0.559326171875
0.1015167236328125 0.4055633544921875 0.548828125
0.0994873046875 0.38106918334960938 0.5557861328125
-0.2778167724609375 0.30357933044433594 0.5115966796875
-0.271240234375 0.30821609497070312 0.509521484375
-0.286468505859375 0.30669593811035156 0.5074462890625
-0.2768402099609375 0.29516029357910156 0.51708984375
-0.265716552734375 0.2974395751953125 0.51708984375
-0.28009033203125 0.31573486328125 0.5018310546875
-0.291839599609375 0.29369926452636719 0.5150146484375
0.125457763671875 0.42784690856933594 0.5445556640625
0.1347198486328125 0.42798805236816406 0.5455322265625
0.1200408935546875 0.43598747253417969 0.5408935546875
0.1229248046875 0.42055320739746094 0.54833984375
0.1373748779296875 0.41327285766601562 0.552734375
0.130523681640625 0.44043350219726562 0.5389404296875
0.11322021484375 0.42733383178710938 0.54296875
-0.313629150390625 0.32305908203125 0.487060546875
-0.312713623046875 0.33045196533203125 0.4808349609375
-0.3214874267578125 0.318359375 0.486328125
-0.30694580078125 0.31786346435546875 0.4937744140625
-0.3015289306640625 0.32720184326171875 0.4874267578125
-0.323883056640625 0.3287353515625 0.4759521484375
-0.3157196044921875 0.30646705627441406 0.497802734375
0.1667938232421875 0.43474578857421875 0.541748046875
0.17401123046875 0.42724418640136719 0.5438232421875
0.1681365966796875 0.44345474243164062 0.5369873046875
0.1583404541015625 0.43214035034179688 0.5439453125
0.164276123046875 0.41713523864746094 0.550537109375
0.1800079345703125 0.43713569641113281 0.5382080078125
0.1555023193359375 0.44436836242675781 0.537841796875
-0.3516082763671875 0.30776023864746094 0.4742431640625
-0.357177734375 0.31317138671875 0.465576171875
-0.354522705078125 0.30003166198730469 0.4771728515625
-0.3426055908203125 0.31009864807128906 0.4794921875
-0.346435546875 0.3199005126953125 0.4678955078125
-0.364471435546875 0.30456161499023438 0.4674072265625
-0.3404083251953125 0.29700851440429688 0.4898681640625
0.2046661376953125 0.40624237060546875 0.5457763671875
0.2050628662109375 0.3968658447265625 0.5496826171875
0.211761474609375 0.4091033935546875 0.541748046875
0.196044921875 0.41117668151855469 0.54736328125
0.19000244140625 0.39820098876953125 0.5550537109375
0.2169189453125 0.397674560546875 0.5450439453125
0.2029266357421875 0.41948890686035156 0.5413818359375
-0.370849609375 0.2718963623046875 0.484375
-0.3791656494140625 0.27181053161621094 0.476806640625
-0.366851806640625 0.26508140563964844 0.490478515625
-0.36517333984375 0.27946662902832031 0.483642578125
-0.3758392333984375 0.283172607421875 0.4739990234375
-0.378173828125 0.26108360290527344 0.4842529296875
-0.3537750244140625 0.27240371704101562 0.4957275390625
0.142852783203125 -0.60228538513183594 0.679931640625
0.166290283203125 -0.60264968872070312 0.6658935546875
0.144195556640625 -0.58838844299316406 0.6903076171875
0.11785888671875 -0.60121917724609375 0.6939697265625
0.139404296875 -0.61539649963378906 0.6688232421875
0.163055419921875 -0.61553764343261719 0.654296875
0.1665802001953125 -0.58810043334960938 0.677490234375
0.120574951171875 -0.58757591247558594 0.70361328125
0.114227294921875 -0.61375999450683594 0.68359375
0.038909912109375 -0.59641456604003906 0.7296142578125
0.04510498046875 -0.58321762084960938 0.73681640625
0.0127105712890625 -0.59398269653320312 0.73681640625
0.0325469970703125 -0.60921287536621094 0.719970703125
0.064666748046875 -0.59933280944824219 0.7198486328125
0.0699005126953125 -0.58569908142089844 0.7269287109375
0.02117919921875 -0.58050155639648438 0.7451171875
0.0056304931640625 -0.60679054260253906 0.727783203125
0.05963134765625 -0.61193656921386719 0.7098388671875
0.222015380859375 -0.59838485717773438 0.6290283203125
0.2357330322265625 -0.594024658203125 0.6199951171875
0.2178497314453125 -0.58298301696777344 0.646728515625
0.2058258056640625 -0.60013198852539062 0.64111328125
0.222625732421875 -0.61245346069335938 0.6119384765625
0.2377777099609375 -0.60918807983398438 0.5997314453125
0.230255126953125 -0.57725334167480469 0.6400146484375
0.2032623291015625 -0.58592033386230469 0.656494140625
0.2048492431640625 -0.61403274536132812 0.626220703125
-0.0538177490234375 -0.58441925048828125 0.7547607421875
-0.0391998291015625 -0.57010078430175781 0.7625732421875
-0.070098876953125 -0.57934951782226562 0.758544921875
-0.06683349609375 -0.59756088256835938 0.744384765625
-0.0343170166015625 -0.58801078796386719 0.7506103515625
-0.02178955078125 -0.57352256774902344 0.7574462890625
-0.0535736083984375 -0.56439971923828125 0.766357421875
-0.0854949951171875 -0.59268379211425781 0.7476806640625
-0.0455780029296875 -0.60134506225585938 0.7403564453125
0.26171875 -0.5610198974609375 0.6033935546875
0.2656097412109375 -0.54269599914550781 0.6015625
0.253326416015625 -0.54109573364257812 0.6251220703125
0.25592041015625 -0.57653999328613281 0.607177734375
0.2655181884765625 -0.57752418518066406 0.580322265625
0.2696990966796875 -0.55842971801757812 0.575927734375
0.2562255859375 -0.52271080017089844 0.623291015625
0.2474822998046875 -0.55663681030273438 0.62890625
0.2591400146484375 -0.59225845336914062 0.5849609375
-0.1044921875 -0.54712295532226562 0.7620849609375
-0.083892822265625 -0.52984237670898438 0.77001953125
-0.1110992431640625 -0.53010368347167969 0.7606201171875
-0.1230621337890625 -0.56238937377929688 0.7493896484375
-0.095550537109375 -0.56122970581054688 0.7618408203125
-0.075531005859375 -0.54422378540039062 0.77001953125
-0.090118408203125 -0.51136016845703125 0.7679443359375
-0.12982177734375 -0.54458045959472656 0.74560546875
-0.11370849609375 -0.57567214965820312 0.749267578125
0.26324462890625 -0.46120452880859375 0.5980224609375
0.2576446533203125 -0.4264068603515625 0.5968017578125
0.25396728515625 -0.446197509765625 0.6226806640625
0.266448974609375 -0.49294853210449219 0.59716796875
0.2665557861328125 -0.47115516662597656 0.5731201171875
0.2608489990234375 -0.43425369262695312 0.5712890625
0.2482757568359375 -0.41403388977050781 0.6212158203125
0.257171630859375 -0.47490119934082031 0.62255859375
0.2693939208984375 -0.50494956970214844 0.57177734375
-0.123291015625 -0.4595794677734375 0.7437744140625
-0.1015777587890625 -0.44508552551269531 0.7540283203125
-0.1252593994140625 -0.42755889892578125 0.7342529296875
-0.1412811279296875 -0.46912574768066406 0.726806640625
-0.1199798583984375 -0.48624992370605469 0.7501220703125
-0.098724365234375 -0.47080802917480469 0.7593994140625
-0.1038818359375 -0.4166107177734375 0.746337890625
-0.1446685791015625 -0.43471145629882812 0.7158203125
-0.1384735107421875 -0.49834823608398438 0.7354736328125
0.22979736328125 -0.29852485656738281 0.5877685546875
0.2174072265625 -0.25509452819824219 0.581787109375
0.21923828125 -0.2913970947265625 0.61181640625
0.2409515380859375 -0.34341239929199219 0.592529296875
0.234527587890625 -0.30384445190429688 0.5618896484375
0.2230072021484375 -0.26066780090332031 0.5555419921875
0.2069091796875 -0.24761390686035156 0.60546875
0.2311859130859375 -0.33584976196289062 0.6165771484375
0.2453460693359375 -0.34796333312988281 0.567138671875
-0.133636474609375 -0.31319999694824219 0.68896484375
-0.112091064453125 -0.30335807800292969 0.705322265625
-0.1355743408203125 -0.274169921875 0.670654296875
-0.1510009765625 -0.32091712951660156 0.66796875
-0.1311798095703125 -0.35306930541992188 0.7056884765625
-0.110015869140625 -0.34476089477539062 0.72119140625
-0.1149444580078125 -0.26567459106445312 0.68798828125
-0.1531524658203125 -0.28184890747070312 0.6483154296875
-0.1491241455078125 -0.36030006408691406 0.6859130859375
0.1839141845703125 0.051500320434570312 0.5185546875
0.1921234130859375 0.026203155517578125 0.494873046875
0.2205810546875 0.0627899169921875 0.50146484375
0.175048828125 0.080043792724609375 0.539306640625
0.152374267578125 0.039419174194335938 0.5335693359375
0.16156005859375 0.014207839965820312 0.5076904296875
0.22686767578125 0.03862762451171875 0.4796142578125
0.2126312255859375 0.089841842651367188 0.5213623046875
0.139678955078125 0.0702972412109375 0.560546875
-0.2171783447265625 -0.010951995849609375 0.542236328125
-0.2586822509765625 -0.011302947998046875 0.5277099609375
-0.224334716796875 -0.036130905151367188 0.521728515625
-0.179962158203125 -0.011159896850585938 0.5574951171875
-0.2109527587890625 0.017896652221679688 0.56005859375
-0.2537078857421875 0.014230728149414062 0.5416259765625
-0.2642364501953125 -0.03562164306640625 0.5101318359375
-0.1891937255859375 -0.03818511962890625 0.5333251953125
-0.169036865234375 0.021505355834960938 0.578857421875
0.3248443603515625 0.11599349975585938 0.464599609375
0.329864501953125 0.094995498657226562 0.4481201171875
0.354095458984375 0.14090728759765625 0.4556884765625
0.3177642822265625 0.13847923278808594 0.47998046875
0.2919464111328125 0.093893051147460938 0.4737548828125
0.29754638671875 0.072177886962890625 0.456298828125
0.3594512939453125 0.11956977844238281 0.4385986328125
0.3464813232421875 0.16205978393554688 0.468994140625
0.284820556640625 0.11773681640625 0.4896240234375
-0.382781982421875 -0.002033233642578125 0.4813232421875
-0.420135498046875 0.0063686370849609375 0.4619140625
-0.3849029541015625 -0.0220184326171875 0.468994140625
-0.3426513671875 -0.0085277557373046875 0.4957275390625
-0.37860107421875 0.018585205078125 0.4898681640625
-0.4156036376953125 0.026155471801757812 0.471923828125
-0.42205810546875 -0.012216567993164062 0.4510498046875
-0.346221923828125 -0.0301666259765625 0.483154296875
-0.3386688232421875 0.013965606689453125 0.5062255859375
0.428009033203125 0.2314910888671875 0.4246826171875
0.4373626708984375 0.21467208862304688 0.4066162109375
0.444793701171875 0.26822853088378906 0.4163818359375
0.4154052734375 0.24936485290527344 0.4422607421875
0.407135009765625 0.19940376281738281 0.4351806640625
0.4148406982421875 0.18004417419433594 0.417236328125
0.455657958984375 0.25262260437011719 0.3980712890625
0.4304046630859375 0.28365325927734375 0.435791015625
0.396575927734375 0.2185516357421875 0.4508056640625
-0.520477294921875 0.045976638793945312 0.388427734375
-0.5483856201171875 0.064716339111328125 0.3599853515625
-0.5264129638671875 0.027158737182617188 0.374755859375
-0.4885101318359375 0.03055572509765625 0.415771484375
-0.511505126953125 0.06436920166015625 0.4013671875
-0.5378265380859375 0.082590103149414062 0.37451171875
-0.55584716796875 0.04662322998046875 0.344482421875
-0.492279052734375 0.012090682983398438 0.4033203125
-0.481903076171875 0.050104141235351562 0.4256591796875
0.45849609375 0.40265464782714844 0.424560546875
0.4721221923828125 0.39846038818359375 0.406982421875
0.451507568359375 0.44757652282714844 0.4359130859375
0.4421234130859375 0.404541015625 0.441162109375
0.4601287841796875 0.35582542419433594 0.416259765625
0.4734344482421875 0.34724998474121094 0.398193359375
0.4644317626953125 0.44647979736328125 0.420166015625
0.435455322265625 0.44473838806152344 0.4486083984375
0.443511962890625 0.36276817321777344 0.433349609375
-0.603179931640625 0.1517333984375 0.2978515625
-0.6110076904296875 0.18635749816894531 0.2860107421875
-0.614654541015625 0.1417083740234375 0.2786865234375
-0.590576171875 0.11772727966308594 0.3134765625
-0.588165283203125 0.16114997863769531 0.3155517578125
-0.5950469970703125 0.19137191772460938 0.3040771484375
-0.623260498046875 0.17896461486816406 0.265380859375
-0.6015625 0.10376167297363281 0.295654296875
-0.576141357421875 0.13109588623046875 0.332763671875
0.4042510986328125 0.52895736694335938 0.4576416015625
0.4132843017578125 0.53324317932128906 0.4437255859375
0.37969970703125 0.54234886169433594 0.45947265625
0.39361572265625 0.52022743225097656 0.4669189453125
0.4241485595703125 0.5111846923828125 0.4532470703125
0.4349822998046875 0.51482963562011719 0.43896484375
0.3864898681640625 0.54676055908203125 0.444580078125
0.3712158203125 0.53380584716796875 0.4720458984375
0.41119384765625 0.50338554382324219 0.463134765625
-0.5974884033203125 0.26285934448242188 0.27880859375
-0.5812835693359375 0.28374099731445312 0.2828369140625
-0.605194091796875 0.26067543029785156 0.2564697265625
-0.608367919921875 0.241912841796875 0.2769775390625
-0.5862579345703125 0.262420654296875 0.2987060546875
-0.572021484375 0.28248214721679688 0.30322265625
-0.5866851806640625 0.28155708312988281 0.2596435546875
-0.6182403564453125 0.23890495300292969 0.256103515625
-0.594329833984375 0.24311637878417969 0.296875
0.2710723876953125 0.58241462707519531 0.4571533203125
0.2771148681640625 0.58437347412109375 0.4383544921875
0.2286529541015625 0.59820556640625 0.4539794921875
0.2653045654296875 0.57521820068359375 0.471435546875
0.3121185302734375 0.56742477416992188 0.459716796875
0.317108154296875 0.57019615173339844 0.442626953125
0.2349700927734375 0.600616455078125 0.4365234375
0.222930908203125 0.58990478515625 0.46826171875
0.3060760498046875 0.55968284606933594 0.4725341796875
-0.5058441162109375 0.36318206787109375 0.2979736328125
-0.476318359375 0.39619255065917969 0.3004150390625
-0.50885009765625 0.36070060729980469 0.274658203125
-0.5335540771484375 0.33250808715820312 0.2943115234375
-0.5 0.36190032958984375 0.3179931640625
-0.4716339111328125 0.39439010620117188 0.3206787109375
-0.4793701171875 0.39313507080078125 0.2777099609375
-0.537353515625 0.33109092712402344 0.2706298828125
-0.5275115966796875 0.33136940002441406 0.314208984375
0.11370849609375 0.64822959899902344 0.4373779296875
0.1185150146484375 0.65347099304199219 0.4193115234375
0.082122802734375 0.66116523742675781 0.434326171875
0.111083984375 0.6375885009765625 0.45361328125
0.1479339599609375 0.634124755859375 0.445068359375
0.1543121337890625 0.63712310791015625 0.4261474609375
0.0851287841796875 0.66739273071289062 0.4140625
0.0816497802734375 0.64803695678710938 0.4498291015625
0.14410400390625 0.62431526184082031 0.459228515625
-0.4052581787109375 0.48806381225585938 0.3040771484375
-0.3861083984375 0.51322364807128906 0.3074951171875
-0.407806396484375 0.48967361450195312 0.2799072265625
-0.426300048828125 0.459320068359375 0.3035888671875
-0.4016571044921875 0.48008155822753906 0.3275146484375
-0.3825836181640625 0.50321006774902344 0.329833984375
-0.386962890625 0.51603126525878906 0.282958984375
-0.42919921875 0.45913314819335938 0.279296875
-0.42193603515625 0.45390510559082031 0.3253173828125
0.005584716796875 0.65969276428222656 0.423828125
0.00396728515625 0.66652297973632812 0.4022216796875
-0.014434814453125 0.64377593994140625 0.42431640625
0.0110321044921875 0.64662933349609375 0.4420166015625
0.02874755859375 0.66728782653808594 0.424072265625
0.02838134765625 0.67498779296875 0.404541015625
-0.0168914794921875 0.64957618713378906 0.404296875
-0.007415771484375 0.63235855102539062 0.4423828125
0.0321044921875 0.65354347229003906 0.442626953125
-0.322540283203125 0.553192138671875 0.32958984375
-0.3002471923828125 0.5517730712890625 0.3433837890625
-0.3194122314453125 0.56020545959472656 0.30712890625
-0.345245361328125 0.54756927490234375 0.3199462890625
-0.32452392578125 0.54000663757324219 0.350341796875
-0.303192138671875 0.53838729858398438 0.36279296875
-0.295745849609375 0.55879974365234375 0.32177734375
-0.3435211181640625 0.55249786376953125 0.294677734375
-0.3453521728515625 0.53449630737304688 0.3409423828125
-0.050750732421875 0.55909347534179688 0.43994140625
-0.0548248291015625 0.56072998046875 0.419921875
-0.0587005615234375 0.52503013610839844 0.4493408203125
-0.0427398681640625 0.5532379150390625 0.4588623046875
-0.041656494140625 0.59141349792480469 0.432861328125
-0.0454559326171875 0.59491729736328125 0.4119873046875
-0.06231689453125 0.52663230895996094 0.42919921875
-0.051513671875 0.52067375183105469 0.4654541015625
-0.03369140625 0.58410072326660156 0.4515380859375
-0.2277679443359375 0.50640106201171875 0.3958740234375
-0.20404052734375 0.48315620422363281 0.4146728515625
-0.22216796875 0.51051139831542969 0.3768310546875
-0.251708984375 0.52720260620117188 0.3782958984375
-0.233123779296875 0.49713897705078125 0.41259765625
-0.20928955078125 0.47570037841796875 0.4300537109375
-0.1998291015625 0.48567581176757812 0.396240234375
-0.246368408203125 0.53270339965820312 0.3560791015625
-0.257080078125 0.51714515686035156 0.3948974609375
-0.0850982666015625 0.44891357421875 0.463623046875
-0.08709716796875 0.44931411743164062 0.443359375
-0.0965118408203125 0.43477058410644531 0.4639892578125
-0.078948974609375 0.44492912292480469 0.48046875
-0.0750274658203125 0.46831703186035156 0.4619140625
-0.0775146484375 0.46868133544921875 0.4415283203125
-0.0978851318359375 0.43728256225585938 0.443603515625
-0.091766357421875 0.42712020874023438 0.48095703125
-0.0687408447265625 0.465606689453125 0.4771728515625
-0.1421356201171875 0.43297576904296875 0.453125
-0.12493896484375 0.42682838439941406 0.458740234375
-0.1392822265625 0.43542671203613281 0.4329833984375
-0.1610260009765625 0.44449615478515625 0.443359375
-0.1458892822265625 0.42638015747070312 0.4678955078125
-0.125335693359375 0.41837310791015625 0.47607421875
-0.123870849609375 0.42983627319335938 0.439453125
-0.1572265625 0.4466705322265625 0.4248046875
-0.166290283203125 0.43861770629882812 0.4580078125
-0.00482177734375 0.51522254943847656 0.478515625
0.00860595703125 0.49963951110839844 0.4771728515625
0.0050811767578125 0.5365753173828125 0.473388671875
-0.0196075439453125 0.53026771545410156 0.477783203125
-0.0147247314453125 0.49201393127441406 0.4830322265625
-0.001190185546875 0.48094558715820312 0.48193359375
0.019287109375 0.51731109619140625 0.4722900390625
-0.0090789794921875 0.5545806884765625 0.4715576171875
-0.0289306640625 0.50343513488769531 0.48388671875
-0.246002197265625 0.44850540161132812 0.42578125
-0.2664642333984375 0.46043586730957031 0.4119873046875
-0.2493743896484375 0.43009376525878906 0.422119140625
-0.225830078125 0.43521308898925781 0.4385986328125
-0.2425079345703125 0.46736907958984375 0.4273681640625
-0.264862060546875 0.48132133483886719 0.4132080078125
-0.2683258056640625 0.43927383422851562 0.4102783203125
-0.23089599609375 0.4201812744140625 0.435791015625
-0.220489501953125 0.45037460327148438 0.4423828125
0.0452423095703125 0.57652473449707031 0.4638671875
0.0582427978515625 0.55132484436035156 0.4642333984375
0.0611114501953125 0.58121681213378906 0.4638671875
0.031829833984375 0.60374259948730469 0.4622802734375
0.030548095703125 0.56808090209960938 0.4661865234375
0.0442962646484375 0.54393577575683594 0.466064453125
0.0729522705078125 0.55485916137695312 0.4637451171875
0.0493316650390625 0.60925483703613281 0.4630126953125
0.01611328125 0.59397315979003906 0.46337890625
-0.3200531005859375 0.47099494934082031 0.3822021484375
-0.3359832763671875 0.46537590026855469 0.3739013671875
-0.317138671875 0.44357490539550781 0.3843994140625
-0.30352783203125 0.47114181518554688 0.3905029296875
-0.3233489990234375 0.49598884582519531 0.3763427734375
-0.3406829833984375 0.49137496948242188 0.369140625
-0.33209228515625 0.43889617919921875 0.3778076171875
-0.3017578125 0.44544410705566406 0.391357421875
-0.305145263671875 0.49677276611328125 0.3865966796875
0.122772216796875 0.57213592529296875 0.4713134765625
0.1492462158203125 0.56435585021972656 0.4736328125
0.1165924072265625 0.59751510620117188 0.469970703125
0.099884033203125 0.57854843139648438 0.468505859375
0.1304779052734375 0.54941940307617188 0.47021484375
0.1554107666015625 0.54224586486816406 0.4713134765625
0.1446990966796875 0.58706092834472656 0.4742431640625
0.0913848876953125 0.60582923889160156 0.4671630859375
0.1089019775390625 0.55348777770996094 0.467041015625
-0.3834075927734375 0.42755889892578125 0.3631591796875
-0.38983154296875 0.44759559631347656 0.3572998046875
-0.401275634765625 0.40758705139160156 0.3607177734375
-0.3772430419921875 0.40700149536132812 0.3662109375
-0.3670806884765625 0.44341087341308594 0.3660888671875
-0.3733367919921875 0.46662139892578125 0.3603515625
-0.4083251953125 0.42592048645019531 0.3553466796875
-0.3940277099609375 0.38952445983886719 0.36328125
-0.36126708984375 0.42075538635253906 0.3685302734375
0.252838134765625 0.52968406677246094 0.4776611328125
0.2881011962890625 0.51737785339355469 0.478271484375
0.255645751953125 0.54751205444335938 0.48046875
0.216400146484375 0.54205322265625 0.4765625
0.250274658203125 0.51313400268554688 0.4730224609375
0.2823028564453125 0.50142478942871094 0.471923828125
0.2933349609375 0.53370285034179688 0.4810791015625
0.2166290283203125 0.56121444702148438 0.4793701171875
0.216339111328125 0.52318763732910156 0.473876953125
-0.470855712890625 0.3355865478515625 0.3486328125
-0.48199462890625 0.34666824340820312 0.344970703125
-0.49578857421875 0.30987930297851562 0.344482421875
-0.4601593017578125 0.32525062561035156 0.35009765625
-0.4451904296875 0.36127471923828125 0.3531494140625
-0.4553680419921875 0.37453079223632812 0.348876953125
-0.5089111328125 0.31866836547851562 0.340087890625
-0.48309326171875 0.30141067504882812 0.3468017578125
-0.4359130859375 0.34851455688476562 0.355712890625
0.35809326171875 0.47778129577636719 0.474365234375
0.370941162109375 0.46298027038574219 0.471435546875
0.3702392578125 0.49344825744628906 0.4774169921875
0.34088134765625 0.49216842651367188 0.476318359375
0.3472747802734375 0.46461296081542969 0.4700927734375
0.3583831787109375 0.4485626220703125 0.4691162109375
0.384002685546875 0.47738265991210938 0.470947265625
0.3511810302734375 0.50763320922851562 0.4796142578125
0.3312225341796875 0.47806930541992188 0.47119140625
-0.5399627685546875 0.24950027465820312 0.337890625
-0.5562591552734375 0.25472259521484375 0.3291015625
-0.5445709228515625 0.232513427734375 0.3389892578125
-0.5246124267578125 0.24540519714355469 0.3427734375
-0.530914306640625 0.26676368713378906 0.33935546875
-0.546234130859375 0.27288246154785156 0.330322265625
-0.5611114501953125 0.23705291748046875 0.3280029296875
-0.528350830078125 0.22851181030273438 0.3470458984375
-0.5164337158203125 0.26153945922851562 0.3421630859375
0.3907012939453125 0.39179611206054688 0.4659423828125
0.3914794921875 0.36225509643554688 0.465576171875
0.4073333740234375 0.39839935302734375 0.4603271484375
0.3869171142578125 0.41925430297851562 0.4677734375
0.376190185546875 0.38399696350097656 0.47021484375
0.37640380859375 0.35834312438964844 0.47265625
0.40826416015625 0.36607170104980469 0.4583740234375
0.4022064208984375 0.42923927307128906 0.463134765625
0.3727874755859375 0.40846633911132812 0.4697265625
-0.5363006591796875 0.17718887329101562 0.36181640625
-0.55340576171875 0.17394065856933594 0.34912109375
-0.525665283203125 0.15591049194335938 0.375
-0.5192413330078125 0.17771148681640625 0.372314453125
-0.54229736328125 0.19657707214355469 0.3504638671875
-0.559844970703125 0.19635772705078125 0.3392333984375
-0.5433197021484375 0.15098190307617188 0.3634033203125
-0.5092315673828125 0.16004371643066406 0.38720703125
-0.525543212890625 0.19619941711425781 0.3607177734375
0.36712646484375 0.27616310119628906 0.4786376953125
0.3509521484375 0.24865531921386719 0.4847412109375
0.3842010498046875 0.270843505859375 0.468994140625
0.3798675537109375 0.30339431762695312 0.4725341796875
0.3505401611328125 0.27832984924316406 0.486328125
0.334442138671875 0.25229644775390625 0.492431640625
0.367767333984375 0.24379348754882812 0.4759521484375
0.3970947265625 0.30037498474121094 0.462646484375
0.3635711669921875 0.30465888977050781 0.4798583984375
-0.46929931640625 0.10410308837890625 0.4326171875
-0.4853668212890625 0.094022750854492188 0.4229736328125
-0.4438934326171875 0.091836929321289062 0.4532470703125
-0.4537811279296875 0.11233901977539062 0.4407958984375
-0.4923553466796875 0.11991500854492188 0.4132080078125
-0.508209228515625 0.11137962341308594 0.40283203125
-0.4585113525390625 0.080724716186523438 0.4442138671875
-0.42962646484375 0.10121536254882812 0.46044921875
-0.4768218994140625 0.12623786926269531 0.42236328125
0.2847442626953125 0.18499374389648438 0.50732421875
0.2574462890625 0.17131805419921875 0.5191650390625
0.2966156005859375 0.17395591735839844 0.5008544921875
0.308990478515625 0.20331954956054688 0.49951171875
0.27325439453125 0.19438743591308594 0.513427734375
0.2486724853515625 0.1836395263671875 0.522705078125
0.266815185546875 0.15724945068359375 0.5126953125
0.3230133056640625 0.194244384765625 0.490966796875
0.2955474853515625 0.2105255126953125 0.5050048828125
-0.3566741943359375 0.068981170654296875 0.5074462890625
-0.36517333984375 0.055194854736328125 0.502197265625
-0.323455810546875 0.068960189819335938 0.521240234375
-0.3480072021484375 0.081010818481445312 0.5106201171875
-0.38763427734375 0.0723114013671875 0.4908447265625
-0.3990936279296875 0.059843063354492188 0.485595703125
-0.3285369873046875 0.053129196166992188 0.5194091796875
-0.3189697265625 0.081298828125 0.522705078125
-0.3761444091796875 0.083406448364257812 0.494873046875
0.15948486328125 0.15877532958984375 0.5552978515625
0.1264495849609375 0.16031646728515625 0.5662841796875
0.162017822265625 0.13457489013671875 0.5584716796875
0.19415283203125 0.15925788879394531 0.541015625
0.158599853515625 0.17862319946289062 0.548095703125
0.1278228759765625 0.18351364135742188 0.555908203125
0.1259307861328125 0.13221168518066406 0.576416015625
0.19903564453125 0.13850021362304688 0.540283203125
0.19036865234375 0.17639350891113281 0.5394287109375
-0.2182769775390625 0.092695236206054688 0.5609130859375
-0.2112884521484375 0.071527481079101562 0.569091796875
-0.1856231689453125 0.1079254150390625 0.5712890625
-0.22662353515625 0.10996818542480469 0.552978515625
-0.2532958984375 0.08000946044921875 0.5489501953125
-0.25048828125 0.061305999755859375 0.5517578125
-0.171875 0.0830535888671875 0.5845947265625
-0.198974609375 0.12622833251953125 0.5584716796875
-0.2568206787109375 0.096324920654296875 0.543212890625
0.047088623046875 0.18683815002441406 0.562255859375
0.057952880859375 0.21016693115234375 0.5523681640625
0.0285491943359375 0.19958686828613281 0.55224609375
0.036285400390625 0.15996360778808594 0.5721435546875
0.0689849853515625 0.17467117309570312 0.570068359375
0.0767059326171875 0.20018577575683594 0.55859375
0.0428466796875 0.22192955017089844 0.5457763671875
0.0121002197265625 0.17519378662109375 0.5592041015625
0.0618896484375 0.14555549621582031 0.5833740234375
-0.1242828369140625 0.15558624267578125 0.5601806640625
-0.114410400390625 0.17352867126464844 0.5498046875
-0.1468963623046875 0.17068672180175781 0.54931640625
-0.1384735107421875 0.13909339904785156 0.5703125
-0.100250244140625 0.13654708862304688 0.5733642578125
-0.086151123046875 0.1573486328125 0.5587158203125
-0.1394195556640625 0.18527603149414062 0.5404052734375
-0.1586151123046875 0.15644645690917969 0.5560302734375
-0.1163330078125 0.11580276489257812 0.5867919921875
-0.037506103515625 0.42700576782226562 0.4949951171875
-0.030975341796875 0.44747543334960938 0.491943359375
-0.05438232421875 0.43289947509765625 0.4952392578125
-0.04351806640625 0.40536689758300781 0.498779296875
-0.0213165283203125 0.42089271545410156 0.494140625
-0.016082763671875 0.44132041931152344 0.490234375
-0.04571533203125 0.45399665832519531 0.4927978515625
-0.0637969970703125 0.41213035583496094 0.4976806640625
-0.0244140625 0.40039443969726562 0.4984130859375
-0.171783447265625 0.39247894287109375 0.474609375
-0.16082763671875 0.40494346618652344 0.4788818359375
-0.1897430419921875 0.40699005126953125 0.4647216796875
-0.183502197265625 0.38073348999023438 0.4686279296875
-0.15625 0.37790679931640625 0.4822998046875
-0.1419830322265625 0.39189529418945312 0.4869384765625
-0.180938720703125 0.41871452331542969 0.468505859375
-0.19873046875 0.39475250244140625 0.45703125
-0.170257568359375 0.36538314819335938 0.47705078125
-0.03857421875 0.34045028686523438 0.510986328125
-0.043365478515625 0.3630523681640625 0.505615234375
-0.060791015625 0.339630126953125 0.51025390625
-0.03240966796875 0.31832122802734375 0.515625
-0.01812744140625 0.34096336364746094 0.5118408203125
-0.0223846435546875 0.36106681823730469 0.507568359375
-0.0671539306640625 0.36527252197265625 0.5050048828125
-0.054168701171875 0.31492233276367188 0.5140380859375
-0.0124359130859375 0.32053565979003906 0.51611328125
-0.1264190673828125 0.321533203125 0.5015869140625
-0.1063385009765625 0.32980728149414062 0.5042724609375
-0.134124755859375 0.3424072265625 0.4952392578125
-0.14501953125 0.31347084045410156 0.4984130859375
-0.12054443359375 0.29894828796386719 0.5059814453125
