# XYZ point cloud file
-0.585113525390625 -0.297607421875 0.5924072265625
-0.610443115234375 -0.3115234375 0.579833984375
-0.55419921875 -0.34130859375 0.5916748046875
-0.514801025390625 -0.310302734375 0.60626220703125
-0.566558837890625 -0.286865234375 0.598876953125
0.23931884765625 0.56884765625 0.61041259765625
0.245147705078125 0.5263671875 0.6114501953125
0.25396728515625 0.580810546875 0.593505859375
0.226287841796875 0.605712890625 0.6063232421875
0.227020263671875 0.553466796875 0.62347412109375
0.226104736328125 0.513671875 0.624267578125
0.26068115234375 0.5400390625 0.59027099609375
0.240875244140625 0.61962890625 0.5965576171875
0.215423583984375 0.588623046875 0.6260986328125
-0.428009033203125 -0.338623046875 0.64410400390625
-0.438446044921875 -0.357666015625 0.63262939453125
-0.386932373046875 -0.3330078125 0.66265869140625
-0.41192626953125 -0.3203125 0.65655517578125
-0.464324951171875 -0.334716796875 0.62921142578125
-0.478546142578125 -0.3583984375 0.61236572265625
-0.393890380859375 -0.353759765625 0.65252685546875
-0.376220703125 -0.31103515625 0.67279052734375
-0.455230712890625 -0.32177734375 0.64208984375
0.23016357421875 0.410888671875 0.63861083984375
0.2213134765625 0.375732421875 0.64910888671875
0.245452880859375 0.410888671875 0.6195068359375
0.236053466796875 0.445068359375 0.6241455078125
0.2159423828125 0.407470703125 0.65289306640625
0.202301025390625 0.375732421875 0.658447265625
0.23724365234375 0.36865234375 0.63519287109375
0.25177001953125 0.450439453125 0.60760498046875
0.217315673828125 0.439697265625 0.64080810546875
-0.261444091796875 -0.279296875 0.71002197265625
-0.26470947265625 -0.29345703125 0.7008056640625
-0.23187255859375 -0.248046875 0.71795654296875
-0.265380859375 -0.2587890625 0.7176513671875
-0.29681396484375 -0.29443359375 0.69232177734375
-0.301483154296875 -0.317138671875 0.68988037109375
-0.230712890625 -0.265625 0.71295166015625
-0.237274169921875 -0.2333984375 0.72119140625
-0.293304443359375 -0.27490234375 0.7037353515625
0.156463623046875 0.26611328125 0.7012939453125
0.123077392578125 0.235107421875 0.7213134765625
0.172882080078125 0.243896484375 0.69415283203125
0.177337646484375 0.301025390625 0.677001953125
0.138671875 0.2822265625 0.70263671875
0.105743408203125 0.257568359375 0.72418212890625
0.14599609375 0.20556640625 0.7218017578125
0.195770263671875 0.285888671875 0.669189453125
0.161590576171875 0.310791015625 0.6885986328125
-0.13702392578125 -0.144775390625 0.7537841796875
-0.11468505859375 -0.159912109375 0.74835205078125
-0.115081787109375 -0.103515625 0.76458740234375
-0.1578369140625 -0.132568359375 0.75579833984375
-0.169769287109375 -0.18212890625 0.7423095703125
-0.15289306640625 -0.1982421875 0.73822021484375
-0.085296630859375 -0.11474609375 0.7684326171875
-0.139862060546875 -0.093017578125 0.75408935546875
-0.186981201171875 -0.1669921875 0.74383544921875
0.03387451171875 0.18603515625 0.7386474609375
0.02392578125 0.218994140625 0.74005126953125
0.00396728515625 0.182861328125 0.73455810546875
0.04412841796875 0.15380859375 0.7374267578125
0.063812255859375 0.1962890625 0.73883056640625
0.047637939453125 0.227294921875 0.7353515625
-0.002532958984375 0.2138671875 0.73675537109375
0.00701904296875 0.146240234375 0.736328125
0.079559326171875 0.160400390625 0.74127197265625
-0.101776123046875 -0.00341796875 0.75714111328125
-0.1112060546875 0.0224609375 0.746337890625
-0.129669189453125 -0.0029296875 0.7559814453125
-0.0960693359375 -0.03515625 0.77069091796875
-0.063385009765625 0.002685546875 0.75714111328125
-0.07110595703125 0.03564453125 0.7498779296875
-0.14111328125 0.01806640625 0.7518310546875
-0.132965087890625 -0.02880859375 0.76043701171875
-0.055389404296875 -0.033203125 0.77227783203125
-0.229034423828125 0.333984375 0.76361083984375
-0.233978271484375 0.357666015625 0.76531982421875
-0.240966796875 0.322265625 0.76983642578125
-0.215972900390625 0.309814453125 0.762939453125
-0.209991455078125 0.342041015625 0.756103515625
-0.220733642578125 0.365966796875 0.75335693359375
-0.25311279296875 0.350830078125 0.76904296875
-0.242095947265625 0.292236328125 0.76910400390625
-0.200469970703125 0.32080078125 0.75439453125
-0.32281494140625 0.184814453125 0.74725341796875
-0.321258544921875 0.2041015625 0.7548828125
-0.35284423828125 0.183837890625 0.7515869140625
-0.328643798828125 0.163818359375 0.73760986328125
-0.297821044921875 0.18505859375 0.7513427734375
-0.294677734375 0.208740234375 0.759521484375
-0.3524169921875 0.202880859375 0.7568359375
-0.357940673828125 0.165283203125 0.735595703125
-0.30108642578125 0.15966796875 0.74078369140625
-0.169952392578125 0.250732421875 0.75347900390625
-0.1915283203125 0.26806640625 0.75982666015625
-0.19012451171875 0.228759765625 0.75946044921875
-0.14361572265625 0.23681640625 0.7476806640625
-0.143157958984375 0.2705078125 0.75054931640625
-0.165679931640625 0.283935546875 0.757080078125
-0.2135009765625 0.244873046875 0.76263427734375
-0.16656494140625 0.212646484375 0.7489013671875
-0.1259765625 0.259765625 0.7454833984375
-0.2301025390625 0.154296875 0.74603271484375
-0.216400146484375 0.181640625 0.7545166015625
-0.253082275390625 0.170166015625 0.7510986328125
-0.24078369140625 0.132568359375 0.74298095703125
-0.21075439453125 0.14111328125 0.7447509765625
-0.195068359375 0.1669921875 0.74700927734375
-0.243743896484375 0.19677734375 0.7607421875
-0.2601318359375 0.1455078125 0.73968505859375
-0.22222900390625 0.11767578125 0.744384765625
-0.07989501953125 0.201904296875 0.73626708984375
-0.0577392578125 0.19140625 0.730224609375
-0.07061767578125 0.23046875 0.73541259765625
-0.102447509765625 0.212158203125 0.73974609375
-0.08929443359375 0.16943359375 0.73162841796875
-0.066925048828125 0.15283203125 0.7265625
-0.04791259765625 0.220458984375 0.7325439453125
-0.089202880859375 0.238525390625 0.74169921875
-0.111572265625 0.183349609375 0.7362060546875
-0.157623291015625 0.089111328125 0.7364501953125
-0.17242431640625 0.06884765625 0.73663330078125
-0.138916015625 0.071533203125 0.7388916015625
-0.130157470703125 0.114501953125 0.73687744140625
-0.172698974609375 0.10791015625 0.73492431640625
-0.188995361328125 0.085693359375 0.73486328125
-0.162139892578125 0.053466796875 0.7412109375
-0.105499267578125 0.094970703125 0.73370361328125
-0.15106201171875 0.135009765625 0.73822021484375
0.67755126953125 -0.426025390625 0.65771484375
0.668701171875 -0.42138671875 0.669677734375
0.666778564453125 -0.44482421875 0.6708984375
0.6876220703125 -0.43408203125 0.6439208984375
0.687591552734375 -0.40966796875 0.6427001953125
0.679107666015625 -0.40576171875 0.6597900390625
0.660186767578125 -0.436767578125 0.68463134765625
0.672821044921875 -0.455322265625 0.65582275390625
0.69622802734375 -0.41455078125 0.620361328125
0.62445068359375 -0.494873046875 0.71148681640625
0.639251708984375 -0.479248046875 0.7010498046875
0.623291015625 -0.478515625 0.714111328125
0.60614013671875 -0.510986328125 0.72479248046875
0.624481201171875 -0.514404296875 0.7034912109375
0.6409912109375 -0.496826171875 0.69097900390625
0.63665771484375 -0.463623046875 0.70281982421875
0.608917236328125 -0.491455078125 0.727294921875
0.60418701171875 -0.53173828125 0.7203369140625
0.704925537109375 -0.359619140625 0.6143798828125
0.690155029296875 -0.357421875 0.6368408203125
0.7021484375 -0.37451171875 0.622314453125
0.719512939453125 -0.357421875 0.58917236328125
0.70635986328125 -0.340576171875 0.611083984375
0.6871337890625 -0.33984375 0.63201904296875
0.6865234375 -0.372314453125 0.6422119140625
0.711761474609375 -0.37646484375 0.59674072265625
0.720611572265625 -0.343017578125 0.58221435546875
0.56048583984375 -0.53466796875 0.7576904296875
0.575775146484375 -0.52880859375 0.740478515625
0.5672607421875 -0.504150390625 0.759765625
0.549102783203125 -0.535400390625 0.77008056640625
0.558563232421875 -0.56396484375 0.75445556640625
0.5692138671875 -0.557373046875 0.74212646484375
0.583099365234375 -0.504638671875 0.74774169921875
0.553436279296875 -0.50830078125 0.76953125
0.5426025390625 -0.5712890625 0.7635498046875
0.677825927734375 -0.2880859375 0.62322998046875
0.654205322265625 -0.289306640625 0.644287109375
0.690582275390625 -0.30810546875 0.61187744140625
0.701873779296875 -0.289794921875 0.58599853515625
0.66290283203125 -0.26904296875 0.6279296875
0.636077880859375 -0.269775390625 0.6573486328125
0.670257568359375 -0.3056640625 0.64276123046875
0.71270751953125 -0.30810546875 0.58135986328125
0.68646240234375 -0.27001953125 0.59576416015625
0.505340576171875 -0.512939453125 0.79229736328125
0.518646240234375 -0.524169921875 0.78662109375
0.511810302734375 -0.482666015625 0.788818359375
0.48907470703125 -0.499267578125 0.7938232421875
0.498779296875 -0.551513671875 0.79010009765625
0.51220703125 -0.560546875 0.778564453125
0.523040771484375 -0.4931640625 0.7850341796875
0.494781494140625 -0.4599609375 0.7939453125
0.4820556640625 -0.537841796875 0.791259765625
0.5093994140625 -0.139404296875 0.67584228515625
0.46600341796875 -0.110595703125 0.68731689453125
0.4951171875 -0.156005859375 0.69500732421875
0.545867919921875 -0.169189453125 0.67132568359375
0.52130126953125 -0.126220703125 0.65460205078125
0.4793701171875 -0.095458984375 0.6663818359375
0.447906494140625 -0.1279296875 0.7012939453125
0.53143310546875 -0.1826171875 0.690673828125
0.5587158203125 -0.154052734375 0.64703369140625
0.335723876953125 -0.35693359375 0.79248046875
0.354248046875 -0.328857421875 0.79296875
0.301971435546875 -0.322265625 0.7947998046875
0.322509765625 -0.38232421875 0.7935791015625
0.37396240234375 -0.385009765625 0.80157470703125
0.38470458984375 -0.360107421875 0.7957763671875
0.32122802734375 -0.298583984375 0.79144287109375
0.284088134765625 -0.346435546875 0.7884521484375
0.356170654296875 -0.416748046875 0.7960205078125
0.619140625 -0.22216796875 0.645751953125
0.632904052734375 -0.234619140625 0.642822265625
0.635467529296875 -0.216064453125 0.61895751953125
0.60174560546875 -0.203857421875 0.65460205078125
0.600921630859375 -0.228759765625 0.673828125
0.60894775390625 -0.24072265625 0.670166015625
0.654296875 -0.234619140625 0.61236572265625
0.61883544921875 -0.19775390625 0.62164306640625
0.586517333984375 -0.218994140625 0.6759033203125
0.443603515625 -0.4580078125 0.79730224609375
0.43115234375 -0.49072265625 0.80078125
0.45587158203125 -0.47021484375 0.7979736328125
0.455413818359375 -0.4248046875 0.79376220703125
0.42425537109375 -0.44384765625 0.80084228515625
0.407562255859375 -0.474365234375 0.80511474609375
0.4444580078125 -0.50830078125 0.79937744140625
0.468292236328125 -0.433349609375 0.79888916015625
0.44024658203125 -0.4150390625 0.7952880859375
0.307861328125 -0.1044921875 0.74267578125
0.279296875 -0.08349609375 0.745849609375
0.2972412109375 -0.122802734375 0.75177001953125
0.339996337890625 -0.1279296875 0.7435302734375
0.315887451171875 -0.091552734375 0.73968505859375
0.2860107421875 -0.07080078125 0.74029541015625
0.271636962890625 -0.102294921875 0.75372314453125
0.329498291015625 -0.1396484375 0.75189208984375
0.349884033203125 -0.114013671875 0.73443603515625
0.257232666015625 -0.16357421875 0.76312255859375
0.275299072265625 -0.149658203125 0.76165771484375
0.23321533203125 -0.147216796875 0.760986328125
0.240936279296875 -0.177001953125 0.7685546875
0.292083740234375 -0.183837890625 0.771240234375
0.30853271484375 -0.171142578125 0.7647705078125
0.250152587890625 -0.13330078125 0.75897216796875
0.214080810546875 -0.15673828125 0.76715087890625
0.27825927734375 -0.1982421875 0.77471923828125
0.4503173828125 -0.200927734375 0.7261962890625
0.469207763671875 -0.184326171875 0.71710205078125
0.410003662109375 -0.172119140625 0.7410888671875
0.434326171875 -0.21875 0.7392578125
0.49224853515625 -0.228271484375 0.7271728515625
0.50103759765625 -0.2109375 0.7138671875
0.419952392578125 -0.156005859375 0.7237548828125
0.394073486328125 -0.190185546875 0.74713134765625
0.480743408203125 -0.244873046875 0.7313232421875
0.39398193359375 -0.266845703125 0.77294921875
0.36328125 -0.239013671875 0.7646484375
0.38018798828125 -0.288818359375 0.77923583984375
0.429229736328125 -0.2978515625 0.77386474609375
0.4091796875 -0.24951171875 0.7601318359375
0.373931884765625 -0.2236328125 0.7608642578125
0.351104736328125 -0.2578125 0.7745361328125
0.417236328125 -0.316162109375 0.782958984375
0.447296142578125 -0.279296875 0.7623291015625
0.55181884765625 -0.28369140625 0.730712890625
0.562591552734375 -0.294677734375 0.72918701171875
0.566680908203125 -0.264892578125 0.71673583984375
0.53656005859375 -0.273681640625 0.72998046875
0.53857421875 -0.304931640625 0.74261474609375
0.549560546875 -0.31298828125 0.74664306640625
0.5762939453125 -0.2705078125 0.711181640625
0.551727294921875 -0.25439453125 0.718017578125
0.5224609375 -0.290771484375 0.74151611328125
0.4971923828125 -0.357666015625 0.77325439453125
0.484649658203125 -0.373291015625 0.7845458984375
0.510498046875 -0.365234375 0.771240234375
0.508819580078125 -0.340576171875 0.76470947265625
0.483428955078125 -0.342041015625 0.7705078125
0.471832275390625 -0.360595703125 0.7802734375
0.49432373046875 -0.38330078125 0.78173828125
0.525390625 -0.348876953125 0.765380859375
0.49615478515625 -0.32763671875 0.75823974609375
0.247039794921875 0.020751953125 0.7498779296875
0.23846435546875 0.0322265625 0.75140380859375
0.245361328125 0.0263671875 0.7587890625
0.25347900390625 0.0029296875 0.7486572265625
0.250640869140625 0.015869140625 0.7386474609375
0.23931884765625 0.030517578125 0.73809814453125
0.237030029296875 0.039306640625 0.76153564453125
0.249664306640625 0.008544921875 0.75604248046875
0.2557373046875 -0.00146484375 0.74072265625
0.136505126953125 -0.136474609375 0.7900390625
0.13812255859375 -0.13330078125 0.79705810546875
0.123382568359375 -0.134765625 0.79052734375
0.13507080078125 -0.141845703125 0.7801513671875
0.152587890625 -0.13720703125 0.7884521484375
0.15045166015625 -0.1328125 0.79644775390625
0.1219482421875 -0.13134765625 0.79833984375
0.123321533203125 -0.137451171875 0.7808837890625
0.153076171875 -0.144775390625 0.776123046875
0.200347900390625 0.0595703125 0.74945068359375
0.178985595703125 0.06005859375 0.7525634765625
0.196624755859375 0.060546875 0.75909423828125
0.2132568359375 0.05419921875 0.75042724609375
0.19842529296875 0.056396484375 0.74652099609375
0.17816162109375 0.058837890625 0.743896484375
0.178619384765625 0.064208984375 0.76031494140625
0.215087890625 0.056640625 0.7606201171875
0.2138671875 0.05224609375 0.74176025390625
0.081512451171875 -0.104736328125 0.791259765625
0.084930419921875 -0.102294921875 0.798095703125
0.073272705078125 -0.0888671875 0.7822265625
0.083892822265625 -0.107421875 0.782958984375
0.096282958984375 -0.116455078125 0.7899169921875
0.0947265625 -0.115234375 0.7998046875
0.070953369140625 -0.086181640625 0.7935791015625
0.07122802734375 -0.090087890625 0.7784423828125
0.09490966796875 -0.12060546875 0.781494140625
0.13519287109375 0.04833984375 0.7506103515625
0.122283935546875 0.0322265625 0.752197265625
0.134613037109375 0.050537109375 0.75982666015625
0.144775390625 0.05517578125 0.753173828125
0.1312255859375 0.043212890625 0.7470703125
0.116546630859375 0.0263671875 0.747314453125
0.1282958984375 0.036865234375 0.7615966796875
0.147674560546875 0.058837890625 0.7596435546875
0.142578125 0.05322265625 0.74615478515625
0.071441650390625 -0.04150390625 0.76922607421875
0.069000244140625 -0.041259765625 0.780029296875
0.078582763671875 -0.028076171875 0.765869140625
0.06890869140625 -0.03955078125 0.76251220703125
0.06475830078125 -0.056884765625 0.77471923828125
0.063812255859375 -0.055419921875 0.7843017578125
0.074920654296875 -0.031494140625 0.7734375
0.07958984375 -0.022705078125 0.7587890625
0.064788818359375 -0.0556640625 0.76568603515625
0.124420166015625 -0.00146484375 0.76202392578125
0.129547119140625 -0.008544921875 0.76568603515625
0.128265380859375 0.00439453125 0.76824951171875
0.119964599609375 0.008544921875 0.76068115234375
0.121063232421875 -0.005859375 0.75640869140625
0.127349853515625 -0.009765625 0.76031494140625
0.131927490234375 -0.005126953125 0.77191162109375
0.123779296875 0.01513671875 0.7655029296875
0.114654541015625 0.00244140625 0.75567626953125
0.1141357421875 -0.015380859375 0.76885986328125
0.11346435546875 -0.01708984375 0.77606201171875
0.12548828125 -0.01513671875 0.76580810546875
0.117279052734375 -0.0126953125 0.75982666015625
0.10333251953125 -0.014892578125 0.76763916015625
0.099029541015625 -0.0166015625 0.77520751953125
0.124847412109375 -0.016357421875 0.77703857421875
0.124786376953125 -0.01318359375 0.76007080078125
0.10638427734375 -0.00927734375 0.75762939453125
0.2459716796875 -0.050048828125 0.75244140625
0.250396728515625 -0.056640625 0.7486572265625
0.2508544921875 -0.032958984375 0.74951171875
0.243865966796875 -0.0458984375 0.7633056640625
0.241302490234375 -0.0712890625 0.759765625
0.246978759765625 -0.07861328125 0.75445556640625
0.255859375 -0.039306640625 0.74407958984375
0.24664306640625 -0.02734375 0.7562255859375
0.239044189453125 -0.066162109375 0.7681884765625
0.2047119140625 -0.11962890625 0.7724609375
0.18670654296875 -0.12939453125 0.77398681640625
0.208648681640625 -0.126220703125 0.7667236328125
0.219635009765625 -0.10546875 0.767822265625
0.201629638671875 -0.114013671875 0.77874755859375
0.1849365234375 -0.12255859375 0.78533935546875
0.193267822265625 -0.136962890625 0.7666015625
0.222259521484375 -0.111328125 0.75897216796875
0.21710205078125 -0.100830078125 0.77789306640625
0.23486328125 -0.037109375 0.78485107421875
0.23895263671875 -0.039306640625 0.77685546875
0.2413330078125 -0.016845703125 0.77703857421875
0.229522705078125 -0.029052734375 0.78985595703125
0.228118896484375 -0.0517578125 0.78912353515625
0.233612060546875 -0.0556640625 0.78387451171875
0.2442626953125 -0.019775390625 0.77093505859375
0.2357177734375 -0.01611328125 0.78265380859375
0.22442626953125 -0.0458984375 0.7943115234375
0.194549560546875 -0.095947265625 0.803955078125
0.17913818359375 -0.107421875 0.80584716796875
0.1968994140625 -0.103515625 0.796142578125
0.20867919921875 -0.0859375 0.80084228515625
0.190277099609375 -0.090087890625 0.81072998046875
0.17681884765625 -0.1025390625 0.81298828125
0.1800537109375 -0.111328125 0.79986572265625
0.2130126953125 -0.092041015625 0.7955322265625
0.20269775390625 -0.07958984375 0.8056640625
0.137664794921875 0.010986328125 0.794921875
0.141326904296875 -0.0009765625 0.795166015625
0.14642333984375 0.013916015625 0.80169677734375
0.137237548828125 0.02685546875 0.79107666015625
0.1324462890625 0.01220703125 0.78656005859375
0.134857177734375 -0.001708984375 0.789306640625
0.148590087890625 -0.000244140625 0.80303955078125
0.14300537109375 0.02685546875 0.7969970703125
0.129608154296875 0.0234375 0.7857666015625
0.114593505859375 -0.0205078125 0.79730224609375
0.118255615234375 -0.021240234375 0.80694580078125
0.127105712890625 -0.015869140625 0.79876708984375
0.112152099609375 -0.01953125 0.78924560546875
0.100494384765625 -0.022216796875 0.8001708984375
0.104248046875 -0.02587890625 0.80316162109375
0.132843017578125 -0.01953125 0.80792236328125
0.126495361328125 -0.014892578125 0.7916259765625
0.09735107421875 -0.020751953125 0.793212890625
0.1427001953125 0.0556640625 0.78546142578125
0.135894775390625 0.046630859375 0.785888671875
0.14935302734375 0.052734375 0.791259765625
0.155303955078125 0.06396484375 0.78839111328125
0.13671875 0.054931640625 0.7762451171875
0.131591796875 0.046630859375 0.77880859375
0.14349365234375 0.04541015625 0.79156494140625
0.158477783203125 0.060302734375 0.79302978515625
0.152313232421875 0.06396484375 0.77532958984375
0.073333740234375 -0.045166015625 0.80535888671875
0.078948974609375 -0.046142578125 0.81146240234375
0.080535888671875 -0.033203125 0.80389404296875
0.069976806640625 -0.0439453125 0.7984619140625
0.07080078125 -0.055419921875 0.812255859375
0.0777587890625 -0.054931640625 0.81256103515625
0.084503173828125 -0.038330078125 0.81085205078125
0.0770263671875 -0.03125 0.792724609375
0.0643310546875 -0.055419921875 0.803466796875
0.201080322265625 0.062744140625 0.781494140625
0.1807861328125 0.067138671875 0.78106689453125
0.198150634765625 0.05859375 0.7864990234375
0.213348388671875 0.057861328125 0.7818603515625
0.201171875 0.06298828125 0.777587890625
0.180328369140625 0.068115234375 0.776123046875
0.181243896484375 0.0625 0.78607177734375
0.209564208984375 0.052978515625 0.791015625
0.2161865234375 0.060546875 0.77716064453125
0.091796875 -0.093017578125 0.81854248046875
0.095428466796875 -0.08740234375 0.82757568359375
0.0777587890625 -0.082275390625 0.8157958984375
0.08648681640625 -0.09814453125 0.81524658203125
0.100830078125 -0.10595703125 0.8223876953125
0.108856201171875 -0.098388671875 0.8265380859375
0.085906982421875 -0.077392578125 0.82110595703125
0.075408935546875 -0.08349609375 0.81201171875
0.096221923828125 -0.108642578125 0.81524658203125
0.24017333984375 0.027099609375 0.77752685546875
0.236602783203125 0.040283203125 0.7786865234375
0.2349853515625 0.02490234375 0.78619384765625
0.2418212890625 0.013916015625 0.77545166015625
0.2430419921875 0.02978515625 0.77325439453125
0.240447998046875 0.04150390625 0.77386474609375
0.23101806640625 0.036865234375 0.7869873046875
0.234527587890625 0.01416015625 0.7828369140625
0.24755859375 0.0146484375 0.7718505859375
0.137542724609375 -0.117919921875 0.82159423828125
0.14251708984375 -0.109619140625 0.823486328125
0.128021240234375 -0.116943359375 0.8251953125
0.136260986328125 -0.1240234375 0.8160400390625
0.14996337890625 -0.117431640625 0.81878662109375
0.152099609375 -0.110595703125 0.82183837890625
0.131683349609375 -0.1103515625 0.8282470703125
0.125152587890625 -0.12353515625 0.8179931640625
0.149566650390625 -0.123291015625 0.8121337890625
0.17315673828125 0.03515625 0.80413818359375
0.18585205078125 0.0244140625 0.8072509765625
0.184906005859375 0.041015625 0.79949951171875
0.16363525390625 0.04296875 0.802490234375
0.164642333984375 0.025146484375 0.805908203125
0.17254638671875 0.010986328125 0.8133544921875
0.1976318359375 0.0380859375 0.8018798828125
0.172332763671875 0.0498046875 0.7939453125
0.1553955078125 0.033935546875 0.80194091796875
0.11260986328125 -0.056396484375 0.822509765625
0.10687255859375 -0.068115234375 0.826416015625
0.1259765625 -0.059814453125 0.82525634765625
0.116943359375 -0.0439453125 0.81878662109375
0.098480224609375 -0.052490234375 0.82061767578125
0.09619140625 -0.061767578125 0.82049560546875
0.118804931640625 -0.07421875 0.82513427734375
0.132568359375 -0.042724609375 0.8218994140625
0.10479736328125 -0.042236328125 0.81707763671875
0.210723876953125 -0.007080078125 0.80426025390625
0.199493408203125 -0.020263671875 0.8123779296875
0.21881103515625 -0.016845703125 0.7977294921875
0.220611572265625 0.00927734375 0.79693603515625
0.204193115234375 0.00244140625 0.8077392578125
0.189422607421875 -0.011962890625 0.815185546875
0.213165283203125 -0.032470703125 0.806884765625
0.227752685546875 -0.002685546875 0.7940673828125
0.214080810546875 0.01904296875 0.80157470703125
0.1634521484375 -0.07568359375 0.826171875
0.175689697265625 -0.08154296875 0.8212890625
0.177093505859375 -0.059814453125 0.8240966796875
0.15087890625 -0.0703125 0.82916259765625
0.153106689453125 -0.091552734375 0.8297119140625
0.16375732421875 -0.094482421875 0.82366943359375
0.18719482421875 -0.067138671875 0.8214111328125
0.16339111328125 -0.052978515625 0.82550048828125
0.143524169921875 -0.0849609375 0.831298828125
0.096343994140625 0.06689453125 0.744384765625
0.107086181640625 0.053466796875 0.746337890625
0.122161865234375 0.074951171875 0.75
0.078826904296875 0.089111328125 0.74249267578125
0.06903076171875 0.054443359375 0.74444580078125
0.088623046875 0.036865234375 0.74591064453125
0.130706787109375 0.06298828125 0.7447509765625
0.114654541015625 0.09619140625 0.74884033203125
0.0357666015625 0.079345703125 0.7403564453125
0.0328369140625 -0.011962890625 0.759765625
0.033172607421875 -0.039306640625 0.76904296875
0.052459716796875 -0.024658203125 0.75677490234375
0.0377197265625 0.01416015625 0.74517822265625
0.0052490234375 -0.001708984375 0.7586669921875
0.009124755859375 -0.039794921875 0.77215576171875
0.05035400390625 -0.04638671875 0.76361083984375
0.061187744140625 -0.002685546875 0.74932861328125
0.001007080078125 0.031494140625 0.74603271484375
0.19842529296875 0.064453125 0.73388671875
0.19927978515625 0.060302734375 0.73681640625
0.21722412109375 0.058837890625 0.7227783203125
0.20123291015625 0.072509765625 0.72412109375
0.17156982421875 0.075439453125 0.7431640625
0.17333984375 0.067626953125 0.74041748046875
0.214813232421875 0.052978515625 0.7279052734375
0.225860595703125 0.0625 0.7125244140625
0.1732177734375 0.08837890625 0.7418212890625
0.070465087890625 -0.116455078125 0.77545166015625
0.085784912109375 -0.13671875 0.7705078125
0.077392578125 -0.1103515625 0.77593994140625
0.056793212890625 -0.093017578125 0.7799072265625
0.06219482421875 -0.1240234375 0.770751953125
0.07879638671875 -0.1455078125 0.76275634765625
0.09033203125 -0.12841796875 0.77374267578125
0.063323974609375 -0.092041015625 0.777099609375
0.0443115234375 -0.1005859375 0.7783203125
0.26873779296875 0.02197265625 0.70947265625
0.25921630859375 0.017333984375 0.7198486328125
0.280426025390625 0.010498046875 0.71234130859375
0.273223876953125 0.027099609375 0.69317626953125
0.254150390625 0.0361328125 0.71343994140625
0.247650146484375 0.031005859375 0.719482421875
0.270416259765625 0.00146484375 0.72137451171875
0.28973388671875 0.02001953125 0.6959228515625
0.26129150390625 0.038818359375 0.69610595703125
0.128662109375 -0.17919921875 0.7633056640625
0.1429443359375 -0.18896484375 0.76153564453125
0.1339111328125 -0.164794921875 0.7672119140625
0.114898681640625 -0.16796875 0.761962890625
0.122711181640625 -0.19970703125 0.7552490234375
0.137298583984375 -0.21044921875 0.7523193359375
0.150604248046875 -0.171142578125 0.76043701171875
0.118011474609375 -0.154296875 0.76898193359375
0.105377197265625 -0.18359375 0.7520751953125
0.34869384765625 -0.044189453125 0.70025634765625
0.337127685546875 -0.06201171875 0.7191162109375
0.382598876953125 -0.06494140625 0.70025634765625
0.365966796875 -0.031982421875 0.6829833984375
0.319366455078125 -0.026123046875 0.7059326171875
0.3055419921875 -0.037841796875 0.72705078125
0.37091064453125 -0.082763671875 0.71600341796875
0.399871826171875 -0.048583984375 0.6785888671875
0.33538818359375 -0.015380859375 0.6878662109375
0.20135498046875 -0.2353515625 0.7745361328125
0.2279052734375 -0.261474609375 0.7796630859375
0.21160888671875 -0.213134765625 0.77789306640625
0.17987060546875 -0.21923828125 0.768310546875
0.190338134765625 -0.260009765625 0.76708984375
0.211273193359375 -0.283447265625 0.7767333984375
0.247406005859375 -0.239013671875 0.7803955078125
0.19085693359375 -0.193603515625 0.77001953125
0.169586181640625 -0.241943359375 0.76104736328125
0.393829345703125 -0.001953125 0.58966064453125
0.392791748046875 0.001953125 0.5537109375
0.36212158203125 0.010986328125 0.59295654296875
0.388885498046875 -0.011474609375 0.6214599609375
0.424468994140625 -0.017333984375 0.58935546875
0.42547607421875 -0.015869140625 0.55133056640625
0.366455078125 0.0107421875 0.55621337890625
0.356597900390625 0.00390625 0.62579345703125
0.42364501953125 -0.024169921875 0.62286376953125
0.14227294921875 -0.3330078125 0.71478271484375
0.129150390625 -0.3076171875 0.706787109375
0.1287841796875 -0.3486328125 0.689697265625
0.163177490234375 -0.359619140625 0.7266845703125
0.15936279296875 -0.31005859375 0.73846435546875
0.14434814453125 -0.28857421875 0.7303466796875
0.116058349609375 -0.32666015625 0.6785888671875
0.145172119140625 -0.374267578125 0.70111083984375
0.17919921875 -0.336181640625 0.75390625
0.297821044921875 0.037109375 0.6060791015625
0.299591064453125 0.036376953125 0.56988525390625
0.279937744140625 0.04736328125 0.6181640625
0.291534423828125 0.0361328125 0.642333984375
0.313995361328125 0.02880859375 0.5994873046875
0.3179931640625 0.02783203125 0.56866455078125
0.284332275390625 0.044189453125 0.5760498046875
0.27752685546875 0.044677734375 0.6478271484375
0.305572509765625 0.02392578125 0.63739013671875
0.091033935546875 -0.257080078125 0.6934814453125
0.0772705078125 -0.24267578125 0.687744140625
0.078277587890625 -0.280029296875 0.658203125
0.10113525390625 -0.271484375 0.6944580078125
0.099456787109375 -0.237548828125 0.71771240234375
0.089935302734375 -0.220458984375 0.7193603515625
0.066558837890625 -0.265625 0.65789794921875
0.08905029296875 -0.292236328125 0.662109375
0.113555908203125 -0.254638671875 0.720703125
0.227294921875 0.077880859375 0.6346435546875
0.210906982421875 0.09130859375 0.6424560546875
0.217193603515625 0.07861328125 0.6773681640625
0.248291015625 0.06103515625 0.62762451171875
0.238494873046875 0.07080078125 0.59393310546875
0.224151611328125 0.088134765625 0.5928955078125
0.196807861328125 0.09716796875 0.6885986328125
0.24127197265625 0.064453125 0.6661376953125
0.25335693359375 0.060546875 0.587890625
0.038421630859375 -0.189697265625 0.694091796875
0.044677734375 -0.1630859375 0.731201171875
0.02587890625 -0.177001953125 0.70098876953125
0.034210205078125 -0.217041015625 0.660888671875
0.055084228515625 -0.208740234375 0.6898193359375
0.063568115234375 -0.181640625 0.72467041015625
0.026947021484375 -0.143798828125 0.7391357421875
0.01763916015625 -0.208984375 0.6639404296875
0.046142578125 -0.234619140625 0.65594482421875
0.570770263671875 -0.30908203125 0.726806640625
0.56854248046875 -0.302734375 0.73028564453125
0.561279296875 -0.327880859375 0.73870849609375
0.57244873046875 -0.31396484375 0.7244873046875
0.58514404296875 -0.293212890625 0.7176513671875
0.5831298828125 -0.28564453125 0.71484375
0.55902099609375 -0.3251953125 0.74188232421875
0.564910888671875 -0.333984375 0.73529052734375
0.583984375 -0.298095703125 0.7132568359375
0.525390625 -0.378173828125 0.77288818359375
0.539947509765625 -0.364990234375 0.76171875
0.522064208984375 -0.375 0.77679443359375
0.5179443359375 -0.39208984375 0.77899169921875
0.52801513671875 -0.380615234375 0.76715087890625
0.541900634765625 -0.366943359375 0.755615234375
0.537750244140625 -0.361572265625 0.7635498046875
0.508514404296875 -0.391357421875 0.78375244140625
0.522308349609375 -0.392822265625 0.777587890625
0.620635986328125 -0.296142578125 0.69146728515625
0.62713623046875 -0.291748046875 0.682861328125
0.607666015625 -0.286865234375 0.7021484375
0.616912841796875 -0.30029296875 0.69110107421875
0.632904052734375 -0.311767578125 0.683349609375
0.637725830078125 -0.308349609375 0.677734375
0.609344482421875 -0.279296875 0.69439697265625
0.6016845703125 -0.29052734375 0.69927978515625
0.628448486328125 -0.31591796875 0.68402099609375
0.52166748046875 -0.427490234375 0.79058837890625
0.511871337890625 -0.4150390625 0.78741455078125
0.51763916015625 -0.436767578125 0.79345703125
0.52996826171875 -0.4404296875 0.78204345703125
0.52130126953125 -0.426025390625 0.78466796875
0.51348876953125 -0.415283203125 0.7822265625
0.507781982421875 -0.421142578125 0.79296875
0.527435302734375 -0.453125 0.78131103515625
0.531280517578125 -0.436767578125 0.77862548828125
0.651611328125 -0.359375 0.67730712890625
0.6597900390625 -0.358642578125 0.6688232421875
0.6473388671875 -0.343505859375 0.67901611328125
0.646820068359375 -0.362548828125 0.6796875
0.652069091796875 -0.37548828125 0.67529296875
0.661346435546875 -0.375 0.668701171875
0.656768798828125 -0.344970703125 0.6700439453125
0.6435546875 -0.346435546875 0.680419921875
0.647613525390625 -0.376708984375 0.67950439453125
0.57598876953125 -0.458251953125 0.76080322265625
0.561248779296875 -0.453369140625 0.7666015625
0.574127197265625 -0.466552734375 0.760498046875
0.59234619140625 -0.45947265625 0.7452392578125
0.578399658203125 -0.45166015625 0.751220703125
0.559722900390625 -0.4501953125 0.76483154296875
0.562530517578125 -0.464111328125 0.77154541015625
0.58978271484375 -0.46875 0.7442626953125
0.589935302734375 -0.453857421875 0.7381591796875
0.647247314453125 -0.415771484375 0.690673828125
0.650787353515625 -0.415771484375 0.687255859375
0.651947021484375 -0.40283203125 0.68621826171875
0.642120361328125 -0.41357421875 0.6865234375
0.64105224609375 -0.425048828125 0.694580078125
0.646331787109375 -0.427734375 0.69512939453125
0.65716552734375 -0.404296875 0.680908203125
0.646575927734375 -0.403076171875 0.68597412109375
0.63677978515625 -0.4228515625 0.69189453125
0.618377685546875 -0.447998046875 0.7178955078125
0.60888671875 -0.45361328125 0.72601318359375
0.621002197265625 -0.453125 0.71661376953125
0.62982177734375 -0.441162109375 0.71044921875
0.616455078125 -0.445068359375 0.717529296875
0.60797119140625 -0.45068359375 0.7242431640625
0.609161376953125 -0.461669921875 0.72784423828125
0.629730224609375 -0.446533203125 0.7071533203125
0.623321533203125 -0.43798828125 0.71044921875
0.624298095703125 -0.41943359375 0.6705322265625
0.631103515625 -0.416015625 0.67791748046875
0.62493896484375 -0.408447265625 0.6639404296875
0.615142822265625 -0.416259765625 0.66156005859375
0.6187744140625 -0.427490234375 0.67767333984375
0.626495361328125 -0.424560546875 0.68353271484375
0.632904052734375 -0.405029296875 0.6751708984375
0.61798095703125 -0.4072265625 0.65594482421875
0.613433837890625 -0.4248046875 0.67022705078125
0.60296630859375 -0.444580078125 0.69525146484375
0.5955810546875 -0.45068359375 0.69622802734375
0.609100341796875 -0.4453125 0.70001220703125
0.61004638671875 -0.438720703125 0.68865966796875
0.59320068359375 -0.44677734375 0.6865234375
0.58709716796875 -0.45263671875 0.69769287109375
0.602691650390625 -0.4482421875 0.707275390625
0.61578369140625 -0.44140625 0.699462890625
0.59808349609375 -0.439697265625 0.67828369140625
0.62945556640625 -0.367431640625 0.65771484375
0.63525390625 -0.3671875 0.6658935546875
0.628265380859375 -0.355712890625 0.65472412109375
0.62310791015625 -0.373046875 0.646240234375
0.630615234375 -0.382080078125 0.656982421875
0.635498046875 -0.382568359375 0.6671142578125
0.630706787109375 -0.353515625 0.66729736328125
0.623870849609375 -0.360107421875 0.6488037109375
0.62188720703125 -0.3837890625 0.64581298828125
0.562255859375 -0.456787109375 0.72686767578125
0.549163818359375 -0.45556640625 0.73602294921875
0.56622314453125 -0.453369140625 0.74005126953125
0.574981689453125 -0.45703125 0.7222900390625
0.55694580078125 -0.458251953125 0.7196044921875
0.546112060546875 -0.45703125 0.724365234375
0.55352783203125 -0.452880859375 0.74749755859375
0.58087158203125 -0.4541015625 0.728271484375
0.56781005859375 -0.457763671875 0.707763671875
0.6092529296875 -0.31591796875 0.66461181640625
0.611968994140625 -0.307373046875 0.6756591796875
0.597930908203125 -0.311767578125 0.675537109375
0.609344482421875 -0.324462890625 0.65728759765625
0.616729736328125 -0.32568359375 0.66290283203125
0.622283935546875 -0.3212890625 0.6724853515625
0.599639892578125 -0.302978515625 0.6861572265625
0.599273681640625 -0.322021484375 0.6627197265625
0.6148681640625 -0.3330078125 0.65130615234375
0.517852783203125 -0.43603515625 0.75299072265625
0.51641845703125 -0.42333984375 0.75689697265625
0.520843505859375 -0.43212890625 0.76690673828125
0.528472900390625 -0.445068359375 0.748046875
0.51922607421875 -0.4384765625 0.74249267578125
0.51580810546875 -0.430908203125 0.74468994140625
0.516265869140625 -0.422119140625 0.7674560546875
0.529510498046875 -0.442138671875 0.7578125
0.52569580078125 -0.447265625 0.73272705078125
0.572509765625 -0.33740234375 0.69720458984375
0.572998046875 -0.32763671875 0.71063232421875
0.56298828125 -0.3525390625 0.70855712890625
0.573028564453125 -0.346923828125 0.68890380859375
0.5811767578125 -0.323486328125 0.69281005859375
0.582061767578125 -0.31298828125 0.70123291015625
0.563201904296875 -0.34521484375 0.72125244140625
0.563690185546875 -0.360595703125 0.69427490234375
0.58367919921875 -0.332763671875 0.68359375
0.53228759765625 -0.396728515625 0.737060546875
0.541534423828125 -0.38232421875 0.72332763671875
0.528778076171875 -0.38818359375 0.7447509765625
0.5191650390625 -0.404541015625 0.7484130859375
0.534088134765625 -0.403564453125 0.72601318359375
0.544097900390625 -0.392578125 0.71240234375
0.539764404296875 -0.375244140625 0.7362060546875
0.521087646484375 -0.399658203125 0.7611083984375
0.5196533203125 -0.41015625 0.73382568359375
0.592864990234375 -0.38720703125 0.66033935546875
0.583465576171875 -0.398193359375 0.6700439453125
0.6004638671875 -0.40087890625 0.65277099609375
0.5960693359375 -0.37646484375 0.65179443359375
0.583251953125 -0.37158203125 0.66180419921875
0.575836181640625 -0.38623046875 0.67340087890625
0.594757080078125 -0.41259765625 0.65863037109375
0.6024169921875 -0.3896484375 0.64727783203125
0.59222412109375 -0.362060546875 0.6575927734375
0.556427001953125 -0.431640625 0.69287109375
0.56884765625 -0.43896484375 0.68670654296875
0.56304931640625 -0.42041015625 0.68499755859375
0.54638671875 -0.4248046875 0.69891357421875
0.5517578125 -0.439208984375 0.70062255859375
0.559906005859375 -0.444580078125 0.69610595703125
0.577728271484375 -0.43115234375 0.67742919921875
0.55487060546875 -0.4140625 0.6893310546875
0.534759521484375 -0.42919921875 0.70623779296875
0.609954833984375 -0.357177734375 0.64031982421875
0.60675048828125 -0.359619140625 0.642578125
0.614013671875 -0.364013671875 0.63995361328125
0.609954833984375 -0.34765625 0.6417236328125
0.603729248046875 -0.3486328125 0.64520263671875
0.61126708984375 -0.37255859375 0.64141845703125
0.614776611328125 -0.353759765625 0.639404296875
0.53131103515625 -0.45068359375 0.71270751953125
0.5400390625 -0.454833984375 0.71234130859375
0.533721923828125 -0.448974609375 0.711669921875
0.52471923828125 -0.44970703125 0.7159423828125
0.530059814453125 -0.454345703125 0.71807861328125
0.5477294921875 -0.455078125 0.70513916015625
0.523834228515625 -0.443115234375 0.71759033203125
-0.0506591796875 0.281982421875 0.74176025390625
-0.056732177734375 0.269775390625 0.73919677734375
-0.037506103515625 0.280517578125 0.74200439453125
-0.04840087890625 0.292724609375 0.74725341796875
-0.065338134765625 0.28564453125 0.74383544921875
-0.06597900390625 0.277099609375 0.7470703125
-0.036834716796875 0.265869140625 0.7364501953125
-0.035125732421875 0.287841796875 0.7440185546875
-0.06390380859375 0.294677734375 0.7447509765625
-0.21563720703125 0.04052734375 0.74407958984375
-0.206939697265625 0.0263671875 0.74688720703125
-0.207244873046875 0.046142578125 0.74169921875
-0.22503662109375 0.052734375 0.7459716796875
-0.219635009765625 0.03466796875 0.74737548828125
-0.2125244140625 0.0224609375 0.7498779296875
-0.199554443359375 0.032470703125 0.74261474609375
-0.214569091796875 0.0615234375 0.744140625
-0.230224609375 0.045654296875 0.74700927734375
-0.11114501953125 0.3154296875 0.74847412109375
-0.11700439453125 0.3046875 0.74920654296875
-0.096832275390625 0.305908203125 0.75445556640625
-0.1038818359375 0.322021484375 0.7540283203125
-0.125885009765625 0.326416015625 0.74847412109375
-0.135589599609375 0.317138671875 0.7537841796875
-0.105224609375 0.295654296875 0.7520751953125
-0.092681884765625 0.313232421875 0.755859375
-0.1212158203125 0.332763671875 0.754150390625
-0.26177978515625 0.089111328125 0.73870849609375
-0.25335693359375 0.07421875 0.74462890625
-0.257537841796875 0.0986328125 0.739013671875
-0.281280517578125 0.097412109375 0.73748779296875
-0.266815185546875 0.080322265625 0.74169921875
-0.255035400390625 0.06982421875 0.74468994140625
-0.245361328125 0.0869140625 0.7423095703125
-0.27447509765625 0.110595703125 0.7354736328125
-0.283447265625 0.087158203125 0.7374267578125
-0.16717529296875 0.373779296875 0.75067138671875
-0.181640625 0.3642578125 0.74896240234375
-0.155059814453125 0.359130859375 0.74945068359375
-0.15869140625 0.380126953125 0.75042724609375
-0.1754150390625 0.392578125 0.74627685546875
-0.18914794921875 0.386962890625 0.74688720703125
-0.165618896484375 0.347412109375 0.7510986328125
-0.146697998046875 0.364501953125 0.75146484375
-0.16888427734375 0.393798828125 0.74957275390625
-0.34075927734375 0.11572265625 0.72491455078125
-0.313323974609375 0.10986328125 0.72869873046875
-0.338836669921875 0.12841796875 0.71942138671875
-0.364410400390625 0.121337890625 0.723876953125
-0.33978271484375 0.105224609375 0.7247314453125
-0.318572998046875 0.09765625 0.73046875
-0.3104248046875 0.125 0.7281494140625
-0.36309814453125 0.134521484375 0.72210693359375
-0.363616943359375 0.10693359375 0.72259521484375
0.012725830078125 0.275634765625 0.73529052734375
0.01409912109375 0.263671875 0.73297119140625
0.027496337890625 0.28271484375 0.73797607421875
0.0145263671875 0.287841796875 0.7401123046875
-0.00372314453125 0.2763671875 0.7369384765625
-0.005218505859375 0.261474609375 0.7371826171875
0.030059814453125 0.269287109375 0.73291015625
0.0289306640625 0.289794921875 0.74029541015625
-0.003173828125 0.283935546875 0.74188232421875
-0.191253662109375 -0.014892578125 0.75238037109375
-0.190582275390625 -0.031494140625 0.757568359375
-0.18145751953125 -0.011962890625 0.7530517578125
-0.196533203125 -0.0009765625 0.74957275390625
-0.198394775390625 -0.016845703125 0.75726318359375
-0.19598388671875 -0.033447265625 0.7593994140625
-0.179718017578125 -0.0322265625 0.75469970703125
-0.185882568359375 0.0048828125 0.75311279296875
-0.20147705078125 -0.00244140625 0.75482177734375
0.10260009765625 0.318115234375 0.7166748046875
0.11053466796875 0.309326171875 0.710693359375
0.128814697265625 0.339111328125 0.7066650390625
0.0966796875 0.32421875 0.7237548828125
0.075653076171875 0.301513671875 0.726806640625
0.078582763671875 0.29248046875 0.72412109375
0.137725830078125 0.330322265625 0.69586181640625
0.121246337890625 0.345947265625 0.71435546875
0.0711669921875 0.30859375 0.734130859375
-0.20703125 -0.11328125 0.75714111328125
-0.217437744140625 -0.14599609375 0.75439453125
-0.19720458984375 -0.119140625 0.75677490234375
-0.19732666015625 -0.081787109375 0.763916015625
-0.214599609375 -0.11083984375 0.7613525390625
-0.22589111328125 -0.14013671875 0.7579345703125
-0.21087646484375 -0.151611328125 0.750244140625
-0.183013916015625 -0.08544921875 0.75994873046875
-0.203277587890625 -0.079833984375 0.7666015625
0.17254638671875 0.410400390625 0.68463134765625
0.18487548828125 0.40673828125 0.67376708984375
0.18548583984375 0.4375 0.67718505859375
0.167266845703125 0.4140625 0.6917724609375
0.165740966796875 0.388916015625 0.6893310546875
0.176849365234375 0.383056640625 0.681884765625
0.1944580078125 0.434326171875 0.6632080078125
0.178375244140625 0.439697265625 0.68341064453125
0.15777587890625 0.390869140625 0.6959228515625
-0.27398681640625 -0.222412109375 0.73736572265625
-0.290802001953125 -0.23974609375 0.722412109375
-0.2718505859375 -0.23193359375 0.7320556640625
-0.253448486328125 -0.197509765625 0.746826171875
-0.2813720703125 -0.213623046875 0.73785400390625
-0.298309326171875 -0.231201171875 0.72821044921875
-0.2899169921875 -0.24853515625 0.715576171875
-0.246856689453125 -0.20849609375 0.738037109375
-0.257598876953125 -0.191650390625 0.75054931640625
0.186981201171875 0.5263671875 0.6549072265625
0.19683837890625 0.530517578125 0.64453125
0.179962158203125 0.559814453125 0.6556396484375
0.1778564453125 0.526123046875 0.66143798828125
0.185821533203125 0.495361328125 0.66265869140625
0.1988525390625 0.498046875 0.6495361328125
0.191192626953125 0.56640625 0.64190673828125
0.1741943359375 0.55517578125 0.66375732421875
0.182769775390625 0.496337890625 0.6724853515625
-0.392822265625 -0.272705078125 0.681396484375
-0.427215576171875 -0.283203125 0.6641845703125
-0.397247314453125 -0.286865234375 0.6724853515625
-0.353851318359375 -0.26220703125 0.69525146484375
-0.39031982421875 -0.263427734375 0.687255859375
-0.424163818359375 -0.2724609375 0.6683349609375
-0.429840087890625 -0.293212890625 0.66058349609375
-0.3583984375 -0.27490234375 0.6883544921875
-0.352752685546875 -0.251953125 0.69989013671875
0.1409912109375 0.629638671875 0.65850830078125
0.14910888671875 0.640380859375 0.65447998046875
0.126708984375 0.64599609375 0.66192626953125
0.136688232421875 0.622314453125 0.6646728515625
0.158294677734375 0.609130859375 0.6514892578125
0.164093017578125 0.619384765625 0.64300537109375
0.13330078125 0.658447265625 0.65582275390625
0.11956787109375 0.63671875 0.670654296875
0.15106201171875 0.603271484375 0.66021728515625
-0.50628662109375 -0.266357421875 0.63043212890625
-0.525054931640625 -0.254638671875 0.62200927734375
-0.51397705078125 -0.277587890625 0.62432861328125
-0.479766845703125 -0.277587890625 0.6387939453125
-0.496337890625 -0.257568359375 0.6375732421875
-0.515655517578125 -0.24560546875 0.6278076171875
-0.5379638671875 -0.263671875 0.6119384765625
-0.490875244140625 -0.28515625 0.63421630859375
-0.475677490234375 -0.2666015625 0.6456298828125
0.07769775390625 0.67626953125 0.679443359375
0.081512451171875 0.68505859375 0.67156982421875
0.06005859375 0.67626953125 0.6865234375
0.074859619140625 0.66455078125 0.6824951171875
0.0924072265625 0.67138671875 0.67071533203125
0.097625732421875 0.68505859375 0.6593017578125
0.06024169921875 0.684814453125 0.68017578125
0.059478759765625 0.667236328125 0.68841552734375
0.09002685546875 0.65966796875 0.6741943359375
-0.56121826171875 -0.211181640625 0.60888671875
-0.5626220703125 -0.1923828125 0.6082763671875
-0.5701904296875 -0.22021484375 0.60101318359375
-0.553497314453125 -0.22705078125 0.61248779296875
-0.553131103515625 -0.204833984375 0.61517333984375
-0.559661865234375 -0.18798828125 0.619384765625
-0.5767822265625 -0.2001953125 0.60150146484375
-0.565093994140625 -0.2373046875 0.60107421875
-0.544189453125 -0.22119140625 0.6202392578125
-0.017608642578125 0.637939453125 0.71514892578125
-0.02093505859375 0.64697265625 0.710205078125
-0.05328369140625 0.62158203125 0.7218017578125
-0.018585205078125 0.631591796875 0.71856689453125
0.006988525390625 0.660400390625 0.70538330078125
0.0047607421875 0.670166015625 0.70391845703125
-0.054931640625 0.6298828125 0.714599609375
-0.046844482421875 0.616455078125 0.7266845703125
0.00726318359375 0.65087890625 0.712890625
-0.5570068359375 -0.111328125 0.62841796875
-0.54656982421875 -0.080078125 0.643310546875
-0.56689453125 -0.1103515625 0.62017822265625
-0.56341552734375 -0.142578125 0.61566162109375
-0.550750732421875 -0.11083984375 0.64093017578125
-0.53900146484375 -0.07861328125 0.651611328125
-0.556365966796875 -0.0771484375 0.63427734375
-0.57281494140625 -0.1455078125 0.61566162109375
-0.556671142578125 -0.142333984375 0.627685546875
-0.120941162109375 0.571044921875 0.7305908203125
-0.131988525390625 0.57861328125 0.728271484375
-0.14044189453125 0.557861328125 0.73114013671875
-0.112579345703125 0.56591796875 0.731689453125
-0.10064697265625 0.588623046875 0.72528076171875
-0.110992431640625 0.5947265625 0.7242431640625
-0.1524658203125 0.56640625 0.7314453125
-0.129608154296875 0.552734375 0.73260498046875
-0.096923828125 0.582763671875 0.7283935546875
-0.5247802734375 0.01025390625 0.66363525390625
-0.5235595703125 0.030029296875 0.66302490234375
-0.53228759765625 0.014892578125 0.6571044921875
-0.53466796875 -0.01611328125 0.66021728515625
-0.519287109375 0.001953125 0.66839599609375
-0.511260986328125 0.02001953125 0.6688232421875
-0.528289794921875 0.0380859375 0.6585693359375
-0.541015625 -0.01318359375 0.65191650390625
-0.525665283203125 -0.02001953125 0.66827392578125
-0.173919677734375 0.513916015625 0.73388671875
-0.1907958984375 0.51953125 0.7374267578125
-0.181640625 0.497802734375 0.740966796875
-0.1629638671875 0.51318359375 0.7318115234375
-0.164825439453125 0.531005859375 0.73284912109375
-0.1798095703125 0.537353515625 0.73260498046875
-0.193389892578125 0.50439453125 0.73748779296875
-0.17071533203125 0.49658203125 0.742431640625
-0.15557861328125 0.528564453125 0.73480224609375
-0.49200439453125 0.072265625 0.67218017578125
