# XYZ point cloud file
0.3930816650390625 0.49576568603515625 0.32861328125
-0.5529632568359375 0.2263946533203125 0.1458740234375
-0.571380615234375 0.2075042724609375 0.143310546875
-0.586273193359375 0.18733978271484375 0.146484375
-0.608245849609375 0.1718597412109375 0.17041015625
-0.61968994140625 0.18056488037109375 0.1904296875
-0.626861572265625 0.19020843505859375 0.2105712890625
0.47900390625 0.28034210205078125 0.34814453125
0.4766998291015625 0.27190399169921875 0.3289794921875
0.4742431640625 0.26422119140625 0.3050537109375
0.478668212890625 0.3064727783203125 0.2840576171875
0.47686767578125 0.3580780029296875 0.29638671875
0.4682769775390625 0.40543365478515625 0.30908203125
-0.5991363525390625 0.1284027099609375 0.157958984375
-0.596282958984375 0.0909423828125 0.16748046875
-0.5871124267578125 0.05313873291015625 0.1817626953125
-0.5740966796875 0.0269622802734375 0.2340087890625
-0.5789947509765625 0.03447723388671875 0.2564697265625
-0.5831756591796875 0.0417022705078125 0.2762451171875
0.391754150390625 0.12868499755859375 0.384765625
0.3890380859375 0.1199188232421875 0.36328125
0.387359619140625 0.110198974609375 0.3372802734375
0.4164581298828125 0.128265380859375 0.2918701171875
0.44110107421875 0.16635894775390625 0.281005859375
0.4603424072265625 0.20899200439453125 0.2757568359375
-0.5506439208984375 -0.01104736328125 0.22607421875
-0.5233001708984375 -0.0338287353515625 0.2528076171875
-0.493408203125 -0.05155181884765625 0.2802734375
-0.4562835693359375 -0.04972076416015625 0.341552734375
-0.4557037353515625 -0.0395660400390625 0.370361328125
-0.4571685791015625 -0.03089141845703125 0.391845703125
0.2712860107421875 0.0296173095703125 0.42333984375
0.2697296142578125 0.02289581298828125 0.40625
0.2654266357421875 0.015472412109375 0.39013671875
0.2957305908203125 0.0204620361328125 0.346923828125
0.3290863037109375 0.0427398681640625 0.3304443359375
0.359832763671875 0.0665130615234375 0.31396484375
-0.4262847900390625 -0.0758056640625 0.33203125
-0.39166259765625 -0.08280181884765625 0.3548583984375
-0.3527374267578125 -0.0886993408203125 0.376220703125
-0.3124542236328125 -0.0787811279296875 0.4207763671875
-0.3130950927734375 -0.070526123046875 0.43994140625
-0.312255859375 -0.063629150390625 0.4578857421875
0.061370849609375 -0.401092529296875 0.4210205078125
0.0386962890625 -0.41045379638671875 0.424560546875
0.01641845703125 -0.4181976318359375 0.428466796875
-0.0095062255859375 -0.3988494873046875 0.4146728515625
-0.0132598876953125 -0.38304901123046875 0.398193359375
-0.01702880859375 -0.3724517822265625 0.38134765625
0.0084381103515625 -0.3609161376953125 0.3564453125
0.036346435546875 -0.35114288330078125 0.3470458984375
0.061767578125 -0.3364715576171875 0.341796875
0.083038330078125 -0.32904815673828125 0.3597412109375
0.082244873046875 -0.3426666259765625 0.3804931640625
0.0828094482421875 -0.36273956298828125 0.39892578125
-0.0990447998046875 -0.37728118896484375 0.4420166015625
-0.10760498046875 -0.3596954345703125 0.4215087890625
-0.1169281005859375 -0.347259521484375 0.4010009765625
-0.104461669921875 -0.35254669189453125 0.376220703125
-0.0792236328125 -0.3612213134765625 0.37158203125
-0.0499725341796875 -0.36612701416015625 0.3695068359375
-0.0277862548828125 -0.4208831787109375 0.440185546875
-0.0491943359375 -0.41558837890625 0.4462890625
-0.0708770751953125 -0.40784454345703125 0.4530029296875
0.081390380859375 -0.538055419921875 0.486083984375
0.057830810546875 -0.54654693603515625 0.493408203125
0.03570556640625 -0.5523529052734375 0.50244140625
0.0075531005859375 -0.52117156982421875 0.49072265625
0.0020751953125 -0.4865570068359375 0.4703369140625
-0.0029296875 -0.4513092041015625 0.45263671875
0.0872344970703125 -0.41998291015625 0.4342041015625
0.0922088623046875 -0.45557403564453125 0.4493408203125
0.097259521484375 -0.49279022216796875 0.4632568359375
-0.08074951171875 -0.4969940185546875 0.526123046875
-0.0831451416015625 -0.4613037109375 0.503662109375
-0.0861358642578125 -0.42790985107421875 0.4820556640625
-0.0095062255859375 -0.553009033203125 0.5225830078125
-0.0313568115234375 -0.54715728759765625 0.5311279296875
-0.0540313720703125 -0.53952789306640625 0.53955078125
0.12091064453125 -0.63346099853515625 0.5667724609375
0.0976104736328125 -0.635894775390625 0.5826416015625
0.0734710693359375 -0.63823699951171875 0.5980224609375
0.0395050048828125 -0.62706756591796875 0.585693359375
0.0293426513671875 -0.6088409423828125 0.5595703125
0.0207061767578125 -0.584991455078125 0.53564453125
0.1134490966796875 -0.5606842041015625 0.495849609375
0.1232147216796875 -0.5897216796875 0.5120849609375
0.133270263671875 -0.6137847900390625 0.53076171875
-0.0631866455078125 -0.61193084716796875 0.617919921875
-0.06842041015625 -0.5906524658203125 0.59375
-0.0730438232421875 -0.5617218017578125 0.5694580078125
0.0233917236328125 -0.63697052001953125 0.6212158203125
-0.00244140625 -0.63372039794921875 0.6300048828125
-0.0296173095703125 -0.628814697265625 0.63671875
0.154510498046875 -0.6385345458984375 0.5699462890625
0.16534423828125 -0.63787841796875 0.5880126953125
0.1740875244140625 -0.63170623779296875 0.60595703125
0.0753936767578125 -0.63251495361328125 0.6712646484375
0.067230224609375 -0.64005279541015625 0.6533203125
0.057952880859375 -0.6420440673828125 0.6334228515625
-0.0358123779296875 -0.62390899658203125 0.707275390625
-0.0434722900390625 -0.6305694580078125 0.68896484375
-0.0507965087890625 -0.6312713623046875 0.6658935546875
0.22515869140625 -0.61510467529296875 0.512939453125
0.2361602783203125 -0.61832427978515625 0.527587890625
0.2452392578125 -0.61556243896484375 0.5465087890625
0.1666107177734375 -0.6281890869140625 0.5321044921875
0.1872100830078125 -0.6235198974609375 0.51904296875
0.203857421875 -0.6166534423828125 0.5086669921875
-0.1282806396484375 -0.610809326171875 0.6578369140625
-0.11016845703125 -0.61724853515625 0.653076171875
-0.0848541259765625 -0.62061309814453125 0.6494140625
-0.1281890869140625 -0.60626220703125 0.7174072265625
-0.136871337890625 -0.609130859375 0.6964111328125
-0.140167236328125 -0.6078948974609375 0.674560546875
0.2202911376953125 -0.5139007568359375 0.4788818359375
0.2411956787109375 -0.524322509765625 0.49853515625
0.2584381103515625 -0.5329437255859375 0.522216796875
0.2133636474609375 -0.59719085693359375 0.494873046875
0.2098846435546875 -0.5735931396484375 0.4840087890625
0.20452880859375 -0.5421142578125 0.4742431640625
-0.154388427734375 -0.54369354248046875 0.6177978515625
-0.1520233154296875 -0.5709991455078125 0.6368408203125
-0.1451263427734375 -0.59214019775390625 0.6497802734375
-0.1583709716796875 -0.5316925048828125 0.693603515625
-0.1638031005859375 -0.52442169189453125 0.6611328125
-0.1625518798828125 -0.51673126220703125 0.6290283203125
0.197052001953125 -0.36069488525390625 0.4552001953125
0.21954345703125 -0.37014007568359375 0.4815673828125
0.2391815185546875 -0.3812103271484375 0.51123046875
0.191253662109375 -0.47046661376953125 0.459228515625
0.1845245361328125 -0.43019866943359375 0.4508056640625
0.178314208984375 -0.39192962646484375 0.4423828125
-0.1557159423828125 -0.4073944091796875 0.5400390625
-0.15545654296875 -0.44290924072265625 0.5592041015625
-0.1558990478515625 -0.47843170166015625 0.57861328125
-0.166046142578125 -0.3972625732421875 0.639404296875
-0.1675872802734375 -0.3893280029296875 0.5970458984375
-0.163238525390625 -0.381072998046875 0.55615234375
0.17486572265625 -0.50647735595703125 0.4615478515625
0.1517333984375 -0.5108642578125 0.464111328125
0.128753662109375 -0.51825714111328125 0.4697265625
0.1057586669921875 -0.3758697509765625 0.4161376953125
0.127166748046875 -0.3651123046875 0.416748046875
0.1486663818359375 -0.35791015625 0.4232177734375
-0.1432647705078125 -0.37558746337890625 0.4993896484375
-0.128326416015625 -0.381103515625 0.4827880859375
-0.1109771728515625 -0.38938140869140625 0.470458984375
-0.100982666015625 -0.5225067138671875 0.55517578125
-0.1227569580078125 -0.51535797119140625 0.56494140625
-0.1417694091796875 -0.51200103759765625 0.5799560546875
0.1032562255859375 -0.29747772216796875 0.3492431640625
0.1205596923828125 -0.27440643310546875 0.364013671875
0.13671875 -0.25446319580078125 0.383056640625
0.157073974609375 -0.26256561279296875 0.4136962890625
0.160980224609375 -0.2911224365234375 0.42138671875
0.16583251953125 -0.322509765625 0.4271240234375
-0.1575927734375 -0.3459320068359375 0.5084228515625
-0.160430908203125 -0.3168487548828125 0.493408203125
-0.1623077392578125 -0.29206085205078125 0.4794921875
-0.1587371826171875 -0.28415679931640625 0.4385986328125
-0.152130126953125 -0.301971435546875 0.4150390625
-0.14202880859375 -0.321258544921875 0.396484375
0.170379638671875 -0.23056793212890625 0.43310546875
0.1881866455078125 -0.2272491455078125 0.459228515625
0.2023773193359375 -0.225128173828125 0.4874267578125
-0.1700439453125 -0.259124755859375 0.5687255859375
-0.1705780029296875 -0.260467529296875 0.53564453125
-0.168731689453125 -0.26265716552734375 0.5008544921875
0.16558837890625 -0.13674163818359375 0.4713134765625
0.1592254638671875 -0.1431427001953125 0.446044921875
0.15289306640625 -0.1515350341796875 0.4171142578125
0.154022216796875 -0.13504791259765625 0.3912353515625
0.155120849609375 -0.11307525634765625 0.400390625
0.154327392578125 -0.096343994140625 0.4097900390625
0.1442718505859375 -0.088165283203125 0.4327392578125
0.14251708984375 -0.0875396728515625 0.448974609375
0.1435394287109375 -0.08309173583984375 0.4683837890625
-0.1551055908203125 -0.120941162109375 0.50634765625
-0.15960693359375 -0.126312255859375 0.48681640625
-0.1668548583984375 -0.12841796875 0.4676513671875
-0.1828460693359375 -0.140777587890625 0.4466552734375
-0.1836395263671875 -0.15782928466796875 0.4410400390625
-0.1825103759765625 -0.17705535888671875 0.43408203125
-0.169036865234375 -0.18810272216796875 0.4659423828125
-0.165283203125 -0.18048095703125 0.49755859375
-0.162384033203125 -0.1738128662109375 0.5252685546875
0.1487579345703125 -0.219390869140625 0.4012451171875
0.1457977294921875 -0.20265960693359375 0.3966064453125
0.1448211669921875 -0.186065673828125 0.3897705078125
-0.16900634765625 -0.21949005126953125 0.4400634765625
-0.165771484375 -0.23529815673828125 0.4490966796875
-0.1641082763671875 -0.25115203857421875 0.4578857421875
0.1538238525390625 -0.04012298583984375 0.4342041015625
0.1511077880859375 -0.0374603271484375 0.4451904296875
0.1494293212890625 -0.030426025390625 0.461181640625
0.1473541259765625 -0.0707855224609375 0.4217529296875
0.1457366943359375 -0.06024169921875 0.4251708984375
0.1503143310546875 -0.049041748046875 0.427490234375
-0.1818084716796875 -0.09735870361328125 0.456787109375
-0.175750732421875 -0.10577392578125 0.4566650390625
-0.17596435546875 -0.11611175537109375 0.4549560546875
-0.173980712890625 -0.07711029052734375 0.4908447265625
-0.17877197265625 -0.08585357666015625 0.4749755859375
-0.184173583984375 -0.09006500244140625 0.4635009765625
0.17095947265625 -0.0312347412109375 0.4202880859375
0.1933135986328125 -0.02045440673828125 0.410888671875
0.2214813232421875 -0.01065826416015625 0.39404296875
-0.264068603515625 -0.085906982421875 0.42626953125
-0.2318572998046875 -0.08548736572265625 0.4403076171875
-0.20599365234375 -0.08773040771484375 0.451171875
-0.080535888671875 -0.4238128662109375 -0.377685546875
-0.068450927734375 -0.390350341796875 -0.42333984375
-0.051177978515625 -0.34651947021484375 -0.46630859375
0.0323638916015625 -0.27640533447265625 -0.499755859375
0.089019775390625 -0.26045989990234375 -0.4805908203125
0.1405792236328125 -0.24340057373046875 -0.45458984375
0.1622314453125 -0.276580810546875 -0.405029296875
0.1461334228515625 -0.3145294189453125 -0.3759765625
0.135894775390625 -0.3405303955078125 -0.3411865234375
0.08013916015625 -0.387542724609375 -0.30859375
0.0260467529296875 -0.41416168212890625 -0.3184814453125
-0.0321502685546875 -0.4342803955078125 -0.3245849609375
-0.145751953125 -0.45227813720703125 -0.315673828125
-0.1971282958984375 -0.448577880859375 -0.300537109375
-0.2436676025390625 -0.4391937255859375 -0.285400390625
-0.2788543701171875 -0.40960693359375 -0.3216552734375
-0.2706146240234375 -0.3886260986328125 -0.364501953125
-0.2624053955078125 -0.35742950439453125 -0.4027099609375
-0.2049407958984375 -0.3148345947265625 -0.4676513671875
-0.149993896484375 -0.3099822998046875 -0.4913330078125
-0.09051513671875 -0.30279541015625 -0.5040283203125
-0.0966644287109375 -0.480255126953125 -0.13330078125
-0.0979156494140625 -0.47711944580078125 -0.203369140625
-0.095855712890625 -0.46532440185546875 -0.2677001953125
0.1212005615234375 -0.37689208984375 -0.2493896484375
0.1129302978515625 -0.387939453125 -0.196044921875
0.1063995361328125 -0.3925628662109375 -0.1343994140625
0.057159423828125 -0.41817474365234375 -0.0665283203125
0.0094451904296875 -0.44274139404296875 -0.0660400390625
-0.0407257080078125 -0.46204376220703125 -0.0655517578125
-0.13970947265625 -0.47408294677734375 -0.0504150390625
-0.18402099609375 -0.46663665771484375 -0.0391845703125
-0.2244873046875 -0.45379638671875 -0.0296630859375
-0.2721710205078125 -0.4438629150390625 -0.09228515625
-0.2801666259765625 -0.44290924072265625 -0.1568603515625
-0.283721923828125 -0.436737060546875 -0.219482421875
-0.055267333984375 -0.40825653076171875 0.1849365234375
-0.06866455078125 -0.432098388671875 0.1090087890625
-0.0817108154296875 -0.45343017578125 0.0240478515625
0.0999755859375 -0.37671661376953125 0.0064697265625
0.1003570556640625 -0.3584442138671875 0.0797119140625
0.101837158203125 -0.33747100830078125 0.1544189453125
0.065887451171875 -0.34683990478515625 0.2249755859375
0.0296173095703125 -0.3695220947265625 0.231201171875
-0.0068359375 -0.3819122314453125 0.2384033203125
-0.0809478759765625 -0.38871002197265625 0.2535400390625
-0.116912841796875 -0.38240814208984375 0.2587890625
-0.1504669189453125 -0.3680419921875 0.264404296875
-0.2038116455078125 -0.37000274658203125 0.2015380859375
-0.22430419921875 -0.39490509033203125 0.1290283203125
-0.24371337890625 -0.418914794921875 0.0526123046875
-0.0243072509765625 -0.36444854736328125 0.3482666015625
-0.02813720703125 -0.3674468994140625 0.3253173828125
-0.0344696044921875 -0.37518310546875 0.2930908203125
0.092193603515625 -0.31119537353515625 0.2740478515625
0.0875396728515625 -0.31160736083984375 0.3023681640625
0.0854034423828125 -0.31412506103515625 0.32421875
-0.133880615234375 -0.33354949951171875 0.3671875
-0.143890380859375 -0.33306884765625 0.3465576171875
-0.1580657958984375 -0.3358917236328125 0.320556640625
0.12109375 -0.27141571044921875 0.2725830078125
0.131500244140625 -0.2359161376953125 0.310546875
0.140869140625 -0.20021820068359375 0.3443603515625
-0.181365966796875 -0.236846923828125 0.39013671875
-0.182952880859375 -0.27074432373046875 0.3572998046875
-0.18438720703125 -0.30417633056640625 0.322265625
0.4976959228515625 0.2238006591796875 0.1544189453125
0.48773193359375 0.2342681884765625 0.1978759765625
0.4792633056640625 0.24443817138671875 0.2398681640625
0.3956298828125 0.0745697021484375 0.260009765625
0.4065093994140625 0.04793548583984375 0.208984375
0.4172515869140625 0.01619720458984375 0.151123046875
0.4626617431640625 0.04175567626953125 0.095947265625
0.48602294921875 0.10167694091796875 0.09765625
0.5015716552734375 0.1614227294921875 0.1031494140625
-0.581207275390625 -0.07879638671875 0.03369140625
-0.5662689208984375 -0.11783599853515625 0.05859375
-0.54461669921875 -0.1533203125 0.0892333984375
-0.4985809326171875 -0.1551055908203125 0.1673583984375
-0.483551025390625 -0.11995697021484375 0.21875
-0.470489501953125 -0.08971405029296875 0.267333984375
-0.5742034912109375 0.003570556640625 0.1602783203125
-0.5789794921875 -0.01029205322265625 0.1116943359375
-0.584320068359375 -0.02606964111328125 0.0628662109375
-0.0025482177734375 -0.22396087646484375 -0.5472412109375
0.0253143310546875 -0.14347076416015625 -0.581298828125
0.0527496337890625 -0.05707550048828125 -0.606201171875
0.146759033203125 0.051544189453125 -0.591552734375
0.210845947265625 0.06819915771484375 -0.560546875
0.2671356201171875 0.07857513427734375 -0.5224609375
0.2853851318359375 -0.00864410400390625 -0.4854736328125
0.2514495849609375 -0.09146881103515625 -0.471435546875
0.2164306640625 -0.16524505615234375 -0.45166015625
-0.245697021484375 -0.26778411865234375 -0.4859619140625
-0.2370147705078125 -0.20854949951171875 -0.5279541015625
-0.228912353515625 -0.14098358154296875 -0.563232421875
-0.1521759033203125 -0.042877197265625 -0.6058349609375
-0.078094482421875 -0.0169677734375 -0.6181640625
-0.0009307861328125 0.009307861328125 -0.624267578125
-0.0022125244140625 0.5711517333984375 -0.22607421875
-0.0238494873046875 0.5826873779296875 -0.1632080078125
-0.0426177978515625 0.5857696533203125 -0.09912109375
0.01336669921875 0.5987396240234375 -0.0078125
0.086883544921875 0.6143951416015625 0.01220703125
0.1556854248046875 0.6228485107421875 0.0286865234375
0.2316741943359375 0.6331634521484375 -0.01611328125
0.246429443359375 0.63674163818359375 -0.0670166015625
0.2636566162109375 0.628509521484375 -0.12109375
0.2256317138671875 0.60906219482421875 -0.196044921875
0.16143798828125 0.597015380859375 -0.2244873046875
0.092498779296875 0.57831573486328125 -0.2550048828125
-0.051483154296875 0.5226898193359375 -0.317626953125
-0.122283935546875 0.4898681640625 -0.341552734375
-0.1868896484375 0.4534759521484375 -0.3638916015625
-0.262908935546875 0.42911529541015625 -0.327392578125
-0.2822265625 0.4371795654296875 -0.271240234375
-0.2998046875 0.439697265625 -0.21337890625
-0.2630157470703125 0.47071075439453125 -0.126220703125
-0.2014007568359375 0.50986480712890625 -0.0948486328125
-0.1316680908203125 0.5461273193359375 -0.0633544921875
0.08514404296875 0.4355316162109375 -0.4671630859375
0.0670928955078125 0.48555755615234375 -0.4097900390625
0.0450439453125 0.52532196044921875 -0.351318359375
0.3014678955078125 0.586578369140625 -0.226318359375
0.318511962890625 0.550567626953125 -0.277099609375
0.33160400390625 0.505157470703125 -0.324951171875
0.29156494140625 0.4380035400390625 -0.406982421875
0.2345123291015625 0.42003631591796875 -0.4478759765625
0.1699066162109375 0.39864349365234375 -0.484619140625
0.0234375 0.34676361083984375 -0.5386962890625
-0.052978515625 0.31878662109375 -0.550048828125
-0.126800537109375 0.28851318359375 -0.5540771484375
-0.198760986328125 0.3116302490234375 -0.520263671875
-0.210845947265625 0.35491180419921875 -0.479248046875
-0.2268524169921875 0.38813018798828125 -0.433349609375
0.092437744140625 0.1234283447265625 -0.6099853515625
0.101593017578125 0.2156524658203125 -0.5933837890625
0.1039276123046875 0.299072265625 -0.559814453125
0.344970703125 0.36519622802734375 -0.4119873046875
0.3417510986328125 0.27526092529296875 -0.4461669921875
0.331634521484375 0.1788330078125 -0.4713134765625
-0.2091217041015625 0.01490020751953125 -0.5972900390625
-0.199676513671875 0.0993499755859375 -0.5938720703125
-0.1939697265625 0.18189239501953125 -0.5780029296875
0.361846923828125 0.465179443359375 0.2340087890625
0.3621826171875 0.47270965576171875 0.26904296875
0.36358642578125 0.48729705810546875 0.30126953125
0.450592041015625 0.42971038818359375 0.2919921875
0.446746826171875 0.41786956787109375 0.2635498046875
0.4459991455078125 0.41155242919921875 0.2333984375
0.4288482666015625 0.433624267578125 0.2081298828125
0.4097900390625 0.44721221923828125 0.2049560546875
0.38812255859375 0.4565277099609375 0.1993408203125
-0.5043792724609375 0.19960784912109375 0.0147705078125
-0.5240631103515625 0.18164825439453125 0.0216064453125
-0.541748046875 0.16196441650390625 0.02490234375
-0.5646820068359375 0.1378021240234375 0.0660400390625
-0.573394775390625 0.14349365234375 0.097900390625
-0.584320068359375 0.15174102783203125 0.1258544921875
-0.5174407958984375 0.23360443115234375 0.125
-0.505615234375 0.22380828857421875 0.094970703125
-0.4937896728515625 0.217315673828125 0.05908203125
0.3810882568359375 0.52677154541015625 0.0712890625
0.3727264404296875 0.50328826904296875 0.114990234375
0.3663177490234375 0.480133056640625 0.156982421875
0.455078125 0.41970062255859375 0.168701171875
0.464447021484375 0.4318695068359375 0.134521484375
0.4747314453125 0.44268035888671875 0.0980224609375
0.466033935546875 0.4848480224609375 0.057861328125
0.44415283203125 0.50797271728515625 0.048583984375
0.4185791015625 0.525665283203125 0.036865234375
-0.4716796875 0.23572540283203125 -0.2144775390625
-0.499298095703125 0.20691680908203125 -0.202880859375
-0.525604248046875 0.1761627197265625 -0.187744140625
-0.55120849609375 0.14289093017578125 -0.1220703125
-0.5528411865234375 0.13970184326171875 -0.068603515625
-0.55487060546875 0.13765716552734375 -0.017333984375
-0.47259521484375 0.228851318359375 -0.0362548828125
-0.4630584716796875 0.24379730224609375 -0.0941162109375
-0.4542083740234375 0.2578125 -0.1571044921875
0.4256439208984375 0.540069580078125 -0.1009521484375
0.4134521484375 0.55046844482421875 -0.0587158203125
0.4009246826171875 0.5531768798828125 -0.0145263671875
0.495086669921875 0.4561920166015625 0.0234375
0.503814697265625 0.4515533447265625 -0.0140380859375
0.5122222900390625 0.4394989013671875 -0.05322265625
0.5052947998046875 0.4554901123046875 -0.103271484375
0.4864044189453125 0.48126220703125 -0.1177978515625
0.464385986328125 0.50144195556640625 -0.1343994140625
-0.4251708984375 0.20314788818359375 -0.406494140625
-0.456939697265625 0.17023468017578125 -0.393310546875
-0.48724365234375 0.13916015625 -0.375
-0.522003173828125 0.12000274658203125 -0.3121337890625
-0.532470703125 0.13167572021484375 -0.26806640625
-0.541046142578125 0.138275146484375 -0.2232666015625
-0.432037353515625 0.2690582275390625 -0.2740478515625
-0.4188385009765625 0.264678955078125 -0.3262939453125
-0.4065704345703125 0.25402069091796875 -0.3724365234375
0.4669952392578125 0.42713165283203125 -0.2659912109375
0.459716796875 0.46912384033203125 -0.22802734375
0.4498443603515625 0.5001678466796875 -0.188720703125
0.5263671875 0.39829254150390625 -0.1343994140625
0.5315093994140625 0.3695831298828125 -0.17138671875
0.532470703125 0.33905792236328125 -0.203857421875
0.523956298828125 0.324981689453125 -0.2415771484375
0.5112762451171875 0.339202880859375 -0.2615966796875
0.4923553466796875 0.35459136962890625 -0.2811279296875
-0.4019927978515625 0.0729522705078125 -0.51708984375
-0.434234619140625 0.048797607421875 -0.49755859375
-0.461273193359375 0.02916717529296875 -0.4755859375
-0.48651123046875 0.03316497802734375 -0.4429931640625
-0.4952545166015625 0.05680084228515625 -0.421142578125
-0.504241943359375 0.08162689208984375 -0.3902587890625
-0.3826141357421875 0.214141845703125 -0.454833984375
-0.37396240234375 0.186004638671875 -0.4891357421875
-0.367950439453125 0.149322509765625 -0.5166015625
0.5302276611328125 0.2757110595703125 -0.234619140625
0.527557373046875 0.22137451171875 -0.24462890625
0.5199737548828125 0.15985107421875 -0.255126953125
0.4863128662109375 0.0739898681640625 -0.2933349609375
0.4645843505859375 0.0672454833984375 -0.322265625
0.443084716796875 0.06482696533203125 -0.347900390625
0.44329833984375 0.1473236083984375 -0.3658447265625
0.4590606689453125 0.228485107421875 -0.350830078125
0.4670562744140625 0.30591583251953125 -0.3291015625
-0.369903564453125 0.046844482421875 -0.537353515625
-0.37640380859375 -0.0170440673828125 -0.532958984375
-0.3831787109375 -0.0805206298828125 -0.51953125
-0.4221649169921875 -0.15407562255859375 -0.4691162109375
-0.4548187255859375 -0.16241455078125 -0.4429931640625
-0.485870361328125 -0.16663360595703125 -0.4156494140625
-0.508087158203125 -0.10916900634765625 -0.415283203125
-0.4976806640625 -0.0615234375 -0.4346923828125
-0.487518310546875 -0.017913818359375 -0.44970703125
0.4004364013671875 0.06992340087890625 -0.4010009765625
0.377685546875 0.075927734375 -0.4256591796875
0.3499908447265625 0.08138275146484375 -0.452880859375
0.382293701171875 0.4358367919921875 -0.344970703125
0.4163970947265625 0.41751861572265625 -0.3272705078125
0.4446563720703125 0.39539337158203125 -0.3135986328125
-0.3299713134765625 0.13919830322265625 -0.5443115234375
-0.2903289794921875 0.1775054931640625 -0.5499267578125
-0.2455291748046875 0.21622467041015625 -0.552734375
-0.2725830078125 -0.08892822265625 -0.56591796875
-0.31683349609375 -0.10860443115234375 -0.5423583984375
-0.35443115234375 -0.1269378662109375 -0.5196533203125
0.330596923828125 0.59845733642578125 -0.1619873046875
0.372039794921875 0.5769500732421875 -0.15673828125
0.4072723388671875 0.55107879638671875 -0.1512451171875
-0.362579345703125 0.2780303955078125 -0.4140625
-0.3293304443359375 0.32208251953125 -0.4093017578125
-0.29168701171875 0.3671112060546875 -0.3990478515625
0.2716217041015625 0.6092071533203125 0.037841796875
0.3173065185546875 0.590118408203125 0.032470703125
0.357208251953125 0.56695556640625 0.0281982421875
-0.417694091796875 0.30511474609375 -0.211669921875
-0.390533447265625 0.34454345703125 -0.197021484375
-0.357177734375 0.3869781494140625 -0.177490234375
0.20965576171875 0.59595489501953125 0.0858154296875
0.2051239013671875 0.5650482177734375 0.1368408203125
0.2016143798828125 0.535125732421875 0.1832275390625
0.25384521484375 0.5051422119140625 0.2176513671875
0.2970123291015625 0.49253082275390625 0.2091064453125
0.3331298828125 0.479156494140625 0.201416015625
-0.4593353271484375 0.243682861328125 0.0240478515625
-0.433380126953125 0.27233123779296875 0.0391845703125
-0.400482177734375 0.30408477783203125 0.0611572265625
-0.350616455078125 0.3589630126953125 0.0379638671875
-0.33984375 0.3846282958984375 -0.022216796875
-0.329376220703125 0.40921783447265625 -0.0855712890625
0.2018280029296875 0.5035400390625 0.25830078125
0.2021636962890625 0.50791168212890625 0.2855224609375
0.202056884765625 0.522308349609375 0.3076171875
-0.3908538818359375 0.34128570556640625 0.1715087890625
-0.3804473876953125 0.33113861083984375 0.1534423828125
-0.370086669921875 0.3301849365234375 0.1243896484375
-0.0724029541015625 0.55435943603515625 0.031982421875
-0.0821380615234375 0.5252227783203125 0.09912109375
-0.09014892578125 0.4929656982421875 0.1671142578125
-0.0102691650390625 0.48851776123046875 0.2347412109375
0.066986083984375 0.50299072265625 0.2310791015625
0.13824462890625 0.5112152099609375 0.2291259765625
-0.307861328125 0.3741912841796875 0.12060546875
-0.2467803955078125 0.40863800048828125 0.1536865234375
-0.177703857421875 0.43697357177734375 0.1915283203125
0.1408233642578125 0.52965545654296875 0.320556640625
0.086883544921875 0.5079498291015625 0.3177490234375
0.034820556640625 0.48557281494140625 0.3218994140625
-0.239349365234375 0.40308380126953125 0.26171875
-0.2906341552734375 0.39403533935546875 0.2327880859375
-0.3443450927734375 0.38182830810546875 0.206298828125
-0.0504913330078125 0.456298828125 0.27783203125
-0.0275726318359375 0.45436859130859375 0.299560546875
-0.0160675048828125 0.4538116455078125 0.3172607421875
-0.1822052001953125 0.40546417236328125 0.2833251953125
-0.16888427734375 0.412811279296875 0.27001953125
-0.1460723876953125 0.42967987060546875 0.2567138671875
-0.09759521484375 0.43618011474609375 0.281494140625
-0.09619140625 0.42000579833984375 0.302490234375
-0.0952911376953125 0.40790557861328125 0.3204345703125
0.50189208984375 0.277130126953125 0.1339111328125
0.4884490966796875 0.33037567138671875 0.16064453125
0.4690093994140625 0.3760833740234375 0.184326171875
-0.5721282958984375 0.09842681884765625 0.02294921875
-0.58331298828125 0.053863525390625 0.015380859375
-0.589080810546875 0.00841522216796875 0.011474609375
0.515167236328125 0.2214813232421875 0.0799560546875
0.522125244140625 0.2255401611328125 0.05078125
0.52838134765625 0.22809600830078125 0.024169921875
0.5311279296875 0.2959442138671875 0.013427734375
0.5191802978515625 0.35637664794921875 0.0350341796875
0.50421142578125 0.408721923828125 0.0517578125
-0.5651397705078125 0.100494384765625 -0.1629638671875
-0.5784912109375 0.0525360107421875 -0.158447265625
-0.5879058837890625 0.00231170654296875 -0.1549072265625
-0.5918731689453125 -0.0483856201171875 -0.1046142578125
-0.5927581787109375 -0.04526519775390625 -0.068359375
-0.591583251953125 -0.04266357421875 -0.0277099609375
0.5401763916015625 0.24463653564453125 -0.036376953125
0.542938232421875 0.2483367919921875 -0.0596923828125
0.545074462890625 0.241455078125 -0.088134765625
0.5414886474609375 0.27069854736328125 -0.1103515625
0.536224365234375 0.32395172119140625 -0.1005859375
0.529296875 0.3766326904296875 -0.0958251953125
-0.531951904296875 0.0605316162109375 -0.332275390625
-0.5465850830078125 0.0150299072265625 -0.312744140625
-0.5587615966796875 -0.0288848876953125 -0.2989501953125
-0.575225830078125 -0.05139923095703125 -0.255615234375
-0.5818023681640625 -0.04347991943359375 -0.2236328125
-0.587799072265625 -0.0430755615234375 -0.189453125
0.546630859375 0.2123870849609375 -0.1546630859375
0.542572021484375 0.1863555908203125 -0.189697265625
0.5319976806640625 0.14792633056640625 -0.2244873046875
-0.5360870361328125 -0.12331390380859375 -0.37548828125
-0.548614501953125 -0.09610748291015625 -0.352783203125
-0.5596923828125 -0.07649993896484375 -0.323974609375
0.1967926025390625 -0.2049407958984375 0.179931640625
0.1660919189453125 -0.24544525146484375 0.1861572265625
0.13671875 -0.279388427734375 0.201171875
0.1399688720703125 -0.3590240478515625 -0.070068359375
0.17388916015625 -0.32740020751953125 -0.073486328125
0.205657958984375 -0.295745849609375 -0.074951171875
0.2363739013671875 -0.24935150146484375 -0.0146484375
0.2378082275390625 -0.22402191162109375 0.046142578125
0.2380523681640625 -0.192718505859375 0.1090087890625
-0.334625244140625 -0.27790069580078125 0.1614990234375
-0.3470611572265625 -0.3087921142578125 0.1014404296875
-0.35675048828125 -0.33670806884765625 0.0400390625
-0.339569091796875 -0.37396240234375 -0.021240234375
-0.3151397705078125 -0.39562225341796875 -0.0179443359375
-0.289581298828125 -0.41655731201171875 -0.017822265625
-0.2192535400390625 -0.3220977783203125 0.251953125
-0.2501373291015625 -0.29785919189453125 0.2366943359375
-0.280120849609375 -0.27024078369140625 0.2291259765625
0.372100830078125 -0.1561126708984375 -0.029052734375
0.385528564453125 -0.1220550537109375 0.0068359375
0.4038238525390625 -0.08022308349609375 0.04443359375
0.379119873046875 -0.05970001220703125 0.111083984375
0.3333587646484375 -0.09003448486328125 0.1312255859375
0.2857513427734375 -0.121856689453125 0.1522216796875
0.2688446044921875 -0.23941802978515625 -0.07373046875
0.30181884765625 -0.2174530029296875 -0.073486328125
0.334014892578125 -0.1988372802734375 -0.07080078125
-0.4489593505859375 -0.32155609130859375 -0.0223388671875
-0.4181671142578125 -0.328033447265625 -0.0238037109375
-0.3900146484375 -0.339599609375 -0.0244140625
-0.3697357177734375 -0.22613525390625 0.19873046875
-0.4189910888671875 -0.21736907958984375 0.17431640625
-0.46649169921875 -0.2076416015625 0.1484375
-0.4985504150390625 -0.23708343505859375 0.0819091796875
-0.4873046875 -0.26789093017578125 0.052978515625
-0.479583740234375 -0.29522705078125 0.01953125
0.259796142578125 -0.0260009765625 0.32763671875
0.2575836181640625 -0.058746337890625 0.2847900390625
0.25067138671875 -0.09960174560546875 0.2369384765625
-0.3204345703125 -0.19039154052734375 0.2781982421875
-0.319549560546875 -0.151641845703125 0.3212890625
-0.3159942626953125 -0.12000274658203125 0.359375
0.2202606201171875 -0.03028106689453125 0.3759765625
0.1921539306640625 -0.052032470703125 0.386962890625
0.1685638427734375 -0.0699920654296875 0.4014892578125
0.1618194580078125 -0.1575927734375 0.3392333984375
0.181793212890625 -0.15392303466796875 0.296875
0.2047576904296875 -0.15128326416015625 0.2476806640625
-0.270721435546875 -0.2174530029296875 0.292236328125
-0.2349853515625 -0.20850372314453125 0.3404541015625
-0.203521728515625 -0.2062835693359375 0.3829345703125
-0.2021636962890625 -0.12296295166015625 0.436279296875
-0.2322845458984375 -0.11566162109375 0.4197998046875
-0.2650146484375 -0.1058502197265625 0.408203125
0.48046875 0.01320648193359375 -0.2734375
0.4506683349609375 -0.0550384521484375 -0.2706298828125
0.4219512939453125 -0.11362457275390625 -0.2564697265625
0.3732757568359375 -0.16356658935546875 -0.252685546875
0.3468170166015625 -0.17340087890625 -0.2720947265625
0.318634033203125 -0.18843841552734375 -0.292236328125
0.3235321044921875 -0.1473236083984375 -0.34912109375
0.3597259521484375 -0.0808563232421875 -0.3681640625
0.3929901123046875 -0.01080322265625 -0.3759765625
-0.389801025390625 -0.197662353515625 -0.463134765625
-0.3881988525390625 -0.2471771240234375 -0.42333984375
-0.38409423828125 -0.29331207275390625 -0.3758544921875
-0.407012939453125 -0.32530975341796875 -0.2935791015625
-0.4355926513671875 -0.32149505615234375 -0.271240234375
-0.464202880859375 -0.32048797607421875 -0.2498779296875
-0.497711181640625 -0.29742431640625 -0.276611328125
-0.50408935546875 -0.2597503662109375 -0.3226318359375
-0.51080322265625 -0.2137908935546875 -0.3603515625
0.2667236328125 -0.20780181884765625 -0.357666015625
0.2479705810546875 -0.20790863037109375 -0.3857421875
0.2208251953125 -0.21433258056640625 -0.408447265625
-0.29290771484375 -0.3188323974609375 -0.4229736328125
-0.3242340087890625 -0.3211822509765625 -0.399169921875
-0.3494873046875 -0.3267974853515625 -0.3673095703125
0.3784332275390625 -0.18589019775390625 -0.1982421875
0.36724853515625 -0.1990509033203125 -0.157958984375
0.3639373779296875 -0.1976318359375 -0.1123046875
0.2425079345703125 -0.2701416015625 -0.1363525390625
0.252471923828125 -0.2627716064453125 -0.197021484375
0.2648468017578125 -0.24481201171875 -0.2562255859375
-0.3780975341796875 -0.3556976318359375 -0.2373046875
-0.374725341796875 -0.3656005859375 -0.1644287109375
-0.3698577880859375 -0.364166259765625 -0.09326171875
-0.477752685546875 -0.33460235595703125 -0.06640625
-0.4792327880859375 -0.3391571044921875 -0.12060546875
-0.4846954345703125 -0.33580780029296875 -0.1748046875
0.1685943603515625 -0.33216094970703125 -0.29638671875
0.20465087890625 -0.2999725341796875 -0.29833984375
0.2393035888671875 -0.26259613037109375 -0.3055419921875
-0.353118896484375 -0.36602783203125 -0.2918701171875
-0.3351898193359375 -0.38980865478515625 -0.276123046875
-0.31170654296875 -0.40920257568359375 -0.270263671875
0.703277587890625 0.296112060546875 -0.16064453125
0.70623779296875 0.3070068359375 -0.1632080078125
0.7098388671875 0.31366729736328125 -0.1700439453125
0.6819000244140625 0.30066680908203125 -0.1737060546875
0.6546630859375 0.2859954833984375 -0.164306640625
0.63067626953125 0.27050018310546875 -0.1566162109375
0.61077880859375 0.2574310302734375 -0.1385498046875
0.6136627197265625 0.2537384033203125 -0.1322021484375
0.6166839599609375 0.24486541748046875 -0.131103515625
0.637542724609375 0.2467498779296875 -0.1385498046875
0.6565704345703125 0.25868988037109375 -0.1448974609375
0.6777801513671875 0.2695770263671875 -0.1553955078125
-0.671112060546875 -0.093109130859375 -0.3863525390625
-0.656463623046875 -0.09105682373046875 -0.3631591796875
-0.642974853515625 -0.0908203125 -0.3402099609375
-0.6265106201171875 -0.08216094970703125 -0.3240966796875
-0.6204986572265625 -0.0745086669921875 -0.3310546875
-0.6137542724609375 -0.0711517333984375 -0.341552734375
-0.621368408203125 -0.072021484375 -0.3778076171875
-0.6378326416015625 -0.07041168212890625 -0.40283203125
-0.656646728515625 -0.07526397705078125 -0.4312744140625
-0.6815643310546875 -0.079376220703125 -0.4434814453125
-0.6836395263671875 -0.08290863037109375 -0.429443359375
-0.6858367919921875 -0.09039306640625 -0.41796875
0.8140411376953125 0.33258056640625 -0.2138671875
0.7818603515625 0.33211517333984375 -0.2059326171875
0.7468719482421875 0.32590484619140625 -0.195556640625
0.7299041748046875 0.2869110107421875 -0.175537109375
0.7594146728515625 0.29187774658203125 -0.18798828125
0.787078857421875 0.2908782958984375 -0.1981201171875
0.8182373046875 0.29831695556640625 -0.2049560546875
0.8260955810546875 0.31272125244140625 -0.20654296875
0.83502197265625 0.320892333984375 -0.21142578125
-0.787322998046875 -0.13742828369140625 -0.518798828125
-0.78460693359375 -0.13884735107421875 -0.504638671875
-0.78228759765625 -0.143798828125 -0.4912109375
-0.7554168701171875 -0.13382720947265625 -0.470703125
-0.73248291015625 -0.1197357177734375 -0.454833984375
-0.7096710205078125 -0.1079254150390625 -0.433349609375
-0.703826904296875 -0.09012603759765625 -0.4849853515625
-0.73101806640625 -0.1026153564453125 -0.509765625
-0.7603912353515625 -0.12027740478515625 -0.528076171875
0.8907318115234375 0.23313140869140625 -0.23388671875
0.8823089599609375 0.27289581298828125 -0.230712890625
0.8658599853515625 0.3037872314453125 -0.226806640625
0.828582763671875 0.2633056640625 -0.2149658203125
0.84063720703125 0.23722076416015625 -0.218505859375
0.8468780517578125 0.20307159423828125 -0.223876953125
0.8580169677734375 0.1733245849609375 -0.2257080078125
0.8691558837890625 0.18182373046875 -0.2265625
0.881072998046875 0.1863555908203125 -0.23193359375
-0.8824615478515625 -0.24950408935546875 -0.4393310546875
-0.8731536865234375 -0.24808502197265625 -0.431640625
-0.86407470703125 -0.2493133544921875 -0.423095703125
-0.841796875 -0.22420501708984375 -0.4425048828125
-0.8240814208984375 -0.1986541748046875 -0.46435546875
-0.8029937744140625 -0.17449951171875 -0.476318359375
-0.8202972412109375 -0.1643524169921875 -0.5272216796875
-0.846923828125 -0.193267822265625 -0.510009765625
-0.8711090087890625 -0.22399139404296875 -0.48193359375
0.8433685302734375 0.0214996337890625 -0.2510986328125
0.867034912109375 0.0782623291015625 -0.248046875
0.8834228515625 0.13495635986328125 -0.2421875
0.83941650390625 0.118194580078125 -0.2330322265625
0.8257598876953125 0.0723419189453125 -0.2353515625
0.8064117431640625 0.0259857177734375 -0.2359619140625
0.78961181640625 -0.0178070068359375 -0.2342529296875
0.7972259521484375 -0.02176666259765625 -0.2357177734375
0.80517578125 -0.02562713623046875 -0.2415771484375
-0.8819580078125 -0.36487579345703125 -0.287109375
-0.8717041015625 -0.35640716552734375 -0.284423828125
-0.861724853515625 -0.3504638671875 -0.2862548828125
-0.86346435546875 -0.3290863037109375 -0.323486328125
-0.8668670654296875 -0.305694580078125 -0.3551025390625
-0.8637542724609375 -0.28003692626953125 -0.387451171875
-0.9016265869140625 -0.28878021240234375 -0.4127197265625
-0.9055633544921875 -0.3216400146484375 -0.373046875
-0.902557373046875 -0.3494720458984375 -0.33349609375
0.6909942626953125 -0.1405487060546875 -0.2220458984375
0.7355804443359375 -0.112640380859375 -0.236083984375
0.776580810546875 -0.076416015625 -0.2462158203125
0.7532196044921875 -0.0479736328125 -0.2283935546875
0.7207489013671875 -0.077545166015625 -0.2171630859375
0.686126708984375 -0.098724365234375 -0.2015380859375
0.64910888671875 -0.1248016357421875 -0.1766357421875
0.6480255126953125 -0.137115478515625 -0.178955078125
0.6475830078125 -0.14997100830078125 -0.185546875
-0.763275146484375 -0.38958740234375 -0.130126953125
-0.761016845703125 -0.379547119140625 -0.1292724609375
-0.758697509765625 -0.37010955810546875 -0.134521484375
-0.7866058349609375 -0.36684417724609375 -0.1827392578125
-0.8134307861328125 -0.36577606201171875 -0.216796875
-0.836944580078125 -0.3607330322265625 -0.2525634765625
-0.8681793212890625 -0.389007568359375 -0.255615234375
-0.8395233154296875 -0.399169921875 -0.2186279296875
-0.80413818359375 -0.4017486572265625 -0.179443359375
0.5214385986328125 -0.1790771484375 -0.1102294921875
0.5606231689453125 -0.1783294677734375 -0.13671875
0.6025390625 -0.1728973388671875 -0.16845703125
0.6154327392578125 -0.1216278076171875 -0.150634765625
0.5815277099609375 -0.12625885009765625 -0.12451171875
0.549591064453125 -0.1251983642578125 -0.0992431640625
0.5112152099609375 -0.13631439208984375 -0.0753173828125
0.5009613037109375 -0.15052032470703125 -0.07421875
0.491851806640625 -0.16529083251953125 -0.078369140625
-0.606414794921875 -0.3411712646484375 -0.0157470703125
-0.6119842529296875 -0.331756591796875 -0.017822265625
-0.6195831298828125 -0.32428741455078125 -0.026123046875
-0.6570281982421875 -0.3331298828125 -0.0526123046875
-0.6886749267578125 -0.344085693359375 -0.078125
-0.723602294921875 -0.35477447509765625 -0.109619140625
-0.72509765625 -0.39170074462890625 -0.099853515625
-0.6820220947265625 -0.37781524658203125 -0.0654296875
-0.6415557861328125 -0.367645263671875 -0.0411376953125
0.6525115966796875 -0.1070556640625 -0.1834716796875
0.6547088623046875 -0.102142333984375 -0.1912841796875
0.6578826904296875 -0.0994110107421875 -0.20166015625
0.6307830810546875 -0.10477447509765625 -0.1888427734375
0.6030731201171875 -0.1056060791015625 -0.1641845703125
0.57757568359375 -0.10549163818359375 -0.1446533203125
0.548309326171875 -0.1063385009765625 -0.11572265625
0.5413055419921875 -0.108917236328125 -0.1036376953125
0.531768798828125 -0.11374664306640625 -0.0908203125
-0.6365509033203125 -0.3175506591796875 -0.0545654296875
-0.6446990966796875 -0.31853485107421875 -0.070068359375
-0.651702880859375 -0.3202972412109375 -0.0845947265625
-0.6792144775390625 -0.3303070068359375 -0.115966796875
-0.705322265625 -0.3411407470703125 -0.1396484375
-0.73211669921875 -0.350616455078125 -0.1676025390625
-0.7564239501953125 -0.35866546630859375 -0.185791015625
-0.75604248046875 -0.3583984375 -0.171630859375
-0.7561187744140625 -0.35906219482421875 -0.156494140625
0.7766265869140625 -0.01508331298828125 -0.239013671875
0.7733306884765625 -0.015838623046875 -0.24462890625
0.770904541015625 -0.01837158203125 -0.2508544921875
0.745880126953125 -0.04534149169921875 -0.2525634765625
0.7183837890625 -0.06966400146484375 -0.2425537109375
0.689727783203125 -0.0868682861328125 -0.23095703125
-0.7822723388671875 -0.36423492431640625 -0.2301025390625
-0.8051910400390625 -0.36480712890625 -0.259033203125
-0.823974609375 -0.35962677001953125 -0.2877197265625
-0.8390655517578125 -0.34576416015625 -0.308837890625
-0.8418731689453125 -0.34458160400390625 -0.3021240234375
-0.846588134765625 -0.34454345703125 -0.2950439453125
0.8379669189453125 0.15203094482421875 -0.2313232421875
0.831207275390625 0.14017486572265625 -0.2373046875
0.8275909423828125 0.129364013671875 -0.2452392578125
0.819244384765625 0.084259033203125 -0.2564697265625
0.8069610595703125 0.04817962646484375 -0.2586669921875
0.7910919189453125 0.0118865966796875 -0.2584228515625
-0.8473358154296875 -0.33587646484375 -0.3443603515625
-0.850616455078125 -0.31734466552734375 -0.36962890625
-0.848114013671875 -0.2972412109375 -0.39501953125
-0.8422393798828125 -0.2691802978515625 -0.4144287109375
-0.8446807861328125 -0.2628173828125 -0.4134521484375
-0.84906005859375 -0.25624847412109375 -0.4144287109375
0.805084228515625 0.26336669921875 -0.2115478515625
0.800689697265625 0.2440643310546875 -0.21923828125
0.7979736328125 0.22540283203125 -0.2296142578125
0.81207275390625 0.1963348388671875 -0.2427978515625
0.8220977783203125 0.1752777099609375 -0.2470703125
0.82611083984375 0.149017333984375 -0.2493896484375
-0.8307647705078125 -0.254852294921875 -0.4381103515625
-0.81707763671875 -0.23450469970703125 -0.4534912109375
-0.7994384765625 -0.21508026123046875 -0.4627685546875
-0.7777557373046875 -0.1866912841796875 -0.4644775390625
-0.7777557373046875 -0.17385101318359375 -0.4661865234375
-0.7781524658203125 -0.16243743896484375 -0.4725341796875
0.70135498046875 0.26253509521484375 -0.169189453125
0.7018280029296875 0.2443389892578125 -0.1793212890625
0.7031402587890625 0.22650909423828125 -0.1905517578125
0.7286834716796875 0.21602630615234375 -0.2117919921875
0.75390625 0.21895599365234375 -0.2230224609375
0.777374267578125 0.21765899658203125 -0.231201171875
-0.7583465576171875 -0.18305206298828125 -0.4581298828125
-0.7377777099609375 -0.1703338623046875 -0.446044921875
-0.717742919921875 -0.161285400390625 -0.429931640625
-0.69671630859375 -0.1405181884765625 -0.406982421875
-0.6942596435546875 -0.1271820068359375 -0.404541015625
-0.6913604736328125 -0.11297607421875 -0.406494140625
0.62396240234375 0.2193450927734375 -0.1397705078125
0.628021240234375 0.20531463623046875 -0.1488037109375
0.63116455078125 0.190673828125 -0.157958984375
0.6495513916015625 0.188201904296875 -0.1744384765625
0.6653594970703125 0.1979827880859375 -0.1820068359375
0.6836395263671875 0.2056121826171875 -0.191650390625
-0.683502197265625 -0.14731597900390625 -0.3890380859375
-0.67047119140625 -0.143951416015625 -0.3702392578125
-0.6602630615234375 -0.142578125 -0.3505859375
-0.647186279296875 -0.131927490234375 -0.326904296875
-0.642822265625 -0.118804931640625 -0.3223876953125
-0.637847900390625 -0.10485076904296875 -0.320068359375
0.46197509765625 -0.0146636962890625 -0.0009765625
0.4575347900390625 -0.0170135498046875 0.0211181640625
0.4481048583984375 -0.020965576171875 0.0489501953125
0.3961181640625 -0.15550994873046875 -0.0540771484375
0.4176025390625 -0.13449859619140625 -0.0535888671875
0.4345703125 -0.1177215576171875 -0.0601806640625
0.44244384765625 -0.0912628173828125 -0.05810546875
0.4435577392578125 -0.0750732421875 -0.04248046875
0.4513702392578125 -0.0504913330078125 -0.0294189453125
-0.5404052734375 -0.2343597412109375 -0.0238037109375
-0.536895751953125 -0.252471923828125 -0.02734375
-0.5382537841796875 -0.26805877685546875 -0.0377197265625
-0.5359649658203125 -0.28574371337890625 -0.0289306640625
-0.52215576171875 -0.294342041015625 -0.0128173828125
-0.504730224609375 -0.30452728271484375 -0.005859375
-0.5350189208984375 -0.20291900634765625 0.0611572265625
-0.5449981689453125 -0.20584869384765625 0.0247802734375
-0.5480194091796875 -0.20871734619140625 -0.005615234375
0.39581298828125 -0.1809539794921875 -0.0782470703125
0.422607421875 -0.1796417236328125 -0.0802001953125
0.4516448974609375 -0.18056488037109375 -0.08251953125
0.497802734375 -0.12302398681640625 -0.073486328125
0.476715087890625 -0.12042999267578125 -0.07421875
0.4608306884765625 -0.1156158447265625 -0.075439453125
-0.5616912841796875 -0.2931671142578125 -0.046875
-0.5800933837890625 -0.3014678955078125 -0.038818359375
-0.6016387939453125 -0.30933380126953125 -0.0345458984375
-0.567840576171875 -0.3416595458984375 -0.0211181640625
-0.5369873046875 -0.33420562744140625 -0.022705078125
-0.5097198486328125 -0.32798004150390625 -0.02490234375
0.4810638427734375 0.0331268310546875 -0.0152587890625
0.5013427734375 0.09127044677734375 -0.012451171875
0.519561767578125 0.1543426513671875 -0.00927734375
-0.582427978515625 -0.10393524169921875 -0.1085205078125
-0.5715179443359375 -0.14438629150390625 -0.0755615234375
-0.5593109130859375 -0.17998504638671875 -0.0491943359375
0.58935546875 0.2355499267578125 -0.1485595703125
0.5735015869140625 0.22107696533203125 -0.144775390625
0.559814453125 0.2140960693359375 -0.13671875
0.5533447265625 0.20948028564453125 -0.112060546875
0.5568389892578125 0.19577789306640625 -0.112548828125
0.5599212646484375 0.18262481689453125 -0.1168212890625
0.5762176513671875 0.18555450439453125 -0.124267578125
0.5896148681640625 0.202606201171875 -0.1251220703125
0.6037139892578125 0.21825408935546875 -0.12939453125
-0.6217041015625 -0.09584808349609375 -0.3045654296875
-0.611724853515625 -0.101409912109375 -0.29052734375
-0.603790283203125 -0.10785675048828125 -0.276123046875
-0.5919189453125 -0.1043243408203125 -0.2608642578125
-0.5870513916015625 -0.09284210205078125 -0.263671875
-0.5806427001953125 -0.080810546875 -0.270751953125
-0.5775909423828125 -0.08075714111328125 -0.3045654296875
-0.585723876953125 -0.08179473876953125 -0.3201904296875
-0.5953216552734375 -0.07767486572265625 -0.336669921875
0.5364990234375 -0.1072998046875 -0.123779296875
0.521270751953125 -0.109405517578125 -0.1251220703125
0.511749267578125 -0.1111602783203125 -0.1322021484375
0.496490478515625 -0.1061248779296875 -0.1243896484375
0.483123779296875 -0.103790283203125 -0.1092529296875
