# XYZ point cloud file
0.7296600341796875 0.07996368408203125 -0.2205810546875
0.7106781005859375 0.08252716064453125 -0.2158203125
0.69670867919921875 0.07343292236328125 -0.2135009765625
0.71103668212890625 0.04921722412109375 -0.2200927734375
0.73572540283203125 0.06916046142578125 -0.22314453125
0.7244720458984375 0.09105682373046875 -0.2191162109375
-0.7430572509765625 -0.215240478515625 -0.348388671875
-0.75460052490234375 -0.22646331787109375 -0.344482421875
-0.7344818115234375 -0.21746826171875 -0.33935546875
-0.7327880859375 -0.2047576904296875 -0.35400390625
-0.75357818603515625 -0.21431732177734375 -0.359619140625
-0.763153076171875 -0.22368621826171875 -0.355224609375
-0.746246337890625 -0.22977447509765625 -0.3353271484375
-0.7243804931640625 -0.20616912841796875 -0.345458984375
-0.74393463134765625 -0.20386505126953125 -0.3663330078125
0.69171905517578125 0.1143798828125 -0.2122802734375
0.68521881103515625 0.125091552734375 -0.2103271484375
0.67662811279296875 0.106292724609375 -0.207275390625
0.69805145263671875 0.10446929931640625 -0.21435546875
0.70767974853515625 0.12331390380859375 -0.21923828125
0.70178985595703125 0.13205718994140625 -0.217529296875
0.67002105712890625 0.117156982421875 -0.203369140625
0.68408203125 0.09465789794921875 -0.208984375
0.7143707275390625 0.11339569091796875 -0.22021484375
-0.702789306640625 -0.17385101318359375 -0.374267578125
-0.69252777099609375 -0.17426300048828125 -0.3587646484375
-0.6934356689453125 -0.16387939453125 -0.378173828125
-0.7137451171875 -0.17549896240234375 -0.389404296875
-0.71343994140625 -0.18451690673828125 -0.3681640625
-0.7037506103515625 -0.184967041015625 -0.355712890625
-0.683074951171875 -0.163665771484375 -0.361572265625
-0.7051849365234375 -0.16638946533203125 -0.3946533203125
-0.7238616943359375 -0.184844970703125 -0.3822021484375
0.63642120361328125 0.074676513671875 -0.1959228515625
0.6241455078125 0.062469482421875 -0.1939697265625
0.64453887939453125 0.0625152587890625 -0.199462890625
0.64935302734375 0.0868682861328125 -0.1981201171875
0.62850189208984375 0.08625030517578125 -0.189453125
0.615875244140625 0.0737457275390625 -0.1878662109375
0.63257598876953125 0.04991912841796875 -0.197265625
0.6575775146484375 0.0741424560546875 -0.2021484375
0.6417694091796875 0.09937286376953125 -0.1942138671875
-0.66727447509765625 -0.18431854248046875 -0.317626953125
-0.6788482666015625 -0.19698333740234375 -0.3160400390625
-0.66046142578125 -0.18936920166015625 -0.3038330078125
-0.6572418212890625 -0.171966552734375 -0.318359375
-0.67496490478515625 -0.17996978759765625 -0.331787109375
-0.68604278564453125 -0.191314697265625 -0.3302001953125
-0.67173004150390625 -0.20233917236328125 -0.3023681640625
-0.64998626708984375 -0.176727294921875 -0.30517578125
-0.6641693115234375 -0.16825103759765625 -0.3321533203125
0.5879058837890625 0.01825714111328125 -0.1884765625
0.5814971923828125 0.02996826171875 -0.1851806640625
0.5756988525390625 0.00450897216796875 -0.1873779296875
0.5950469970703125 0.0077362060546875 -0.1905517578125
0.59980010986328125 0.03433990478515625 -0.1898193359375
0.59296417236328125 0.0448150634765625 -0.184814453125
0.56983184814453125 0.01515960693359375 -0.1842041015625
0.5821533203125 -0.007232666015625 -0.18896484375
0.6073150634765625 0.0225830078125 -0.1937255859375
-0.63779449462890625 -0.20858001708984375 -0.2677001953125
-0.630401611328125 -0.2158050537109375 -0.2564697265625
-0.6280364990234375 -0.19780731201171875 -0.269287109375
-0.64595794677734375 -0.201324462890625 -0.2796630859375
-0.649261474609375 -0.22138214111328125 -0.265380859375
-0.640655517578125 -0.2265625 -0.25244140625
-0.62036895751953125 -0.20493316650390625 -0.2596435546875
-0.635162353515625 -0.189422607421875 -0.2803955078125
-0.65721893310546875 -0.21364593505859375 -0.2762451171875
0.53701019287109375 -0.0374298095703125 -0.18359375
0.5437774658203125 -0.0447998046875 -0.1839599609375
0.54935455322265625 -0.0238800048828125 -0.1842041015625
0.53060150146484375 -0.0305938720703125 -0.1822509765625
0.52587127685546875 -0.04755401611328125 -0.1822509765625
0.53258514404296875 -0.0539093017578125 -0.1834716796875
0.55628204345703125 -0.03380584716796875 -0.1861572265625
0.54309844970703125 -0.01586151123046875 -0.1837158203125
0.52056884765625 -0.04105377197265625 -0.1790771484375
-0.6034393310546875 -0.23290252685546875 -0.22705078125
-0.61208343505859375 -0.22721099853515625 -0.237060546875
-0.6132659912109375 -0.24085235595703125 -0.223876953125
-0.5959930419921875 -0.2371826171875 -0.21826171875
-0.59527587890625 -0.2253875732421875 -0.2293701171875
-0.60357666015625 -0.21846771240234375 -0.2381591796875
-0.6222076416015625 -0.23625946044921875 -0.2332763671875
-0.60486602783203125 -0.244171142578125 -0.2154541015625
-0.58868408203125 -0.23110198974609375 -0.221435546875
0.54929351806640625 -0.1168060302734375 -0.17236328125
0.542999267578125 -0.1239776611328125 -0.166259765625
0.56400299072265625 -0.10990142822265625 -0.1727294921875
0.55590057373046875 -0.10675811767578125 -0.1768798828125
0.53774261474609375 -0.12225341796875 -0.1729736328125
0.53279876708984375 -0.128326416015625 -0.1676025390625
0.557525634765625 -0.11859893798828125 -0.1654052734375
0.570281982421875 -0.098358154296875 -0.1802978515625
0.5434112548828125 -0.11367034912109375 -0.17626953125
-0.64395904541015625 -0.296783447265625 -0.167236328125
-0.65680694580078125 -0.2955474853515625 -0.1719970703125
-0.6408843994140625 -0.29973602294921875 -0.154296875
-0.63405609130859375 -0.2976837158203125 -0.16357421875
-0.6470794677734375 -0.29119110107421875 -0.1800537109375
-0.6593170166015625 -0.28987884521484375 -0.185791015625
-0.65351104736328125 -0.2998046875 -0.1571044921875
-0.6315460205078125 -0.300689697265625 -0.1534423828125
-0.63692474365234375 -0.29380035400390625 -0.1739501953125
0.61728668212890625 -0.090789794921875 -0.2005615234375
0.638519287109375 -0.08272552490234375 -0.2103271484375
0.61952972412109375 -0.07317352294921875 -0.2010498046875
0.59893798828125 -0.09725189208984375 -0.1883544921875
0.61460113525390625 -0.107421875 -0.1981201171875
0.63871002197265625 -0.10173797607421875 -0.2120361328125
0.63744354248046875 -0.06280517578125 -0.2086181640625
0.6029510498046875 -0.08174896240234375 -0.19140625
0.59438323974609375 -0.1109619140625 -0.18310546875
-0.7044525146484375 -0.30118560791015625 -0.212158203125
-0.699859619140625 -0.28850555419921875 -0.225830078125
-0.72209930419921875 -0.3037261962890625 -0.2305908203125
-0.7074737548828125 -0.3113555908203125 -0.1981201171875
-0.68808746337890625 -0.29677581787109375 -0.1922607421875
-0.68683624267578125 -0.2876129150390625 -0.205810546875
-0.7142486572265625 -0.2885284423828125 -0.240966796875
-0.72823333740234375 -0.31801605224609375 -0.218994140625
-0.6882476806640625 -0.3052978515625 -0.1766357421875
0.7018890380859375 -0.05059814453125 -0.23876953125
0.7220916748046875 -0.0337982177734375 -0.2454833984375
0.69194793701171875 -0.02532196044921875 -0.2283935546875
0.6813201904296875 -0.06374359130859375 -0.23046875
0.71222686767578125 -0.07212066650390625 -0.2493896484375
0.73520660400390625 -0.055267333984375 -0.25439453125
0.70827484130859375 -0.01251220703125 -0.2325439453125
0.67421722412109375 -0.03934478759765625 -0.2210693359375
0.687652587890625 -0.08615875244140625 -0.2376708984375
-0.7704315185546875 -0.29912567138671875 -0.287109375
-0.7525482177734375 -0.27927398681640625 -0.292724609375
-0.7833251953125 -0.29370880126953125 -0.305419921875
-0.78623199462890625 -0.31838226318359375 -0.2833251953125
-0.75524139404296875 -0.303009033203125 -0.270263671875
-0.74050140380859375 -0.2824554443359375 -0.277099609375
-0.7636260986328125 -0.2731475830078125 -0.3072509765625
-0.80138397216796875 -0.31058502197265625 -0.304931640625
-0.7684783935546875 -0.32126617431640625 -0.2613525390625
0.76990509033203125 0.02459716796875 -0.2476806640625
0.77996826171875 0.04520416259765625 -0.24658203125
0.750244140625 0.0347900390625 -0.235595703125
0.756439208984375 0.00368499755859375 -0.247314453125
0.7883148193359375 0.01544189453125 -0.2579345703125
0.79898834228515625 0.04119873046875 -0.2568359375
0.76073455810546875 0.05010986328125 -0.2352294921875
0.73839569091796875 0.01900482177734375 -0.2359619140625
0.77404022216796875 -0.01119232177734375 -0.25732421875
-0.80750274658203125 -0.26561737060546875 -0.35791015625
-0.78734588623046875 -0.252349853515625 -0.350830078125
-0.80945587158203125 -0.255645751953125 -0.375732421875
-0.8271942138671875 -0.2789764404296875 -0.3690185546875
-0.8025665283203125 -0.2766571044921875 -0.341796875
-0.78125762939453125 -0.2596282958984375 -0.3365478515625
-0.79097747802734375 -0.2449951171875 -0.36328125
-0.82784271240234375 -0.26502227783203125 -0.3883056640625
-0.8227081298828125 -0.29154205322265625 -0.347412109375
0.78438568115234375 0.1010589599609375 -0.2430419921875
0.77851104736328125 0.11635589599609375 -0.240966796875
0.76354217529296875 0.09398651123046875 -0.232421875
0.7872772216796875 0.08365631103515625 -0.243896484375
0.802490234375 0.1077880859375 -0.2518310546875
0.7954864501953125 0.12429046630859375 -0.248046875
0.75849151611328125 0.10837554931640625 -0.2310791015625
0.76711273193359375 0.07955169677734375 -0.235107421875
0.80554962158203125 0.0880889892578125 -0.253173828125
-0.7916259765625 -0.21698760986328125 -0.4139404296875
-0.77785491943359375 -0.2151947021484375 -0.3934326171875
-0.7807464599609375 -0.2047119140625 -0.42236328125
-0.80402374267578125 -0.2193756103515625 -0.4356689453125
-0.8012847900390625 -0.22997283935546875 -0.4034423828125
-0.786468505859375 -0.226593017578125 -0.3861083984375
-0.76758575439453125 -0.2039794921875 -0.399658203125
-0.790740966796875 -0.2053680419921875 -0.444091796875
-0.8154449462890625 -0.2346649169921875 -0.4222412109375
0.75214385986328125 0.14113616943359375 -0.2364501953125
0.7403106689453125 0.1369171142578125 -0.232421875
0.760101318359375 0.13677215576171875 -0.237548828125
0.7551422119140625 0.14774322509765625 -0.2386474609375
0.73860931396484375 0.14501190185546875 -0.2332763671875
0.7459716796875 0.1302947998046875 -0.2314453125
0.77105712890625 0.14406585693359375 -0.242919921875
-0.74620819091796875 -0.17905426025390625 -0.4287109375
-0.755859375 -0.1842193603515625 -0.43017578125
-0.73654937744140625 -0.17792510986328125 -0.418701171875
-0.746124267578125 -0.1754913330078125 -0.4375
-0.7609100341796875 -0.183197021484375 -0.44580078125
-0.7459716796875 -0.18500518798828125 -0.4129638671875
-0.73114013671875 -0.17144012451171875 -0.42529296875
0.5610809326171875 -0.2163543701171875 -0.1787109375
0.56053924560546875 -0.2120513916015625 -0.153076171875
0.5201263427734375 -0.2165679931640625 -0.1536865234375
0.5650482177734375 -0.20543670654296875 -0.204345703125
0.6036224365234375 -0.210235595703125 -0.20458984375
0.60271453857421875 -0.206756591796875 -0.1826171875
0.5198516845703125 -0.2118072509765625 -0.1280517578125
0.52520751953125 -0.2044219970703125 -0.1805419921875
0.60767364501953125 -0.19823455810546875 -0.227294921875
-0.6855316162109375 -0.3748931884765625 -0.1082763671875
-0.64546966552734375 -0.36302947998046875 -0.086669921875
-0.6851959228515625 -0.367156982421875 -0.0799560546875
-0.7278900146484375 -0.38477325439453125 -0.1392822265625
-0.684051513671875 -0.37128448486328125 -0.1455078125
-0.6446990966796875 -0.35921478271484375 -0.126708984375
-0.6444549560546875 -0.35486602783203125 -0.055419921875
-0.7265472412109375 -0.3786773681640625 -0.1109619140625
-0.7261810302734375 -0.38079833984375 -0.178955078125
0.74523162841796875 -0.1514434814453125 -0.2620849609375
0.7413787841796875 -0.1499176025390625 -0.2440185546875
0.697784423828125 -0.180389404296875 -0.2490234375
0.74947357177734375 -0.13925933837890625 -0.2769775390625
0.789154052734375 -0.11496734619140625 -0.267822265625
0.78460693359375 -0.1131744384765625 -0.252685546875
0.6956939697265625 -0.17716217041015625 -0.2279052734375
0.7017669677734375 -0.16717529296875 -0.267578125
0.79419708251953125 -0.1035919189453125 -0.28271484375
-0.84747314453125 -0.38177490234375 -0.2432861328125
-0.81020355224609375 -0.39090728759765625 -0.207763671875
-0.84497833251953125 -0.37633514404296875 -0.2205810546875
-0.87859344482421875 -0.37000274658203125 -0.2783203125
-0.8445281982421875 -0.37761688232421875 -0.2760009765625
-0.80641937255859375 -0.38341522216796875 -0.241455078125
-0.809478759765625 -0.38610076904296875 -0.1839599609375
-0.8753814697265625 -0.36504364013671875 -0.2584228515625
-0.87580108642578125 -0.36495208740234375 -0.3070068359375
0.88263702392578125 0.03564453125 -0.2633056640625
0.87751007080078125 0.04056549072265625 -0.250732421875
0.8593902587890625 -0.01914215087890625 -0.2696533203125
0.886474609375 0.03668212890625 -0.2755126953125
0.89844512939453125 0.09128570556640625 -0.2559814453125
0.89357757568359375 0.09619140625 -0.24365234375
0.85369110107421875 -0.01580810546875 -0.2574462890625
0.86444091796875 -0.01416778564453125 -0.2823486328125
0.90021514892578125 0.08696746826171875 -0.267822265625
-0.91857147216796875 -0.29410552978515625 -0.3907470703125
-0.91382598876953125 -0.32563018798828125 -0.354248046875
-0.914306640625 -0.2884521484375 -0.3780517578125
-0.91330718994140625 -0.26309967041015625 -0.4290771484375
-0.9176025390625 -0.296600341796875 -0.408447265625
-0.91312408447265625 -0.32398223876953125 -0.374267578125
-0.9103851318359375 -0.31943511962890625 -0.339111328125
-0.90973663330078125 -0.25600433349609375 -0.4168701171875
-0.91214752197265625 -0.26696014404296875 -0.4405517578125
0.89698028564453125 0.2246551513671875 -0.2425537109375
0.891845703125 0.23688507080078125 -0.228759765625
0.9053955078125 0.1869964599609375 -0.244384765625
0.89907073974609375 0.2034759521484375 -0.258544921875
0.88054656982421875 0.25283050537109375 -0.2430419921875
0.8751373291015625 0.2663116455078125 -0.226318359375
0.90013885498046875 0.19751739501953125 -0.2318115234375
0.906097412109375 0.1731109619140625 -0.2579345703125
0.88315582275390625 0.227935791015625 -0.2593994140625
-0.85514068603515625 -0.1717376708984375 -0.525390625
-0.88057708740234375 -0.1995849609375 -0.4967041015625
-0.85225677490234375 -0.15955352783203125 -0.5162353515625
-0.8264007568359375 -0.145904541015625 -0.54541015625
-0.85843658447265625 -0.18646240234375 -0.529296875
-0.88134765625 -0.21062469482421875 -0.5018310546875
-0.877044677734375 -0.1903533935546875 -0.4893798828125
-0.8230133056640625 -0.13240814208984375 -0.535400390625
-0.8312530517578125 -0.1649627685546875 -0.5472412109375
0.79126739501953125 0.27671051025390625 -0.230712890625
0.78708648681640625 0.29605865478515625 -0.21044921875
0.82573699951171875 0.27764129638671875 -0.236328125
0.7925872802734375 0.2428741455078125 -0.251708984375
0.75417327880859375 0.269927978515625 -0.2236328125
0.75083160400390625 0.28836822509765625 -0.202880859375
0.82086181640625 0.29601287841796875 -0.218017578125
0.8282928466796875 0.24542236328125 -0.2548828125
0.7548828125 0.2347564697265625 -0.2449951171875
-0.7315216064453125 -0.09523773193359375 -0.5313720703125
-0.763763427734375 -0.10782623291015625 -0.54736328125
-0.73046112060546875 -0.07813262939453125 -0.5186767578125
-0.701995849609375 -0.0865478515625 -0.50927734375
-0.737335205078125 -0.12029266357421875 -0.5323486328125
-0.768707275390625 -0.131011962890625 -0.5477294921875
-0.761566162109375 -0.09101104736328125 -0.536865234375
-0.70182037353515625 -0.07000732421875 -0.4957275390625
-0.70561981201171875 -0.113067626953125 -0.5118408203125
0.6541748046875 0.23349761962890625 -0.197265625
0.6546478271484375 0.2528533935546875 -0.1759033203125
0.684356689453125 0.2465667724609375 -0.207275390625
0.65008544921875 0.19838714599609375 -0.2169189453125
0.62638092041015625 0.2185516357421875 -0.1890869140625
0.62879180908203125 0.239166259765625 -0.1695556640625
0.68316650390625 0.26584625244140625 -0.185791015625
0.6822052001953125 0.21067047119140625 -0.227783203125
0.6213226318359375 0.18413543701171875 -0.2099609375
-0.62921142578125 -0.07079315185546875 -0.427001953125
-0.65069580078125 -0.0758819580078125 -0.4556884765625
-0.6333770751953125 -0.0548858642578125 -0.4132080078125
-0.61071014404296875 -0.07054901123046875 -0.4010009765625
-0.6285400390625 -0.09769439697265625 -0.4298095703125
-0.65143585205078125 -0.10257720947265625 -0.458251953125
-0.65320587158203125 -0.058746337890625 -0.441162109375
-0.616424560546875 -0.05489349365234375 -0.386962890625
-0.607757568359375 -0.0956878662109375 -0.4049072265625
0.6077728271484375 -0.0192413330078125 -0.244873046875
0.646575927734375 -0.009490966796875 -0.2579345703125
0.58971405029296875 -0.1026763916015625 -0.2386474609375
0.57329559326171875 -0.02564239501953125 -0.2318115234375
0.6264801025390625 0.06789398193359375 -0.2418212890625
0.66363525390625 0.07715606689453125 -0.2550048828125
0.62921905517578125 -0.0941162109375 -0.2554931640625
0.552734375 -0.10845947265625 -0.221923828125
0.5940399169921875 0.0574493408203125 -0.2310791015625
-0.65515899658203125 -0.2504119873046875 -0.3209228515625
-0.6686553955078125 -0.30811309814453125 -0.2593994140625
-0.6863861083984375 -0.2579498291015625 -0.35009765625
-0.6413116455078125 -0.19023895263671875 -0.3758544921875
-0.625579833984375 -0.24605560302734375 -0.2974853515625
-0.6340484619140625 -0.29808807373046875 -0.2364501953125
-0.704345703125 -0.31447601318359375 -0.286865234375
-0.67059326171875 -0.19606781005859375 -0.4046630859375
-0.61550140380859375 -0.18645477294921875 -0.352294921875
0.7746124267578125 0.03427886962890625 -0.291748046875
0.78369140625 0.11722564697265625 -0.283935546875
0.81517791748046875 0.054473876953125 -0.2958984375
0.7640380859375 -0.04346466064453125 -0.294189453125
0.7311859130859375 0.016571044921875 -0.28564453125
0.74301910400390625 0.10302734375 -0.279052734375
0.82262420654296875 0.12966156005859375 -0.2880859375
0.80699920654296875 -0.016265869140625 -0.2979736328125
0.719146728515625 -0.0678863525390625 -0.286865234375
-0.791473388671875 -0.26567840576171875 -0.4305419921875
-0.82384490966796875 -0.26334381103515625 -0.450439453125
-0.7682647705078125 -0.20905303955078125 -0.4822998046875
-0.75702667236328125 -0.26465606689453125 -0.4014892578125
-0.81475830078125 -0.31764984130859375 -0.3717041015625
-0.84726715087890625 -0.3109893798828125 -0.397216796875
-0.80045318603515625 -0.21321868896484375 -0.4984130859375
-0.73448944091796875 -0.205963134765625 -0.4564208984375
-0.77892303466796875 -0.31972503662109375 -0.34228515625
0.88689422607421875 0.10009002685546875 -0.2890625
0.8940582275390625 0.13568115234375 -0.2841796875
0.88903045654296875 0.0738067626953125 -0.2889404296875
0.8739166259765625 0.08984375 -0.294921875
0.8787994384765625 0.14324188232421875 -0.2874755859375
0.8992462158203125 0.11345672607421875 -0.281005859375
0.87075042724609375 0.04150390625 -0.2955322265625
-0.88159942626953125 -0.25582122802734375 -0.48046875
-0.89681243896484375 -0.2738189697265625 -0.458984375
-0.87435150146484375 -0.234466552734375 -0.5035400390625
-0.8716278076171875 -0.26006317138671875 -0.4779052734375
-0.890228271484375 -0.29087066650390625 -0.4393310546875
-0.89234161376953125 -0.25034332275390625 -0.480712890625
-0.85398101806640625 -0.224395751953125 -0.5123291015625
0.563995361328125 0.1656494140625 -0.1829833984375
0.550811767578125 0.15872955322265625 -0.1839599609375
0.56915283203125 0.18939208984375 -0.1568603515625
0.58176422119140625 0.18194580078125 -0.1824951171875
0.55550384521484375 0.130279541015625 -0.2073974609375
0.54080963134765625 0.12160491943359375 -0.2138671875
0.556427001953125 0.1836700439453125 -0.152587890625
0.58629608154296875 0.20386505126953125 -0.1600341796875
0.57352447509765625 0.14769744873046875 -0.204345703125
-0.56976318359375 -0.08683013916015625 -0.3460693359375
-0.57826995849609375 -0.06813812255859375 -0.3275146484375
-0.559112548828125 -0.0861053466796875 -0.3387451171875
-0.5618896484375 -0.11252593994140625 -0.3560791015625
-0.5817413330078125 -0.08019256591796875 -0.3590087890625
-0.58870697021484375 -0.06414794921875 -0.343994140625
-0.568878173828125 -0.06610107421875 -0.314208984375
-0.54889678955078125 -0.11418914794921875 -0.35546875
-0.57587432861328125 -0.10562896728515625 -0.3662109375
0.49393463134765625 -0.051605224609375 -0.230712890625
0.519195556640625 0.0179901123046875 -0.2347412109375
0.5169830322265625 -0.0436859130859375 -0.22314453125
0.46923828125 -0.1167755126953125 -0.216796875
0.47359466552734375 -0.05905914306640625 -0.2430419921875
0.50060272216796875 0.0079803466796875 -0.2476806640625
0.540740966796875 0.03220367431640625 -0.2265625
0.49291229248046875 -0.11504364013671875 -0.2095947265625
0.44652557373046875 -0.120361328125 -0.22998046875
-0.55030059814453125 -0.237457275390625 -0.2825927734375
-0.57238006591796875 -0.23845672607421875 -0.2786865234375
-0.552520751953125 -0.19309234619140625 -0.3245849609375
-0.5288848876953125 -0.238677978515625 -0.2939453125
-0.54864501953125 -0.28046417236328125 -0.2318115234375
-0.57448577880859375 -0.28530120849609375 -0.22216796875
-0.5713043212890625 -0.1887359619140625 -0.32421875
-0.53398895263671875 -0.1952056884765625 -0.333251953125
-0.52392578125 -0.2779541015625 -0.2476806640625
0.42261505126953125 -0.20742034912109375 -0.1290283203125
0.39572906494140625 -0.2059478759765625 -0.138671875
0.432159423828125 -0.19748687744140625 -0.163818359375
0.452301025390625 -0.21115875244140625 -0.127197265625
0.4193115234375 -0.20546722412109375 -0.0968017578125
0.3918304443359375 -0.20427703857421875 -0.0987548828125
0.40642547607421875 -0.19499969482421875 -0.1746826171875
0.45932769775390625 -0.20104217529296875 -0.1593017578125
0.449859619140625 -0.20787811279296875 -0.0975341796875
-0.5394287109375 -0.330596923828125 -0.0787353515625
-0.5425262451171875 -0.32946014404296875 -0.126708984375
-0.5093231201171875 -0.32433319091796875 -0.0943603515625
-0.5377197265625 -0.32360076904296875 -0.0400390625
-0.57097625732421875 -0.339019775390625 -0.070556640625
-0.57436370849609375 -0.3365478515625 -0.115478515625
-0.51340484619140625 -0.32292938232421875 -0.1451416015625
-0.507659912109375 -0.31879425048828125 -0.0499267578125
-0.569427490234375 -0.331634521484375 -0.0350341796875
0.27681732177734375 0.3536224365234375 0.4962158203125
0.262847900390625 0.35797119140625 0.5096435546875
0.25074005126953125 0.3614044189453125 0.5213623046875
0.244293212890625 0.34627532958984375 0.5338134765625
0.243988037109375 0.32942962646484375 0.538818359375
0.2406463623046875 0.3133087158203125 0.5438232421875
0.24138641357421875 0.28912353515625 0.5401611328125
0.251922607421875 0.27614593505859375 0.5306396484375
0.26343536376953125 0.26177215576171875 0.519287109375
0.2862091064453125 0.26802825927734375 0.4993896484375
0.29280853271484375 0.29308319091796875 0.494140625
0.29449462890625 0.32068634033203125 0.4862060546875
-0.43569183349609375 0.18450927734375 0.4310302734375
-0.423309326171875 0.16332244873046875 0.4495849609375
-0.4065399169921875 0.14624786376953125 0.4691162109375
-0.380523681640625 0.148956298828125 0.494384765625
-0.37508392333984375 0.16558837890625 0.5020751953125
-0.370025634765625 0.18059539794921875 0.5093994140625
-0.3795928955078125 0.2002410888671875 0.504638671875
-0.3906707763671875 0.21166229248046875 0.493896484375
-0.39905548095703125 0.224273681640625 0.482177734375
-0.41190338134765625 0.23154449462890625 0.461181640625
-0.4212799072265625 0.22328948974609375 0.4468994140625
-0.43253326416015625 0.2154693603515625 0.4305419921875
0.3272857666015625 0.3310394287109375 0.4306640625
0.31577301025390625 0.3367462158203125 0.4493408203125
0.30341339111328125 0.34317779541015625 0.465087890625
0.285675048828125 0.22969818115234375 0.4920654296875
0.2951812744140625 0.21445465087890625 0.4775390625
0.3046417236328125 0.20003509521484375 0.46044921875
0.32909393310546875 0.21587371826171875 0.43603515625
0.33937835693359375 0.2501373291015625 0.4276123046875
0.3424224853515625 0.28733062744140625 0.4185791015625
-0.4704742431640625 0.135223388671875 0.3577880859375
-0.45517730712890625 0.1087646484375 0.3829345703125
-0.4343719482421875 0.08697509765625 0.409423828125
-0.4034271240234375 0.0839691162109375 0.4439697265625
-0.39789581298828125 0.10009002685546875 0.45849609375
-0.39227294921875 0.1158447265625 0.47216796875
-0.45361328125 0.195281982421875 0.3941650390625
-0.46228790283203125 0.18442535400390625 0.37451171875
-0.47101593017578125 0.17377471923828125 0.3543701171875
0.25951385498046875 0.226043701171875 0.5142822265625
0.2401123046875 0.210357666015625 0.5201416015625
0.2179412841796875 0.200531005859375 0.5263671875
0.196441650390625 0.1756744384765625 0.5201416015625
0.19878387451171875 0.15711212158203125 0.5057373046875
0.20114898681640625 0.13990020751953125 0.4912109375
0.235321044921875 0.1285552978515625 0.4683837890625
0.2654266357421875 0.14110565185546875 0.4600830078125
0.29227447509765625 0.1600799560546875 0.45166015625
-0.379638671875 0.0574951171875 0.44873046875
-0.346588134765625 0.05030059814453125 0.4649658203125
-0.3132476806640625 0.04865264892578125 0.476806640625
-0.2814483642578125 0.0692596435546875 0.498779296875
-0.28321075439453125 0.086273193359375 0.5111083984375
-0.2855224609375 0.10369110107421875 0.520263671875
-0.31378173828125 0.117828369140625 0.5235595703125
-0.339874267578125 0.11884307861328125 0.51220703125
-0.363922119140625 0.12359619140625 0.498046875
0.2237548828125 0.28731536865234375 0.55078125
0.21120452880859375 0.2783660888671875 0.5557861328125
0.19635772705078125 0.27158355712890625 0.559326171875
0.183441162109375 0.25321197509765625 0.557373046875
0.1865386962890625 0.23580169677734375 0.54931640625
0.189483642578125 0.21553802490234375 0.5411376953125
-0.2917938232421875 0.1406402587890625 0.53564453125
-0.29598236083984375 0.1588897705078125 0.5384521484375
-0.299835205078125 0.1746978759765625 0.541259765625
-0.318756103515625 0.18331146240234375 0.5394287109375
-0.334930419921875 0.18260955810546875 0.531982421875
-0.35076904296875 0.18536376953125 0.5247802734375
0.16436004638671875 0.26793670654296875 0.5633544921875
0.14772796630859375 0.27109527587890625 0.5638427734375
0.132232666015625 0.27716827392578125 0.563232421875
0.11257171630859375 0.27582550048828125 0.556396484375
0.10704803466796875 0.26088714599609375 0.5491943359375
0.10033416748046875 0.24434661865234375 0.5423583984375
0.11705780029296875 0.211456298828125 0.53662109375
0.1422882080078125 0.2011871337890625 0.5380859375
0.1678466796875 0.19593048095703125 0.534912109375
-0.26425933837890625 0.12979888916015625 0.5322265625
-0.2424163818359375 0.14289093017578125 0.5330810546875
-0.22314453125 0.15887451171875 0.52978515625
-0.2204132080078125 0.191253662109375 0.532470703125
-0.2332611083984375 0.2040557861328125 0.53759765625
-0.244384765625 0.21495819091796875 0.54150390625
-0.26177215576171875 0.21140289306640625 0.546142578125
-0.2733612060546875 0.20101165771484375 0.5467529296875
-0.2868804931640625 0.1928253173828125 0.5458984375
0.08753204345703125 0.21039581298828125 0.520263671875
0.0816802978515625 0.1946258544921875 0.5078125
0.07621002197265625 0.17913818359375 0.492919921875
0.10162353515625 0.14385223388671875 0.48291015625
0.13431549072265625 0.12985992431640625 0.484130859375
0.1687774658203125 0.1229400634765625 0.4808349609375
-0.2464752197265625 0.06339263916015625 0.4910888671875
-0.21624755859375 0.08001708984375 0.4908447265625
-0.190338134765625 0.10240936279296875 0.4871826171875
-0.1776885986328125 0.140869140625 0.4923095703125
-0.18691253662109375 0.15337371826171875 0.5045166015625
-0.19629669189453125 0.16632080078125 0.5157470703125
0.0730133056640625 0.24562835693359375 0.5269775390625
0.05544281005859375 0.2670440673828125 0.51953125
0.041961669921875 0.2924041748046875 0.5089111328125
0.0215606689453125 0.3096160888671875 0.4854736328125
0.0114288330078125 0.3009490966796875 0.470458984375
0.0027923583984375 0.29196929931640625 0.455078125
0.00531005859375 0.24883270263671875 0.4512939453125
0.02182769775390625 0.21673583984375 0.4620361328125
0.04439544677734375 0.18791961669921875 0.4708251953125
-0.153778076171875 0.15796661376953125 0.4708251953125
-0.1446075439453125 0.18943023681640625 0.4591064453125
-0.1416778564453125 0.22319793701171875 0.4453125
-0.1571502685546875 0.26137542724609375 0.4432373046875
-0.1683197021484375 0.26541900634765625 0.456787109375
-0.18023681640625 0.2696990966796875 0.4686279296875
-0.18953704833984375 0.2489013671875 0.4945068359375
-0.19081878662109375 0.2254486083984375 0.5067138671875
-0.19680023193359375 0.20099639892578125 0.517578125
0.10395050048828125 0.29901123046875 0.5594482421875
0.0923919677734375 0.31346893310546875 0.5548095703125
0.08347320556640625 0.329345703125 0.5491943359375
0.06891632080078125 0.33945465087890625 0.5374755859375
0.05782318115234375 0.33348846435546875 0.5262451171875
0.0450897216796875 0.32653045654296875 0.5146484375
-0.20787811279296875 0.2760009765625 0.49072265625
-0.2223052978515625 0.27748870849609375 0.49951171875
-0.23516845703125 0.2795562744140625 0.5076904296875
-0.24228668212890625 0.2663726806640625 0.5220947265625
-0.2428131103515625 0.25130462646484375 0.5316162109375
-0.24600982666015625 0.237060546875 0.53857421875
0.0741424560546875 0.36304473876953125 0.5382080078125
0.07413482666015625 0.380950927734375 0.5333251953125
0.07689666748046875 0.39676666259765625 0.528076171875
0.0760040283203125 0.4129638671875 0.5133056640625
0.0664215087890625 0.41542816162109375 0.501708984375
0.05606842041015625 0.4176177978515625 0.486572265625
0.034820556640625 0.395965576171875 0.4759521484375
0.02854156494140625 0.3712158203125 0.4832763671875
0.027923583984375 0.3448638916015625 0.4913330078125
-0.20208740234375 0.29711151123046875 0.4671630859375
-0.2152099609375 0.318695068359375 0.452880859375
-0.232391357421875 0.3377227783203125 0.4385986328125
-0.2614898681640625 0.347808837890625 0.439208984375
-0.26984405517578125 0.3422088623046875 0.45361328125
-0.277740478515625 0.33719635009765625 0.46533203125
-0.27123260498046875 0.32442474365234375 0.4849853515625
-0.25949859619140625 0.3121490478515625 0.4942626953125
-0.2506866455078125 0.297821044921875 0.50439453125
0.03699493408203125 0.4210662841796875 0.45068359375
0.0293731689453125 0.4199981689453125 0.4302978515625
0.023101806640625 0.4189453125 0.4117431640625
0.0012054443359375 0.38704681396484375 0.40234375
-0.0081634521484375 0.35254669189453125 0.4150390625
-0.0102386474609375 0.318328857421875 0.427978515625
-0.15637969970703125 0.28742218017578125 0.41064453125
-0.171875 0.3168182373046875 0.3922119140625
-0.19293975830078125 0.341827392578125 0.3707275390625
-0.226470947265625 0.36066436767578125 0.36865234375
-0.2348785400390625 0.35890960693359375 0.3878173828125
-0.2432098388671875 0.35630035400390625 0.40576171875
0.0614166259765625 0.44008636474609375 0.4644775390625
0.081512451171875 0.45601654052734375 0.4593505859375
0.10294342041015625 0.4670562744140625 0.457275390625
0.12770843505859375 0.4790191650390625 0.4378662109375
0.127655029296875 0.48273468017578125 0.4166259765625
0.12828826904296875 0.487640380859375 0.397216796875
0.095733642578125 0.4814453125 0.3773193359375
0.064788818359375 0.4656524658203125 0.380126953125
0.03818511962890625 0.44437408447265625 0.38525390625
-0.247711181640625 0.37346649169921875 0.3297119140625
-0.2795867919921875 0.37915802001953125 0.3115234375
-0.31197357177734375 0.3785858154296875 0.2935791015625
-0.34532928466796875 0.3695831298828125 0.3031005859375
-0.34637451171875 0.3676910400390625 0.3262939453125
-0.3472900390625 0.36534881591796875 0.349365234375
-0.3231048583984375 0.366729736328125 0.3822021484375
-0.29885101318359375 0.366455078125 0.39404296875
-0.2744140625 0.36223602294921875 0.408203125
0.09261322021484375 0.42498016357421875 0.5206298828125
0.10430908203125 0.43486785888671875 0.5179443359375
0.11832427978515625 0.44135284423828125 0.515380859375
0.13266754150390625 0.4499359130859375 0.503173828125
0.13100433349609375 0.45699310302734375 0.4901123046875
0.129058837890625 0.46508026123046875 0.4739990234375
-0.34677886962890625 0.3557281494140625 0.3924560546875
-0.3462066650390625 0.34925079345703125 0.4124755859375
-0.3453216552734375 0.3435821533203125 0.4296875
-0.3288421630859375 0.34314727783203125 0.4503173828125
-0.31298828125 0.34262847900390625 0.4581298828125
-0.29776763916015625 0.33988189697265625 0.466552734375
0.15074920654296875 0.4453887939453125 0.5128173828125
0.168304443359375 0.441925048828125 0.5130615234375
0.1849822998046875 0.4356231689453125 0.512451171875
0.206146240234375 0.42950439453125 0.5052490234375
0.21356964111328125 0.43414306640625 0.4925537109375
0.22118377685546875 0.439666748046875 0.4788818359375
0.2059783935546875 0.45847320556640625 0.45849609375
0.18016815185546875 0.4690093994140625 0.45654296875
0.15381622314453125 0.47351837158203125 0.4559326171875
-0.37122344970703125 0.351165771484375 0.36376953125
-0.3919219970703125 0.33647918701171875 0.3599853515625
-0.41063690185546875 0.3184051513671875 0.3616943359375
-0.4178924560546875 0.29808807373046875 0.38671875
-0.4098358154296875 0.29853057861328125 0.4068603515625
-0.40212249755859375 0.29856109619140625 0.42529296875
-0.38652801513671875 0.3125457763671875 0.4376220703125
-0.3742218017578125 0.324493408203125 0.435791015625
-0.35982513427734375 0.33397674560546875 0.4381103515625
0.23848724365234375 0.447784423828125 0.4447021484375
0.2466278076171875 0.45012664794921875 0.425048828125
0.254669189453125 0.45198822021484375 0.40673828125
0.23146820068359375 0.471771240234375 0.3839111328125
0.19818115234375 0.48571014404296875 0.3819580078125
0.163787841796875 0.49124908447265625 0.37744140625
-0.374664306640625 0.358551025390625 0.27001953125
-0.40409088134765625 0.33890533447265625 0.26318359375
-0.4298553466796875 0.314697265625 0.2618408203125
-0.44562530517578125 0.2908477783203125 0.2923583984375
-0.43996429443359375 0.29360198974609375 0.315673828125
-0.43312835693359375 0.2967681884765625 0.341552734375
0.25092315673828125 0.4245758056640625 0.466064453125
0.267974853515625 0.401214599609375 0.4710693359375
0.28180694580078125 0.3756866455078125 0.4757080078125
0.32773590087890625 0.36058807373046875 0.406494140625
0.31198883056640625 0.39516448974609375 0.3997802734375
0.28911590576171875 0.427093505859375 0.3935546875
-0.46753692626953125 0.2569580078125 0.2779541015625
-0.4777069091796875 0.22592926025390625 0.2939453125
-0.4818572998046875 0.1944427490234375 0.3121337890625
-0.44673919677734375 0.228240966796875 0.3963623046875
-0.44423675537109375 0.252227783203125 0.383056640625
-0.4374847412109375 0.27576446533203125 0.3721923828125
0.2147674560546875 0.41414642333984375 0.5177001953125
0.2265777587890625 0.39882659912109375 0.5211181640625
0.23534393310546875 0.3820343017578125 0.5260009765625
-0.4070281982421875 0.253082275390625 0.4605712890625
-0.406646728515625 0.2684783935546875 0.4515380859375
-0.403106689453125 0.2846832275390625 0.4439697265625
0.23035430908203125 0.36980438232421875 0.54541015625
0.23352813720703125 0.36837005615234375 0.5408935546875
0.23668670654296875 0.36661529541015625 0.535888671875
0.197723388671875 0.42548370361328125 0.5220947265625
0.19580841064453125 0.42578887939453125 0.52783203125
0.19411468505859375 0.4254302978515625 0.5316162109375
0.20302581787109375 0.41228485107421875 0.53857421875
0.21319580078125 0.39983367919921875 0.541259765625
0.22008514404296875 0.38544464111328125 0.5450439453125
-0.39430999755859375 0.26335906982421875 0.4847412109375
-0.39501953125 0.2769317626953125 0.4765625
-0.39190673828125 0.28917694091796875 0.470703125
-0.39025115966796875 0.30194091796875 0.4595947265625
-0.39231109619140625 0.30147552490234375 0.4537353515625
-0.3936614990234375 0.2998046875 0.4478759765625
-0.40082550048828125 0.24265289306640625 0.4783935546875
-0.39888763427734375 0.245574951171875 0.4835205078125
-0.396148681640625 0.2482452392578125 0.4881591796875
0.13413238525390625 0.4435272216796875 0.520751953125
0.13387298583984375 0.44362640380859375 0.5267333984375
0.13381195068359375 0.44297027587890625 0.531494140625
0.14916229248046875 0.43999481201171875 0.5355224609375
0.1638946533203125 0.43761444091796875 0.5341796875
0.17794036865234375 0.43155670166015625 0.53515625
-0.37897491455078125 0.3134307861328125 0.4642333984375
-0.36928558349609375 0.32381439208984375 0.46435546875
-0.35759735107421875 0.330780029296875 0.466064453125
-0.345458984375 0.33870697021484375 0.4642333984375
-0.3451385498046875 0.3388214111328125 0.458251953125
-0.34503936767578125 0.33896636962890625 0.4520263671875
0.08655548095703125 0.4124755859375 0.5322265625
0.0880126953125 0.413543701171875 0.5380859375
0.0898895263671875 0.4135894775390625 0.5428466796875
0.1007537841796875 0.423309326171875 0.5426025390625
0.110137939453125 0.432159423828125 0.540283203125
0.12165069580078125 0.43759918212890625 0.537109375
-0.3310394287109375 0.33963775634765625 0.475341796875
-0.31781768798828125 0.339263916015625 0.48193359375
-0.30510711669921875 0.3360595703125 0.490234375
-0.29045867919921875 0.33385467529296875 0.4932861328125
-0.28900146484375 0.3339385986328125 0.48876953125
-0.286956787109375 0.3336029052734375 0.4832763671875
0.081451416015625 0.3489837646484375 0.5517578125
0.08331298828125 0.3518218994140625 0.5570068359375
0.0852203369140625 0.35399627685546875 0.560546875
0.085723876953125 0.371490478515625 0.5584716796875
0.0851593017578125 0.3867645263671875 0.554443359375
0.08821868896484375 0.3998565673828125 0.5511474609375
-0.2815093994140625 0.32305908203125 0.505126953125
-0.27159881591796875 0.3133392333984375 0.513916015625
-0.26468658447265625 0.30121612548828125 0.5224609375
-0.2551422119140625 0.2879638671875 0.5274658203125
-0.25246429443359375 0.28678131103515625 0.5230712890625
-0.24951171875 0.28466796875 0.518798828125
0.11913299560546875 0.2939300537109375 0.567138671875
0.1203460693359375 0.2984619140625 0.57177734375
0.1214447021484375 0.30248260498046875 0.5743408203125
0.1112213134765625 0.31812286376953125 0.5745849609375
0.10166168212890625 0.3297271728515625 0.57080078125
0.0942840576171875 0.3419952392578125 0.568115234375
-0.25661468505859375 0.274932861328125 0.537841796875
-0.2566986083984375 0.26203155517578125 0.5439453125
-0.2601318359375 0.2501220703125 0.5487060546875
-0.26157379150390625 0.2352447509765625 0.5528564453125
-0.2594146728515625 0.23183441162109375 0.55029296875
-0.2567138671875 0.2286834716796875 0.5467529296875
0.1794281005859375 0.27569580078125 0.5670166015625
0.178802490234375 0.28057861328125 0.5716552734375
0.17821502685546875 0.28499603271484375 0.5743408203125
0.16230010986328125 0.29102325439453125 0.578857421875
0.1488189697265625 0.29357147216796875 0.5787353515625
0.13574981689453125 0.29969024658203125 0.5789794921875
-0.2733612060546875 0.22802734375 0.556884765625
-0.28266143798828125 0.21865081787109375 0.5587158203125
-0.2938690185546875 0.21303558349609375 0.556396484375
-0.305206298828125 0.20263671875 0.5523681640625
-0.30450439453125 0.198760986328125 0.5498046875
-0.3039093017578125 0.1943511962890625 0.5462646484375
0.229766845703125 0.30498504638671875 0.553955078125
0.227294921875 0.308746337890625 0.558837890625
0.22476959228515625 0.31255340576171875 0.5615234375
0.21221923828125 0.3074188232421875 0.5677490234375
0.20195770263671875 0.2987823486328125 0.570556640625
0.1896514892578125 0.29442596435546875 0.57470703125
-0.31989288330078125 0.20446014404296875 0.5494384765625
-0.33371734619140625 0.203369140625 0.5447998046875
-0.346771240234375 0.20658111572265625 0.5386962890625
-0.36219024658203125 0.20652008056640625 0.5274658203125
-0.36370086669921875 0.202606201171875 0.5238037109375
-0.3645782470703125 0.19864654541015625 0.5206298828125
0.22844696044921875 0.3555145263671875 0.5521240234375
0.22901153564453125 0.34186553955078125 0.5555419921875
0.22570037841796875 0.32932281494140625 0.5599365234375
-0.37171173095703125 0.21916961669921875 0.5211181640625
-0.3809356689453125 0.2277984619140625 0.510986328125
-0.3868408203125 0.2388458251953125 0.501220703125
0.21482086181640625 0.3712158203125 0.5531005859375
0.20068359375 0.37152099609375 0.5570068359375
0.1833038330078125 0.370849609375 0.5628662109375
0.1814117431640625 0.34914398193359375 0.5687255859375
0.1977996826171875 0.33625030517578125 0.5675048828125
0.21103668212890625 0.32576751708984375 0.5660400390625
-0.35240936279296875 0.26602935791015625 0.5152587890625
-0.3697662353515625 0.260162353515625 0.5078125
-0.38237762451171875 0.25519561767578125 0.4989013671875
-0.35465240478515625 0.22147369384765625 0.5316162109375
-0.3481292724609375 0.234527587890625 0.5311279296875
-0.3393096923828125 0.25067901611328125 0.529541015625
0.163299560546875 0.33901214599609375 0.5758056640625
0.1693572998046875 0.31884002685546875 0.5772705078125
0.173553466796875 0.30318450927734375 0.5771484375
-0.30895233154296875 0.2179107666015625 0.5518798828125
-0.31259918212890625 0.23213958740234375 0.5482177734375
-0.31748199462890625 0.24967193603515625 0.5411376953125
0.1416778564453125 0.34551239013671875 0.5758056640625
0.1337890625 0.3301544189453125 0.5772705078125
0.12731170654296875 0.31746673583984375 0.57763671875
-0.27443695068359375 0.24456787109375 0.5523681640625
-0.285858154296875 0.25310516357421875 0.5478515625
-0.3010101318359375 0.2621917724609375 0.5411376953125
0.127716064453125 0.36444854736328125 0.5692138671875
0.11090087890625 0.36159515380859375 0.5677490234375
0.098419189453125 0.35880279541015625 0.5665283203125
-0.26873779296875 0.2877655029296875 0.531982421875
-0.28157806396484375 0.28557586669921875 0.5321044921875
-0.29853057861328125 0.28235626220703125 0.5308837890625
0.12946319580078125 0.38721466064453125 0.5623779296875
0.11411285400390625 0.3991241455078125 0.556396484375
0.10157012939453125 0.4079132080078125 0.5513916015625
-0.29724884033203125 0.32413482666015625 0.503662109375
-0.30402374267578125 0.31365966796875 0.51025390625
-0.31219482421875 0.299560546875 0.517578125
0.14658355712890625 0.399169921875 0.558837890625
0.14134979248046875 0.41724395751953125 0.55126953125
0.1373291015625 0.43065643310546875 0.542724609375
-0.34178924560546875 0.32900238037109375 0.48095703125
-0.3381500244140625 0.31688690185546875 0.4923095703125
-0.33370208740234375 0.3018951416015625 0.5052490234375
0.169158935546875 0.3919677734375 0.558349609375
0.178802490234375 0.4059906005859375 0.55078125
0.18624114990234375 0.4164886474609375 0.543701171875
-0.37835693359375 0.2994232177734375 0.4769287109375
-0.3662261962890625 0.294036865234375 0.4906005859375
-0.350128173828125 0.28769683837890625 0.5054931640625
0.1053619384765625 -0.6345062255859375 0.673583984375
0.13138580322265625 -0.635833740234375 0.65771484375
0.155181884765625 -0.63613128662109375 0.6424560546875
0.18312835693359375 -0.6249237060546875 0.6400146484375
0.18511962890625 -0.611602783203125 0.6556396484375
0.18488311767578125 -0.5982208251953125 0.6685791015625
0.16234588623046875 -0.58478546142578125 0.69189453125
0.14153289794921875 -0.58544921875 0.703369140625
0.1188201904296875 -0.58487701416015625 0.7158203125
0.092498779296875 -0.5968017578125 0.71875
0.0884857177734375 -0.6102294921875 0.7098388671875
0.08423614501953125 -0.6224365234375 0.69970703125
0.07268524169921875 -0.58153533935546875 0.7366943359375
0.04998016357421875 -0.57798004150390625 0.74609375
0.02744293212890625 -0.5749969482421875 0.7537841796875
-0.0046234130859375 -0.58514404296875 0.75537109375
-0.0146331787109375 -0.5986328125 0.746337890625
-0.02362060546875 -0.61046600341796875 0.736572265625
-0.0037994384765625 -0.62383270263671875 0.716552734375
0.02428436279296875 -0.62752532958984375 0.7081298828125
0.051971435546875 -0.6310577392578125 0.697509765625
0.199310302734375 -0.63616943359375 0.6082763671875
0.21825408935546875 -0.63521575927734375 0.593505859375
0.235137939453125 -0.6308746337890625 0.580322265625
0.24890899658203125 -0.61327362060546875 0.5911865234375
0.245361328125 -0.59944915771484375 0.613525390625
0.23868560791015625 -0.58113861083984375 0.6346435546875
0.22051239013671875 -0.57057952880859375 0.6583251953125
0.20953369140625 -0.57694244384765625 0.663818359375
0.19671630859375 -0.58048248291015625 0.6724853515625
-0.01076507568359375 -0.567962646484375 0.7677001953125
-0.0261993408203125 -0.56351470947265625 0.771484375
-0.038665771484375 -0.55652618408203125 0.777099609375
-0.06941986083984375 -0.5634613037109375 0.7735595703125
-0.08826446533203125 -0.5784759521484375 0.7662353515625
-0.106201171875 -0.59101104736328125 0.755126953125
-0.102783203125 -0.60919189453125 0.73876953125
-0.08200836181640625 -0.61480712890625 0.73486328125
-0.0574951171875 -0.61794281005859375 0.729248046875
0.25734710693359375 -0.61299896240234375 0.562744140625
0.2631378173828125 -0.59889984130859375 0.556884765625
0.2658538818359375 -0.577117919921875 0.55322265625
0.26987457275390625 -0.5442962646484375 0.57763671875
0.26587677001953125 -0.53052520751953125 0.6025390625
0.25644683837890625 -0.51137542724609375 0.625732421875
0.24185943603515625 -0.51102447509765625 0.6494140625
0.23963165283203125 -0.5302581787109375 0.64990234375
0.23563385009765625 -0.54811859130859375 0.6507568359375
-0.0584259033203125 -0.53284454345703125 0.781005859375
-0.06572723388671875 -0.51708221435546875 0.7816162109375
-0.0715179443359375 -0.4981536865234375 0.7813720703125
-0.09857940673828125 -0.49761199951171875 0.773681640625
-0.119598388671875 -0.5147552490234375 0.7650146484375
-0.138702392578125 -0.5280609130859375 0.7490234375
-0.1493072509765625 -0.55770111083984375 0.733154296875
-0.1431427001953125 -0.57619476318359375 0.73681640625
-0.1340484619140625 -0.59085845947265625 0.739013671875
0.2646026611328125 -0.52042388916015625 0.55126953125
0.26213836669921875 -0.4843597412109375 0.55029296875
0.25606536865234375 -0.44518280029296875 0.5478515625
0.25160980224609375 -0.40267181396484375 0.5728759765625
0.24822998046875 -0.397064208984375 0.5992431640625
0.23831939697265625 -0.3875579833984375 0.62255859375
0.23154449462890625 -0.4107513427734375 0.6470947265625
0.2384490966796875 -0.4398651123046875 0.648193359375
0.24182891845703125 -0.46456146240234375 0.649169921875
-0.0793609619140625 -0.45725250244140625 0.775390625
-0.0817413330078125 -0.43389129638671875 0.7681884765625
-0.08467864990234375 -0.40618133544921875 0.759765625
-0.110504150390625 -0.3858489990234375 0.7401123046875
-0.1320953369140625 -0.39550018310546875 0.726318359375
-0.14992523193359375 -0.401031494140625 0.706298828125
-0.1617431640625 -0.43930816650390625 0.6937255859375
-0.1587982177734375 -0.47512054443359375 0.70703125
-0.15628814697265625 -0.5074005126953125 0.71875
0.2396392822265625 -0.36004638671875 0.5411376953125
0.2288360595703125 -0.31586456298828125 0.536376953125
0.21807098388671875 -0.27457427978515625 0.5284423828125
0.207672119140625 -0.231903076171875 0.550537109375
0.20221710205078125 -0.22525787353515625 0.57666015625
0.19098663330078125 -0.21750640869140625 0.600341796875
0.1893463134765625 -0.25041961669921875 0.6287841796875
0.20220947265625 -0.29373931884765625 0.63427734375
0.2146148681640625 -0.33742523193359375 0.6397705078125
-0.09107208251953125 -0.337493896484375 0.7333984375
-0.09436798095703125 -0.296844482421875 0.7191162109375
-0.0967254638671875 -0.2583770751953125 0.7015380859375
-0.12203216552734375 -0.229095458984375 0.6707763671875
-0.14211273193359375 -0.23867034912109375 0.6546630859375
-0.1594085693359375 -0.24710845947265625 0.6318359375
-0.1706695556640625 -0.28618621826171875 0.6220703125
-0.16943359375 -0.3225860595703125 0.6414794921875
-0.16712188720703125 -0.36165618896484375 0.6597900390625
0.11074066162109375 0.0428466796875 0.5771484375
0.12598419189453125 0.01366424560546875 0.546142578125
