# XYZ point cloud file
0.09228515625 0.579345703125 0.70604705810546875
0.095458984375 0.5816650390625 0.69822311401367188
0.0791015625 0.5865478515625 0.70837020874023438
0.091552734375 0.5767822265625 0.71126937866210938
0.106689453125 0.5687255859375 0.7025604248046875
0.108642578125 0.570068359375 0.69655227661132812
0.080078125 0.5882568359375 0.70219039916992188
0.0780029296875 0.5831298828125 0.71399307250976562
0.103271484375 0.567626953125 0.70795822143554688
-0.4229736328125 -0.0386962890625 0.70852279663085938
-0.427734375 -0.0228271484375 0.70406723022460938
-0.4228515625 -0.0433349609375 0.70134735107421875
-0.41162109375 -0.0556640625 0.71517181396484375
-0.4205322265625 -0.0384521484375 0.71343994140625
-0.4267578125 -0.0213623046875 0.70888900756835938
-0.42919921875 -0.0250244140625 0.69752120971679688
-0.4154052734375 -0.059326171875 0.70632171630859375
-0.4085693359375 -0.051025390625 0.7191314697265625
0.02294921875 0.5721435546875 0.71523666381835938
0.0196533203125 0.5731201171875 0.7101287841796875
0.005615234375 0.560546875 0.72028732299804688
0.0257568359375 0.5697021484375 0.72061538696289062
0.0404052734375 0.5789794921875 0.70989227294921875
0.0404052734375 0.5802001953125 0.701812744140625
0.00390625 0.5631103515625 0.71513748168945312
0.006591796875 0.55908203125 0.72651290893554688
0.040771484375 0.57568359375 0.7162628173828125
-0.427490234375 0.032470703125 0.70014190673828125
-0.4190673828125 0.050537109375 0.70043182373046875
-0.4283447265625 0.031982421875 0.69189834594726562
-0.4324951171875 0.0128173828125 0.69802474975585938
-0.4259033203125 0.0328369140625 0.70633316040039062
-0.41650390625 0.0504150390625 0.70737075805664062
-0.42138671875 0.0509033203125 0.69314956665039062
-0.4324951171875 0.0126953125 0.6909942626953125
-0.430419921875 0.0135498046875 0.70507431030273438
-0.027099609375 0.520751953125 0.7302093505859375
-0.0301513671875 0.519775390625 0.72293472290039062
-0.03173828125 0.5006103515625 0.73110198974609375
-0.0233154296875 0.5201416015625 0.7338409423828125
-0.017578125 0.535400390625 0.72765350341796875
-0.0206298828125 0.535400390625 0.72066497802734375
-0.0340576171875 0.5001220703125 0.72484588623046875
-0.0277099609375 0.502197265625 0.73836517333984375
-0.0152587890625 0.53466796875 0.7353515625
-0.3809814453125 0.0904541015625 0.71341705322265625
-0.36669921875 0.09814453125 0.72121810913085938
-0.38134765625 0.0914306640625 0.70592880249023438
-0.3944091796875 0.078369140625 0.70353317260742188
-0.3804931640625 0.0870361328125 0.71966552734375
-0.36669921875 0.0946044921875 0.72770309448242188
-0.3668212890625 0.1007080078125 0.71380233764648438
-0.395751953125 0.0789794921875 0.6969757080078125
-0.39404296875 0.0771484375 0.71175765991210938
-0.0242919921875 0.447021484375 0.74079132080078125
-0.0250244140625 0.4432373046875 0.73276138305664062
-0.0147705078125 0.4302978515625 0.74000930786132812
-0.022216796875 0.449951171875 0.74496841430664062
-0.0294189453125 0.4647216796875 0.73858261108398438
-0.030517578125 0.4617919921875 0.73115921020507812
-0.01708984375 0.42724609375 0.73383331298828125
-0.0147705078125 0.43505859375 0.74462890625
-0.0279541015625 0.4677734375 0.74354934692382812
-0.3150634765625 0.0992431640625 0.73772811889648438
-0.2987060546875 0.0943603515625 0.74068450927734375
-0.313232421875 0.1004638671875 0.73094558715820312
-0.3355712890625 0.102783203125 0.731689453125
-0.3177490234375 0.09765625 0.74205780029296875
-0.30078125 0.093505859375 0.7472686767578125
-0.295166015625 0.096435546875 0.73563385009765625
-0.3338623046875 0.1048583984375 0.72535324096679688
-0.3370361328125 0.102294921875 0.73693466186523438
0.0240478515625 0.3997802734375 0.74554443359375
0.025390625 0.3948974609375 0.73668670654296875
0.0421142578125 0.396728515625 0.7475738525390625
0.026611328125 0.4033203125 0.74962234497070312
0.010009765625 0.40478515625 0.74160003662109375
0.008544921875 0.4007568359375 0.736328125
0.0408935546875 0.391845703125 0.741668701171875
0.042724609375 0.400146484375 0.75260162353515625
0.0098876953125 0.4097900390625 0.74687576293945312
-0.2623291015625 0.0599365234375 0.7548675537109375
-0.258544921875 0.0435791015625 0.76212692260742188
-0.2603759765625 0.060791015625 0.74859619140625
-0.272705078125 0.073974609375 0.75274658203125
-0.26513671875 0.060302734375 0.76192092895507812
-0.2628173828125 0.0450439453125 0.76666641235351562
-0.2554931640625 0.04345703125 0.755615234375
-0.2686767578125 0.0745849609375 0.74475479125976562
-0.27490234375 0.073486328125 0.75822067260742188
0.091552734375 0.40380859375 0.73688888549804688
0.0936279296875 0.4019775390625 0.72851181030273438
0.1087646484375 0.4149169921875 0.73370742797851562
0.091552734375 0.4075927734375 0.7422943115234375
0.07568359375 0.39794921875 0.74224853515625
0.0767822265625 0.3944091796875 0.735565185546875
0.109619140625 0.412353515625 0.72819137573242188
0.1082763671875 0.4190673828125 0.74052047729492188
0.0743408203125 0.4014892578125 0.74701690673828125
-0.2640380859375 -0.009765625 0.76779937744140625
-0.2701416015625 -0.0283203125 0.76804733276367188
-0.2628173828125 -0.011962890625 0.7604827880859375
-0.259521484375 0.007568359375 0.76617050170898438
-0.264404296875 -0.0069580078125 0.772003173828125
-0.271728515625 -0.0262451171875 0.774139404296875
-0.26708984375 -0.028564453125 0.76440811157226562
-0.2572021484375 0.0062255859375 0.75984954833984375
-0.262451171875 0.0091552734375 0.7701873779296875
0.1416015625 0.4581298828125 0.71889495849609375
0.14453125 0.4561767578125 0.71133804321289062
0.143798828125 0.4766845703125 0.71789169311523438
0.1392822265625 0.4598388671875 0.72558212280273438
0.135498046875 0.43994140625 0.72346878051757812
0.138671875 0.4373779296875 0.71646499633789062
0.1466064453125 0.475830078125 0.7101287841796875
0.141357421875 0.4761962890625 0.721923828125
0.134521484375 0.443359375 0.729644775390625
-0.3087158203125 -0.0682373046875 0.7587432861328125
-0.3267822265625 -0.0767822265625 0.75366592407226562
-0.30859375 -0.07177734375 0.753509521484375
-0.29443359375 -0.057373046875 0.76108169555664062
-0.3094482421875 -0.0638427734375 0.7628173828125
-0.3270263671875 -0.0733642578125 0.7581787109375
-0.326171875 -0.0810546875 0.75004196166992188
-0.2916259765625 -0.0606689453125 0.75413131713867188
-0.29296875 -0.0535888671875 0.767303466796875
0.1375732421875 0.5284423828125 0.70779037475585938
0.1416015625 0.5296630859375 0.7009429931640625
0.13134765625 0.543212890625 0.70587539672851562
0.1357421875 0.52783203125 0.71210098266601562
0.14306640625 0.5128173828125 0.71141433715820312
0.1470947265625 0.513671875 0.70253753662109375
0.1337890625 0.545166015625 0.69958114624023438
0.12841796875 0.54248046875 0.71205520629882812
0.13916015625 0.51220703125 0.71800613403320312
-0.3704833984375 -0.0859375 0.73707199096679688
-0.3857421875 -0.077392578125 0.72725296020507812
-0.3726806640625 -0.0875244140625 0.73015594482421875
-0.3544921875 -0.088623046875 0.74025344848632812
-0.3707275390625 -0.0821533203125 0.74159622192382812
-0.384765625 -0.0732421875 0.7336883544921875
-0.386962890625 -0.0809326171875 0.72102737426757812
-0.3565673828125 -0.0919189453125 0.7360992431640625
-0.3553466796875 -0.0845947265625 0.74466323852539062
0.1173095703125 0.5185546875 0.73028564453125
0.114013671875 0.509521484375 0.73348236083984375
0.1248779296875 0.5224609375 0.72640228271484375
0.1077880859375 0.52490234375 0.73149871826171875
0.0985107421875 0.510009765625 0.741241455078125
0.1275634765625 0.508544921875 0.72745132446289062
0.1168212890625 0.53369140625 0.7248992919921875
-0.3658447265625 -0.0543212890625 0.75310516357421875
-0.3670654296875 -0.06396484375 0.750640869140625
-0.3572998046875 -0.04833984375 0.755828857421875
-0.3726806640625 -0.0457763671875 0.752899169921875
-0.37744140625 -0.0587158203125 0.74531173706054688
-0.357666015625 -0.0645751953125 0.75344085693359375
-0.3583984375 -0.0313720703125 0.75707244873046875
0.1181640625 0.4703369140625 0.74020004272460938
0.1263427734375 0.46484375 0.73675155639648438
0.115478515625 0.47998046875 0.73847198486328125
0.1092529296875 0.4625244140625 0.74874114990234375
0.1182861328125 0.4525146484375 0.73999786376953125
0.1282958984375 0.4793701171875 0.73350906372070312
0.0994873046875 0.476318359375 0.75041961669921875
-0.3204345703125 -0.0426025390625 0.7716217041015625
-0.329345703125 -0.0416259765625 0.76846694946289062
-0.3162841796875 -0.0513916015625 0.76995086669921875
-0.3123779296875 -0.03271484375 0.77264785766601562
-0.3251953125 -0.0245361328125 0.76906967163085938
-0.327392578125 -0.0572509765625 0.76547622680664062
-0.3050537109375 -0.0404052734375 0.77312850952148438
0.0819091796875 0.4305419921875 0.75461196899414062
0.073974609375 0.432861328125 0.75542068481445312
0.0858154296875 0.4222412109375 0.75262451171875
0.0902099609375 0.44091796875 0.75457763671875
0.077392578125 0.44970703125 0.75732040405273438
0.07177734375 0.41796875 0.75403976440429688
0.0987548828125 0.4307861328125 0.749542236328125
-0.2872314453125 -0.001220703125 0.77412796020507812
-0.2772216796875 -0.00390625 0.77466583251953125
-0.2906494140625 0.0096435546875 0.77537155151367188
-0.295166015625 -0.0079345703125 0.77525711059570312
-0.2835693359375 -0.016845703125 0.7738037109375
-0.275634765625 0.01220703125 0.77421188354492188
-0.3072509765625 0.0020751953125 0.77490234375
0.0360107421875 0.4281005859375 0.75807952880859375
0.0289306640625 0.4359130859375 0.75806808471679688
0.029052734375 0.41748046875 0.75786590576171875
0.0467529296875 0.4298095703125 0.75953292846679688
0.042724609375 0.4476318359375 0.75922012329101562
0.020263671875 0.425048828125 0.75644302368164062
0.0478515625 0.4149169921875 0.75560760498046875
-0.2908935546875 0.0494384765625 0.767822265625
-0.2830810546875 0.0545654296875 0.76869964599609375
-0.297119140625 0.053955078125 0.76787567138671875
-0.292236328125 0.03857421875 0.7692413330078125
-0.278076171875 0.041748046875 0.76856613159179688
-0.2908935546875 0.06640625 0.765838623046875
-0.305908203125 0.0362548828125 0.76866912841796875
0.0008544921875 0.4619140625 0.75568389892578125
0.0028076171875 0.4725341796875 0.75423812866210938
-0.0101318359375 0.45849609375 0.754852294921875
0.0089111328125 0.4564208984375 0.75352096557617188
0.0189208984375 0.4718017578125 0.75689697265625
-0.0115966796875 0.47265625 0.75273513793945312
-0.0042724609375 0.446533203125 0.75348281860351562
-0.3248291015625 0.0760498046875 0.7509307861328125
-0.32177734375 0.0869140625 0.748291015625
-0.339111328125 0.0733642578125 0.74919509887695312
-0.3192138671875 0.06787109375 0.75634002685546875
-0.3099365234375 0.080322265625 0.75450897216796875
-0.337158203125 0.0875244140625 0.7454681396484375
-0.3302001953125 0.05419921875 0.75746917724609375
-0.0006103515625 0.51220703125 0.746917724609375
0.00830078125 0.51708984375 0.74541854858398438
-0.009765625 0.5162353515625 0.74054718017578125
0.0010986328125 0.501220703125 0.75058746337890625
0.0191650390625 0.5023193359375 0.75240707397460938
-0.003173828125 0.5274658203125 0.74227142333984375
-0.0115966796875 0.5003662109375 0.74578857421875
-0.3699951171875 0.066650390625 0.73763275146484375
-0.3736572265625 0.0755615234375 0.73162841796875
-0.374755859375 0.05712890625 0.73778152465820312
-0.3587646484375 0.0655517578125 0.74317550659179688
-0.3616943359375 0.081787109375 0.737518310546875
-0.3836669921875 0.0655517578125 0.72763442993164062
-0.360595703125 0.048583984375 0.747344970703125
0.0357666015625 0.5484619140625 0.73802947998046875
0.046875 0.5482177734375 0.73704910278320312
0.0308837890625 0.557373046875 0.73174667358398438
0.02880859375 0.53955078125 0.741973876953125
0.04345703125 0.5281982421875 0.74372100830078125
0.045166015625 0.56298828125 0.73009109497070312
0.0174560546875 0.5482177734375 0.73615646362304688
-0.402587890625 0.02734375 0.7244415283203125
-0.411865234375 0.02978515625 0.71925735473632812
-0.398681640625 0.017578125 0.72823715209960938
-0.39404296875 0.0361328125 0.73173904418945312
-0.4053955078125 0.0438232421875 0.7214508056640625
-0.4119873046875 0.01416015625 0.7206878662109375
-0.383056640625 0.0225830078125 0.73928451538085938
0.0821533203125 0.5513916015625 0.72879791259765625
0.0865478515625 0.543701171875 0.73129653930664062
0.0859375 0.56396484375 0.72345733642578125
0.0723876953125 0.54931640625 0.73302459716796875
0.0760498046875 0.5311279296875 0.7402191162109375
0.0955810546875 0.5552978515625 0.72214889526367188
0.072509765625 0.5660400390625 0.72723770141601562
-0.3961181640625 -0.0238037109375 0.733978271484375
-0.4072265625 -0.0302734375 0.72734832763671875
-0.3873291015625 -0.0274658203125 0.74257278442382812
-0.39697265625 -0.0115966796875 0.73412322998046875
-0.409912109375 -0.0164794921875 0.72475433349609375
-0.3983154296875 -0.0404052734375 0.73319625854492188
-0.380859375 -0.010986328125 0.7476806640625
0.55126953125 -0.465087890625 0.63291549682617188
0.5677490234375 -0.44580078125 0.61700439453125
0.55029296875 -0.4521484375 0.6482086181640625
0.535400390625 -0.4874267578125 0.653533935546875
0.550537109375 -0.4766845703125 0.61675262451171875
0.5645751953125 -0.4566650390625 0.60037612915039062
0.566162109375 -0.4332275390625 0.63541793823242188
0.5333251953125 -0.4744873046875 0.66833114624023438
0.534423828125 -0.50048828125 0.63857269287109375
0.4677734375 -0.552978515625 0.71643829345703125
0.470703125 -0.535888671875 0.72964096069335938
0.4456787109375 -0.57177734375 0.73315048217773438
0.46533203125 -0.567138671875 0.7032928466796875
0.4901123046875 -0.5306396484375 0.69955825805664062
0.49072265625 -0.5172119140625 0.71099472045898438
0.4498291015625 -0.5546875 0.743316650390625
0.4420166015625 -0.587890625 0.71982955932617188
0.4881591796875 -0.5458984375 0.68280029296875
0.597412109375 -0.388427734375 0.56465530395507812
0.6053466796875 -0.371826171875 0.55239105224609375
0.5931396484375 -0.37939453125 0.59073257446289062
0.5904541015625 -0.4075927734375 0.57996749877929688
0.6025390625 -0.3988037109375 0.5405120849609375
0.61181640625 -0.380615234375 0.52225875854492188
0.5992431640625 -0.3626708984375 0.58022689819335938
0.5845947265625 -0.395263671875 0.60322952270507812
0.5892333984375 -0.419189453125 0.55933761596679688
0.3834228515625 -0.6197509765625 0.77236557006835938
0.3924560546875 -0.5966796875 0.78229904174804688
0.36572265625 -0.6307373046875 0.7813720703125
0.372802734375 -0.642578125 0.75918197631835938
0.4027099609375 -0.605712890625 0.76260757446289062
0.4091796875 -0.5828857421875 0.7716827392578125
0.3741455078125 -0.6043701171875 0.79010391235351562
0.3544921875 -0.6539306640625 0.76949310302734375
0.396240234375 -0.623291015625 0.74749374389648438
0.6109619140625 -0.31689453125 0.53221893310546875
0.60595703125 -0.2977294921875 0.53400421142578125
0.59912109375 -0.30810546875 0.56804275512695312
0.612548828125 -0.3358154296875 0.53412628173828125
0.616943359375 -0.32666015625 0.49995803833007812
0.6065673828125 -0.3076171875 0.50128173828125
0.592529296875 -0.2884521484375 0.56587600708007812
0.605712890625 -0.3275146484375 0.5687408447265625
0.621337890625 -0.3438720703125 0.5023651123046875
0.322265625 -0.62744140625 0.79970550537109375
0.3333740234375 -0.59765625 0.81120681762695312
0.305419921875 -0.6160888671875 0.80611801147460938
0.3040771484375 -0.65283203125 0.78556060791015625
0.3345947265625 -0.634033203125 0.797698974609375
0.3446044921875 -0.6029052734375 0.80393218994140625
0.3194580078125 -0.583984375 0.81536865234375
0.288818359375 -0.6431884765625 0.78554534912109375
0.3211669921875 -0.65966796875 0.7838897705078125
0.56298828125 -0.224609375 0.55214691162109375
0.5396728515625 -0.19287109375 0.555206298828125
0.5576171875 -0.22119140625 0.58441543579101562
0.5789794921875 -0.251220703125 0.5437469482421875
0.5633544921875 -0.2283935546875 0.51639556884765625
0.538330078125 -0.19287109375 0.52250289916992188
0.533935546875 -0.194091796875 0.58600616455078125
0.577392578125 -0.2427978515625 0.57980728149414062
0.57958984375 -0.258544921875 0.50802230834960938
0.254638671875 -0.5550537109375 0.80332565307617188
0.2728271484375 -0.524658203125 0.81230545043945312
0.2392578125 -0.5257568359375 0.79645538330078125
0.2393798828125 -0.575439453125 0.77868270874023438
0.271484375 -0.5804443359375 0.80572509765625
0.28564453125 -0.5484619140625 0.816436767578125
0.2542724609375 -0.499267578125 0.80959701538085938
0.2174072265625 -0.5450439453125 0.77993011474609375
0.2596435546875 -0.6060791015625 0.78757476806640625
0.44775390625 -0.09619140625 0.57999420166015625
0.4149169921875 -0.0621337890625 0.58371734619140625
0.4415283203125 -0.099365234375 0.61328125
0.47998046875 -0.1328125 0.57875823974609375
0.4490966796875 -0.093017578125 0.54773712158203125
0.416015625 -0.062255859375 0.54876708984375
0.407958984375 -0.068603515625 0.61923980712890625
0.474609375 -0.1353759765625 0.61149978637695312
0.4793701171875 -0.128173828125 0.54063796997070312
0.15771484375 -0.412353515625 0.77356338500976562
0.1734619140625 -0.3916015625 0.7878875732421875
0.13037109375 -0.3765869140625 0.76168060302734375
0.136962890625 -0.4322509765625 0.74823760986328125
0.1817626953125 -0.4517822265625 0.780120849609375
0.20556640625 -0.427490234375 0.79539108276367188
0.150634765625 -0.352294921875 0.7811431884765625
0.1077880859375 -0.393798828125 0.7376556396484375
0.1622314453125 -0.4697265625 0.75592422485351562
0.2222900390625 0.205810546875 0.5998992919921875
0.23681640625 0.19091796875 0.56135177612304688
0.248291015625 0.2481689453125 0.5772247314453125
0.206787109375 0.22314453125 0.63529205322265625
0.20458984375 0.1712646484375 0.62088775634765625
0.216064453125 0.1544189453125 0.58055496215820312
0.2576904296875 0.2349853515625 0.54195022583007812
0.2342529296875 0.263916015625 0.60856246948242188
0.1876220703125 0.1827392578125 0.66040420532226562
-0.105224609375 -0.173095703125 0.68951034545898438
-0.1513671875 -0.20458984375 0.68093490600585938
-0.1046142578125 -0.1988525390625 0.66175079345703125
-0.0736083984375 -0.1468505859375 0.6989288330078125
-0.108642578125 -0.1419677734375 0.71438980102539062
-0.156494140625 -0.18017578125 0.69908523559570312
-0.14990234375 -0.2264404296875 0.65710067749023438
-0.0706787109375 -0.1746826171875 0.66633987426757812
-0.0709228515625 -0.110107421875 0.7341461181640625
0.302978515625 0.3890380859375 0.52404022216796875
0.3134765625 0.3765869140625 0.49719619750976562
0.3160400390625 0.4366455078125 0.51472091674804688
0.291259765625 0.397705078125 0.5492095947265625
0.286865234375 0.339111328125 0.53715133666992188
0.29736328125 0.3265380859375 0.50722122192382812
0.32421875 0.4248046875 0.48592376708984375
0.3060302734375 0.4456787109375 0.53935623168945312
0.273681640625 0.3544921875 0.55979537963867188
-0.276611328125 -0.28759765625 0.6513519287109375
-0.3157958984375 -0.3065185546875 0.63678359985351562
-0.275146484375 -0.306884765625 0.63047027587890625
-0.2384033203125 -0.265625 0.65806198120117188
-0.2794189453125 -0.265380859375 0.66887664794921875
-0.3201904296875 -0.2857666015625 0.6530303955078125
-0.3128662109375 -0.32470703125 0.62142181396484375
-0.2305908203125 -0.2855224609375 0.6367340087890625
-0.24658203125 -0.24365234375 0.67882537841796875
0.3226318359375 0.5816650390625 0.48780059814453125
0.336669921875 0.574951171875 0.46297073364257812
0.319580078125 0.6324462890625 0.48460006713867188
0.3096923828125 0.587890625 0.51309967041015625
0.3255615234375 0.533447265625 0.49124908447265625
0.337158203125 0.5234375 0.46636962890625
0.330810546875 0.629150390625 0.45560073852539062
0.302978515625 0.633544921875 0.51234817504882812
0.3123779296875 0.539306640625 0.5189666748046875
-0.447021484375 -0.337158203125 0.58887481689453125
-0.493408203125 -0.3365478515625 0.56674575805664062
-0.448974609375 -0.356201171875 0.5664215087890625
-0.4061279296875 -0.33349609375 0.61144256591796875
-0.444091796875 -0.3145751953125 0.605712890625
-0.486083984375 -0.3135986328125 0.58746337890625
-0.499755859375 -0.35888671875 0.54307937622070312
-0.405029296875 -0.351318359375 0.59070205688476562
-0.4068603515625 -0.3123779296875 0.62792205810546875
0.2723388671875 0.770263671875 0.53271484375
0.2783203125 0.7789306640625 0.51220321655273438
0.248779296875 0.804443359375 0.56288909912109375
0.2615966796875 0.7586669921875 0.55303192138671875
0.297119140625 0.7288818359375 0.50411224365234375
0.3067626953125 0.7347412109375 0.48008346557617188
0.258056640625 0.8143310546875 0.5422210693359375
0.23681640625 0.7889404296875 0.57854843139648438
0.28564453125 0.7197265625 0.5289154052734375
-0.6058349609375 -0.2899169921875 0.51720428466796875
-0.6326904296875 -0.26318359375 0.51443862915039062
-0.6165771484375 -0.306640625 0.48920059204101562
-0.571533203125 -0.3138427734375 0.5279388427734375
-0.58984375 -0.2703857421875 0.54565048217773438
-0.611083984375 -0.2486572265625 0.5391693115234375
-0.6431884765625 -0.2763671875 0.48647308349609375
-0.5794677734375 -0.332763671875 0.4990234375
-0.556884765625 -0.2908935546875 0.553924560546875
0.172119140625 0.8409423828125 0.6242218017578125
0.1759033203125 0.85546875 0.60696029663085938
0.1507568359375 0.834716796875 0.63582992553710938
0.1712646484375 0.8228759765625 0.63761138916015625
0.1990966796875 0.841796875 0.61217498779296875
0.2032470703125 0.8553466796875 0.5958251953125
0.15185546875 0.846435546875 0.61821746826171875
0.1495361328125 0.816650390625 0.64684677124023438
0.194091796875 0.8209228515625 0.62230682373046875
-0.658203125 -0.179931640625 0.52042770385742188
-0.6488037109375 -0.1490478515625 0.53010940551757812
-0.6695556640625 -0.183837890625 0.4947052001953125
-0.6578369140625 -0.207275390625 0.51583480834960938
-0.637451171875 -0.1741943359375 0.54367446899414062
-0.6346435546875 -0.1448974609375 0.54893112182617188
-0.6590576171875 -0.1502685546875 0.49936676025390625
-0.6690673828125 -0.21337890625 0.48952102661132812
-0.6376953125 -0.1983642578125 0.54128265380859375
0.0360107421875 0.7823486328125 0.660369873046875
0.0302734375 0.7939453125 0.64009857177734375
-0.0169677734375 0.7650146484375 0.66593551635742188
0.0341796875 0.7691650390625 0.67699050903320312
0.0777587890625 0.8037109375 0.65317535400390625
0.0743408203125 0.811767578125 0.63166046142578125
-0.015625 0.7760009765625 0.64366912841796875
-0.014404296875 0.7498779296875 0.68265533447265625
0.0802001953125 0.7882080078125 0.66635513305664062
-0.6187744140625 -0.01416015625 0.55047607421875
-0.60693359375 0.036865234375 0.55844879150390625
-0.6280517578125 -0.0167236328125 0.52527618408203125
-0.628662109375 -0.0660400390625 0.54404449462890625
-0.6044921875 -0.015380859375 0.57656478881835938
-0.594482421875 0.037109375 0.583465576171875
-0.6148681640625 0.0380859375 0.53342437744140625
-0.636962890625 -0.066162109375 0.51804733276367188
-0.616455078125 -0.06640625 0.56917190551757812
-0.1483154296875 0.7293701171875 0.6856689453125
-0.1519775390625 0.738525390625 0.6648406982421875
-0.183837890625 0.7154541015625 0.69135665893554688
-0.1397705078125 0.713623046875 0.7000579833984375
-0.107177734375 0.739013671875 0.68485641479492188
-0.109619140625 0.75 0.65837478637695312
-0.193359375 0.726318359375 0.66477584838867188
-0.171875 0.701904296875 0.7043609619140625
-0.10107421875 0.7244873046875 0.69921875
-0.5865478515625 0.1802978515625 0.57615280151367188
-0.576416015625 0.217529296875 0.57990646362304688
-0.594482421875 0.181396484375 0.54759979248046875
-0.5938720703125 0.135986328125 0.57291412353515625
-0.572998046875 0.171630859375 0.6006927490234375
-0.5657958984375 0.2071533203125 0.603973388671875
-0.5836181640625 0.22412109375 0.55120086669921875
-0.598876953125 0.1368408203125 0.54436111450195312
-0.5782470703125 0.131591796875 0.59753799438476562
-0.2589111328125 0.658203125 0.69108963012695312
-0.265869140625 0.66748046875 0.67078399658203125
-0.267333984375 0.6273193359375 0.68813705444335938
-0.240234375 0.645263671875 0.70763778686523438
-0.239501953125 0.6826171875 0.69282913208007812
-0.250244140625 0.69140625 0.67266845703125
-0.279541015625 0.63720703125 0.66443634033203125
-0.25 0.6202392578125 0.71080398559570312
-0.22705078125 0.6688232421875 0.71062088012695312
-0.535400390625 0.3013916015625 0.60567092895507812
-0.50634765625 0.3194580078125 0.61932754516601562
-0.5386962890625 0.312744140625 0.57913589477539062
-0.554443359375 0.2796630859375 0.59620285034179688
-0.5245361328125 0.283935546875 0.6279449462890625
-0.499755859375 0.3033447265625 0.64191055297851562
-0.513916015625 0.3309326171875 0.59225845336914062
-0.5604248046875 0.2896728515625 0.56682968139648438
-0.54443359375 0.2646484375 0.61738967895507812
-0.25146484375 0.5150146484375 0.69407272338867188
-0.261962890625 0.517822265625 0.66642379760742188
-0.237548828125 0.4766845703125 0.69802093505859375
-0.2357177734375 0.510498046875 0.71431350708007812
-0.261474609375 0.55224609375 0.69275665283203125
-0.2730712890625 0.5582275390625 0.66683197021484375
-0.245849609375 0.47900390625 0.67267990112304688
-0.224609375 0.473876953125 0.720550537109375
-0.2457275390625 0.5478515625 0.70944976806640625
-0.40869140625 0.3250732421875 0.65945816040039062
-0.3685302734375 0.31884765625 0.67028045654296875
-0.4149169921875 0.3363037109375 0.63228225708007812
-0.4512939453125 0.330810546875 0.643646240234375
-0.40478515625 0.3099365234375 0.67681884765625
-0.3656005859375 0.305419921875 0.68928909301757812
-0.3729248046875 0.3289794921875 0.64662551879882812
-0.4537353515625 0.34130859375 0.62100982666015625
-0.4462890625 0.3138427734375 0.66176986694335938
-0.223876953125 0.3768310546875 0.69622421264648438
-0.2318115234375 0.3822021484375 0.67017364501953125
-0.230224609375 0.354248046875 0.6903228759765625
-0.212646484375 0.3765869140625 0.7128448486328125
-0.22119140625 0.40625 0.69483566284179688
-0.23193359375 0.4073486328125 0.67580413818359375
-0.2369384765625 0.3609619140625 0.671142578125
-0.2176513671875 0.3497314453125 0.7115020751953125
-0.208251953125 0.40625 0.71730422973632812
-0.2744140625 0.3212890625 0.68543243408203125
-0.256103515625 0.3270263671875 0.68863296508789062
-0.2769775390625 0.3272705078125 0.66413116455078125
-0.3018798828125 0.3179931640625 0.68407058715820312
-0.2718505859375 0.30908203125 0.70275115966796875
-0.248046875 0.31298828125 0.7060546875
-0.26123046875 0.3349609375 0.66427993774414062
-0.3038330078125 0.3271484375 0.65763473510742188
-0.3013916015625 0.3052978515625 0.70330810546875
-0.1785888671875 0.504638671875 0.71675491333007812
-0.1627197265625 0.5010986328125 0.7042083740234375
-0.18212890625 0.5325927734375 0.71942138671875
-0.19677734375 0.5078125 0.72663497924804688
-0.1761474609375 0.4754638671875 0.71722412109375
-0.159423828125 0.4754638671875 0.70676422119140625
-0.161376953125 0.527099609375 0.7027587890625
-0.2008056640625 0.541259765625 0.718841552734375
-0.19091796875 0.472412109375 0.72748184204101562
-0.389892578125 0.2501220703125 0.68570327758789062
-0.4161376953125 0.2518310546875 0.67499923706054688
-0.37939453125 0.2315673828125 0.6788330078125
-0.3575439453125 0.2506103515625 0.68979644775390625
-0.3951416015625 0.27197265625 0.68631362915039062
-0.4266357421875 0.272705078125 0.67682647705078125
-0.4102783203125 0.228271484375 0.67324066162109375
-0.3582763671875 0.2335205078125 0.68015289306640625
-0.3558349609375 0.2694091796875 0.69657135009765625
-0.1680908203125 0.60498046875 0.71063613891601562
-0.1444091796875 0.5882568359375 0.70137786865234375
-0.1539306640625 0.6209716796875 0.70736312866210938
-0.1939697265625 0.6199951171875 0.71526336669921875
-0.176025390625 0.5828857421875 0.71222686767578125
-0.153076171875 0.570068359375 0.70500564575195312
-0.13134765625 0.6055908203125 0.69693756103515625
-0.1795654296875 0.63818359375 0.7134857177734375
-0.2020263671875 0.5968017578125 0.71411514282226562
-0.479248046875 0.21923828125 0.64878463745117188
-0.4906005859375 0.202880859375 0.64214324951171875
-0.4608154296875 0.19775390625 0.64378738403320312
-0.460205078125 0.2327880859375 0.65616989135742188
-0.493896484375 0.24462890625 0.65119552612304688
-0.5052490234375 0.2247314453125 0.6435699462890625
-0.47607421875 0.181884765625 0.64001083374023438
-0.44580078125 0.21142578125 0.65089797973632812
-0.47607421875 0.2572021484375 0.6563568115234375
-0.0914306640625 0.65771484375 0.7017059326171875
-0.0653076171875 0.669677734375 0.69556808471679688
-0.1087646484375 0.6788330078125 0.70660018920898438
-0.1190185546875 0.64892578125 0.70249557495117188
-0.07421875 0.6414794921875 0.69239425659179688
-0.0472412109375 0.6534423828125 0.6883087158203125
-0.0782470703125 0.6875 0.70622634887695312
-0.1348876953125 0.6676025390625 0.71163177490234375
-0.0989990234375 0.630126953125 0.69266891479492188
-0.5205078125 0.1314697265625 0.6284332275390625
-0.533935546875 0.1484375 0.62410736083984375
-0.5279541015625 0.1005859375 0.62176513671875
-0.5047607421875 0.1153564453125 0.62558364868164062
-0.51318359375 0.1602783203125 0.63186264038085938
-0.52978515625 0.178466796875 0.62826156616210938
-0.54150390625 0.1134033203125 0.6206512451171875
-0.511474609375 0.085693359375 0.61736297607421875
-0.494384765625 0.1414794921875 0.62894058227539062
0.045654296875 0.71630859375 0.674163818359375
0.0791015625 0.734619140625 0.667022705078125
0.042236328125 0.7353515625 0.6834564208984375
0.0084228515625 0.701171875 0.6815643310546875
0.0499267578125 0.69921875 0.66353225708007812
0.081787109375 0.7156982421875 0.65416336059570312
0.080810546875 0.7520751953125 0.673614501953125
-0.0028076171875 0.717041015625 0.69063568115234375
0.01708984375 0.6846923828125 0.67142868041992188
-0.557861328125 -0.0177001953125 0.60410308837890625
-0.572021484375 -0.0201416015625 0.60181808471679688
-0.568115234375 -0.0640869140625 0.59302520751953125
-0.5460205078125 -0.0240478515625 0.59877395629882812
-0.548828125 0.0238037109375 0.6078338623046875
-0.5623779296875 0.029541015625 0.60726547241210938
-0.58349609375 -0.0628662109375 0.595367431640625
-0.552001953125 -0.063232421875 0.59256744384765625
-0.5328369140625 0.017822265625 0.60515213012695312
0.1614990234375 0.753662109375 0.6294403076171875
0.177001953125 0.7486572265625 0.61672592163085938
0.1668701171875 0.7757568359375 0.63908004760742188
0.1427001953125 0.7528076171875 0.63996505737304688
0.1566162109375 0.730712890625 0.62143325805664062
0.174072265625 0.7279052734375 0.61443328857421875
0.1849365234375 0.7745361328125 0.62322998046875
0.1474609375 0.774169921875 0.65213775634765625
0.1357421875 0.72998046875 0.63210678100585938
-0.580078125 -0.1551513671875 0.57713699340820312
-0.598388671875 -0.162353515625 0.57281112670898438
-0.576416015625 -0.1746826171875 0.57675552368164062
-0.5635986328125 -0.1466064453125 0.58164596557617188
-0.580322265625 -0.1292724609375 0.58213043212890625
-0.6002197265625 -0.13671875 0.57952880859375
-0.5982666015625 -0.1845703125 0.5686187744140625
-0.5574951171875 -0.1641845703125 0.58237075805664062
-0.5628662109375 -0.1234130859375 0.58516693115234375
0.235595703125 0.6976318359375 0.58132171630859375
0.2496337890625 0.6715087890625 0.5767974853515625
0.24169921875 0.7198486328125 0.57862472534179688
0.2138671875 0.721435546875 0.59675979614257812
0.2288818359375 0.678955078125 0.58852005004882812
0.2384033203125 0.6519775390625 0.58831787109375
0.261962890625 0.6890869140625 0.56353378295898438
0.2205810546875 0.744873046875 0.59113693237304688
0.2115478515625 0.7015380859375 0.5958404541015625
-0.5335693359375 -0.2216796875 0.59321975708007812
-0.549560546875 -0.2374267578125 0.58218765258789062
-0.5128173828125 -0.2347412109375 0.60261917114257812
-0.515380859375 -0.208740234375 0.60332489013671875
-0.5504150390625 -0.208251953125 0.58573532104492188
-0.5726318359375 -0.220458984375 0.57213211059570312
-0.52685546875 -0.2523193359375 0.59102630615234375
-0.4937744140625 -0.2242431640625 0.613616943359375
-0.5338134765625 -0.1954345703125 0.59494400024414062
0.266357421875 0.564453125 0.57442474365234375
0.2696533203125 0.5255126953125 0.57579803466796875
0.28173828125 0.5787353515625 0.5584869384765625
0.2615966796875 0.6043701171875 0.57213973999023438
0.25244140625 0.55078125 0.58507919311523438
0.2545166015625 0.517822265625 0.59276199340820312
0.282470703125 0.5362548828125 0.56000900268554688
0.276611328125 0.6173095703125 0.5556793212890625
0.248046875 0.588623046875 0.58410263061523438
-0.42138671875 -0.24853515625 0.642120361328125
-0.4307861328125 -0.2711181640625 0.63204193115234375
-0.3807373046875 -0.2445068359375 0.6576690673828125
-0.4058837890625 -0.2313232421875 0.65210723876953125
-0.4490966796875 -0.2530517578125 0.62615203857421875
-0.46484375 -0.2705078125 0.61749649047851562
-0.395263671875 -0.2657470703125 0.64992523193359375
-0.3734130859375 -0.2257080078125 0.66681671142578125
-0.435546875 -0.234375 0.63673782348632812
0.2506103515625 0.4112548828125 0.60437774658203125
0.236083984375 0.3763427734375 0.6171417236328125
0.2603759765625 0.4114990234375 0.59307479858398438
0.2550048828125 0.4488525390625 0.59280776977539062
0.235107421875 0.410888671875 0.61535263061523438
0.2208251953125 0.3809814453125 0.62816238403320312
0.2467041015625 0.3717041015625 0.60575485229492188
0.272705078125 0.451171875 0.57848358154296875
0.2427978515625 0.4415283203125 0.60828399658203125
-0.284423828125 -0.2025146484375 0.69792938232421875
-0.2855224609375 -0.2220458984375 0.68958282470703125
-0.2550048828125 -0.179931640625 0.710540771484375
-0.2822265625 -0.1849365234375 0.702667236328125
-0.314208984375 -0.222412109375 0.68318557739257812
-0.3157958984375 -0.2442626953125 0.67520523071289062
-0.2518310546875 -0.197509765625 0.70388412475585938
-0.2578125 -0.161376953125 0.71383285522460938
-0.30859375 -0.2021484375 0.68965911865234375
0.16259765625 0.285400390625 0.67704391479492188
0.1322021484375 0.25732421875 0.69546890258789062
0.1776123046875 0.2635498046875 0.67431259155273438
0.1868896484375 0.3133544921875 0.6563262939453125
0.1480712890625 0.3037109375 0.6776885986328125
0.1199951171875 0.285400390625 0.68935394287109375
0.1502685546875 0.2275390625 0.699310302734375
0.2020263671875 0.2972412109375 0.65018844604492188
0.173828125 0.32763671875 0.6582183837890625
-0.1558837890625 -0.08251953125 0.737640380859375
-0.1351318359375 -0.0977783203125 0.73712158203125
-0.1279296875 -0.04296875 0.74688339233398438
-0.1761474609375 -0.073486328125 0.7305145263671875
-0.1868896484375 -0.119873046875 0.72375869750976562
-0.1754150390625 -0.138671875 0.72438812255859375
-0.099853515625 -0.05712890625 0.75286102294921875
-0.1556396484375 -0.0338134765625 0.73482131958007812
-0.2000732421875 -0.107666015625 0.72346878051757812
0.0421142578125 0.219970703125 0.7134552001953125
0.03857421875 0.250244140625 0.70599746704101562
0.01708984375 0.2174072265625 0.70644760131835938
0.0504150390625 0.184814453125 0.72177505493164062
0.0706787109375 0.2244873046875 0.71665191650390625
0.0604248046875 0.254638671875 0.70595550537109375
0.016357421875 0.2509765625 0.7037811279296875
0.01318359375 0.1790771484375 0.71198272705078125
0.086669921875 0.18994140625 0.72574234008789062
-0.0963134765625 0.0513916015625 0.73218536376953125
-0.0997314453125 0.0806884765625 0.72018051147460938
-0.1292724609375 0.052001953125 0.72632980346679688
-0.0986328125 0.0230712890625 0.743743896484375
-0.0625 0.052490234375 0.74381256103515625
-0.06298828125 0.084716796875 0.7227630615234375
-0.1322021484375 0.0736083984375 0.7201995849609375
-0.1328125 0.0264892578125 0.72989654541015625
-0.0618896484375 0.0186767578125 0.75698089599609375
-0.16357421875 0.390869140625 0.721099853515625
-0.1712646484375 0.4158935546875 0.72171783447265625
-0.18212890625 0.3824462890625 0.72467422485351562
-0.1563720703125 0.3677978515625 0.72170257568359375
-0.148193359375 0.4013671875 0.7129364013671875
-0.155029296875 0.4228515625 0.71083831787109375
-0.1827392578125 0.410888671875 0.72554779052734375
-0.1788330078125 0.354736328125 0.725860595703125
-0.14208984375 0.37890625 0.71298599243164062
-0.277587890625 0.251953125 0.70511245727539062
-0.2720947265625 0.271240234375 0.71026611328125
-0.3023681640625 0.2525634765625 0.70270156860351562
-0.284912109375 0.2303466796875 0.69609832763671875
-0.2574462890625 0.2515869140625 0.70977401733398438
-0.2489013671875 0.27587890625 0.71721649169921875
-0.2994384765625 0.271484375 0.7118988037109375
-0.3084716796875 0.23388671875 0.69329452514648438
-0.2640380859375 0.22900390625 0.70001983642578125
-0.123291015625 0.3092041015625 0.7102203369140625
-0.1357421875 0.325927734375 0.71309661865234375
-0.1400146484375 0.2891845703125 0.71169662475585938
-0.103271484375 0.2928466796875 0.7076568603515625
-0.1033935546875 0.32421875 0.70780181884765625
-0.117919921875 0.340087890625 0.70804977416992188
-0.155517578125 0.3074951171875 0.71673965454101562
-0.124267578125 0.2718505859375 0.70960617065429688
-0.09033203125 0.3096923828125 0.70563507080078125
-0.1944580078125 0.218994140625 0.71135711669921875
-0.180419921875 0.2435302734375 0.71523666381835938
-0.210693359375 0.2342529296875 0.71497726440429688
-0.2086181640625 0.1964111328125 0.70415496826171875
-0.1810302734375 0.20361328125 0.7104949951171875
-0.162353515625 0.22607421875 0.71205520629882812
-0.2008056640625 0.26171875 0.7210540771484375
-0.22216796875 0.208251953125 0.70688247680664062
-0.1943359375 0.179931640625 0.70624542236328125
-0.049560546875 0.2423095703125 0.70239639282226562
-0.028564453125 0.2283935546875 0.69916152954101562
-0.036376953125 0.2664794921875 0.70281219482421875
-0.0697021484375 0.2596435546875 0.70644378662109375
-0.06591796875 0.21533203125 0.7041168212890625
-0.042236328125 0.1954345703125 0.70079803466796875
-0.020263671875 0.2572021484375 0.69928741455078125
-0.0528564453125 0.2799072265625 0.7041778564453125
-0.087646484375 0.234375 0.70272064208984375
-0.13623046875 0.147216796875 0.70796966552734375
-0.1585693359375 0.1304931640625 0.7067718505859375
-0.119873046875 0.1258544921875 0.70961380004882812
-0.10693359375 0.164306640625 0.70981216430664062
-0.1502685546875 0.1669921875 0.706573486328125
-0.16943359375 0.1473388671875 0.70730209350585938
-0.1490478515625 0.1104736328125 0.70734786987304688
-0.0885009765625 0.140869140625 0.70838165283203125
-0.1260986328125 0.187255859375 0.71009063720703125
0.5322265625 -0.42431640625 0.69870758056640625
0.523193359375 -0.4189453125 0.70978546142578125
0.51953125 -0.4405517578125 0.70935821533203125
0.5389404296875 -0.4307861328125 0.683441162109375
0.543701171875 -0.407470703125 0.68809127807617188
0.5322265625 -0.40283203125 0.700408935546875
0.51123046875 -0.43310546875 0.72121810913085938
0.5252685546875 -0.4505615234375 0.69989013671875
0.5550537109375 -0.413330078125 0.67235946655273438
0.4705810546875 -0.482177734375 0.749237060546875
0.4881591796875 -0.4697265625 0.73802947998046875
0.4710693359375 -0.46484375 0.75323867797851562
0.4571533203125 -0.4935302734375 0.76192474365234375
0.4700927734375 -0.5008544921875 0.7454071044921875
0.4912109375 -0.48486328125 0.73003005981445312
0.486328125 -0.455078125 0.74425125122070312
0.4600830078125 -0.4744873046875 0.76522445678710938
0.4544677734375 -0.5147705078125 0.75507736206054688
0.5634765625 -0.3619384765625 0.66252899169921875
0.5494384765625 -0.357666015625 0.68584442138671875
0.56005859375 -0.3778076171875 0.6693572998046875
0.5748291015625 -0.3643798828125 0.63657379150390625
0.5653076171875 -0.3468017578125 0.65813064575195312
0.5518798828125 -0.3447265625 0.68176651000976562
0.5462646484375 -0.376220703125 0.68979263305664062
0.5699462890625 -0.3795166015625 0.64621353149414062
0.5787353515625 -0.348388671875 0.63283157348632812
0.416015625 -0.5125732421875 0.79372787475585938
0.4281005859375 -0.5106201171875 0.78528213500976562
0.42041015625 -0.486328125 0.79498672485351562
0.402587890625 -0.51416015625 0.80274200439453125
0.41064453125 -0.5408935546875 0.795684814453125
0.4241943359375 -0.5360107421875 0.78197479248046875
0.4361572265625 -0.4852294921875 0.78485107421875
0.4080810546875 -0.4842529296875 0.80157089233398438
0.3968505859375 -0.5435791015625 0.80244064331054688
0.5472412109375 -0.2938232421875 0.65618133544921875
0.52392578125 -0.2899169921875 0.679534912109375
0.5556640625 -0.31201171875 0.65782546997070312
0.5726318359375 -0.2974853515625 0.63219451904296875
0.5362548828125 -0.2734375 0.66078948974609375
0.5101318359375 -0.2716064453125 0.68459320068359375
0.537109375 -0.308349609375 0.67959213256835938
0.57275390625 -0.3167724609375 0.62826156616210938
0.565185546875 -0.2757568359375 0.6339874267578125
0.3624267578125 -0.4862060546875 0.81902694702148438
0.3746337890625 -0.4993896484375 0.81587982177734375
0.373046875 -0.45458984375 0.81723785400390625
0.3511962890625 -0.471923828125 0.81717681884765625
0.35302734375 -0.5224609375 0.82014083862304688
0.3643798828125 -0.5321044921875 0.81198883056640625
0.3828125 -0.46875 0.81484603881835938
0.3594970703125 -0.4381103515625 0.821136474609375
0.3409423828125 -0.508544921875 0.82039642333984375
0.4093017578125 -0.126708984375 0.6990814208984375
0.37548828125 -0.0972900390625 0.70081329345703125
0.3929443359375 -0.1396484375 0.7185821533203125
0.438232421875 -0.1563720703125 0.69211196899414062
0.425537109375 -0.1158447265625 0.67299652099609375
0.3902587890625 -0.08642578125 0.67871856689453125
0.36328125 -0.1116943359375 0.72132492065429688
0.42138671875 -0.171875 0.71010971069335938
0.453857421875 -0.14892578125 0.66672897338867188
0.2403564453125 -0.3177490234375 0.80884933471679688
0.2578125 -0.29638671875 0.805755615234375
0.209716796875 -0.278076171875 0.80504608154296875
0.2208251953125 -0.3377685546875 0.80908584594726562
0.261474609375 -0.350341796875 0.81363677978515625
0.2769775390625 -0.32861328125 0.80853271484375
0.22998046875 -0.2584228515625 0.80295944213867188
0.1929931640625 -0.301513671875 0.79994964599609375
0.2447509765625 -0.3782958984375 0.80890274047851562
0.503173828125 -0.2216796875 0.67278671264648438
0.5146484375 -0.23876953125 0.66658401489257812
0.5216064453125 -0.219482421875 0.64336776733398438
0.484619140625 -0.2054443359375 0.67810821533203125
0.47705078125 -0.228759765625 0.69681930541992188
0.490478515625 -0.2415771484375 0.69500350952148438
0.5391845703125 -0.2396240234375 0.6381683349609375
0.5052490234375 -0.197998046875 0.6502532958984375
0.4659423828125 -0.21337890625 0.69717025756835938
0.3173828125 -0.42919921875 0.82391738891601562
0.3037109375 -0.4627685546875 0.8216094970703125
0.32568359375 -0.4444580078125 0.81912994384765625
0.3314208984375 -0.398681640625 0.81621551513671875
0.3035888671875 -0.413330078125 0.82520675659179688
0.286376953125 -0.4385986328125 0.82414627075195312
0.3157958984375 -0.4781494140625 0.82322311401367188
0.3392333984375 -0.411865234375 0.81496810913085938
0.317138671875 -0.3824462890625 0.81696701049804688
0.2396240234375 -0.0775146484375 0.7584991455078125
0.221923828125 -0.060302734375 0.75664901733398438
0.2301025390625 -0.0924072265625 0.76480484008789062
0.2626953125 -0.10107421875 0.75907135009765625
0.2506103515625 -0.063232421875 0.749755859375
0.2301025390625 -0.04345703125 0.75018310546875
0.2138671875 -0.075439453125 0.76003265380859375
0.2510986328125 -0.114013671875 0.7672119140625
0.2735595703125 -0.0858154296875 0.74806594848632812
0.1939697265625 -0.1279296875 0.77906036376953125
0.20751953125 -0.1153564453125 0.77460861206054688
0.1754150390625 -0.1121826171875 0.776824951171875
0.1781005859375 -0.1392822265625 0.78282546997070312
0.2176513671875 -0.1484375 0.785491943359375
0.2274169921875 -0.1368408203125 0.779510498046875
0.1904296875 -0.100830078125 0.771087646484375
0.1591796875 -0.12353515625 0.77558135986328125
0.2052001953125 -0.160400390625 0.789337158203125
0.3502197265625 -0.18212890625 0.75222396850585938
0.36376953125 -0.1688232421875 0.7432403564453125
0.3223876953125 -0.15234375 0.76147842407226562
0.33349609375 -0.196533203125 0.762725830078125
0.37451171875 -0.212646484375 0.74948883056640625
0.3885498046875 -0.19677734375 0.73968505859375
0.33447265625 -0.1395263671875 0.75021743774414062
0.3092041015625 -0.165283203125 0.7655181884765625
0.3621826171875 -0.224365234375 0.76169204711914062
0.298828125 -0.239013671875 0.7862091064453125
0.2742919921875 -0.204345703125 0.78960800170898438
0.2877197265625 -0.2586669921875 0.792083740234375
0.3232421875 -0.2725830078125 0.7859954833984375
0.3092041015625 -0.223388671875 0.7805938720703125
0.28564453125 -0.190185546875 0.78008651733398438
0.2589111328125 -0.2188720703125 0.79298782348632812
0.3111572265625 -0.289306640625 0.79414749145507812
0.3370361328125 -0.2552490234375 0.77538681030273438
0.4310302734375 -0.265380859375 0.7472991943359375
0.438232421875 -0.2755126953125 0.74733734130859375
0.4417724609375 -0.2520751953125 0.731414794921875
0.4183349609375 -0.253662109375 0.74680328369140625
0.41845703125 -0.2833251953125 0.757080078125
0.4268798828125 -0.294189453125 0.75862503051757812
0.4508056640625 -0.26123046875 0.7359161376953125
0.4320068359375 -0.23876953125 0.733123779296875
0.4061279296875 -0.26953125 0.76077651977539062
0.3775634765625 -0.3343505859375 0.7964935302734375
0.35888671875 -0.352783203125 0.80556869506835938
0.3846435546875 -0.34326171875 0.79687118530273438
0.3907470703125 -0.3173828125 0.7849578857421875
0.36474609375 -0.3212890625 0.789764404296875
0.3497314453125 -0.3388671875 0.800048828125
0.3714599609375 -0.35888671875 0.80700302124023438
0.3997802734375 -0.326904296875 0.78433990478515625
0.3814697265625 -0.3031005859375 0.77854156494140625
0.20751953125 0.0406494140625 0.7474212646484375
0.2041015625 0.0545654296875 0.74495697021484375
0.20458984375 0.043701171875 0.75660324096679688
0.2080078125 0.02392578125 0.75062942504882812
0.2073974609375 0.0382080078125 0.7387237548828125
0.205810546875 0.0538330078125 0.7386016845703125
0.205322265625 0.0576171875 0.7558441162109375
0.205322265625 0.02880859375 0.75901031494140625
0.211669921875 0.0196533203125 0.74227142333984375
0.085205078125 -0.09521484375 0.7899932861328125
0.0850830078125 -0.0906982421875 0.79914474487304688
0.0709228515625 -0.09130859375 0.790618896484375
0.0833740234375 -0.1019287109375 0.7827606201171875
0.09765625 -0.0987548828125 0.7876434326171875
0.0982666015625 -0.0933837890625 0.79673004150390625
0.0731201171875 -0.0882568359375 0.80083084106445312
0.068603515625 -0.0966796875 0.78157806396484375
0.09716796875 -0.104248046875 0.78041458129882812
0.1734619140625 0.0875244140625 0.74153900146484375
0.1593017578125 0.0928955078125 0.74373626708984375
0.1751708984375 0.0921630859375 0.74946975708007812
0.186279296875 0.0794677734375 0.74469757080078125
0.173828125 0.085693359375 0.735992431640625
0.160888671875 0.0899658203125 0.73701095581054688
0.16064453125 0.0963134765625 0.74797439575195312
0.1868896484375 0.0821533203125 0.75090408325195312
0.1866455078125 0.0758056640625 0.736541748046875
0.041259765625 -0.06103515625 0.78255081176757812
0.04296875 -0.057861328125 0.79241180419921875
0.033447265625 -0.047119140625 0.77675247192382812
0.0404052734375 -0.0634765625 0.77663421630859375
0.04833984375 -0.074462890625 0.78841400146484375
0.0487060546875 -0.06982421875 0.7953643798828125
0.032958984375 -0.044921875 0.7842559814453125
0.0328369140625 -0.0501708984375 0.77160263061523438
0.046630859375 -0.0784912109375 0.7789764404296875
0.11669921875 0.077880859375 0.74309921264648438
0.1065673828125 0.06787109375 0.74807357788085938
0.1204833984375 0.0823974609375 0.74923324584960938
0.1282958984375 0.0877685546875 0.74173355102539062
0.111572265625 0.0755615234375 0.73768997192382812
0.098876953125 0.0621337890625 0.74170684814453125
0.1104736328125 0.07373046875 0.75348663330078125
0.1304931640625 0.0943603515625 0.7476654052734375
0.12744140625 0.086181640625 0.73602294921875
0.0435791015625 -0.0030517578125 0.76444244384765625
0.040771484375 -0.001953125 0.77156448364257812
0.052490234375 0.0101318359375 0.759796142578125
