# XYZ point cloud file
0.658935546875 -0.384521484375 0.64996337890625
0.646728515625 -0.390380859375 0.64080810546875
0.646240234375 -0.3992919921875 0.64691162109375
0.63720703125 -0.40771484375 0.65069580078125
0.623046875 -0.4267578125 0.67034912109375
0.6165771484375 -0.43359375 0.674560546875
0.609130859375 -0.440185546875 0.68505859375
0.60791015625 -0.446044921875 0.69769287109375
0.6177978515625 -0.4432373046875 0.7059326171875
0.6231689453125 -0.443359375 0.71539306640625
0.66259765625 -0.33154296875 0.6683349609375
0.6600341796875 -0.336669921875 0.6583251953125
0.6536865234375 -0.3399658203125 0.6485595703125
0.65283203125 -0.35205078125 0.63555908203125
0.6531982421875 -0.360107421875 0.6351318359375
0.6549072265625 -0.3717041015625 0.636474609375
0.5902099609375 -0.448974609375 0.7056884765625
0.58154296875 -0.44970703125 0.71112060546875
0.5704345703125 -0.447998046875 0.71844482421875
0.568115234375 -0.44482421875 0.73236083984375
0.572509765625 -0.441650390625 0.74188232421875
0.5770263671875 -0.4404296875 0.7496337890625
0.6199951171875 -0.2998046875 0.6856689453125
0.61865234375 -0.3089599609375 0.6749267578125
0.6156005859375 -0.316650390625 0.66461181640625
0.6243896484375 -0.3284912109375 0.64520263671875
0.6334228515625 -0.32958984375 0.64111328125
0.6422119140625 -0.335693359375 0.639404296875
0.5595703125 -0.4405517578125 0.72210693359375
0.5543212890625 -0.435302734375 0.7239990234375
0.552001953125 -0.4263916015625 0.7281494140625
0.548095703125 -0.411376953125 0.733154296875
0.5489501953125 -0.4051513671875 0.74615478515625
0.55078125 -0.3997802734375 0.75482177734375
0.5855712890625 -0.351318359375 0.720458984375
0.58544921875 -0.3582763671875 0.70733642578125
0.5869140625 -0.3677978515625 0.69366455078125
0.596435546875 -0.3636474609375 0.6756591796875
0.6055908203125 -0.35009765625 0.67095947265625
0.6068115234375 -0.338134765625 0.6605224609375
0.5599365234375 -0.40966796875 0.71466064453125
0.56787109375 -0.3973388671875 0.70306396484375
0.575439453125 -0.3868408203125 0.6966552734375
0.596923828125 -0.3902587890625 0.674560546875
0.6090087890625 -0.4002685546875 0.66851806640625
0.6182861328125 -0.4102783203125 0.662841796875
0.6409912109375 -0.3714599609375 0.63665771484375
0.6304931640625 -0.35791015625 0.63763427734375
0.6221923828125 -0.3441162109375 0.64752197265625
0.56103515625 -0.4267578125 0.7122802734375
0.571044921875 -0.431884765625 0.70733642578125
0.5845947265625 -0.441162109375 0.7000732421875
-0.0675048828125 0.301513671875 0.74639892578125
-0.0712890625 0.291748046875 0.74468994140625
-0.07861328125 0.278564453125 0.7425537109375
-0.0079345703125 0.265625 0.7432861328125
-0.0054931640625 0.2811279296875 0.74627685546875
-0.006591796875 0.2884521484375 0.74749755859375
-0.0240478515625 0.2982177734375 0.74737548828125
-0.039306640625 0.299560546875 0.747314453125
-0.0498046875 0.3016357421875 0.75079345703125
-0.2403564453125 0.039794921875 0.76605224609375
-0.2264404296875 0.0286865234375 0.765625
-0.21923828125 0.0194091796875 0.7652587890625
-0.2039794921875 0.01025390625 0.7652587890625
-0.19140625 0.011474609375 0.7647705078125
-0.1787109375 0.0164794921875 0.7584228515625
-0.2276611328125 0.07275390625 0.75140380859375
-0.2386474609375 0.062255859375 0.755615234375
-0.2454833984375 0.0552978515625 0.7568359375
-0.131103515625 0.346923828125 0.7572021484375
-0.1424560546875 0.3375244140625 0.7542724609375
-0.1539306640625 0.3282470703125 0.75421142578125
-0.0831298828125 0.3173828125 0.754638671875
-0.0985107421875 0.326171875 0.75927734375
-0.1109619140625 0.3377685546875 0.756591796875
-0.3065185546875 0.0750732421875 0.75244140625
-0.2882080078125 0.0679931640625 0.75567626953125
-0.266845703125 0.0606689453125 0.755859375
-0.3062744140625 0.11376953125 0.747802734375
-0.3145751953125 0.101806640625 0.7508544921875
-0.3194580078125 0.0921630859375 0.75518798828125
-0.189697265625 0.411376953125 0.75885009765625
-0.198486328125 0.4044189453125 0.75762939453125
-0.2093505859375 0.39990234375 0.7574462890625
-0.140869140625 0.3668212890625 0.7579345703125
-0.152099609375 0.3824462890625 0.757568359375
-0.166015625 0.3995361328125 0.75433349609375
-0.3795166015625 0.0965576171875 0.748291015625
-0.3597412109375 0.0960693359375 0.750244140625
-0.339111328125 0.0887451171875 0.750244140625
-0.3983154296875 0.132080078125 0.7457275390625
-0.3975830078125 0.1185302734375 0.74285888671875
-0.3984375 0.107177734375 0.742431640625
0.0687255859375 0.280029296875 0.73681640625
0.06640625 0.2923583984375 0.7415771484375
0.0657958984375 0.301513671875 0.74578857421875
0.037841796875 0.2982177734375 0.75244140625
0.0213623046875 0.2957763671875 0.74920654296875
0.0048828125 0.2960205078125 0.75469970703125
-0.2034912109375 -0.003662109375 0.77044677734375
-0.197265625 -0.0164794921875 0.7735595703125
-0.1956787109375 -0.0352783203125 0.7786865234375
-0.188232421875 -0.05712890625 0.7750244140625
-0.180908203125 -0.0576171875 0.768798828125
-0.168701171875 -0.0584716796875 0.7633056640625
0.166748046875 0.3551025390625 0.678466796875
0.1578369140625 0.364501953125 0.68695068359375
0.1541748046875 0.3685302734375 0.693359375
0.1239013671875 0.358154296875 0.71234130859375
0.1036376953125 0.336669921875 0.7266845703125
0.08154296875 0.321533203125 0.72955322265625
-0.2005615234375 -0.0845947265625 0.7738037109375
-0.2183837890625 -0.1121826171875 0.78057861328125
-0.2283935546875 -0.1461181640625 0.77593994140625
-0.23681640625 -0.179443359375 0.76361083984375
-0.2298583984375 -0.18310546875 0.75762939453125
-0.218017578125 -0.191162109375 0.754150390625
0.2008056640625 0.472900390625 0.6474609375
0.1912841796875 0.473388671875 0.66180419921875
0.185546875 0.47509765625 0.67083740234375
0.17822265625 0.447265625 0.68048095703125
0.1712646484375 0.4232177734375 0.68408203125
0.1651611328125 0.3975830078125 0.69036865234375
-0.2581787109375 -0.1923828125 0.7623291015625
-0.2760009765625 -0.2125244140625 0.755615234375
-0.3021240234375 -0.2276611328125 0.750732421875
-0.3240966796875 -0.2479248046875 0.730224609375
-0.3209228515625 -0.2557373046875 0.72314453125
-0.3206787109375 -0.26611328125 0.71405029296875
0.1864013671875 0.6024169921875 0.6383056640625
0.1783447265625 0.594482421875 0.64569091796875
0.16845703125 0.5908203125 0.65313720703125
0.17333984375 0.5633544921875 0.658935546875
0.1763916015625 0.537109375 0.66119384765625
0.1810302734375 0.5064697265625 0.6669921875
-0.357421875 -0.252197265625 0.72064208984375
-0.3870849609375 -0.2626953125 0.7044677734375
-0.416259765625 -0.2657470703125 0.69000244140625
-0.446533203125 -0.2747802734375 0.67724609375
-0.45556640625 -0.2841796875 0.669189453125
-0.461669921875 -0.2972412109375 0.6624755859375
0.1163330078125 0.6776123046875 0.6529541015625
0.111572265625 0.66650390625 0.6578369140625
0.107421875 0.656494140625 0.66839599609375
0.117431640625 0.6348876953125 0.6673583984375
0.1378173828125 0.6229248046875 0.6640625
0.151123046875 0.60595703125 0.65826416015625
-0.470458984375 -0.261474609375 0.67236328125
-0.4940185546875 -0.2518310546875 0.66046142578125
-0.51416015625 -0.24267578125 0.66229248046875
-0.5364990234375 -0.244140625 0.65020751953125
-0.54345703125 -0.24951171875 0.64141845703125
-0.5560302734375 -0.264404296875 0.6343994140625
0.0321044921875 0.68798828125 0.68682861328125
0.0269775390625 0.673095703125 0.689697265625
0.0296630859375 0.6634521484375 0.69732666015625
0.050537109375 0.658935546875 0.68450927734375
0.0692138671875 0.660400390625 0.67816162109375
0.0897216796875 0.655029296875 0.67138671875
-0.541748046875 -0.2252197265625 0.6497802734375
-0.5491943359375 -0.2117919921875 0.64678955078125
-0.552978515625 -0.1944580078125 0.6466064453125
-0.56396484375 -0.1759033203125 0.6395263671875
-0.570556640625 -0.1806640625 0.63134765625
-0.579345703125 -0.1865234375 0.62530517578125
-0.0865478515625 0.6075439453125 0.73492431640625
-0.0809326171875 0.5999755859375 0.73614501953125
-0.080078125 0.5946044921875 0.74151611328125
-0.0540771484375 0.6124267578125 0.73492431640625
-0.0274658203125 0.6253662109375 0.722900390625
0.0009765625 0.643798828125 0.70849609375
-0.5523681640625 -0.144287109375 0.65155029296875
-0.545166015625 -0.1170654296875 0.6663818359375
-0.53662109375 -0.087158203125 0.6878662109375
-0.5322265625 -0.0587158203125 0.6875
-0.5419921875 -0.0556640625 0.679443359375
-0.55322265625 -0.05322265625 0.667724609375
-0.1771240234375 0.551513671875 0.7493896484375
-0.1602783203125 0.5458984375 0.74615478515625
-0.1505126953125 0.5419921875 0.74957275390625
-0.133056640625 0.5484619140625 0.749755859375
-0.1163330078125 0.5616455078125 0.7578125
-0.0933837890625 0.5760498046875 0.759521484375
-0.5179443359375 -0.0313720703125 0.704833984375
-0.5150146484375 -0.009033203125 0.7086181640625
-0.5074462890625 0.00927734375 0.7073974609375
-0.506103515625 0.0325927734375 0.69818115234375
-0.51171875 0.0389404296875 0.6905517578125
-0.521484375 0.0479736328125 0.6885986328125
-0.216064453125 0.486572265625 0.75152587890625
-0.1943359375 0.4825439453125 0.75128173828125
-0.1812744140625 0.4833984375 0.75115966796875
-0.172119140625 0.495361328125 0.75067138671875
-0.16552734375 0.5118408203125 0.74737548828125
-0.157958984375 0.52392578125 0.7513427734375
-0.4913330078125 0.0421142578125 0.7039794921875
-0.4844970703125 0.0535888671875 0.70684814453125
-0.47607421875 0.0655517578125 0.7149658203125
-0.4678955078125 0.0841064453125 0.71533203125
-0.47509765625 0.0921630859375 0.71234130859375
-0.4827880859375 0.1036376953125 0.71124267578125
-0.183349609375 0.4310302734375 0.75677490234375
-0.183349609375 0.446044921875 0.756591796875
-0.178466796875 0.4637451171875 0.75592041015625
-0.4417724609375 0.084716796875 0.7191162109375
-0.43212890625 0.0926513671875 0.7264404296875
-0.413818359375 0.09716796875 0.734619140625
-0.1578369140625 0.478515625 0.75140380859375
-0.164306640625 0.4793701171875 0.75634765625
-0.17041015625 0.48193359375 0.75506591796875
-0.16552734375 0.4176025390625 0.75384521484375
-0.1585693359375 0.4222412109375 0.75201416015625
-0.1527099609375 0.423095703125 0.74951171875
-0.148681640625 0.4376220703125 0.74462890625
-0.150146484375 0.4520263671875 0.7427978515625
-0.1522216796875 0.4654541015625 0.74420166015625
-0.4339599609375 0.0606689453125 0.7213134765625
-0.4248046875 0.06640625 0.7220458984375
-0.4083251953125 0.069091796875 0.71533203125
-0.397216796875 0.0753173828125 0.72528076171875
-0.394775390625 0.0823974609375 0.732421875
-0.3963623046875 0.08935546875 0.736572265625
-0.4576416015625 0.0682373046875 0.7235107421875
-0.4527587890625 0.0633544921875 0.7222900390625
-0.4500732421875 0.0579833984375 0.72052001953125
-0.129150390625 0.5284423828125 0.7506103515625
-0.13525390625 0.53173828125 0.75384521484375
-0.1397705078125 0.53466796875 0.75433349609375
-0.1468505859375 0.4901123046875 0.74774169921875
-0.143798828125 0.502197265625 0.746826171875
-0.1370849609375 0.5140380859375 0.74761962890625
-0.4703369140625 0.0283203125 0.70941162109375
-0.4649658203125 0.040771484375 0.715576171875
-0.458740234375 0.0472412109375 0.71588134765625
-0.493896484375 0.021484375 0.7071533203125
-0.486328125 0.0185546875 0.707275390625
-0.48388671875 0.016357421875 0.7080078125
-0.0693359375 0.579833984375 0.7440185546875
-0.0701904296875 0.5823974609375 0.74505615234375
-0.07177734375 0.58740234375 0.7437744140625
-0.1181640625 0.541259765625 0.7464599609375
-0.1060791015625 0.552001953125 0.748779296875
-0.08642578125 0.5638427734375 0.7498779296875
-0.501708984375 -0.0347900390625 0.70538330078125
-0.4932861328125 -0.0179443359375 0.70916748046875
-0.489013671875 0.00146484375 0.70611572265625
-0.5208740234375 -0.05615234375 0.69757080078125
-0.5159912109375 -0.0589599609375 0.70166015625
-0.5113525390625 -0.0584716796875 0.7022705078125
0.029296875 0.6317138671875 0.6854248046875
0.029541015625 0.639892578125 0.68804931640625
0.029296875 0.6475830078125 0.69744873046875
-0.05078125 0.58935546875 0.7269287109375
-0.025634765625 0.602294921875 0.7105712890625
0.0006103515625 0.61767578125 0.69805908203125
-0.5291748046875 -0.13232421875 0.66253662109375
-0.5244140625 -0.1082763671875 0.67181396484375
-0.5155029296875 -0.0838623046875 0.68646240234375
-0.5511474609375 -0.1661376953125 0.6473388671875
-0.541748046875 -0.1614990234375 0.65350341796875
-0.5361328125 -0.1580810546875 0.64849853515625
0.0931396484375 0.62353515625 0.66705322265625
0.097412109375 0.629638671875 0.668212890625
0.101806640625 0.638916015625 0.6705322265625
0.048095703125 0.6290283203125 0.6685791015625
0.0645751953125 0.6251220703125 0.66619873046875
0.078857421875 0.6224365234375 0.6619873046875
-0.5115966796875 -0.1981201171875 0.64935302734375
-0.519775390625 -0.1883544921875 0.64666748046875
-0.524658203125 -0.1744384765625 0.64599609375
-0.52001953125 -0.2255859375 0.65911865234375
-0.5162353515625 -0.2200927734375 0.65570068359375
-0.5087890625 -0.2125244140625 0.6522216796875
0.14306640625 0.57470703125 0.65740966796875
0.1474609375 0.57763671875 0.658935546875
0.1549072265625 0.5819091796875 0.660400390625
0.1016845703125 0.6077880859375 0.659423828125
0.1151123046875 0.5975341796875 0.6558837890625
0.1231689453125 0.5867919921875 0.6533203125
-0.4549560546875 -0.2347412109375 0.668212890625
-0.4716796875 -0.224853515625 0.66302490234375
-0.48828125 -0.2169189453125 0.65277099609375
-0.439453125 -0.256591796875 0.68011474609375
-0.43701171875 -0.249755859375 0.68017578125
-0.438232421875 -0.24267578125 0.67822265625
0.16455078125 0.473388671875 0.6734619140625
0.171142578125 0.4754638671875 0.673583984375
0.174560546875 0.473876953125 0.6729736328125
0.1468505859375 0.55224609375 0.656494140625
0.1513671875 0.5274658203125 0.65765380859375
0.1561279296875 0.4986572265625 0.66241455078125
-0.3599853515625 -0.2276611328125 0.71063232421875
-0.3861083984375 -0.23681640625 0.697509765625
-0.4111328125 -0.239013671875 0.6881103515625
-0.332275390625 -0.2347412109375 0.73486328125
-0.333740234375 -0.2276611328125 0.733154296875
-0.3348388671875 -0.2237548828125 0.73004150390625
0.1314697265625 0.3851318359375 0.69744873046875
0.1356201171875 0.3836669921875 0.6990966796875
0.1419677734375 0.378662109375 0.7005615234375
0.156494140625 0.4473876953125 0.67523193359375
0.154296875 0.4248046875 0.6751708984375
0.1378173828125 0.4056396484375 0.68414306640625
-0.27001953125 -0.1785888671875 0.75244140625
-0.2938232421875 -0.1951904296875 0.74688720703125
-0.3157958984375 -0.2100830078125 0.73907470703125
-0.25048828125 -0.1707763671875 0.76434326171875
-0.25390625 -0.1666259765625 0.76025390625
-0.2591552734375 -0.162841796875 0.75665283203125
0.0556640625 0.3228759765625 0.73760986328125
0.0587158203125 0.318115234375 0.7423095703125
0.060791015625 0.31298828125 0.74273681640625
0.1094970703125 0.3701171875 0.699951171875
0.0888671875 0.3516845703125 0.71875
0.070556640625 0.337646484375 0.721923828125
-0.232177734375 -0.084716796875 0.76751708984375
-0.2388916015625 -0.110595703125 0.76617431640625
-0.2525634765625 -0.1400146484375 0.76165771484375
-0.2032470703125 -0.05859375 0.780029296875
-0.207275390625 -0.0592041015625 0.774658203125
-0.2120361328125 -0.0611572265625 0.7696533203125
-0.0125732421875 0.310302734375 0.7406005859375
-0.01025390625 0.306884765625 0.7435302734375
-0.010009765625 0.3017578125 0.74810791015625
0.0361328125 0.3172607421875 0.73394775390625
0.016357421875 0.315185546875 0.73480224609375
-0.0003662109375 0.3138427734375 0.732421875
-0.23193359375 -0.013671875 0.7520751953125
-0.223876953125 -0.0291748046875 0.758056640625
-0.2222900390625 -0.0455322265625 0.76312255859375
-0.2159423828125 0.0047607421875 0.76861572265625
-0.2237548828125 0.003662109375 0.760498046875
-0.2313232421875 -0.00146484375 0.75445556640625
-0.125732421875 0.3582763671875 0.75286865234375
-0.118896484375 0.364501953125 0.74847412109375
-0.115234375 0.36669921875 0.74346923828125
-0.12353515625 0.3848876953125 0.73944091796875
-0.1326904296875 0.3978271484375 0.73876953125
-0.1392822265625 0.4107666015625 0.74212646484375
-0.38232421875 0.07080078125 0.7288818359375
-0.363037109375 0.0701904296875 0.73486328125
-0.345947265625 0.0672607421875 0.73419189453125
-0.33154296875 0.068359375 0.74176025390625
-0.3287353515625 0.0709228515625 0.74737548828125
-0.32568359375 0.0772705078125 0.75238037109375
-0.0635986328125 0.3153076171875 0.75146484375
-0.0623779296875 0.3184814453125 0.7442626953125
-0.06103515625 0.3232421875 0.7386474609375
-0.0740966796875 0.338623046875 0.736083984375
-0.08984375 0.3477783203125 0.74346923828125
-0.1005859375 0.359619140625 0.73944091796875
-0.3218994140625 0.0565185546875 0.73431396484375
-0.302490234375 0.0491943359375 0.73431396484375
-0.28466796875 0.041259765625 0.73553466796875
-0.2652587890625 0.0355224609375 0.74566650390625
-0.2615966796875 0.040771484375 0.75213623046875
-0.2569580078125 0.04541015625 0.75555419921875
-0.025390625 0.313232421875 0.72808837890625
-0.03515625 0.315673828125 0.72882080078125
-0.0474853515625 0.320556640625 0.7291259765625
-0.2586669921875 0.02294921875 0.74237060546875
-0.2523193359375 0.0162353515625 0.74652099609375
-0.24365234375 0.0079345703125 0.74749755859375
-0.3297119140625 0.2880859375 0.61102294921875
-0.325927734375 0.2874755859375 0.64324951171875
-0.328857421875 0.2890625 0.673095703125
-0.3284912109375 0.38330078125 0.67633056640625
-0.322509765625 0.389404296875 0.64666748046875
-0.314453125 0.3978271484375 0.61676025390625
-0.307861328125 0.3658447265625 0.592529296875
-0.3155517578125 0.3348388671875 0.59027099609375
-0.3223876953125 0.3106689453125 0.58782958984375
-0.3433837890625 0.2725830078125 0.586669921875
-0.358154296875 0.26025390625 0.58087158203125
-0.386962890625 0.241455078125 0.57647705078125
-0.426513671875 0.2362060546875 0.59344482421875
-0.4189453125 0.2515869140625 0.62347412109375
-0.416748046875 0.25927734375 0.656005859375
-0.412353515625 0.5389404296875 0.684326171875
-0.3948974609375 0.5399169921875 0.6533203125
-0.37451171875 0.5469970703125 0.63385009765625
-0.3492431640625 0.5308837890625 0.6181640625
-0.3292236328125 0.500244140625 0.60931396484375
-0.3074951171875 0.465087890625 0.6082763671875
-0.4840087890625 0.2159423828125 0.56640625
-0.525390625 0.2137451171875 0.55792236328125
-0.56005859375 0.2210693359375 0.552734375
-0.5899658203125 0.2396240234375 0.56036376953125
-0.6007080078125 0.254638671875 0.5821533203125
-0.5980224609375 0.26025390625 0.61181640625
-0.357177734375 0.6688232421875 0.68341064453125
-0.346923828125 0.6689453125 0.66058349609375
-0.3316650390625 0.660888671875 0.636474609375
-0.334716796875 0.6314697265625 0.61444091796875
-0.34228515625 0.601318359375 0.6123046875
-0.357177734375 0.5748291015625 0.6177978515625
-0.60546875 0.2122802734375 0.5311279296875
-0.6256103515625 0.1961669921875 0.5179443359375
-0.650390625 0.1767578125 0.50701904296875
-0.6806640625 0.1627197265625 0.51025390625
-0.697509765625 0.169921875 0.532958984375
-0.7025146484375 0.1715087890625 0.56134033203125
-0.1761474609375 0.7335205078125 0.66766357421875
-0.1729736328125 0.731689453125 0.64312744140625
-0.1685791015625 0.7193603515625 0.60626220703125
-0.2198486328125 0.6763916015625 0.6036376953125
-0.25927734375 0.6639404296875 0.60888671875
-0.2947998046875 0.6578369140625 0.61541748046875
-0.663330078125 0.134765625 0.49554443359375
-0.6546630859375 0.0986328125 0.486083984375
-0.64892578125 0.0577392578125 0.47650146484375
-0.6748046875 -0.00830078125 0.4794921875
-0.68994140625 -0.0145263671875 0.4976806640625
-0.7001953125 -0.0125732421875 0.52349853515625
0.00732421875 0.823974609375 0.62091064453125
0.01123046875 0.817626953125 0.59033203125
0.016357421875 0.80859375 0.554443359375
-0.023681640625 0.7789306640625 0.522216796875
-0.0679931640625 0.7557373046875 0.540283203125
-0.1158447265625 0.728515625 0.5648193359375
-0.6689453125 -0.063720703125 0.43994140625
-0.6744384765625 -0.119140625 0.41864013671875
-0.681396484375 -0.164794921875 0.3988037109375
-0.7017822265625 -0.2177734375 0.42529296875
-0.710693359375 -0.2177734375 0.4542236328125
-0.7177734375 -0.21630859375 0.48583984375
0.144775390625 0.8668212890625 0.5723876953125
0.14599609375 0.8614501953125 0.53857421875
0.1429443359375 0.845947265625 0.49932861328125
0.1063232421875 0.83642578125 0.4869384765625
0.080078125 0.8321533203125 0.50653076171875
0.0506591796875 0.8126220703125 0.51580810546875
-0.700927734375 -0.2486572265625 0.3853759765625
-0.7041015625 -0.281494140625 0.38189697265625
-0.7010498046875 -0.3153076171875 0.3834228515625
-0.7052001953125 -0.3590087890625 0.41046142578125
-0.7095947265625 -0.35888671875 0.44390869140625
-0.716552734375 -0.36328125 0.46917724609375
0.291748046875 0.7030029296875 0.43597412109375
0.2884521484375 0.69921875 0.40667724609375
0.2860107421875 0.6934814453125 0.37945556640625
0.2401123046875 0.741455078125 0.37322998046875
0.2044677734375 0.78076171875 0.3997802734375
0.1728515625 0.8084716796875 0.4361572265625
-0.669921875 -0.3880615234375 0.38653564453125
-0.6356201171875 -0.421142578125 0.38372802734375
-0.600341796875 -0.4471435546875 0.3836669921875
-0.5484619140625 -0.467041015625 0.4332275390625
-0.550048828125 -0.473876953125 0.46337890625
-0.551025390625 -0.4732666015625 0.48602294921875
0.332763671875 0.4810791015625 0.44073486328125
0.3304443359375 0.474853515625 0.41448974609375
0.32568359375 0.468017578125 0.37799072265625
0.318359375 0.5252685546875 0.32159423828125
0.3057861328125 0.5823974609375 0.32257080078125
0.3016357421875 0.6390380859375 0.32830810546875
-0.50341796875 -0.475830078125 0.40179443359375
-0.452880859375 -0.4766845703125 0.4130859375
-0.39794921875 -0.472412109375 0.43463134765625
-0.3372802734375 -0.4498291015625 0.49481201171875
-0.334716796875 -0.44287109375 0.53515625
-0.3349609375 -0.441650390625 0.56805419921875
0.3114013671875 0.27734375 0.47540283203125
0.3094482421875 0.271240234375 0.45330810546875
0.3033447265625 0.265625 0.43084716796875
0.31298828125 0.30419921875 0.3798828125
0.321533203125 0.3543701171875 0.36065673828125
0.325927734375 0.40380859375 0.34686279296875
-0.2928466796875 -0.443603515625 0.47442626953125
-0.245361328125 -0.4219970703125 0.49285888671875
-0.193359375 -0.397705078125 0.49847412109375
-0.1427001953125 -0.3621826171875 0.55548095703125
-0.1419677734375 -0.360107421875 0.57904052734375
-0.139892578125 -0.3533935546875 0.5977783203125
0.4315185546875 -0.3001708984375 0.35125732421875
0.4149169921875 -0.3316650390625 0.3572998046875
0.399169921875 -0.3599853515625 0.36297607421875
0.3607177734375 -0.367431640625 0.3656005859375
0.33984375 -0.3515625 0.354248046875
0.3214111328125 -0.3446044921875 0.3306884765625
0.330078125 -0.30224609375 0.2987060546875
0.3453369140625 -0.265380859375 0.28857421875
0.3533935546875 -0.229248046875 0.28179931640625
0.37646484375 -0.2049560546875 0.30181884765625
0.3988037109375 -0.2222900390625 0.3192138671875
0.4183349609375 -0.2447509765625 0.33856201171875
0.2734375 -0.432373046875 0.427734375
0.24267578125 -0.4210205078125 0.410400390625
0.2210693359375 -0.4132080078125 0.3961181640625
0.2208251953125 -0.403076171875 0.3560791015625
0.251708984375 -0.38330078125 0.33734130859375
0.2801513671875 -0.3646240234375 0.32623291015625
0.3642578125 -0.404052734375 0.3861083984375
0.34423828125 -0.420654296875 0.40594482421875
0.3233642578125 -0.439453125 0.42437744140625
0.5596923828125 -0.411376953125 0.3817138671875
0.5494384765625 -0.44287109375 0.3883056640625
0.5380859375 -0.4715576171875 0.40252685546875
0.4871826171875 -0.4677734375 0.40850830078125
0.4503173828125 -0.4381103515625 0.39410400390625
0.415771484375 -0.40966796875 0.388671875
0.4691162109375 -0.2950439453125 0.35369873046875
0.49951171875 -0.3199462890625 0.36602783203125
0.5313720703125 -0.3533935546875 0.37005615234375
0.4073486328125 -0.5391845703125 0.47540283203125
0.367431640625 -0.505859375 0.4610595703125
0.3345947265625 -0.4779052734375 0.44671630859375
0.508544921875 -0.5181884765625 0.4345703125
0.4881591796875 -0.5357666015625 0.45465087890625
0.4644775390625 -0.5540771484375 0.46759033203125
0.703857421875 -0.4794921875 0.43463134765625
0.689208984375 -0.5089111328125 0.4613037109375
0.6728515625 -0.5303955078125 0.47723388671875
0.6278076171875 -0.54833984375 0.47735595703125
0.5986328125 -0.5421142578125 0.45703125
0.561767578125 -0.5242919921875 0.433837890625
0.612548828125 -0.4085693359375 0.36083984375
0.6500244140625 -0.43017578125 0.38763427734375
0.6871337890625 -0.4451904296875 0.401123046875
0.538330078125 -0.6385498046875 0.543212890625
0.504150390625 -0.6187744140625 0.5201416015625
0.4755859375 -0.5947265625 0.50811767578125
0.6368408203125 -0.5794677734375 0.5247802734375
0.6090087890625 -0.600830078125 0.5478515625
0.5823974609375 -0.625244140625 0.55718994140625
0.73681640625 -0.451171875 0.43963623046875
0.752197265625 -0.4443359375 0.45306396484375
0.76513671875 -0.4326171875 0.4801025390625
0.6988525390625 -0.5379638671875 0.57275390625
0.6884765625 -0.5489501953125 0.54937744140625
0.674072265625 -0.56005859375 0.5272216796875
0.6048583984375 -0.6390380859375 0.64068603515625
0.5936279296875 -0.6474609375 0.62249755859375
0.5794677734375 -0.649169921875 0.59197998046875
0.77099609375 -0.354248046875 0.35821533203125
0.7908935546875 -0.3466796875 0.375732421875
0.8067626953125 -0.3385009765625 0.4014892578125
0.7301025390625 -0.4229736328125 0.3931884765625
0.7379150390625 -0.396240234375 0.372314453125
0.7491455078125 -0.375 0.353515625
0.487060546875 -0.703369140625 0.610107421875
0.5111083984375 -0.689453125 0.5914306640625
0.5350341796875 -0.6739501953125 0.58251953125
0.5068359375 -0.71044921875 0.68206787109375
0.49560546875 -0.7139892578125 0.6549072265625
0.4820556640625 -0.7142333984375 0.63690185546875
0.675537109375 -0.263671875 0.348388671875
0.708984375 -0.257080078125 0.36431884765625
0.7440185546875 -0.2559814453125 0.3919677734375
0.737548828125 -0.3487548828125 0.3402099609375
0.714111328125 -0.328125 0.33453369140625
0.678955078125 -0.3026123046875 0.3363037109375
0.3966064453125 -0.6656494140625 0.58892822265625
0.4271240234375 -0.6875 0.58843994140625
0.453857421875 -0.7027587890625 0.6048583984375
0.414794921875 -0.673583984375 0.68359375
0.3978271484375 -0.6644287109375 0.63934326171875
0.3795166015625 -0.646728515625 0.60205078125
0.5401611328125 -0.14404296875 0.3807373046875
0.573486328125 -0.13720703125 0.40460205078125
0.61083984375 -0.1361083984375 0.42840576171875
0.6033935546875 -0.2445068359375 0.3448486328125
0.564453125 -0.213134765625 0.35113525390625
0.5333251953125 -0.1865234375 0.3572998046875
0.2791748046875 -0.529052734375 0.552001953125
0.3096923828125 -0.5684814453125 0.5545654296875
0.3436279296875 -0.60302734375 0.56915283203125
0.3045654296875 -0.557373046875 0.6697998046875
0.279541015625 -0.53466796875 0.62628173828125
0.2587890625 -0.517822265625 0.58697509765625
0.6175537109375 -0.291748046875 0.341796875
0.6021728515625 -0.3187255859375 0.345947265625
0.5838623046875 -0.349609375 0.3621826171875
0.4547119140625 -0.2366943359375 0.34820556640625
0.4654541015625 -0.204345703125 0.344970703125
0.483154296875 -0.1773681640625 0.3470458984375
0.25830078125 -0.481689453125 0.5013427734375
0.266357421875 -0.469482421875 0.4764404296875
0.2806396484375 -0.4605712890625 0.45538330078125
0.412353515625 -0.5830078125 0.5054931640625
0.3902587890625 -0.60205078125 0.527587890625
0.3787841796875 -0.6151123046875 0.54827880859375
0.3690185546875 -0.157958984375 0.29437255859375
0.3719482421875 -0.127197265625 0.31256103515625
0.38134765625 -0.0965576171875 0.3431396484375
0.4158935546875 -0.08984375 0.37322998046875
0.4462890625 -0.10546875 0.37445068359375
0.4793701171875 -0.131103515625 0.371826171875
0.22412109375 -0.46875 0.534423828125
0.196044921875 -0.4427490234375 0.52490234375
0.1715087890625 -0.422607421875 0.51519775390625
0.15185546875 -0.4033203125 0.46954345703125
0.1600341796875 -0.407470703125 0.4322509765625
0.17626953125 -0.41357421875 0.40948486328125
0.4146728515625 -0.05126953125 0.4029541015625
0.437255859375 -0.03759765625 0.43426513671875
0.45654296875 -0.0260009765625 0.4622802734375
0.167724609375 -0.4161376953125 0.63604736328125
0.155029296875 -0.4141845703125 0.59423828125
0.1484375 -0.405029296875 0.5491943359375
0.358154296875 0.0213623046875 0.4930419921875
0.349853515625 0.016357421875 0.46014404296875
0.334716796875 0.0069580078125 0.42327880859375
0.306396484375 0.0274658203125 0.3995361328125
0.295166015625 0.04443359375 0.4228515625
0.2855224609375 0.0579833984375 0.4404296875
0.282470703125 0.0498046875 0.47406005859375
0.2872314453125 0.0450439453125 0.49371337890625
0.2935791015625 0.046875 0.52130126953125
0.067626953125 -0.2723388671875 0.6026611328125
0.062255859375 -0.2769775390625 0.57977294921875
0.04736328125 -0.2802734375 0.5625
0.0262451171875 -0.3017578125 0.52813720703125
0.033447265625 -0.3165283203125 0.515380859375
0.049072265625 -0.333251953125 0.49859619140625
0.0782470703125 -0.335205078125 0.5306396484375
0.0938720703125 -0.335693359375 0.5703125
0.102783203125 -0.32861328125 0.6116943359375
0.3739013671875 -0.056884765625 0.3740234375
0.35400390625 -0.0401611328125 0.38275146484375
0.3416748046875 -0.0255126953125 0.38470458984375
0.089599609375 -0.3599853515625 0.49188232421875
0.106689453125 -0.3712158203125 0.4981689453125
0.129150390625 -0.386962890625 0.5035400390625
0.2574462890625 0.10107421875 0.49639892578125
0.25830078125 0.09912109375 0.50738525390625
0.25390625 0.1011962890625 0.52838134765625
0.2659912109375 0.069580078125 0.4713134765625
0.2587890625 0.075439453125 0.4822998046875
0.256591796875 0.0892333984375 0.48602294921875
0.002197265625 -0.2655029296875 0.56103515625
0.0128173828125 -0.2674560546875 0.55450439453125
0.0177001953125 -0.2744140625 0.5517578125
0.0128173828125 -0.245849609375 0.611572265625
0.0032958984375 -0.255615234375 0.59124755859375
-0.0042724609375 -0.2633056640625 0.5723876953125
0.2666015625 0.1297607421875 0.47320556640625
0.2744140625 0.1607666015625 0.4581298828125
0.28466796875 0.1986083984375 0.43975830078125
-0.095703125 -0.3251953125 0.548583984375
-0.057373046875 -0.298095703125 0.559814453125
-0.0294189453125 -0.2777099609375 0.5592041015625
-0.005615234375 -0.2794189453125 -0.58233642578125
-0.0411376953125 -0.22802734375 -0.63250732421875
-0.0780029296875 -0.166259765625 -0.6754150390625
-0.0667724609375 -0.025634765625 -0.70587158203125
-0.0145263671875 0.0347900390625 -0.69378662109375
0.0400390625 0.0948486328125 -0.6705322265625
0.1025390625 0.073974609375 -0.616943359375
0.1251220703125 0.0281982421875 -0.5828857421875
0.1514892578125 -0.0091552734375 -0.54132080078125
0.1517333984375 -0.1146240234375 -0.50830078125
0.107421875 -0.1868896484375 -0.51873779296875
0.066650390625 -0.2564697265625 -0.52587890625
-0.015380859375 -0.3743896484375 -0.49853515625
-0.0589599609375 -0.426513671875 -0.46490478515625
-0.1015625 -0.4638671875 -0.43243408203125
-0.1695556640625 -0.4613037109375 -0.46600341796875
-0.2015380859375 -0.422119140625 -0.51470947265625
-0.2276611328125 -0.3814697265625 -0.554443359375
-0.235595703125 -0.2789306640625 -0.63055419921875
-0.1947021484375 -0.2152099609375 -0.6715087890625
-0.158203125 -0.1494140625 -0.70037841796875
0.11181640625 -0.3929443359375 -0.29864501953125
0.0789794921875 -0.373046875 -0.3868408203125
0.056640625 -0.3509521484375 -0.450439453125
0.190185546875 -0.07666015625 -0.4522705078125
0.220947265625 -0.1058349609375 -0.39215087890625
0.2430419921875 -0.128662109375 -0.3218994140625
0.234130859375 -0.2099609375 -0.225830078125
0.2060546875 -0.2784423828125 -0.23052978515625
0.17529296875 -0.3494873046875 -0.23004150390625
0.0992431640625 -0.4527587890625 -0.19110107421875
0.0533447265625 -0.48779296875 -0.166259765625
0.0150146484375 -0.51318359375 -0.14093017578125
-0.0611572265625 -0.538330078125 -0.2103271484375
-0.087890625 -0.520751953125 -0.28582763671875
-0.116943359375 -0.5108642578125 -0.34375
0.228759765625 -0.3687744140625 0.09429931640625
0.1947021484375 -0.3785400390625 -0.00860595703125
0.161865234375 -0.39599609375 -0.11090087890625
0.2728271484375 -0.151611328125 -0.13934326171875
0.2864990234375 -0.16015625 -0.041015625
0.3016357421875 -0.1512451171875 0.03985595703125
0.314697265625 -0.2086181640625 0.1348876953125
0.3006591796875 -0.261962890625 0.1373291015625
0.2781982421875 -0.3084716796875 0.15045166015625
0.2191162109375 -0.390869140625 0.18182373046875
0.1837158203125 -0.4200439453125 0.20263671875
0.1375732421875 -0.4342041015625 0.21795654296875
0.068115234375 -0.4715576171875 0.1531982421875
0.034912109375 -0.4964599609375 0.06243896484375
0.003662109375 -0.5126953125 -0.029296875
0.29296875 -0.335693359375 0.28973388671875
0.280029296875 -0.335693359375 0.2669677734375
0.2637939453125 -0.3424072265625 0.2218017578125
0.337646484375 -0.1627197265625 0.20123291015625
0.3470458984375 -0.1759033203125 0.23712158203125
0.353271484375 -0.182373046875 0.26300048828125
0.1748046875 -0.4111328125 0.359619140625
0.156982421875 -0.4129638671875 0.33770751953125
0.13916015625 -0.4248046875 0.3011474609375
0.330078125 -0.1021728515625 0.20684814453125
0.325927734375 -0.066650390625 0.2685546875
0.3262939453125 -0.0303955078125 0.31591796875
0.0748291015625 -0.380615234375 0.42584228515625
0.08349609375 -0.4052734375 0.37628173828125
0.0860595703125 -0.42578125 0.31982421875
0.2686767578125 0.707275390625 0.17620849609375
0.263671875 0.7042236328125 0.23089599609375
0.27490234375 0.6981201171875 0.2891845703125
0.3251953125 0.4600830078125 0.27008056640625
0.3323974609375 0.4580078125 0.19097900390625
0.347900390625 0.4534912109375 0.11163330078125
0.3536376953125 0.521240234375 0.04644775390625
0.3280029296875 0.5963134765625 0.0672607421875
0.2984619140625 0.6669921875 0.091552734375
-0.5555419921875 -0.5184326171875 0.155029296875
-0.5035400390625 -0.54638671875 0.168212890625
-0.44970703125 -0.5609130859375 0.1771240234375
-0.3809814453125 -0.547119140625 0.26177978515625
-0.3770751953125 -0.5087890625 0.332275390625
-0.35986328125 -0.481689453125 0.39532470703125
-0.562255859375 -0.47021484375 0.33465576171875
-0.5706787109375 -0.481201171875 0.2764892578125
-0.5845947265625 -0.4842529296875 0.1998291015625
-0.1553955078125 0.0045166015625 -0.73175048828125
-0.1995849609375 0.107177734375 -0.748779296875
-0.235595703125 0.2103271484375 -0.7598876953125
-0.2138671875 0.39599609375 -0.7308349609375
-0.1614990234375 0.4598388671875 -0.701416015625
-0.1041259765625 0.510986328125 -0.65020751953125
-0.0172119140625 0.443603515625 -0.65167236328125
0.0198974609375 0.3330078125 -0.65936279296875
0.053466796875 0.2327880859375 -0.65618896484375
-0.3211669921875 -0.2694091796875 -0.6259765625
-0.3687744140625 -0.2017822265625 -0.66571044921875
-0.41943359375 -0.12646484375 -0.68359375
-0.444580078125 0.042236328125 -0.7078857421875
-0.395263671875 0.1334228515625 -0.73309326171875
-0.346435546875 0.227294921875 -0.7508544921875
-0.5811767578125 0.6331787109375 -0.0428466796875
-0.5909423828125 0.6151123046875 0.03778076171875
-0.5863037109375 0.5869140625 0.12237548828125
-0.5008544921875 0.6322021484375 0.2225341796875
-0.44384765625 0.709716796875 0.227294921875
-0.3780517578125 0.7738037109375 0.23486328125
-0.33203125 0.86376953125 0.16998291015625
-0.337158203125 0.8924560546875 0.10369873046875
-0.3375244140625 0.9119873046875 0.041015625
-0.390625 0.872314453125 -0.052734375
-0.4541015625 0.8101806640625 -0.0745849609375
-0.510986328125 0.736328125 -0.11016845703125
-0.6363525390625 0.56103515625 -0.1826171875
-0.690185546875 0.4732666015625 -0.20904541015625
-0.7347412109375 0.3887939453125 -0.23284912109375
-0.775146484375 0.2896728515625 -0.184326171875
-0.7784423828125 0.26953125 -0.097900390625
-0.775634765625 0.239990234375 -0.01605224609375
-0.7216796875 0.2901611328125 0.09796142578125
-0.684326171875 0.375 0.13067626953125
-0.62890625 0.461669921875 0.17578125
-0.5064697265625 0.650634765625 -0.41217041015625
-0.5364990234375 0.660888671875 -0.328369140625
-0.559326171875 0.660400390625 -0.23272705078125
-0.317626953125 0.9345703125 -0.112060546875
-0.3037109375 0.928955078125 -0.181640625
-0.2711181640625 0.9073486328125 -0.25701904296875
-0.288330078125 0.82568359375 -0.3736572265625
-0.3531494140625 0.7674560546875 -0.42486572265625
-0.4080810546875 0.6998291015625 -0.46197509765625
-0.523193359375 0.524658203125 -0.53399658203125
-0.5799560546875 0.43603515625 -0.523193359375
-0.6351318359375 0.3387451171875 -0.530517578125
-0.7037353515625 0.2890625 -0.468994140625
-0.728515625 0.304443359375 -0.40386962890625
-0.749267578125 0.302978515625 -0.33258056640625
-0.33154296875 0.408203125 -0.71282958984375
-0.376708984375 0.4932861328125 -0.6619873046875
-0.43017578125 0.56396484375 -0.59173583984375
-0.1953125 0.814453125 -0.4169921875
-0.1514892578125 0.739013671875 -0.49163818359375
-0.1036376953125 0.649658203125 -0.55865478515625
-0.5311279296875 0.0399169921875 -0.66522216796875
-0.5823974609375 0.1234130859375 -0.63482666015625
-0.627197265625 0.19775390625 -0.5897216796875
0.0020751953125 0.7806396484375 0.387451171875
0.0185546875 0.779052734375 0.43212890625
0.0174560546875 0.788818359375 0.47882080078125
0.1343994140625 0.81884765625 0.4317626953125
0.1270751953125 0.812744140625 0.39849853515625
0.1207275390625 0.813232421875 0.35406494140625
0.077392578125 0.82666015625 0.333740234375
0.046630859375 0.816650390625 0.3466796875
0.0203857421875 0.803955078125 0.340576171875
-0.68994140625 -0.199462890625 0.21710205078125
-0.69482421875 -0.2374267578125 0.2210693359375
-0.6907958984375 -0.27099609375 0.22222900390625
-0.6787109375 -0.3223876953125 0.2633056640625
-0.6771240234375 -0.332275390625 0.3087158203125
-0.6834716796875 -0.34326171875 0.34710693359375
-0.6815185546875 -0.204345703125 0.3570556640625
-0.6767578125 -0.1954345703125 0.31866455078125
-0.67138671875 -0.180419921875 0.2706298828125
-0.0819091796875 0.882080078125 0.21148681640625
-0.0535888671875 0.8487548828125 0.26251220703125
-0.0302734375 0.8154296875 0.30511474609375
0.099365234375 0.845947265625 0.27105712890625
0.08935546875 0.872802734375 0.23443603515625
0.07958984375 0.897216796875 0.196533203125
0.026123046875 0.93408203125 0.1556396484375
-0.0146484375 0.936279296875 0.15899658203125
-0.0595703125 0.9261474609375 0.1607666015625
-0.7738037109375 -0.0904541015625 -0.05926513671875
-0.77490234375 -0.1451416015625 -0.0477294921875
-0.7774658203125 -0.1981201171875 -0.03350830078125
-0.75390625 -0.2685546875 0.0439453125
-0.720947265625 -0.281982421875 0.1072998046875
-0.7003173828125 -0.295654296875 0.16064453125
-0.70751953125 -0.1339111328125 0.15045166015625
-0.7298583984375 -0.0965576171875 0.08428955078125
-0.760498046875 -0.071044921875 0.01971435546875
-0.1263427734375 0.9776611328125 -0.0089111328125
-0.1270751953125 0.9642333984375 0.043212890625
-0.1168212890625 0.946533203125 0.10150146484375
0.053955078125 0.9403076171875 0.103271484375
0.0457763671875 0.9547119140625 0.0592041015625
0.049072265625 0.95703125 0.0035400390625
0.007080078125 0.9742431640625 -0.04876708984375
-0.034423828125 0.9810791015625 -0.06036376953125
-0.07177734375 0.9854736328125 -0.0672607421875
-0.7921142578125 -0.041259765625 -0.31951904296875
-0.7890625 -0.0997314453125 -0.30474853515625
-0.783447265625 -0.157470703125 -0.27960205078125
-0.77978515625 -0.2200927734375 -0.204833984375
-0.7783203125 -0.2271728515625 -0.1490478515625
-0.7723388671875 -0.2427978515625 -0.086669921875
-0.7884521484375 -0.0130615234375 -0.13299560546875
-0.79052734375 0.0048828125 -0.200927734375
-0.79443359375 0.0146484375 -0.26800537109375
-0.0745849609375 0.9512939453125 -0.2611083984375
-0.0902099609375 0.9722900390625 -0.20233154296875
-0.1075439453125 0.9781494140625 -0.1357421875
0.060791015625 0.9512939453125 -0.11236572265625
0.06494140625 0.9378662109375 -0.17803955078125
0.0755615234375 0.9229736328125 -0.23736572265625
0.064208984375 0.904052734375 -0.28521728515625
0.034423828125 0.908935546875 -0.29791259765625
-0.001708984375 0.9078369140625 -0.31396484375
-0.7191162109375 -0.1063232421875 -0.5035400390625
-0.720703125 -0.1622314453125 -0.48419189453125
-0.7213134765625 -0.2103271484375 -0.46002197265625
-0.7301025390625 -0.2354736328125 -0.412109375
-0.746826171875 -0.225830078125 -0.37078857421875
-0.7662353515625 -0.21826171875 -0.31988525390625
-0.7762451171875 0.0157470703125 -0.38885498046875
-0.7606201171875 0.011474609375 -0.438720703125
-0.741943359375 -0.007080078125 -0.48211669921875
0.10986328125 0.8699951171875 -0.28912353515625
0.1439208984375 0.8173828125 -0.32147216796875
0.1727294921875 0.762451171875 -0.36041259765625
0.1851806640625 0.65625 -0.421875
0.1600341796875 0.636962890625 -0.4578857421875
0.1319580078125 0.618408203125 -0.4930419921875
0.064453125 0.69482421875 -0.48052978515625
0.0294189453125 0.781982421875 -0.42901611328125
-0.009765625 0.851318359375 -0.37799072265625
-0.6788330078125 -0.0882568359375 -0.55352783203125
-0.631103515625 -0.1513671875 -0.560302734375
-0.5799560546875 -0.225341796875 -0.5604248046875
-0.543701171875 -0.339111328125 -0.515380859375
-0.553466796875 -0.3797607421875 -0.48785400390625
-0.572998046875 -0.413330078125 -0.452880859375
-0.6324462890625 -0.388916015625 -0.42333984375
-0.6685791015625 -0.337646484375 -0.43426513671875
-0.69873046875 -0.2806396484375 -0.43878173828125
0.0635986328125 0.593017578125 -0.5322265625
0.0323486328125 0.5848388671875 -0.560791015625
-0.0087890625 0.5750732421875 -0.58245849609375
-0.1826171875 0.899658203125 -0.331298828125
-0.13623046875 0.913330078125 -0.3270263671875
-0.088134765625 0.913330078125 -0.32391357421875
-0.708251953125 0.0247802734375 -0.5321044921875
-0.699951171875 0.0933837890625 -0.5311279296875
-0.6937255859375 0.1732177734375 -0.533447265625
-0.4951171875 -0.122802734375 -0.6563720703125
-0.514404296875 -0.185791015625 -0.61798095703125
-0.520751953125 -0.2427978515625 -0.587158203125
-0.2763671875 0.949951171875 -0.03594970703125
-0.2215576171875 0.966064453125 -0.04949951171875
-0.1678466796875 0.9766845703125 -0.06439208984375
-0.7845458984375 0.0860595703125 -0.32061767578125
-0.7857666015625 0.149658203125 -0.29559326171875
-0.779052734375 0.221435546875 -0.27960205078125
-0.2557373046875 0.86767578125 0.2056884765625
-0.2015380859375 0.892333984375 0.1983642578125
-0.150146484375 0.906982421875 0.17877197265625
-0.7711181640625 0.0164794921875 -0.04815673828125
-0.7774658203125 0.0709228515625 -0.01788330078125
-0.7698974609375 0.1309814453125 0.02264404296875
-0.2904052734375 0.790283203125 0.28509521484375
-0.25048828125 0.7489013671875 0.34100341796875
-0.2127685546875 0.71337890625 0.39227294921875
-0.13037109375 0.7218017578125 0.40087890625
-0.087158203125 0.7567138671875 0.38140869140625
-0.04248046875 0.7767333984375 0.3583984375
-0.6756591796875 -0.1226806640625 0.22296142578125
-0.6678466796875 -0.077880859375 0.25042724609375
-0.65771484375 -0.025146484375 0.28326416015625
-0.6624755859375 0.0750732421875 0.26904296875
-0.693603515625 0.122314453125 0.2010498046875
-0.7264404296875 0.1676025390625 0.12725830078125
-0.1627197265625 0.669677734375 0.4696044921875
-0.1529541015625 0.666015625 0.50579833984375
-0.154541015625 0.673583984375 0.5396728515625
-0.6317138671875 -0.0048828125 0.4293212890625
-0.6224365234375 -0.0029296875 0.4007568359375
-0.6278076171875 0.01123046875 0.3682861328125
-0.5367431640625 0.504638671875 0.267822265625
-0.5025634765625 0.453857421875 0.33807373046875
-0.4569091796875 0.41162109375 0.4205322265625
-0.353759765625 0.4652099609375 0.47808837890625
-0.29638671875 0.552734375 0.463623046875
-0.2327880859375 0.623046875 0.457763671875
-0.5958251953125 0.1038818359375 0.35614013671875
-0.54248046875 0.188720703125 0.39886474609375
-0.4896240234375 0.269775390625 0.445068359375
-0.212646484375 0.6234130859375 0.581787109375
-0.24169921875 0.553955078125 0.58172607421875
-0.270263671875 0.483154296875 0.5849609375
-0.4915771484375 0.171630859375 0.53857421875
-0.5433349609375 0.1221923828125 0.50286865234375
-0.5975341796875 0.0609130859375 0.47552490234375
-0.3492431640625 0.394775390625 0.5255126953125
-0.31787109375 0.410400390625 0.54876708984375
-0.298828125 0.41259765625 0.56817626953125
-0.4312744140625 0.2203369140625 0.53863525390625
-0.4285888671875 0.244140625 0.523681640625
-0.425048828125 0.28857421875 0.5062255859375
-0.3746337890625 0.332275390625 0.52288818359375
-0.3568115234375 0.3134765625 0.54779052734375
-0.341552734375 0.297119140625 0.56768798828125
0.22607421875 0.7615966796875 0.16778564453125
0.1873779296875 0.798828125 0.22711181640625
0.154541015625 0.81591796875 0.276611328125
-0.6737060546875 -0.35107421875 0.1978759765625
-0.654052734375 -0.3974609375 0.17401123046875
-0.62841796875 -0.443603515625 0.15673828125
0.265380859375 0.73291015625 0.0880126953125
0.2587890625 0.7518310546875 0.0572509765625
0.25341796875 0.7667236328125 0.02203369140625
0.205322265625 0.832275390625 0.037353515625
0.16259765625 0.86962890625 0.08819580078125
0.111572265625 0.903076171875 0.1258544921875
-0.75146484375 -0.3145751953125 -0.02276611328125
-0.7281494140625 -0.367431640625 -0.0364990234375
-0.7000732421875 -0.424560546875 -0.0426025390625
-0.6417236328125 -0.484619140625 0.001708984375
-0.62060546875 -0.4803466796875 0.046142578125
-0.60888671875 -0.4832763671875 0.09295654296875
0.2265625 0.805908203125 -0.04339599609375
0.212158203125 0.8216552734375 -0.0721435546875
0.2100830078125 0.82275390625 -0.10943603515625
0.1768798828125 0.84716796875 -0.12786865234375
0.1370849609375 0.8846435546875 -0.1011962890625
0.093505859375 0.9215087890625 -0.068359375
-0.7491455078125 -0.274169921875 -0.25091552734375
-0.726806640625 -0.3359375 -0.23992919921875
-0.703857421875 -0.384033203125 -0.23388671875
-0.6900634765625 -0.4290771484375 -0.1829833984375
-0.6846923828125 -0.4359130859375 -0.14862060546875
-0.6767578125 -0.4442138671875 -0.098876953125
0.201904296875 0.8121337890625 -0.2125244140625
0.1962890625 0.7879638671875 -0.2633056640625
0.2117919921875 0.75341796875 -0.32037353515625
-0.64306640625 -0.43408203125 -0.37835693359375
-0.6607666015625 -0.4271240234375 -0.3355712890625
-0.675537109375 -0.42431640625 -0.28729248046875
0.321533203125 0.046142578125 0.11383056640625
0.32080078125 -0.018798828125 0.10693359375
0.3238525390625 -0.0819091796875 0.121337890625
0.2691650390625 -0.08642578125 -0.24029541015625
0.274169921875 -0.028076171875 -0.239501953125
0.2802734375 0.0294189453125 -0.23858642578125
0.2918701171875 0.084228515625 -0.14398193359375
0.30859375 0.0968017578125 -0.065673828125
0.3138427734375 0.1094970703125 0.02886962890625
-0.1383056640625 -0.4993896484375 0.1690673828125
-0.1507568359375 -0.52734375 0.09576416015625
-0.165283203125 -0.5455322265625 0.00836181640625
-0.1463623046875 -0.5509033203125 -0.07928466796875
-0.0982666015625 -0.5455322265625 -0.0927734375
-0.0670166015625 -0.5404052734375 -0.106201171875
0.0389404296875 -0.4583740234375 0.2362060546875
-0.0113525390625 -0.45849609375 0.2271728515625
-0.0638427734375 -0.458984375 0.2281494140625
0.3570556640625 0.299560546875 -0.15972900390625
0.36083984375 0.326416015625 -0.10174560546875
0.3609619140625 0.371826171875 -0.04229736328125
0.3533935546875 0.3568115234375 0.038330078125
0.3353271484375 0.2850341796875 0.06927490234375
0.326171875 0.2071533203125 0.088623046875
0.2979736328125 0.13916015625 -0.2347412109375
0.3096923828125 0.189453125 -0.2283935546875
0.3330078125 0.2384033203125 -0.222412109375
-0.2896728515625 -0.6019287109375 -0.038818359375
-0.259033203125 -0.5784912109375 -0.0482177734375
-0.224365234375 -0.562744140625 -0.05999755859375
-0.196533203125 -0.4993896484375 0.24615478515625
-0.2591552734375 -0.5223388671875 0.23162841796875
-0.3231201171875 -0.557861328125 0.2147216796875
-0.3499755859375 -0.596435546875 0.13238525390625
-0.33251953125 -0.6002197265625 0.0770263671875
-0.3216552734375 -0.6134033203125 0.0352783203125
