# XYZ point cloud file
0.25423431396484375 0.0665283203125 0.5391845703125
0.24587249755859375 0.0799560546875 0.5426025390625
0.019622802734375 -0.2205810546875 0.62451171875
0.032989501953125 -0.229736328125 0.62213134765625
0.042999267578125 -0.2418212890625 0.619140625
0.59598541259765625 -0.29443359375 0.68609619140625
0.59554290771484375 -0.2872314453125 0.68389892578125
0.59734344482421875 -0.279541015625 0.68121337890625
0.552398681640625 -0.3419189453125 0.72564697265625
0.552337646484375 -0.347412109375 0.718994140625
0.553955078125 -0.35205078125 0.71533203125
0.566436767578125 -0.3372802734375 0.70269775390625
0.5766448974609375 -0.321533203125 0.694580078125
0.5855865478515625 -0.306396484375 0.6849365234375
0.521087646484375 -0.3909912109375 0.7288818359375
0.52913665771484375 -0.3822021484375 0.71990966796875
0.54029083251953125 -0.36962890625 0.712890625
0.50177001953125 -0.399658203125 0.75372314453125
0.508544921875 -0.3974609375 0.7479248046875
0.513214111328125 -0.4005126953125 0.73931884765625
0.6407318115234375 -0.33251953125 0.6624755859375
0.6432037353515625 -0.32861328125 0.6597900390625
0.65360260009765625 -0.32763671875 0.65374755859375
0.60321807861328125 -0.3028564453125 0.67218017578125
0.61702728271484375 -0.308837890625 0.66754150390625
0.62842559814453125 -0.3211669921875 0.66412353515625
0.53830718994140625 -0.439208984375 0.73638916015625
0.52675628662109375 -0.425537109375 0.734375
0.5181732177734375 -0.412109375 0.73529052734375
0.5497589111328125 -0.464599609375 0.747314453125
0.552093505859375 -0.4537353515625 0.74432373046875
0.552276611328125 -0.4495849609375 0.74090576171875
0.648406982421875 -0.391357421875 0.66339111328125
0.65451812744140625 -0.3919677734375 0.66217041015625
0.66201019287109375 -0.390869140625 0.65667724609375
0.64093017578125 -0.3465576171875 0.65667724609375
0.6460418701171875 -0.36083984375 0.65521240234375
0.6454315185546875 -0.375732421875 0.65667724609375
0.584930419921875 -0.4527587890625 0.71014404296875
0.57275390625 -0.455810546875 0.718994140625
0.563568115234375 -0.453369140625 0.7276611328125
0.60160064697265625 -0.46337890625 0.71875
0.60498809814453125 -0.4559326171875 0.71429443359375
0.60095977783203125 -0.4539794921875 0.709716796875
0.631378173828125 -0.431640625 0.67828369140625
0.634796142578125 -0.43017578125 0.68292236328125
0.6387786865234375 -0.4354248046875 0.6815185546875
0.644012451171875 -0.4053955078125 0.659912109375
0.639434814453125 -0.4151611328125 0.662841796875
0.6329498291015625 -0.4234619140625 0.66845703125
0.62340545654296875 -0.4365234375 0.68389892578125
0.61515045166015625 -0.4444580078125 0.6903076171875
0.60582733154296875 -0.4486083984375 0.69708251953125
0.608154296875 -0.4334716796875 0.65545654296875
0.61795806884765625 -0.4334716796875 0.66265869140625
0.62480926513671875 -0.4312744140625 0.6688232421875
0.6363983154296875 -0.393310546875 0.65081787109375
0.63071441650390625 -0.3956298828125 0.643798828125
0.62812042236328125 -0.3948974609375 0.6331787109375
0.6175537109375 -0.402099609375 0.6378173828125
0.6118316650390625 -0.411376953125 0.64044189453125
0.60687255859375 -0.42041015625 0.64324951171875
0.59090423583984375 -0.4393310546875 0.65167236328125
0.58548736572265625 -0.4449462890625 0.65936279296875
0.57860565185546875 -0.4527587890625 0.6656494140625
0.57962799072265625 -0.456787109375 0.67254638671875
0.586456298828125 -0.454833984375 0.681884765625
0.5890045166015625 -0.4534912109375 0.693115234375
0.63053131103515625 -0.3369140625 0.64898681640625
0.62854766845703125 -0.343994140625 0.63934326171875
0.623016357421875 -0.34814453125 0.6324462890625
0.6208648681640625 -0.359375 0.625
0.623870849609375 -0.3701171875 0.62347412109375
0.62255859375 -0.38134765625 0.62652587890625
0.5624847412109375 -0.4632568359375 0.6793212890625
0.554168701171875 -0.464111328125 0.68206787109375
0.5464019775390625 -0.4595947265625 0.689208984375
0.541900634765625 -0.45556640625 0.70068359375
0.54221343994140625 -0.452880859375 0.71368408203125
0.54584503173828125 -0.4495849609375 0.7281494140625
0.592529296875 -0.30517578125 0.66888427734375
0.592193603515625 -0.3138427734375 0.658447265625
0.58946990966796875 -0.3240966796875 0.64813232421875
0.59798431396484375 -0.335205078125 0.62939453125
0.6062164306640625 -0.338134765625 0.6282958984375
0.61083984375 -0.345703125 0.627197265625
0.5311279296875 -0.4542236328125 0.69085693359375
0.52332305908203125 -0.4468994140625 0.69207763671875
0.51976776123046875 -0.4346923828125 0.6929931640625
0.51720428466796875 -0.4189453125 0.69720458984375
0.514373779296875 -0.413330078125 0.7122802734375
0.5143585205078125 -0.4072265625 0.72607421875
0.55524444580078125 -0.361328125 0.69940185546875
0.55547332763671875 -0.3702392578125 0.6881103515625
0.555999755859375 -0.3759765625 0.6749267578125
0.56984710693359375 -0.3721923828125 0.65753173828125
0.57714080810546875 -0.357177734375 0.64984130859375
0.58184051513671875 -0.3443603515625 0.640380859375
0.52790069580078125 -0.4178466796875 0.6832275390625
0.5384674072265625 -0.4097900390625 0.6771240234375
0.5500030517578125 -0.3997802734375 0.67132568359375
0.5658721923828125 -0.4005126953125 0.65972900390625
0.57913970947265625 -0.4119873046875 0.65185546875
0.58722686767578125 -0.4232177734375 0.6478271484375
0.6115570068359375 -0.379638671875 0.6270751953125
0.60045623779296875 -0.3680419921875 0.62646484375
0.59651947021484375 -0.350830078125 0.62835693359375
0.53202056884765625 -0.438232421875 0.6807861328125
0.5409393310546875 -0.4466552734375 0.6759033203125
0.5597381591796875 -0.45361328125 0.67474365234375
-0.060943603515625 0.3135986328125 0.71966552734375
-0.0673828125 0.307373046875 0.71954345703125
-0.07550048828125 0.296142578125 0.7183837890625
-0.00200653076171875 0.269287109375 0.712890625
0.00081634521484375 0.281982421875 0.7108154296875
0.00283050537109375 0.29150390625 0.7188720703125
-0.01229095458984375 0.2999267578125 0.71722412109375
-0.02811431884765625 0.304931640625 0.715087890625
-0.04343414306640625 0.311279296875 0.7197265625
-0.23016357421875 0.0562744140625 0.72509765625
-0.2198944091796875 0.0440673828125 0.72509765625
-0.21759033203125 0.0328369140625 0.72857666015625
-0.2021484375 0.0211181640625 0.72705078125
-0.19671630859375 0.024658203125 0.72369384765625
-0.18487548828125 0.0291748046875 0.71978759765625
-0.2217559814453125 0.086669921875 0.71759033203125
-0.228668212890625 0.078857421875 0.71990966796875
-0.2370452880859375 0.0706787109375 0.7230224609375
-0.11810302734375 0.3624267578125 0.7220458984375
-0.1263885498046875 0.3555908203125 0.71795654296875
-0.13887786865234375 0.34228515625 0.7156982421875
-0.075836181640625 0.3319091796875 0.71923828125
-0.089599609375 0.3424072265625 0.719482421875
-0.103515625 0.3548583984375 0.719970703125
-0.28676605224609375 0.095703125 0.7098388671875
-0.268798828125 0.0880126953125 0.713623046875
-0.25408935546875 0.076904296875 0.7177734375
-0.296173095703125 0.13232421875 0.70758056640625
-0.3034210205078125 0.1187744140625 0.707275390625
-0.31215667724609375 0.1102294921875 0.71051025390625
-0.161895751953125 0.4268798828125 0.71685791015625
-0.1747894287109375 0.421630859375 0.71624755859375
-0.18939208984375 0.4173583984375 0.7125244140625
-0.12432861328125 0.3836669921875 0.7176513671875
-0.1324462890625 0.3975830078125 0.7186279296875
-0.145843505859375 0.4127197265625 0.71588134765625
-0.375 0.1126708984375 0.68695068359375
-0.35527801513671875 0.1129150390625 0.69293212890625
-0.33209991455078125 0.1082763671875 0.699951171875
-0.39603424072265625 0.14697265625 0.68475341796875
-0.393829345703125 0.135009765625 0.683349609375
-0.392822265625 0.1231689453125 0.6884765625
0.077239990234375 0.2789306640625 0.69580078125
0.07381439208984375 0.2918701171875 0.69775390625
0.06922149658203125 0.301513671875 0.70233154296875
0.0480194091796875 0.296142578125 0.71270751953125
0.0321044921875 0.2939453125 0.7159423828125
0.0137481689453125 0.2926025390625 0.71630859375
-0.20452880859375 0.0091552734375 0.7286376953125
-0.202667236328125 -0.0030517578125 0.73114013671875
-0.199066162109375 -0.0167236328125 0.73675537109375
-0.19854736328125 -0.0390625 0.73077392578125
-0.1849365234375 -0.039794921875 0.72857666015625
-0.1749725341796875 -0.044677734375 0.7288818359375
0.178070068359375 0.35595703125 0.65899658203125
0.17132568359375 0.36376953125 0.6685791015625
0.1645965576171875 0.3681640625 0.674072265625
0.13796234130859375 0.3538818359375 0.6927490234375
0.1185455322265625 0.335693359375 0.69866943359375
0.09564208984375 0.32080078125 0.698486328125
-0.209716796875 -0.06494140625 0.73095703125
-0.21727752685546875 -0.0926513671875 0.7298583984375
-0.22750091552734375 -0.12451171875 0.72894287109375
-0.232574462890625 -0.1563720703125 0.72198486328125
-0.22845458984375 -0.161865234375 0.717041015625
-0.2213287353515625 -0.1712646484375 0.70904541015625
0.21533203125 0.464111328125 0.6195068359375
0.2066650390625 0.463134765625 0.62982177734375
0.200225830078125 0.4647216796875 0.64007568359375
0.18361663818359375 0.44287109375 0.655029296875
0.18463897705078125 0.4207763671875 0.6636962890625
0.1745452880859375 0.395751953125 0.6722412109375
-0.25890350341796875 -0.175537109375 0.72113037109375
-0.27639007568359375 -0.19384765625 0.71380615234375
-0.295257568359375 -0.20703125 0.70611572265625
-0.31964111328125 -0.2294921875 0.69879150390625
-0.316009521484375 -0.2406005859375 0.69378662109375
-0.31522369384765625 -0.253173828125 0.6827392578125
0.1982574462890625 0.6016845703125 0.603271484375
0.191619873046875 0.5965576171875 0.6119384765625
0.18253326416015625 0.5875244140625 0.62359619140625
0.18451690673828125 0.5540771484375 0.6317138671875
0.18860626220703125 0.526123046875 0.63641357421875
0.192352294921875 0.4957275390625 0.63873291015625
-0.35497283935546875 -0.235107421875 0.68560791015625
-0.3873291015625 -0.247802734375 0.678955078125
-0.418548583984375 -0.25244140625 0.66973876953125
-0.45314788818359375 -0.26025390625 0.65924072265625
-0.45549774169921875 -0.2720947265625 0.65185546875
-0.46201324462890625 -0.2821044921875 0.64141845703125
0.13055419921875 0.6783447265625 0.61572265625
0.1275482177734375 0.666259765625 0.623291015625
0.1259307861328125 0.65478515625 0.6309814453125
0.13539886474609375 0.634033203125 0.63067626953125
0.15280914306640625 0.6220703125 0.6246337890625
0.16500091552734375 0.6048583984375 0.62591552734375
-0.47374725341796875 -0.2490234375 0.65069580078125
-0.49886322021484375 -0.2403564453125 0.64215087890625
-0.51090240478515625 -0.230712890625 0.6392822265625
-0.52154541015625 -0.22216796875 0.62890625
-0.5305633544921875 -0.23046875 0.62188720703125
-0.538787841796875 -0.237060546875 0.61572265625
0.05252838134765625 0.68505859375 0.6552734375
0.05010223388671875 0.6744384765625 0.6553955078125
0.048370361328125 0.6612548828125 0.65838623046875
0.06545257568359375 0.6585693359375 0.65313720703125
0.08583831787109375 0.65625 0.64239501953125
0.10114288330078125 0.6519775390625 0.63555908203125
-0.525909423828125 -0.203857421875 0.6326904296875
-0.5318450927734375 -0.1923828125 0.62982177734375
-0.536224365234375 -0.1761474609375 0.63232421875
-0.550201416015625 -0.16015625 0.62689208984375
-0.5589447021484375 -0.1630859375 0.6214599609375
-0.57073974609375 -0.1649169921875 0.61083984375
-0.0699005126953125 0.6187744140625 0.69415283203125
-0.058624267578125 0.6104736328125 0.69805908203125
-0.0553131103515625 0.60693359375 0.703369140625
-0.024017333984375 0.613037109375 0.6951904296875
0.00359344482421875 0.627197265625 0.68902587890625
0.0257415771484375 0.642578125 0.6748046875
-0.53787994384765625 -0.1270751953125 0.63824462890625
-0.53082275390625 -0.1014404296875 0.64849853515625
-0.5228271484375 -0.0723876953125 0.65478515625
-0.5235443115234375 -0.0419921875 0.6568603515625
-0.53179931640625 -0.0396728515625 0.650634765625
-0.5419921875 -0.035888671875 0.64013671875
-0.15882110595703125 0.5628662109375 0.70849609375
-0.14090728759765625 0.554931640625 0.7086181640625
-0.13199615478515625 0.550537109375 0.707275390625
-0.105682373046875 0.557861328125 0.7086181640625
-0.0906219482421875 0.5718994140625 0.70947265625
-0.07080841064453125 0.5872802734375 0.70965576171875
-0.51018524169921875 -0.0172119140625 0.665283203125
-0.50038909912109375 0.005615234375 0.6666259765625
-0.49585723876953125 0.02197265625 0.66802978515625
-0.494903564453125 0.04833984375 0.66363525390625
-0.49810791015625 0.052978515625 0.6585693359375
-0.51114654541015625 0.0621337890625 0.65924072265625
-0.20020294189453125 0.49951171875 0.7080078125
-0.18257904052734375 0.495849609375 0.7088623046875
-0.170135498046875 0.4949951171875 0.70867919921875
-0.155120849609375 0.5096435546875 0.70684814453125
-0.146148681640625 0.520263671875 0.70819091796875
-0.13478851318359375 0.532470703125 0.7073974609375
-0.4819183349609375 0.05419921875 0.67059326171875
-0.480316162109375 0.0701904296875 0.67218017578125
-0.46851348876953125 0.0794677734375 0.6717529296875
-0.45696258544921875 0.0989990234375 0.675537109375
-0.46324920654296875 0.107666015625 0.672119140625
-0.46863555908203125 0.1192626953125 0.6705322265625
-0.15921783447265625 0.447509765625 0.71636962890625
-0.16211700439453125 0.4637451171875 0.71661376953125
-0.16181182861328125 0.4793701171875 0.7122802734375
-0.44356536865234375 0.101318359375 0.6827392578125
-0.4221038818359375 0.109130859375 0.6837158203125
-0.4055023193359375 0.1121826171875 0.68182373046875
-0.1383209228515625 0.4923095703125 0.710205078125
-0.14105224609375 0.4925537109375 0.7093505859375
-0.1507568359375 0.493896484375 0.7122802734375
-0.14571380615234375 0.432373046875 0.71441650390625
-0.13727569580078125 0.4339599609375 0.710205078125
-0.13184356689453125 0.4345703125 0.70758056640625
-0.12621307373046875 0.447509765625 0.70745849609375
-0.12880706787109375 0.4620361328125 0.71295166015625
-0.129302978515625 0.4747314453125 0.710693359375
-0.42844390869140625 0.077880859375 0.677001953125
-0.41605377197265625 0.0831298828125 0.6722412109375
-0.40589141845703125 0.0859375 0.6759033203125
-0.3910675048828125 0.093994140625 0.67822265625
-0.3901214599609375 0.0997314453125 0.682373046875
-0.3925933837890625 0.1058349609375 0.6846923828125
-0.45092010498046875 0.0836181640625 0.68096923828125
-0.44918060302734375 0.0772705078125 0.6787109375
-0.44649505615234375 0.0731201171875 0.6783447265625
-0.10756683349609375 0.5350341796875 0.70660400390625
-0.11421966552734375 0.537353515625 0.709228515625
-0.11771392822265625 0.54296875 0.71124267578125
-0.1273345947265625 0.500244140625 0.70489501953125
-0.12052154541015625 0.5108642578125 0.70294189453125
-0.11119842529296875 0.5223388671875 0.70697021484375
-0.469024658203125 0.0400390625 0.67138671875
-0.4632110595703125 0.0518798828125 0.6719970703125
-0.4529266357421875 0.059814453125 0.6719970703125
-0.486572265625 0.037353515625 0.67132568359375
-0.48455810546875 0.033935546875 0.67144775390625
-0.479949951171875 0.030029296875 0.67095947265625
-0.04364013671875 0.58935546875 0.70458984375
-0.0460357666015625 0.592529296875 0.7060546875
-0.0467071533203125 0.59716796875 0.70758056640625
-0.08953857421875 0.5462646484375 0.7017822265625
-0.076568603515625 0.5579833984375 0.7000732421875
-0.05866241455078125 0.57177734375 0.70306396484375
-0.50029754638671875 -0.0203857421875 0.6673583984375
-0.49326324462890625 -0.00146484375 0.669677734375
-0.48400115966796875 0.0140380859375 0.66900634765625
-0.51439666748046875 -0.0438232421875 0.66534423828125
-0.51096343994140625 -0.04345703125 0.663330078125
-0.50986480712890625 -0.0430908203125 0.666015625
0.0475921630859375 0.6322021484375 0.651611328125
0.0479888916015625 0.6405029296875 0.65692138671875
0.046844482421875 0.6484375 0.65875244140625
-0.022674560546875 0.5946044921875 0.6839599609375
0.000457763671875 0.6055908203125 0.67352294921875
0.02487945556640625 0.6156005859375 0.659912109375
-0.51731109619140625 -0.117919921875 0.6356201171875
-0.5134124755859375 -0.0948486328125 0.64715576171875
-0.512969970703125 -0.06982421875 0.65411376953125
-0.53351593017578125 -0.1500244140625 0.6318359375
-0.52577972412109375 -0.145751953125 0.62969970703125
-0.52158355712890625 -0.143798828125 0.6285400390625
0.10955810546875 0.62158203125 0.62371826171875
0.11368560791015625 0.627197265625 0.62860107421875
0.11792755126953125 0.6346435546875 0.63043212890625
0.0608367919921875 0.627685546875 0.638671875
0.0760955810546875 0.6243896484375 0.62933349609375
0.0930938720703125 0.619873046875 0.6248779296875
-0.51300048828125 -0.18798828125 0.6259765625
-0.5188446044921875 -0.175537109375 0.621337890625
-0.51894378662109375 -0.1612548828125 0.622314453125
-0.516693115234375 -0.2138671875 0.63446044921875
-0.51096343994140625 -0.20947265625 0.6356201171875
-0.50667572021484375 -0.20654296875 0.63128662109375
0.1587677001953125 0.56689453125 0.62884521484375
0.16437530517578125 0.57177734375 0.63006591796875
0.17098236083984375 0.574951171875 0.63165283203125
0.1204681396484375 0.609130859375 0.61944580078125
0.13421630859375 0.5975341796875 0.6201171875
0.1425628662109375 0.582763671875 0.62054443359375
-0.46231842041015625 -0.221923828125 0.641845703125
-0.47882843017578125 -0.2144775390625 0.63531494140625
-0.49291229248046875 -0.2064208984375 0.6339111328125
-0.4477386474609375 -0.2451171875 0.661865234375
-0.4484100341796875 -0.2364501953125 0.65936279296875
-0.44620513916015625 -0.2305908203125 0.65313720703125
0.17227935791015625 0.468505859375 0.64996337890625
0.177337646484375 0.4674072265625 0.6492919921875
0.1837615966796875 0.467529296875 0.6494140625
0.1589508056640625 0.541259765625 0.6280517578125
0.1632843017578125 0.5174560546875 0.63323974609375
0.16518402099609375 0.4913330078125 0.636962890625
-0.35671234130859375 -0.2120361328125 0.67559814453125
-0.385894775390625 -0.2216796875 0.66650390625
-0.4127349853515625 -0.2269287109375 0.65911865234375
-0.3245697021484375 -0.2147216796875 0.69830322265625
-0.3276519775390625 -0.20947265625 0.69390869140625
-0.32843017578125 -0.202392578125 0.69171142578125
0.14559173583984375 0.3834228515625 0.6790771484375
0.15032958984375 0.3819580078125 0.6815185546875
0.153228759765625 0.38134765625 0.6839599609375
0.16596221923828125 0.4462890625 0.65252685546875
0.1618804931640625 0.425048828125 0.6597900390625
0.1534881591796875 0.405029296875 0.6649169921875
-0.27419281005859375 -0.161865234375 0.7091064453125
-0.29129791259765625 -0.1751708984375 0.69573974609375
-0.3050384521484375 -0.1890869140625 0.69610595703125
-0.2460174560546875 -0.1490478515625 0.72540283203125
-0.24993896484375 -0.144775390625 0.72161865234375
-0.2545166015625 -0.144287109375 0.71563720703125
0.06368255615234375 0.3221435546875 0.69598388671875
0.06606292724609375 0.3170166015625 0.7017822265625
0.06792449951171875 0.311279296875 0.70501708984375
0.12462615966796875 0.365478515625 0.685302734375
0.1061248779296875 0.3492431640625 0.6866455078125
0.08687591552734375 0.3358154296875 0.689697265625
-0.22817230224609375 -0.0643310546875 0.7139892578125
-0.2363433837890625 -0.08984375 0.7166748046875
-0.2471771240234375 -0.1177978515625 0.717041015625
-0.2071075439453125 -0.040283203125 0.73480224609375
-0.21630859375 -0.03857421875 0.73065185546875
-0.21886444091796875 -0.041259765625 0.72216796875
0.00330352783203125 0.312255859375 0.705322265625
0.00327301025390625 0.3065185546875 0.710693359375
0.00244903564453125 0.3026123046875 0.716796875
0.04541015625 0.314208984375 0.69879150390625
0.02911376953125 0.3118896484375 0.70294189453125
0.01375579833984375 0.312744140625 0.7042236328125
-0.22554779052734375 0.0037841796875 0.711669921875
-0.22129058837890625 -0.007568359375 0.715576171875
-0.22122955322265625 -0.0247802734375 0.71478271484375
-0.2158660888671875 0.0203857421875 0.72406005859375
-0.2177886962890625 0.02001953125 0.720458984375
-0.2230072021484375 0.018310546875 0.71728515625
-0.108154296875 0.3751220703125 0.724365234375
-0.1083984375 0.376953125 0.71923828125
-0.102935791015625 0.3795166015625 0.71142578125
-0.108795166015625 0.3936767578125 0.7047119140625
-0.117156982421875 0.40478515625 0.701416015625
-0.12090301513671875 0.4188232421875 0.7060546875
-0.3750457763671875 0.087890625 0.67254638671875
-0.3588409423828125 0.0887451171875 0.67816162109375
-0.3384857177734375 0.0872802734375 0.68115234375
-0.32248687744140625 0.087890625 0.69720458984375
-0.32036590576171875 0.0926513671875 0.700927734375
-0.31880950927734375 0.0975341796875 0.70513916015625
-0.05666351318359375 0.32470703125 0.71759033203125
-0.05275726318359375 0.3291015625 0.7130126953125
-0.05251312255859375 0.332763671875 0.705810546875
-0.0628814697265625 0.3453369140625 0.699462890625
-0.0768585205078125 0.3551025390625 0.7003173828125
-0.0915069580078125 0.3665771484375 0.70220947265625
-0.3079376220703125 0.080322265625 0.68780517578125
-0.28784942626953125 0.07177734375 0.6904296875
-0.27306365966796875 0.062255859375 0.69439697265625
-0.25916290283203125 0.057373046875 0.70489501953125
-0.25089263916015625 0.0611572265625 0.70989990234375
-0.248138427734375 0.064208984375 0.717041015625
-0.00977325439453125 0.319580078125 0.6944580078125
-0.02251434326171875 0.32275390625 0.697998046875
-0.03699493408203125 0.328857421875 0.6962890625
-0.25321197509765625 0.04638671875 0.69927978515625
-0.24524688720703125 0.035400390625 0.70196533203125
-0.23531341552734375 0.0267333984375 0.70452880859375
-0.318572998046875 0.296630859375 0.5770263671875
-0.31850433349609375 0.2952880859375 0.60186767578125
-0.3172149658203125 0.2972412109375 0.62908935546875
-0.32757568359375 0.3934326171875 0.64697265625
-0.31748199462890625 0.3974609375 0.60980224609375
-0.30358123779296875 0.408203125 0.5804443359375
-0.2937164306640625 0.375 0.55169677734375
-0.30135345458984375 0.3414306640625 0.55657958984375
-0.3103485107421875 0.3193359375 0.552978515625
-0.3345184326171875 0.2845458984375 0.5465087890625
-0.35106658935546875 0.267822265625 0.5413818359375
-0.382904052734375 0.254638671875 0.546630859375
-0.4131317138671875 0.2513427734375 0.55303955078125
-0.41283416748046875 0.2642822265625 0.58843994140625
-0.411956787109375 0.2705078125 0.619384765625
-0.38720703125 0.5572509765625 0.6583251953125
-0.3770294189453125 0.5584716796875 0.63507080078125
-0.36273956298828125 0.5589599609375 0.6121826171875
-0.33231353759765625 0.5411376953125 0.5904541015625
-0.3196563720703125 0.50830078125 0.5848388671875
-0.3024444580078125 0.4713134765625 0.578125
-0.47243499755859375 0.2322998046875 0.522705078125
-0.50000762939453125 0.237060546875 0.518310546875
-0.5326080322265625 0.2437744140625 0.515869140625
-0.56069183349609375 0.2646484375 0.52215576171875
-0.5675201416015625 0.2794189453125 0.5418701171875
-0.5721282958984375 0.28515625 0.5791015625
-0.32436370849609375 0.6773681640625 0.65362548828125
-0.31598663330078125 0.6768798828125 0.63116455078125
-0.3071746826171875 0.6673583984375 0.60687255859375
-0.31052398681640625 0.6441650390625 0.58929443359375
-0.3284454345703125 0.6136474609375 0.58819580078125
-0.342742919921875 0.5870361328125 0.5947265625
-0.574462890625 0.237548828125 0.49072265625
-0.60013580322265625 0.2181396484375 0.480224609375
-0.62256622314453125 0.1978759765625 0.47320556640625
-0.65489959716796875 0.1768798828125 0.486083984375
-0.66680145263671875 0.1827392578125 0.4998779296875
-0.6737518310546875 0.1864013671875 0.5301513671875
-0.15628814697265625 0.7403564453125 0.64227294921875
-0.1474456787109375 0.734375 0.6107177734375
-0.146331787109375 0.7191162109375 0.57891845703125
-0.20038604736328125 0.6761474609375 0.56927490234375
-0.23992156982421875 0.66943359375 0.5828857421875
-0.2727813720703125 0.6629638671875 0.590087890625
-0.6390838623046875 0.14892578125 0.4654541015625
-0.62929534912109375 0.1143798828125 0.46087646484375
-0.62258148193359375 0.073974609375 0.44866943359375
-0.6549835205078125 0.007080078125 0.44830322265625
-0.675750732421875 0.0057373046875 0.464111328125
-0.68675994873046875 0.0057373046875 0.5020751953125
0.02623748779296875 0.828857421875 0.58831787109375
0.027099609375 0.8204345703125 0.5572509765625
0.03099822998046875 0.8160400390625 0.51959228515625
-0.003662109375 0.7840576171875 0.50604248046875
-0.04392242431640625 0.760498046875 0.514404296875
-0.093505859375 0.7283935546875 0.52459716796875
-0.64430999755859375 -0.0484619140625 0.40814208984375
-0.657867431640625 -0.103759765625 0.39495849609375
-0.66699981689453125 -0.1510009765625 0.37640380859375
-0.692169189453125 -0.1922607421875 0.3997802734375
-0.703887939453125 -0.1954345703125 0.43377685546875
-0.71071624755859375 -0.197998046875 0.46527099609375
0.1650543212890625 0.8582763671875 0.5318603515625
0.16480255126953125 0.8511962890625 0.50103759765625
0.1631927490234375 0.8392333984375 0.46942138671875
0.127410888671875 0.8353271484375 0.4552001953125
0.0975341796875 0.8341064453125 0.466064453125
0.06484222412109375 0.821044921875 0.4774169921875
-0.68854522705078125 -0.2298583984375 0.3636474609375
-0.696197509765625 -0.265625 0.35345458984375
-0.69232177734375 -0.299560546875 0.350341796875
-0.69286346435546875 -0.3382568359375 0.38287353515625
-0.70294952392578125 -0.3408203125 0.41546630859375
-0.7110443115234375 -0.345458984375 0.44671630859375
0.30670166015625 0.6988525390625 0.39593505859375
0.30548858642578125 0.6934814453125 0.37548828125
0.2964324951171875 0.687255859375 0.34271240234375
0.262664794921875 0.738037109375 0.33056640625
0.2269744873046875 0.7794189453125 0.36663818359375
0.19205474853515625 0.81201171875 0.403564453125
-0.6609649658203125 -0.3658447265625 0.349365234375
-0.6288299560546875 -0.3995361328125 0.34619140625
-0.57879638671875 -0.427490234375 0.35296630859375
-0.53658294677734375 -0.447265625 0.4052734375
-0.53604888916015625 -0.45166015625 0.441162109375
-0.5357208251953125 -0.450927734375 0.46881103515625
0.3431854248046875 0.470947265625 0.41748046875
0.33542633056640625 0.465576171875 0.3807373046875
0.3307952880859375 0.459716796875 0.3499755859375
0.33547210693359375 0.5115966796875 0.29681396484375
0.327178955078125 0.5703125 0.29571533203125
0.31345367431640625 0.6270751953125 0.29302978515625
-0.5001373291015625 -0.461669921875 0.3790283203125
-0.45497894287109375 -0.460693359375 0.3955078125
-0.3943939208984375 -0.4617919921875 0.41436767578125
-0.331024169921875 -0.4364013671875 0.47625732421875
-0.32604217529296875 -0.42919921875 0.51568603515625
-0.32770538330078125 -0.4278564453125 0.5455322265625
0.3019866943359375 0.2645263671875 0.46136474609375
0.30190277099609375 0.2603759765625 0.433349609375
0.29521942138671875 0.2542724609375 0.41229248046875
0.30930328369140625 0.2950439453125 0.355224609375
0.3175506591796875 0.3460693359375 0.32818603515625
0.32804107666015625 0.4013671875 0.3131103515625
-0.2862396240234375 -0.430908203125 0.44390869140625
-0.2458038330078125 -0.407470703125 0.45635986328125
-0.19793701171875 -0.382568359375 0.470947265625
-0.1506195068359375 -0.3443603515625 0.52069091796875
-0.14874267578125 -0.3438720703125 0.54400634765625
-0.14882659912109375 -0.3369140625 0.57012939453125
0.3996124267578125 -0.3082275390625 0.34124755859375
0.38506317138671875 -0.3399658203125 0.35101318359375
0.3739166259765625 -0.369873046875 0.35699462890625
0.33144378662109375 -0.372314453125 0.3580322265625
0.3072509765625 -0.3580322265625 0.34295654296875
0.28736114501953125 -0.3455810546875 0.32708740234375
0.29677581787109375 -0.310302734375 0.29150390625
0.3115386962890625 -0.27685546875 0.27923583984375
0.3209228515625 -0.23681640625 0.27978515625
0.34491729736328125 -0.21337890625 0.30078125
0.3651885986328125 -0.23046875 0.30902099609375
0.38013458251953125 -0.25146484375 0.3251953125
0.24269866943359375 -0.43359375 0.40478515625
0.2160797119140625 -0.424560546875 0.3905029296875
0.19147491455078125 -0.4151611328125 0.3837890625
0.1964263916015625 -0.402587890625 0.34619140625
0.22684478759765625 -0.3873291015625 0.328125
0.249481201171875 -0.3648681640625 0.32269287109375
0.33794403076171875 -0.4132080078125 0.3812255859375
0.31746673583984375 -0.4293212890625 0.39752197265625
0.290191650390625 -0.444580078125 0.40972900390625
0.53137969970703125 -0.4327392578125 0.37030029296875
0.51947784423828125 -0.4608154296875 0.37847900390625
0.5017242431640625 -0.4896240234375 0.39483642578125
0.4591522216796875 -0.4759521484375 0.39605712890625
0.42407989501953125 -0.443603515625 0.3814697265625
0.38295745849609375 -0.4185791015625 0.37646484375
0.43909454345703125 -0.3035888671875 0.34576416015625
0.4725494384765625 -0.3375244140625 0.35101318359375
0.5121002197265625 -0.37109375 0.35162353515625
0.3748931884765625 -0.53955078125 0.46673583984375
0.34114837646484375 -0.5098876953125 0.45166015625
0.30643463134765625 -0.4759521484375 0.44085693359375
0.47284698486328125 -0.5286865234375 0.42791748046875
0.45407867431640625 -0.5394287109375 0.44305419921875
0.4324493408203125 -0.5546875 0.46075439453125
0.6598663330078125 -0.4959716796875 0.42041015625
0.644134521484375 -0.5216064453125 0.44793701171875
0.63016510009765625 -0.550048828125 0.465576171875
0.58754730224609375 -0.564453125 0.46173095703125
0.55785369873046875 -0.5477294921875 0.44573974609375
0.5216827392578125 -0.532958984375 0.4229736328125
0.57762908935546875 -0.4176025390625 0.36358642578125
0.60779571533203125 -0.437255859375 0.371337890625
0.64281463623046875 -0.46142578125 0.3885498046875
0.49878692626953125 -0.646484375 0.52679443359375
0.46802520751953125 -0.626220703125 0.51171875
0.43744659423828125 -0.6005859375 0.4925537109375
0.593109130859375 -0.5963134765625 0.50567626953125
0.5704193115234375 -0.6182861328125 0.5213623046875
0.54621124267578125 -0.6409912109375 0.53961181640625
0.697479248046875 -0.4742431640625 0.41796875
0.71562957763671875 -0.4691162109375 0.44000244140625
0.724029541015625 -0.4603271484375 0.4625244140625
0.6576080322265625 -0.5570068359375 0.564453125
0.64530181884765625 -0.5667724609375 0.5382080078125
0.633819580078125 -0.5726318359375 0.51385498046875
0.5660400390625 -0.655029296875 0.627197265625
0.55352020263671875 -0.662353515625 0.60528564453125
0.54051971435546875 -0.6668701171875 0.57928466796875
0.724822998046875 -0.38037109375 0.3460693359375
0.74436187744140625 -0.3740234375 0.35772705078125
0.7596282958984375 -0.370361328125 0.3807373046875
0.6891326904296875 -0.4462890625 0.3760986328125
0.69922637939453125 -0.4222412109375 0.35870361328125
0.70606231689453125 -0.4000244140625 0.34539794921875
0.4565887451171875 -0.7091064453125 0.5904541015625
0.47579193115234375 -0.702880859375 0.57891845703125
0.49738311767578125 -0.68359375 0.5706787109375
0.47449493408203125 -0.720947265625 0.66754150390625
0.4600982666015625 -0.7269287109375 0.64166259765625
0.45092010498046875 -0.7196044921875 0.61767578125
0.6444244384765625 -0.2769775390625 0.33416748046875
0.6762542724609375 -0.2744140625 0.35369873046875
0.703125 -0.274169921875 0.37890625
0.6950836181640625 -0.3701171875 0.3291015625
0.67360687255859375 -0.34619140625 0.326171875
0.641754150390625 -0.3162841796875 0.32550048828125
0.37249755859375 -0.6641845703125 0.5760498046875
0.4006195068359375 -0.686767578125 0.58154296875
0.42600250244140625 -0.70703125 0.590576171875
0.38678741455078125 -0.6712646484375 0.67108154296875
0.3643035888671875 -0.6640625 0.63507080078125
0.3500823974609375 -0.6522216796875 0.595458984375
0.50959014892578125 -0.1666259765625 0.36444091796875
0.5440216064453125 -0.155029296875 0.38983154296875
0.5821685791015625 -0.1513671875 0.420166015625
0.57178497314453125 -0.2579345703125 0.33673095703125
0.5390472412109375 -0.2335205078125 0.3343505859375
0.50763702392578125 -0.2061767578125 0.34149169921875
0.24669647216796875 -0.5283203125 0.52093505859375
0.278289794921875 -0.56787109375 0.540771484375
0.3101806640625 -0.601318359375 0.5501708984375
0.27022552490234375 -0.5460205078125 0.6458740234375
0.24611663818359375 -0.5318603515625 0.6016845703125
0.22716522216796875 -0.514892578125 0.5592041015625
0.58518218994140625 -0.3043212890625 0.32867431640625
0.568145751953125 -0.33203125 0.334228515625
0.5570068359375 -0.3643798828125 0.3446044921875
0.42151641845703125 -0.24365234375 0.33489990234375
0.43375396728515625 -0.2158203125 0.342529296875
0.454925537109375 -0.1907958984375 0.34417724609375
0.21893310546875 -0.483642578125 0.49273681640625
0.23207855224609375 -0.471923828125 0.4654541015625
0.2505340576171875 -0.4609375 0.44317626953125
0.38315582275390625 -0.5867919921875 0.4891357421875
0.36058807373046875 -0.6043701171875 0.50921630859375
0.34670257568359375 -0.620361328125 0.53240966796875
0.33518218994140625 -0.1632080078125 0.28857421875
0.342803955078125 -0.1285400390625 0.31121826171875
0.34865570068359375 -0.0968017578125 0.33990478515625
0.38454437255859375 -0.0927734375 0.36517333984375
0.411834716796875 -0.1185302734375 0.3590087890625
0.43842315673828125 -0.145751953125 0.35272216796875
0.19187164306640625 -0.4696044921875 0.5269775390625
0.1684112548828125 -0.441650390625 0.5166015625
0.14820098876953125 -0.4208984375 0.52001953125
0.133209228515625 -0.4027099609375 0.46649169921875
0.1428985595703125 -0.4068603515625 0.42584228515625
0.1528167724609375 -0.412353515625 0.38446044921875
0.3845977783203125 -0.0587158203125 0.3922119140625
0.40819549560546875 -0.04638671875 0.41986083984375
0.43029022216796875 -0.034423828125 0.45355224609375
0.1454315185546875 -0.41552734375 0.6336669921875
0.13368988037109375 -0.4090576171875 0.59521484375
0.12646484375 -0.4039306640625 0.55706787109375
0.3318023681640625 0.0137939453125 0.47515869140625
0.32181549072265625 0.0064697265625 0.45306396484375
0.3058319091796875 -0.000732421875 0.41796875
0.28887176513671875 0.0223388671875 0.387939453125
0.27944183349609375 0.039306640625 0.40362548828125
0.27123260498046875 0.051513671875 0.42144775390625
0.2652130126953125 0.04931640625 0.45501708984375
0.2685546875 0.0440673828125 0.4765625
0.27349090576171875 0.045654296875 0.50030517578125
0.04430389404296875 -0.261962890625 0.58966064453125
0.03816986083984375 -0.2679443359375 0.56707763671875
0.0290679931640625 -0.27099609375 0.5479736328125
0.01584625244140625 -0.2926025390625 0.51611328125
0.02823638916015625 -0.3067626953125 0.5035400390625
0.037200927734375 -0.3245849609375 0.48583984375
0.07183837890625 -0.3265380859375 0.52117919921875
0.07633209228515625 -0.3232421875 0.56353759765625
0.085479736328125 -0.3203125 0.593994140625
0.342529296875 -0.060791015625 0.3702392578125
0.32740020751953125 -0.04736328125 0.37042236328125
0.31206512451171875 -0.0321044921875 0.36578369140625
0.08126068115234375 -0.34716796875 0.474853515625
0.09588623046875 -0.3624267578125 0.4866943359375
0.1096038818359375 -0.3822021484375 0.5037841796875
0.24505615234375 0.099609375 0.474365234375
0.244598388671875 0.0980224609375 0.48712158203125
0.24280548095703125 0.10009765625 0.5084228515625
0.25707244873046875 0.06787109375 0.44793701171875
0.24883270263671875 0.0751953125 0.455810546875
0.2454833984375 0.0880126953125 0.4609375
-0.00771331787109375 -0.2513427734375 0.542724609375
-0.00031280517578125 -0.25439453125 0.53924560546875
0.00434112548828125 -0.2650146484375 0.53436279296875
-0.003082275390625 -0.2366943359375 0.5965576171875
-0.0079498291015625 -0.2430419921875 0.570068359375
-0.01291656494140625 -0.2493896484375 0.556884765625
0.246551513671875 0.1246337890625 0.45770263671875
0.25676727294921875 0.1558837890625 0.44708251953125
0.27057647705078125 0.191650390625 0.42767333984375
-0.10174560546875 -0.3101806640625 0.51898193359375
-0.06755828857421875 -0.28515625 0.53466796875
-0.0408782958984375 -0.2667236328125 0.54351806640625
-0.021881103515625 -0.2913818359375 -0.58984375
-0.047119140625 -0.2415771484375 -0.642822265625
-0.0833740234375 -0.17919921875 -0.68402099609375
-0.0645904541015625 -0.0333251953125 -0.7130126953125
-0.02077484130859375 0.024658203125 -0.7003173828125
0.03343963623046875 0.080810546875 -0.67474365234375
0.0986785888671875 0.0574951171875 -0.6318359375
0.1138153076171875 0.005615234375 -0.600341796875
0.1273345947265625 -0.0330810546875 -0.56793212890625
0.11925506591796875 -0.1304931640625 -0.54376220703125
0.08565521240234375 -0.200927734375 -0.5479736328125
0.0414886474609375 -0.271240234375 -0.54669189453125
-0.04233551025390625 -0.390869140625 -0.52020263671875
-0.08342742919921875 -0.4364013671875 -0.4794921875
-0.1275787353515625 -0.475341796875 -0.4530029296875
-0.19567108154296875 -0.4664306640625 -0.48089599609375
-0.21199798583984375 -0.430419921875 -0.5216064453125
-0.23827362060546875 -0.3858642578125 -0.56854248046875
-0.24334716796875 -0.2835693359375 -0.6385498046875
-0.20221710205078125 -0.227294921875 -0.678955078125
-0.15673828125 -0.1656494140625 -0.70330810546875
0.102569580078125 -0.4002685546875 -0.31610107421875
0.06401824951171875 -0.3857421875 -0.4022216796875
0.0298004150390625 -0.3624267578125 -0.477783203125
0.1681671142578125 -0.09033203125 -0.47357177734375
0.19663238525390625 -0.1180419921875 -0.40570068359375
0.22231292724609375 -0.1390380859375 -0.33135986328125
0.227752685546875 -0.219482421875 -0.24200439453125
0.20041656494140625 -0.2862548828125 -0.2440185546875
0.1686859130859375 -0.34716796875 -0.23577880859375
0.09407806396484375 -0.447265625 -0.2032470703125
0.054443359375 -0.4833984375 -0.1876220703125
0.00807952880859375 -0.5126953125 -0.1575927734375
-0.06551361083984375 -0.5384521484375 -0.2210693359375
-0.10826873779296875 -0.53662109375 -0.30572509765625
-0.1367034912109375 -0.5240478515625 -0.36077880859375
0.21598052978515625 -0.3681640625 0.07196044921875
0.19341278076171875 -0.3814697265625 -0.02435302734375
0.162841796875 -0.402099609375 -0.12322998046875
0.2684326171875 -0.1641845703125 -0.156982421875
0.28696441650390625 -0.1641845703125 -0.056884765625
0.29653167724609375 -0.159912109375 0.03631591796875
0.29308319091796875 -0.2154541015625 0.1248779296875
0.277923583984375 -0.2659912109375 0.13201904296875
0.255126953125 -0.313232421875 0.14422607421875
0.202545166015625 -0.3880615234375 0.170654296875
0.16507720947265625 -0.415771484375 0.1868896484375
0.133819580078125 -0.4366455078125 0.21051025390625
0.06552886962890625 -0.4757080078125 0.13836669921875
0.03260040283203125 -0.4962158203125 0.04248046875
-0.002227783203125 -0.5233154296875 -0.049560546875
0.2649078369140625 -0.3355712890625 0.2891845703125
0.25528717041015625 -0.3367919921875 0.25982666015625
0.2449951171875 -0.3427734375 0.21875
0.30995941162109375 -0.1688232421875 0.1959228515625
0.315643310546875 -0.1800537109375 0.23199462890625
0.3177947998046875 -0.18994140625 0.25531005859375
0.15685272216796875 -0.41015625 0.34832763671875
0.137969970703125 -0.4166259765625 0.32281494140625
0.11887359619140625 -0.425048828125 0.29718017578125
0.30816650390625 -0.107666015625 0.207275390625
0.30509185791015625 -0.0767822265625 0.26348876953125
0.304351806640625 -0.0404052734375 0.30682373046875
0.0667877197265625 -0.370849609375 0.4119873046875
0.07170867919921875 -0.3955078125 0.36798095703125
0.076995849609375 -0.423583984375 0.3154296875
0.285797119140625 0.7078857421875 0.144287109375
0.2912750244140625 0.6942138671875 0.19598388671875
0.29151153564453125 0.685302734375 0.25408935546875
0.33492279052734375 0.448974609375 0.24285888671875
0.34283447265625 0.4464111328125 0.17327880859375
0.3519134521484375 0.4403076171875 0.09423828125
0.351348876953125 0.5184326171875 0.01763916015625
0.3337249755859375 0.595947265625 0.03350830078125
0.305145263671875 0.66357421875 0.05987548828125
-0.546600341796875 -0.5087890625 0.1298828125
-0.50298309326171875 -0.53759765625 0.147705078125
-0.45644378662109375 -0.557861328125 0.162841796875
-0.37561798095703125 -0.53076171875 0.23394775390625
-0.37115478515625 -0.493896484375 0.30908203125
-0.35437774658203125 -0.4658203125 0.3699951171875
-0.54367828369140625 -0.4547119140625 0.30572509765625
-0.5607452392578125 -0.462646484375 0.24609375
-0.57640838623046875 -0.4693603515625 0.187744140625
-0.14910888671875 -0.0040283203125 -0.74237060546875
-0.18242645263671875 0.096923828125 -0.75360107421875
-0.226654052734375 0.2047119140625 -0.76959228515625
-0.21622467041015625 0.3809814453125 -0.72821044921875
-0.15328216552734375 0.4493408203125 -0.70147705078125
-0.09493255615234375 0.4996337890625 -0.6513671875
-0.0083160400390625 0.4302978515625 -0.6405029296875
0.0150299072265625 0.3209228515625 -0.66046142578125
0.04480743408203125 0.221435546875 -0.65338134765625
-0.319488525390625 -0.2698974609375 -0.63525390625
-0.3636322021484375 -0.201171875 -0.65606689453125
-0.41457366943359375 -0.1292724609375 -0.67852783203125
-0.43011474609375 0.0361328125 -0.70782470703125
-0.3861083984375 0.12646484375 -0.73651123046875
-0.3380889892578125 0.2208251953125 -0.7490234375
-0.56243133544921875 0.6495361328125 -0.0726318359375
-0.5602569580078125 0.625732421875 0.00445556640625
-0.5537261962890625 0.59326171875 0.08758544921875
-0.4771575927734375 0.642578125 0.18255615234375
-0.41091156005859375 0.7176513671875 0.2061767578125
-0.35366058349609375 0.7821044921875 0.2103271484375
-0.30522918701171875 0.8682861328125 0.14312744140625
-0.30963897705078125 0.8968505859375 0.0867919921875
-0.31085968017578125 0.9150390625 0.01806640625
-0.36095428466796875 0.877197265625 -0.07080078125
-0.4215087890625 0.818359375 -0.09185791015625
-0.4845428466796875 0.7496337890625 -0.12237548828125
-0.60630035400390625 0.5865478515625 -0.1768798828125
-0.65550994873046875 0.4937744140625 -0.21954345703125
-0.69300079345703125 0.4088134765625 -0.25079345703125
-0.73809814453125 0.3079833984375 -0.2017822265625
-0.743316650390625 0.2877197265625 -0.12255859375
-0.7378692626953125 0.2628173828125 -0.05242919921875
-0.6905670166015625 0.3046875 0.06524658203125
-0.6478729248046875 0.3870849609375 0.0947265625
-0.5958251953125 0.473388671875 0.12640380859375
-0.48502349853515625 0.6524658203125 -0.42913818359375
-0.51174163818359375 0.6678466796875 -0.337158203125
-0.53231048583984375 0.6754150390625 -0.2418212890625
-0.29042816162109375 0.9332275390625 -0.1279296875
-0.26439666748046875 0.922119140625 -0.20111083984375
-0.2452850341796875 0.9053955078125 -0.28448486328125
-0.275634765625 0.8221435546875 -0.39697265625
-0.33056640625 0.7633056640625 -0.4251708984375
-0.38996124267578125 0.696533203125 -0.48748779296875
-0.5045166015625 0.5328369140625 -0.53411865234375
-0.56182861328125 0.4403076171875 -0.54547119140625
-0.6035919189453125 0.3458251953125 -0.5325927734375
-0.67697906494140625 0.2952880859375 -0.4779052734375
-0.70128631591796875 0.3214111328125 -0.4088134765625
-0.720672607421875 0.3240966796875 -0.34295654296875
-0.32233428955078125 0.401123046875 -0.72259521484375
-0.3655548095703125 0.488037109375 -0.663330078125
-0.4110107421875 0.5618896484375 -0.59844970703125
-0.17775726318359375 0.804931640625 -0.451416015625
-0.1266021728515625 0.72802734375 -0.5198974609375
-0.0862884521484375 0.6435546875 -0.58013916015625
-0.51314544677734375 0.0408935546875 -0.66436767578125
-0.561920166015625 0.12646484375 -0.63311767578125
-0.60382080078125 0.1973876953125 -0.59417724609375
0.02288055419921875 0.7835693359375 0.36773681640625
0.0287322998046875 0.7841796875 0.41033935546875
0.03105926513671875 0.7916259765625 0.448486328125
0.1511077880859375 0.8214111328125 0.402099609375
0.14629364013671875 0.810791015625 0.35809326171875
0.1401214599609375 0.8116455078125 0.3226318359375
0.09943389892578125 0.819091796875 0.30169677734375
0.0711822509765625 0.811279296875 0.304931640625
0.04238128662109375 0.8050537109375 0.31304931640625
-0.675689697265625 -0.191162109375 0.18170166015625
-0.6762237548828125 -0.2261962890625 0.1842041015625
-0.6762847900390625 -0.258056640625 0.18682861328125
-0.663177490234375 -0.3067626953125 0.22821044921875
-0.66255950927734375 -0.3131103515625 0.2779541015625
-0.67070770263671875 -0.32373046875 0.3118896484375
-0.662689208984375 -0.1917724609375 0.33184814453125
-0.6544036865234375 -0.1824951171875 0.29437255859375
-0.65547943115234375 -0.173828125 0.24188232421875
-0.05097198486328125 0.883544921875 0.18316650390625
-0.02628326416015625 0.849609375 0.23284912109375
-0.00417327880859375 0.8172607421875 0.276611328125
0.12154388427734375 0.8321533203125 0.24468994140625
0.10359954833984375 0.85888671875 0.20538330078125
0.09133148193359375 0.8902587890625 0.15777587890625
0.040374755859375 0.92578125 0.13409423828125
0.00519561767578125 0.928955078125 0.14202880859375
-0.038238525390625 0.92578125 0.14202880859375
-0.75579833984375 -0.0732421875 -0.0753173828125
-0.7547760009765625 -0.1328125 -0.0614013671875
-0.75586700439453125 -0.1868896484375 -0.05255126953125
-0.7274627685546875 -0.251953125 0.020263671875
-0.71435546875 -0.268310546875 0.077880859375
-0.68726348876953125 -0.281982421875 0.12872314453125
-0.682891845703125 -0.1202392578125 0.1207275390625
-0.70784759521484375 -0.083740234375 0.05377197265625
-0.72620391845703125 -0.0537109375 -0.01104736328125
-0.0964508056640625 0.9779052734375 -0.018310546875
-0.09864044189453125 0.963134765625 0.03643798828125
-0.09111785888671875 0.94677734375 0.09259033203125
0.0708770751953125 0.93505859375 0.07623291015625
0.064483642578125 0.947021484375 0.02581787109375
0.0695953369140625 0.9512939453125 -0.025634765625
0.02466583251953125 0.96826171875 -0.077392578125
-0.0069122314453125 0.9808349609375 -0.07806396484375
-0.04714202880859375 0.98486328125 -0.0826416015625
-0.77129364013671875 -0.0262451171875 -0.34149169921875
-0.77715301513671875 -0.08447265625 -0.33135986328125
-0.779083251953125 -0.1436767578125 -0.309814453125
-0.7714080810546875 -0.205078125 -0.2349853515625
-0.76995849609375 -0.21044921875 -0.1739501953125
-0.76448822021484375 -0.2225341796875 -0.11273193359375
-0.76788330078125 0.0008544921875 -0.148681640625
-0.777374267578125 0.021484375 -0.22808837890625
-0.7749786376953125 0.0316162109375 -0.290283203125
-0.0442962646484375 0.945068359375 -0.2757568359375
-0.067474365234375 0.9638671875 -0.21728515625
-0.0876007080078125 0.9781494140625 -0.14593505859375
0.07851409912109375 0.9447021484375 -0.13653564453125
0.08661651611328125 0.92822265625 -0.1942138671875
0.09409332275390625 0.90771484375 -0.239501953125
0.0787811279296875 0.89599609375 -0.29473876953125
0.05324554443359375 0.8995361328125 -0.30474853515625
0.01727294921875 0.903076171875 -0.3197021484375
-0.70516204833984375 -0.093994140625 -0.52490234375
-0.703399658203125 -0.1533203125 -0.496337890625
-0.715850830078125 -0.2010498046875 -0.46832275390625
-0.7303924560546875 -0.22802734375 -0.42779541015625
-0.7472076416015625 -0.21533203125 -0.39276123046875
-0.759674072265625 -0.2093505859375 -0.34442138671875
-0.7610931396484375 0.0343017578125 -0.400634765625
-0.7487030029296875 0.025634765625 -0.45513916015625
-0.72670745849609375 0.005126953125 -0.50531005859375
0.1230010986328125 0.856201171875 -0.2996826171875
0.15625762939453125 0.8043212890625 -0.32745361328125
0.18758392333984375 0.7447509765625 -0.3603515625
0.19474029541015625 0.6456298828125 -0.42156982421875
0.168670654296875 0.6224365234375 -0.45672607421875
0.13822174072265625 0.6082763671875 -0.48626708984375
0.07649993896484375 0.6834716796875 -0.48260498046875
0.0421905517578125 0.7706298828125 -0.43878173828125
0.0096435546875 0.8406982421875 -0.39251708984375
-0.65857696533203125 -0.086669921875 -0.56427001953125
-0.630584716796875 -0.1500244140625 -0.57720947265625
-0.585693359375 -0.2220458984375 -0.576171875
-0.5478363037109375 -0.3299560546875 -0.53656005859375
-0.56732940673828125 -0.3756103515625 -0.49578857421875
-0.58216094970703125 -0.4163818359375 -0.463134765625
-0.64345550537109375 -0.3812255859375 -0.44134521484375
-0.67859649658203125 -0.3250732421875 -0.442626953125
-0.70233917236328125 -0.2755126953125 -0.4468994140625
0.0714569091796875 0.586669921875 -0.5479736328125
0.03777313232421875 0.5780029296875 -0.56903076171875
-0.000396728515625 0.563720703125 -0.590087890625
-0.159912109375 0.8924560546875 -0.34912109375
