# XYZ point cloud file
-0.30731201171875 0.197296142578125 0.55615234375
-0.3123779296875 0.20538330078125 0.546142578125
-0.3282470703125 0.185028076171875 0.54510498046875
-0.303466796875 0.184112548828125 0.56854248046875
0.18560791015625 0.502105712890625 0.59063720703125
0.1876220703125 0.49151611328125 0.593994140625
0.19305419921875 0.509246826171875 0.5867919921875
0.1788330078125 0.50457763671875 0.5916748046875
0.1748046875 0.489776611328125 0.5987548828125
0.198974609375 0.497802734375 0.58905029296875
0.183837890625 0.516143798828125 0.58392333984375
-0.330078125 0.1492919921875 0.5625
-0.3388671875 0.145263671875 0.55499267578125
-0.32623291015625 0.143218994140625 0.5701904296875
-0.32611083984375 0.15814208984375 0.563232421875
-0.33673095703125 0.158660888671875 0.55059814453125
-0.33660888671875 0.1351318359375 0.56329345703125
-0.31304931640625 0.154327392578125 0.576416015625
0.19500732421875 -0.539886474609375 0.72149658203125
0.21624755859375 -0.530792236328125 0.705078125
0.19659423828125 -0.526702880859375 0.73358154296875
0.174560546875 -0.550567626953125 0.7396240234375
0.19097900390625 -0.555206298828125 0.708984375
0.212890625 -0.54443359375 0.6915283203125
0.21649169921875 -0.5174560546875 0.71685791015625
0.17840576171875 -0.5352783203125 0.7498779296875
0.17108154296875 -0.565216064453125 0.7283935546875
0.1063232421875 -0.577880859375 0.7841796875
0.112548828125 -0.561614990234375 0.793212890625
0.08148193359375 -0.58416748046875 0.795166015625
0.1005859375 -0.59259033203125 0.77374267578125
0.1287841796875 -0.56793212890625 0.7705078125
0.13427734375 -0.554779052734375 0.77947998046875
0.0894775390625 -0.5665283203125 0.804931640625
0.075439453125 -0.598419189453125 0.78485107421875
0.12518310546875 -0.584564208984375 0.7598876953125
0.26043701171875 -0.5025634765625 0.66033935546875
0.2706298828125 -0.492279052734375 0.6494140625
0.2584228515625 -0.4879150390625 0.67718505859375
0.24755859375 -0.511444091796875 0.6728515625
0.26080322265625 -0.51776123046875 0.6422119140625
0.27227783203125 -0.50592041015625 0.6295166015625
0.26885986328125 -0.477508544921875 0.66943359375
0.248291015625 -0.49798583984375 0.68914794921875
0.246337890625 -0.527099609375 0.65655517578125
0.0220947265625 -0.600982666015625 0.8199462890625
0.03753662109375 -0.580810546875 0.82672119140625
0.00811767578125 -0.602294921875 0.8243408203125
0.01116943359375 -0.6207275390625 0.809814453125
0.0401611328125 -0.5982666015625 0.81298828125
0.05230712890625 -0.578399658203125 0.82025146484375
0.0235595703125 -0.581787109375 0.8323974609375
-0.00677490234375 -0.623443603515625 0.8148193359375
0.02880859375 -0.615478515625 0.801513671875
0.29229736328125 -0.447052001953125 0.6298828125
0.295166015625 -0.42633056640625 0.6297607421875
0.28643798828125 -0.431671142578125 0.6549072265625
0.28759765625 -0.4659423828125 0.63336181640625
0.29437255859375 -0.460113525390625 0.604736328125
0.296142578125 -0.4403076171875 0.60296630859375
0.288818359375 -0.409698486328125 0.65625
0.28173828125 -0.450439453125 0.65777587890625
0.29052734375 -0.479583740234375 0.6104736328125
-0.02301025390625 -0.58514404296875 0.8304443359375
-0.00518798828125 -0.560638427734375 0.83941650390625
-0.02978515625 -0.57147216796875 0.8299560546875
-0.04058837890625 -0.605224609375 0.8179931640625
-0.0155029296875 -0.594573974609375 0.8299560546875
0.00372314453125 -0.572601318359375 0.83843994140625
-0.01202392578125 -0.545135498046875 0.8387451171875
-0.0472412109375 -0.592987060546875 0.816162109375
-0.0322265625 -0.613922119140625 0.81951904296875
0.28790283203125 -0.35040283203125 0.63140869140625
0.279541015625 -0.318603515625 0.6322021484375
0.28173828125 -0.339996337890625 0.657958984375
0.294921875 -0.378387451171875 0.630126953125
0.2886962890625 -0.359161376953125 0.60321044921875
0.28033447265625 -0.324951171875 0.60400390625
0.27374267578125 -0.31011962890625 0.65899658203125
0.286376953125 -0.36279296875 0.65618896484375
0.2940673828125 -0.39019775390625 0.6044921875
-0.0450439453125 -0.501556396484375 0.81585693359375
-0.02410888671875 -0.479248046875 0.82586669921875
-0.05023193359375 -0.470794677734375 0.8028564453125
-0.06329345703125 -0.51861572265625 0.79669189453125
-0.04046630859375 -0.528350830078125 0.82257080078125
-0.021240234375 -0.502349853515625 0.83197021484375
-0.02862548828125 -0.45001220703125 0.815185546875
-0.06890869140625 -0.48565673828125 0.78289794921875
-0.0576171875 -0.5482177734375 0.80731201171875
0.24859619140625 -0.20001220703125 0.6226806640625
0.235595703125 -0.159271240234375 0.61871337890625
0.24090576171875 -0.19708251953125 0.6495361328125
0.25836181640625 -0.24114990234375 0.62774658203125
0.25030517578125 -0.202880859375 0.59356689453125
0.23760986328125 -0.162811279296875 0.5902099609375
0.22698974609375 -0.153472900390625 0.64666748046875
0.252197265625 -0.237091064453125 0.65484619140625
0.26165771484375 -0.243865966796875 0.59771728515625
-0.0670166015625 -0.352569580078125 0.75372314453125
-0.04718017578125 -0.337799072265625 0.77008056640625
-0.07275390625 -0.3187255859375 0.7354736328125
-0.0838623046875 -0.368255615234375 0.73175048828125
-0.0623779296875 -0.3941650390625 0.77191162109375
-0.04119873046875 -0.37664794921875 0.78680419921875
-0.0526123046875 -0.301239013671875 0.751220703125
-0.08984375 -0.33282470703125 0.71063232421875
-0.0799560546875 -0.406158447265625 0.7503662109375
0.182861328125 0.137908935546875 0.55450439453125
0.18914794921875 0.116455078125 0.52764892578125
0.21429443359375 0.165283203125 0.53369140625
0.1756591796875 0.162109375 0.57940673828125
0.15557861328125 0.113739013671875 0.5728759765625
0.1629638671875 0.09173583984375 0.5430908203125
0.219970703125 0.143310546875 0.509765625
0.207275390625 0.1885986328125 0.55535888671875
0.14599609375 0.13946533203125 0.60302734375
-0.17352294921875 -0.079010009765625 0.60467529296875
-0.2109375 -0.097564697265625 0.59014892578125
-0.1805419921875 -0.107696533203125 0.5814208984375
-0.1370849609375 -0.066802978515625 0.61871337890625
-0.16705322265625 -0.047515869140625 0.623046875
-0.20721435546875 -0.0673828125 0.6063232421875
-0.21612548828125 -0.12542724609375 0.5712890625
-0.14794921875 -0.096954345703125 0.59368896484375
-0.1270751953125 -0.02838134765625 0.64178466796875
0.30218505859375 0.2593994140625 0.48760986328125
0.30584716796875 0.241241455078125 0.47015380859375
0.32611083984375 0.2978515625 0.4775390625
0.29583740234375 0.2791748046875 0.5029296875
0.276123046875 0.226654052734375 0.500732421875
0.2799072265625 0.206634521484375 0.47991943359375
0.330810546875 0.27923583984375 0.4591064453125
0.3203125 0.31622314453125 0.4923095703125
0.2685546875 0.244598388671875 0.5181884765625
-0.32781982421875 -0.131103515625 0.55145263671875
-0.36566162109375 -0.138397216796875 0.5361328125
-0.33087158203125 -0.153564453125 0.54150390625
-0.2900390625 -0.125244140625 0.56390380859375
-0.32354736328125 -0.10760498046875 0.56134033203125
-0.3603515625 -0.1168212890625 0.5447998046875
-0.367431640625 -0.15887451171875 0.5235595703125
-0.29345703125 -0.146728515625 0.55047607421875
-0.28570556640625 -0.102294921875 0.57586669921875
0.38555908203125 0.42071533203125 0.44195556640625
0.39404296875 0.40618896484375 0.4224853515625
0.3980712890625 0.4627685546875 0.433837890625
0.37481689453125 0.43115234375 0.45965576171875
0.37042236328125 0.377197265625 0.45306396484375
0.376708984375 0.36138916015625 0.4359130859375
0.407958984375 0.45037841796875 0.41259765625
0.386474609375 0.47198486328125 0.4503173828125
0.3609619140625 0.39117431640625 0.46875
-0.4637451171875 -0.145477294921875 0.46734619140625
-0.49169921875 -0.135711669921875 0.438232421875
-0.46966552734375 -0.165557861328125 0.45355224609375
-0.4332275390625 -0.146392822265625 0.49664306640625
-0.456298828125 -0.1207275390625 0.481689453125
-0.4813232421875 -0.1136474609375 0.4552001953125
-0.4986572265625 -0.155181884765625 0.4224853515625
-0.43743896484375 -0.16754150390625 0.48455810546875
-0.4268798828125 -0.123565673828125 0.50811767578125
0.40423583984375 0.603912353515625 0.44390869140625
0.4151611328125 0.604156494140625 0.42608642578125
0.39630126953125 0.64678955078125 0.45556640625
0.3895263671875 0.600982666015625 0.4593505859375
0.40704345703125 0.55694580078125 0.4329833984375
0.41876220703125 0.55322265625 0.41387939453125
0.4078369140625 0.649810791015625 0.43914794921875
0.38189697265625 0.6380615234375 0.46905517578125
0.39447021484375 0.5587158203125 0.45220947265625
-0.55279541015625 -0.065948486328125 0.3748779296875
-0.5615234375 -0.034515380859375 0.35986328125
-0.564453125 -0.080718994140625 0.35302734375
-0.53619384765625 -0.09234619140625 0.39239501953125
-0.53851318359375 -0.048370361328125 0.396484375
-0.54571533203125 -0.021026611328125 0.3829345703125
-0.572998046875 -0.046844482421875 0.33929443359375
-0.5478515625 -0.111968994140625 0.373291015625
-0.5218505859375 -0.0738525390625 0.4130859375
0.35540771484375 0.71063232421875 0.48516845703125
0.361572265625 0.71893310546875 0.4703369140625
0.33380126953125 0.71466064453125 0.4893798828125
0.34716796875 0.697723388671875 0.4962158203125
0.37261962890625 0.69891357421875 0.4788818359375
0.38055419921875 0.708587646484375 0.4644775390625
0.3382568359375 0.72314453125 0.4744873046875
0.32720947265625 0.70257568359375 0.50164794921875
0.3626708984375 0.68634033203125 0.4881591796875
-0.55377197265625 0.049713134765625 0.35235595703125
-0.53936767578125 0.0760498046875 0.35662841796875
-0.561767578125 0.0435791015625 0.32977294921875
-0.56231689453125 0.02301025390625 0.3516845703125
-0.54132080078125 0.053955078125 0.375244140625
-0.5299072265625 0.078460693359375 0.379638671875
-0.54608154296875 0.07171630859375 0.33172607421875
-0.57244873046875 0.014556884765625 0.330078125
-0.54815673828125 0.030487060546875 0.371337890625
0.23138427734375 0.710662841796875 0.497802734375
0.23529052734375 0.714080810546875 0.477294921875
0.19158935546875 0.709930419921875 0.49658203125
0.2283935546875 0.699554443359375 0.51361083984375
0.2713623046875 0.71551513671875 0.49609375
0.274169921875 0.720001220703125 0.47833251953125
0.19598388671875 0.716064453125 0.47723388671875
0.18841552734375 0.700714111328125 0.5101318359375
0.265625 0.704193115234375 0.51116943359375
-0.47662353515625 0.185394287109375 0.36798095703125
-0.45233154296875 0.229461669921875 0.3704833984375
-0.48187255859375 0.18170166015625 0.3431396484375
-0.50006103515625 0.14361572265625 0.36529541015625
-0.46893310546875 0.18621826171875 0.39007568359375
-0.44500732421875 0.230377197265625 0.390625
-0.45635986328125 0.2266845703125 0.34429931640625
-0.50567626953125 0.13922119140625 0.3402099609375
-0.49169921875 0.144439697265625 0.38555908203125
0.0849609375 0.7186279296875 0.4901123046875
0.08856201171875 0.724822998046875 0.4696044921875
0.05633544921875 0.719207763671875 0.4876708984375
0.08453369140625 0.7049560546875 0.50640869140625
0.118896484375 0.715118408203125 0.4935302734375
0.12213134765625 0.72113037109375 0.47271728515625
0.05560302734375 0.725799560546875 0.46490478515625
0.0579833984375 0.70654296875 0.50537109375
0.1168212890625 0.704132080078125 0.50787353515625
-0.3922119140625 0.354644775390625 0.36981201171875
-0.37506103515625 0.38726806640625 0.37286376953125
-0.39556884765625 0.3536376953125 0.3458251953125
-0.40887451171875 0.317840576171875 0.3695068359375
-0.38568115234375 0.349700927734375 0.393798828125
-0.36883544921875 0.37945556640625 0.39752197265625
-0.37762451171875 0.390472412109375 0.3465576171875
-0.41375732421875 0.316070556640625 0.3431396484375
-0.40216064453125 0.314971923828125 0.3934326171875
-0.0147705078125 0.6881103515625 0.4820556640625
-0.0177001953125 0.694000244140625 0.458251953125
-0.02996826171875 0.6651611328125 0.48284912109375
-0.00714111328125 0.676361083984375 0.501953125
0.0052490234375 0.7047119140625 0.481201171875
0.003173828125 0.71246337890625 0.457275390625
-0.03643798828125 0.669769287109375 0.45855712890625
-0.02099609375 0.65380859375 0.50347900390625
0.01214599609375 0.69140625 0.50152587890625
-0.31622314453125 0.45281982421875 0.39605712890625
-0.29522705078125 0.462615966796875 0.40771484375
-0.31634521484375 0.459259033203125 0.368896484375
-0.338134765625 0.435943603515625 0.38446044921875
-0.31597900390625 0.440277099609375 0.4176025390625
-0.2950439453125 0.449371337890625 0.4295654296875
-0.2930908203125 0.468994140625 0.38262939453125
-0.33837890625 0.442535400390625 0.35833740234375
-0.33502197265625 0.423797607421875 0.4095458984375
-0.05609130859375 0.564483642578125 0.502685546875
-0.0625 0.564666748046875 0.48101806640625
-0.060791015625 0.52471923828125 0.51123046875
-0.04730224609375 0.55780029296875 0.51995849609375
-0.0499267578125 0.599578857421875 0.49554443359375
-0.0562744140625 0.603424072265625 0.471923828125
-0.06658935546875 0.523834228515625 0.49017333984375
-0.05194091796875 0.522430419921875 0.52923583984375
-0.04107666015625 0.595703125 0.5125732421875
-0.220947265625 0.440521240234375 0.46343994140625
-0.1943359375 0.4241943359375 0.48046875
-0.21832275390625 0.447052001953125 0.4412841796875
-0.24786376953125 0.452484130859375 0.44342041015625
-0.2237548828125 0.42822265625 0.4810791015625
-0.1976318359375 0.416290283203125 0.49755859375
-0.19122314453125 0.429779052734375 0.4605712890625
-0.24493408203125 0.461334228515625 0.4190673828125
-0.24951171875 0.440155029296875 0.46295166015625
-0.07977294921875 0.437835693359375 0.525634765625
-0.08489990234375 0.438720703125 0.50518798828125
-0.08880615234375 0.419677734375 0.5281982421875
-0.0731201171875 0.43731689453125 0.54449462890625
-0.0718994140625 0.461090087890625 0.524169921875
-0.07733154296875 0.46026611328125 0.5030517578125
-0.09423828125 0.422332763671875 0.505615234375
-0.0831298828125 0.41302490234375 0.54443359375
-0.0657958984375 0.462066650390625 0.54071044921875
-0.133056640625 0.39892578125 0.51666259765625
-0.1171875 0.40093994140625 0.5234375
-0.13262939453125 0.40277099609375 0.4964599609375
-0.152587890625 0.403533935546875 0.50872802734375
-0.13433837890625 0.392120361328125 0.53265380859375
-0.11444091796875 0.390625 0.541259765625
-0.1180419921875 0.40545654296875 0.50152587890625
-0.14923095703125 0.406463623046875 0.48828125
-0.1553955078125 0.39495849609375 0.52496337890625
-0.011474609375 0.536773681640625 0.537841796875
0.000732421875 0.52789306640625 0.53277587890625
-0.00390625 0.5634765625 0.53155517578125
-0.02545166015625 0.54443359375 0.53875732421875
-0.0184326171875 0.511444091796875 0.5419921875
-0.00592041015625 0.50433349609375 0.537841796875
0.0096435546875 0.55035400390625 0.52740478515625
-0.017333984375 0.57415771484375 0.53271484375
-0.0318603515625 0.514312744140625 0.5443115234375
-0.2327880859375 0.373016357421875 0.49688720703125
-0.25286865234375 0.37738037109375 0.48260498046875
-0.23480224609375 0.353302001953125 0.49285888671875
-0.21124267578125 0.367156982421875 0.50946044921875
-0.2288818359375 0.392974853515625 0.49853515625
-0.25225830078125 0.403778076171875 0.48309326171875
-0.2530517578125 0.354400634765625 0.481201171875
-0.2164306640625 0.349151611328125 0.50445556640625
-0.206787109375 0.3853759765625 0.51177978515625
0.0291748046875 0.619537353515625 0.52001953125
0.04119873046875 0.598724365234375 0.51837158203125
0.04315185546875 0.629425048828125 0.5206298828125
0.01593017578125 0.6414794921875 0.5208740234375
0.0159912109375 0.605804443359375 0.521728515625
0.02886962890625 0.5865478515625 0.51953125
0.05474853515625 0.610015869140625 0.51849365234375
0.0318603515625 0.653350830078125 0.52020263671875
0.00262451171875 0.623382568359375 0.52142333984375
-0.30426025390625 0.37042236328125 0.45062255859375
-0.31903076171875 0.35943603515625 0.44384765625
-0.299560546875 0.345550537109375 0.45465087890625
-0.28875732421875 0.378082275390625 0.4593505859375
-0.30908203125 0.396728515625 0.44537353515625
-0.324951171875 0.38531494140625 0.43841552734375
-0.313720703125 0.33392333984375 0.44744873046875
-0.2861328125 0.3531494140625 0.46099853515625
-0.29156494140625 0.40338134765625 0.45538330078125
0.10235595703125 0.64501953125 0.5201416015625
0.12701416015625 0.64605712890625 0.52044677734375
0.093505859375 0.66705322265625 0.52166748046875
0.07843017578125 0.643218994140625 0.52117919921875
0.1090087890625 0.624664306640625 0.51776123046875
0.134033203125 0.626617431640625 0.516845703125
0.1214599609375 0.66680908203125 0.5220947265625
0.06939697265625 0.665557861328125 0.51995849609375
0.0904541015625 0.622772216796875 0.517578125
-0.362548828125 0.30169677734375 0.430908203125
-0.36993408203125 0.32080078125 0.42486572265625
-0.378173828125 0.275299072265625 0.427978515625
-0.3548583984375 0.2845458984375 0.43572998046875
-0.34869384765625 0.325225830078125 0.434814453125
-0.35528564453125 0.34625244140625 0.42889404296875
-0.3868408203125 0.292877197265625 0.42376708984375
-0.36962890625 0.26104736328125 0.43310546875
-0.3416748046875 0.30462646484375 0.43768310546875
0.21966552734375 0.649810791015625 0.51629638671875
0.251708984375 0.652252197265625 0.51409912109375
0.22216796875 0.66839599609375 0.5208740234375
0.18560791015625 0.64892578125 0.51763916015625
0.217041015625 0.63238525390625 0.510498046875
0.24761962890625 0.636322021484375 0.50897216796875
0.25732421875 0.6712646484375 0.51776123046875
0.18505859375 0.66839599609375 0.52178955078125
0.18682861328125 0.628021240234375 0.51397705078125
-0.43939208984375 0.171173095703125 0.4200439453125
-0.4493408203125 0.180511474609375 0.41729736328125
-0.4608154296875 0.135101318359375 0.41986083984375
-0.42755126953125 0.16595458984375 0.424072265625
-0.41741943359375 0.207550048828125 0.42291259765625
-0.42724609375 0.21868896484375 0.4169921875
-0.47216796875 0.139892578125 0.4136962890625
-0.4476318359375 0.132476806640625 0.420166015625
-0.40740966796875 0.1995849609375 0.426025390625
0.31854248046875 0.643096923828125 0.5015869140625
0.32952880859375 0.631622314453125 0.49725341796875
0.32916259765625 0.66302490234375 0.50250244140625
0.30340576171875 0.6512451171875 0.5067138671875
0.3074951171875 0.624725341796875 0.4981689453125
0.3192138671875 0.61248779296875 0.49725341796875
0.34088134765625 0.650543212890625 0.49664306640625
0.31182861328125 0.671478271484375 0.5096435546875
0.29327392578125 0.6314697265625 0.50299072265625
-0.4959716796875 0.05816650390625 0.4132080078125
-0.51220703125 0.054718017578125 0.4056396484375
-0.49920654296875 0.038848876953125 0.41497802734375
-0.48236083984375 0.058685302734375 0.4197998046875
-0.4888916015625 0.08062744140625 0.41424560546875
-0.50311279296875 0.0792236328125 0.40771484375
-0.515869140625 0.03759765625 0.40447998046875
-0.48492431640625 0.04052734375 0.42315673828125
-0.47698974609375 0.078704833984375 0.41790771484375
0.3485107421875 0.56744384765625 0.4891357421875
0.34991455078125 0.537750244140625 0.488037109375
0.36102294921875 0.581298828125 0.48272705078125
0.34454345703125 0.592437744140625 0.489990234375
0.33709716796875 0.551788330078125 0.494140625
0.33831787109375 0.52667236328125 0.4942626953125
0.36431884765625 0.54730224609375 0.47930908203125
0.35614013671875 0.60955810546875 0.48663330078125
0.33319091796875 0.57525634765625 0.49407958984375
-0.48565673828125 -0.01629638671875 0.43939208984375
-0.50201416015625 -0.024932861328125 0.428955078125
-0.474609375 -0.034393310546875 0.45452880859375
-0.47137451171875 -0.00970458984375 0.45123291015625
-0.49249267578125 0.00213623046875 0.42755126953125
-0.5111083984375 -0.004180908203125 0.41717529296875
-0.48968505859375 -0.045257568359375 0.4412841796875
-0.45855712890625 -0.024932861328125 0.4656982421875
-0.47900390625 0.00848388671875 0.43896484375
0.33367919921875 0.436676025390625 0.50067138671875
0.322021484375 0.403106689453125 0.50677490234375
0.34735107421875 0.441253662109375 0.4888916015625
0.343994140625 0.471893310546875 0.493408203125
0.3206787109375 0.4315185546875 0.5086669921875
0.30853271484375 0.401519775390625 0.51751708984375
0.33575439453125 0.40423583984375 0.4964599609375
0.357177734375 0.475738525390625 0.4822998046875
0.33038330078125 0.4638671875 0.50225830078125
-0.4176025390625 -0.063201904296875 0.5111083984375
-0.43280029296875 -0.079925537109375 0.50286865234375
-0.39178466796875 -0.0615234375 0.52996826171875
-0.4027099609375 -0.047119140625 0.5186767578125
-0.4405517578125 -0.058807373046875 0.49169921875
-0.45458984375 -0.07452392578125 0.48162841796875
-0.4052734375 -0.082000732421875 0.5225830078125
-0.3773193359375 -0.046356201171875 0.53521728515625
-0.425048828125 -0.04315185546875 0.501220703125
0.26788330078125 0.31219482421875 0.53900146484375
0.2445068359375 0.28912353515625 0.55169677734375
0.27801513671875 0.306365966796875 0.52996826171875
0.28851318359375 0.341796875 0.52880859375
0.2579345703125 0.31805419921875 0.5452880859375
0.2359619140625 0.297576904296875 0.556884765625
0.25286865234375 0.2760009765625 0.5439453125
0.301025390625 0.337799072265625 0.51849365234375
0.27642822265625 0.341644287109375 0.53472900390625
-0.30511474609375 -0.050201416015625 0.57659912109375
-0.3115234375 -0.066192626953125 0.5732421875
-0.27435302734375 -0.04168701171875 0.58837890625
-0.29730224609375 -0.036590576171875 0.57879638671875
-0.334716796875 -0.0595703125 0.56317138671875
-0.3438720703125 -0.076019287109375 0.55743408203125
-0.2772216796875 -0.05877685546875 0.5869140625
-0.27105712890625 -0.027099609375 0.591064453125
-0.3243408203125 -0.0421142578125 0.56549072265625
0.1588134765625 0.2371826171875 0.59722900390625
0.129150390625 0.22772216796875 0.6109619140625
0.162109375 0.214324951171875 0.59979248046875
0.18701171875 0.249725341796875 0.58099365234375
0.15545654296875 0.25860595703125 0.59033203125
0.12738037109375 0.25213623046875 0.60107421875
0.1307373046875 0.198394775390625 0.62139892578125
0.19293212890625 0.2298583984375 0.580078125
0.1832275390625 0.267059326171875 0.579833984375
-0.17742919921875 0.022369384765625 0.6290283203125
-0.16900634765625 0.003509521484375 0.63623046875
-0.1475830078125 0.048675537109375 0.63629150390625
-0.18707275390625 0.03729248046875 0.62017822265625
-0.20819091796875 -0.002655029296875 0.616943359375
-0.20538330078125 -0.019775390625 0.62066650390625
-0.13165283203125 0.0296630859375 0.64959716796875
-0.16192626953125 0.064300537109375 0.625732421875
-0.21356201171875 0.0125732421875 0.612060546875
0.05560302734375 0.22332763671875 0.6107177734375
0.0640869140625 0.249481201171875 0.60205078125
0.0389404296875 0.2271728515625 0.60186767578125
0.049072265625 0.19146728515625 0.621826171875
0.07635498046875 0.217529296875 0.61785888671875
0.08160400390625 0.24658203125 0.606689453125
0.0487060546875 0.25592041015625 0.59515380859375
0.0262451171875 0.1976318359375 0.6103515625
0.07318115234375 0.185791015625 0.63226318359375
-0.09381103515625 0.123626708984375 0.62286376953125
-0.0877685546875 0.143798828125 0.61090087890625
-0.11700439453125 0.129119873046875 0.6134033203125
-0.105712890625 0.100311279296875 0.63275146484375
-0.07147216796875 0.113128662109375 0.6343994140625
-0.06103515625 0.140533447265625 0.6170654296875
-0.110595703125 0.147857666015625 0.604736328125
-0.126220703125 0.11016845703125 0.62115478515625
-0.083251953125 0.0858154296875 0.64874267578125
-0.03570556640625 0.433990478515625 0.55523681640625
-0.03045654296875 0.455902099609375 0.55206298828125
-0.05059814453125 0.43328857421875 0.55780029296875
-0.0394287109375 0.411376953125 0.55987548828125
-0.02093505859375 0.436370849609375 0.5504150390625
-0.0174560546875 0.4571533203125 0.5469970703125
-0.0440673828125 0.458587646484375 0.55291748046875
-0.05816650390625 0.40789794921875 0.5609130859375
-0.02215576171875 0.4136962890625 0.5538330078125
-0.15740966796875 0.348236083984375 0.5416259765625
-0.1463623046875 0.36474609375 0.54498291015625
-0.17315673828125 0.352996826171875 0.5308837890625
-0.166259765625 0.32958984375 0.53472900390625
-0.140869140625 0.338287353515625 0.54742431640625
-0.1263427734375 0.3575439453125 0.55194091796875
-0.16656494140625 0.36962890625 0.5352783203125
-0.181396484375 0.336395263671875 0.5252685546875
-0.1524658203125 0.318756103515625 0.54364013671875
-0.0306396484375 0.347381591796875 0.56634521484375
-0.038330078125 0.3673095703125 0.56365966796875
-0.052490234375 0.337158203125 0.5694580078125
-0.02386474609375 0.328460693359375 0.5699462890625
-0.01226806640625 0.3560791015625 0.56524658203125
-0.01806640625 0.374603271484375 0.561279296875
-0.05865478515625 0.359893798828125 0.56732177734375
-0.04296875 0.3154296875 0.5726318359375
-0.00653076171875 0.33935546875 0.5687255859375
-0.10968017578125 0.290252685546875 0.564208984375
-0.09197998046875 0.308013916015625 0.5673828125
-0.1171875 0.30780029296875 0.55889892578125
-0.12542724609375 0.27447509765625 0.56182861328125
-0.1033935546875 0.27069091796875 0.56903076171875
-0.08343505859375 0.2861328125 0.571533203125
-0.0999755859375 0.3310546875 0.5625
-0.133056640625 0.29010009765625 0.5555419921875
-0.1201171875 0.257598876953125 0.56671142578125
0.00067138671875 0.27099609375 0.57904052734375
0.01123046875 0.25299072265625 0.584716796875
0.01763916015625 0.290252685546875 0.5782470703125
-0.0093994140625 0.29010009765625 0.57415771484375
-0.01904296875 0.250091552734375 0.58282470703125
-0.00872802734375 0.226959228515625 0.587158203125
0.0267333984375 0.276947021484375 0.5821533203125
0.01055908203125 0.305755615234375 0.5732421875
-0.0277099609375 0.27197265625 0.57672119140625
-0.0872802734375 0.20751953125 0.58355712890625
-0.108642578125 0.20068359375 0.5823974609375
-0.0850830078125 0.186279296875 0.59014892578125
-0.0640869140625 0.217193603515625 0.5841064453125
-0.09222412109375 0.22998046875 0.577392578125
-0.111328125 0.21990966796875 0.57666015625
-0.108154296875 0.1817626953125 0.587646484375
-0.0582275390625 0.191864013671875 0.58990478515625
-0.07098388671875 0.2403564453125 0.57879638671875
0.19219970703125 -0.48663330078125 0.7664794921875
0.188720703125 -0.475860595703125 0.7752685546875
0.17822265625 -0.493927001953125 0.77716064453125
0.19464111328125 -0.49786376953125 0.75689697265625
0.20587158203125 -0.478759765625 0.75634765625
0.19940185546875 -0.467193603515625 0.76837158203125
0.17694091796875 -0.482818603515625 0.78253173828125
0.17913818359375 -0.506591796875 0.7691650390625
0.21112060546875 -0.490966796875 0.74359130859375
0.13275146484375 -0.512939453125 0.806396484375
0.14788818359375 -0.50958251953125 0.796875
0.13946533203125 -0.497772216796875 0.8067626953125
0.1182861328125 -0.51666259765625 0.81512451171875
0.126220703125 -0.529754638671875 0.8035888671875
0.14404296875 -0.52325439453125 0.792236328125
0.15179443359375 -0.49578857421875 0.79852294921875
0.12646484375 -0.4991455078125 0.8143310546875
0.10845947265625 -0.534698486328125 0.8135986328125
0.237548828125 -0.44940185546875 0.7347412109375
0.22808837890625 -0.4371337890625 0.7501220703125
0.2291259765625 -0.45947265625 0.74102783203125
0.246337890625 -0.460906982421875 0.71697998046875
0.2435302734375 -0.435791015625 0.7305908203125
0.2337646484375 -0.425445556640625 0.74639892578125
0.220703125 -0.449249267578125 0.7540283203125
0.237060546875 -0.47222900390625 0.7247314453125
0.25360107421875 -0.449188232421875 0.71075439453125
0.0809326171875 -0.51470947265625 0.83404541015625
0.09136962890625 -0.51806640625 0.82843017578125
0.09490966796875 -0.496002197265625 0.8323974609375
0.072021484375 -0.50946044921875 0.83831787109375
0.06719970703125 -0.536407470703125 0.8355712890625
0.07757568359375 -0.53802490234375 0.82806396484375
0.1036376953125 -0.50067138671875 0.828125
0.08563232421875 -0.48797607421875 0.83642578125
0.05718994140625 -0.5330810546875 0.838623046875
0.25067138671875 -0.383819580078125 0.72412109375
0.23577880859375 -0.372802734375 0.74176025390625
0.2501220703125 -0.405029296875 0.725830078125
0.26397705078125 -0.400360107421875 0.70538330078125
0.2486572265625 -0.364837646484375 0.72552490234375
0.23162841796875 -0.3533935546875 0.741943359375
0.23760986328125 -0.392303466796875 0.7412109375
0.26300048828125 -0.41949462890625 0.70562744140625
0.26336669921875 -0.377716064453125 0.70269775390625
0.0506591796875 -0.47296142578125 0.8404541015625
0.05743408203125 -0.489013671875 0.84100341796875
0.069580078125 -0.44903564453125 0.83709716796875
0.04571533203125 -0.4561767578125 0.8387451171875
0.03338623046875 -0.502532958984375 0.84234619140625
0.03936767578125 -0.516204833984375 0.84210205078125
0.07171630859375 -0.46435546875 0.83837890625
0.06597900390625 -0.431060791015625 0.8345947265625
0.02716064453125 -0.48516845703125 0.8427734375
0.20196533203125 -0.1951904296875 0.712890625
0.18798828125 -0.1585693359375 0.7039794921875
0.1861572265625 -0.198883056640625 0.72662353515625
0.21435546875 -0.2320556640625 0.71563720703125
0.21722412109375 -0.193817138671875 0.69647216796875
0.2037353515625 -0.1561279296875 0.6885986328125
0.17218017578125 -0.1634521484375 0.717041015625
0.197021484375 -0.235626220703125 0.73065185546875
0.22967529296875 -0.2322998046875 0.697265625
0.01629638671875 -0.287933349609375 0.78973388671875
0.03631591796875 -0.273468017578125 0.78955078125
0.0098876953125 -0.2498779296875 0.775146484375
-0.00341796875 -0.3023681640625 0.787353515625
0.0230712890625 -0.323455810546875 0.803466796875
0.04278564453125 -0.30914306640625 0.80133056640625
0.02996826171875 -0.235565185546875 0.77618408203125
-0.01043701171875 -0.264862060546875 0.77081298828125
0.00213623046875 -0.34136962890625 0.80181884765625
0.23834228515625 -0.311126708984375 0.723388671875
0.24127197265625 -0.329071044921875 0.7232666015625
0.25494384765625 -0.31927490234375 0.70318603515625
0.23419189453125 -0.290252685546875 0.72265625
0.222900390625 -0.306182861328125 0.74041748046875
0.224853515625 -0.320709228515625 0.74395751953125
0.25946044921875 -0.33868408203125 0.70355224609375
0.2484130859375 -0.29449462890625 0.702880859375
0.2161865234375 -0.287078857421875 0.73809814453125
0.03790283203125 -0.40570068359375 0.8306884765625
0.0172119140625 -0.427459716796875 0.83203125
0.040771484375 -0.420928955078125 0.8355712890625
0.0576171875 -0.381988525390625 0.82550048828125
0.03253173828125 -0.382110595703125 0.82342529296875
0.01300048828125 -0.404327392578125 0.82379150390625
0.020263671875 -0.447052001953125 0.83746337890625
0.0609130859375 -0.39459228515625 0.83111572265625
0.0538330078125 -0.364013671875 0.8201904296875
0.10125732421875 -0.08819580078125 0.71771240234375
0.095458984375 -0.06878662109375 0.71240234375
0.08892822265625 -0.09771728515625 0.7237548828125
0.1092529296875 -0.1151123046875 0.728271484375
0.11279296875 -0.08111572265625 0.711669921875
0.10687255859375 -0.05859375 0.70477294921875
0.08331298828125 -0.0802001953125 0.71661376953125
0.09710693359375 -0.122344970703125 0.732177734375
0.1212158203125 -0.107177734375 0.7213134765625
0.05230712890625 -0.116485595703125 0.732421875
0.0654296875 -0.112274169921875 0.7310791015625
0.0439453125 -0.098876953125 0.726318359375
0.03814697265625 -0.1231689453125 0.73419189453125
0.0609130859375 -0.142333984375 0.743408203125
0.073974609375 -0.13623046875 0.74066162109375
0.05755615234375 -0.0941162109375 0.72454833984375
0.02923583984375 -0.102691650390625 0.7259521484375
0.04620361328125 -0.150115966796875 0.744384765625
0.14178466796875 -0.21563720703125 0.7532958984375
0.15509033203125 -0.208282470703125 0.74560546875
0.129150390625 -0.1796875 0.74664306640625
0.12811279296875 -0.2230224609375 0.759521484375
0.154052734375 -0.248321533203125 0.76202392578125
0.16656494140625 -0.242340087890625 0.75372314453125
0.14251708984375 -0.1732177734375 0.73797607421875
0.11663818359375 -0.185638427734375 0.75067138671875
0.13897705078125 -0.255340576171875 0.76861572265625
0.08544921875 -0.24176025390625 0.7760009765625
0.07794189453125 -0.208770751953125 0.76531982421875
0.07159423828125 -0.251007080078125 0.78106689453125
0.09368896484375 -0.27801513671875 0.7860107421875
0.100830078125 -0.23419189453125 0.770263671875
0.09130859375 -0.200286865234375 0.76123046875
0.0633544921875 -0.216644287109375 0.77008056640625
0.07720947265625 -0.283721923828125 0.791748046875
0.1087646484375 -0.269805908203125 0.780029296875
0.1739501953125 -0.312652587890625 0.77734375
0.1771240234375 -0.326019287109375 0.78192138671875
0.18975830078125 -0.30682373046875 0.76885986328125
0.16961669921875 -0.298583984375 0.77532958984375
0.1590576171875 -0.32196044921875 0.7861328125
0.16168212890625 -0.333831787109375 0.7899169921875
0.19097900390625 -0.32025146484375 0.77203369140625
0.18548583984375 -0.29339599609375 0.7655029296875
0.1536865234375 -0.307098388671875 0.7830810546875
0.1099853515625 -0.344482421875 0.8089599609375
0.093994140625 -0.352386474609375 0.81597900390625
0.11370849609375 -0.35443115234375 0.81256103515625
0.12603759765625 -0.33795166015625 0.80181884765625
0.10614013671875 -0.329620361328125 0.804443359375
0.0889892578125 -0.33697509765625 0.80999755859375
0.097412109375 -0.3623046875 0.81756591796875
0.13037109375 -0.349029541015625 0.80474853515625
0.12158203125 -0.321563720703125 0.79803466796875
0.11431884765625 0.02484130859375 0.69451904296875
0.1158447265625 0.038665771484375 0.69012451171875
0.1146240234375 0.02886962890625 0.7003173828125
0.1104736328125 0.010345458984375 0.6962890625
0.1148681640625 0.0189208984375 0.68682861328125
0.1158447265625 0.03387451171875 0.68304443359375
0.11614990234375 0.042724609375 0.69830322265625
0.11126708984375 0.0166015625 0.7037353515625
0.11187744140625 0.004180908203125 0.69073486328125
-0.01519775390625 -0.051605224609375 0.7215576171875
-0.0140380859375 -0.046875 0.72802734375
-0.02301025390625 -0.043792724609375 0.7200927734375
-0.01727294921875 -0.05712890625 0.71502685546875
-0.005126953125 -0.0587158203125 0.72259521484375
-0.00421142578125 -0.052520751953125 0.72857666015625
-0.02203369140625 -0.03948974609375 0.72698974609375
-0.02508544921875 -0.04864501953125 0.7135009765625
-0.0072021484375 -0.065948486328125 0.717041015625
0.1033935546875 0.074432373046875 0.67803955078125
0.09454345703125 0.081756591796875 0.67242431640625
0.105224609375 0.076202392578125 0.684814453125
0.11114501953125 0.063690185546875 0.683349609375
0.1024169921875 0.070037841796875 0.672119140625
0.0928955078125 0.07891845703125 0.6668701171875
0.095947265625 0.08642578125 0.677490234375
0.11187744140625 0.06866455078125 0.69061279296875
0.1102294921875 0.059326171875 0.6756591796875
-0.0352783203125 -0.010498046875 0.7044677734375
-0.034912109375 -0.006134033203125 0.7115478515625
-0.03448486328125 0.004241943359375 0.69708251953125
-0.0360107421875 -0.0123291015625 0.69842529296875
-0.03369140625 -0.0230712890625 0.71087646484375
-0.03253173828125 -0.0191650390625 0.7177734375
-0.0343017578125 0.0076904296875 0.70330810546875
-0.0338134765625 0.00299072265625 0.6915283203125
-0.0350341796875 -0.0269775390625 0.7039794921875
0.0594482421875 0.082733154296875 0.667236328125
0.04986572265625 0.07598876953125 0.670166015625
0.0633544921875 0.087188720703125 0.673095703125
0.07196044921875 0.08709716796875 0.66680908203125
0.05560302734375 0.080963134765625 0.66217041015625
0.0438232421875 0.07171630859375 0.66485595703125
0.054443359375 0.081390380859375 0.67633056640625
0.0748291015625 0.09173583984375 0.6728515625
0.06890869140625 0.085693359375 0.66033935546875
-0.01611328125 0.03765869140625 0.67950439453125
-0.01678466796875 0.038543701171875 0.68634033203125
-0.00469970703125 0.044708251953125 0.67779541015625
-0.0145263671875 0.0391845703125 0.67388916015625
-0.02490234375 0.028167724609375 0.6842041015625
-0.024658203125 0.03033447265625 0.690673828125
-0.0067138671875 0.04541015625 0.6845703125
-0.00091552734375 0.0455322265625 0.6712646484375
-0.02484130859375 0.027801513671875 0.6783447265625
0.03619384765625 0.0491943359375 0.68255615234375
0.0341796875 0.043212890625 0.687744140625
0.03924560546875 0.054412841796875 0.6890869140625
0.03814697265625 0.058349609375 0.678466796875
0.03240966796875 0.045654296875 0.67950439453125
0.0321044921875 0.041961669921875 0.68402099609375
0.03643798828125 0.04718017578125 0.69378662109375
0.042724609375 0.064422607421875 0.6839599609375
0.03265380859375 0.05328369140625 0.6732177734375
0.02313232421875 0.040985107421875 0.685302734375
0.02093505859375 0.042327880859375 0.69171142578125
0.02789306640625 0.039703369140625 0.68853759765625
0.025390625 0.0419921875 0.6800537109375
0.01568603515625 0.043914794921875 0.6829833984375
0.01251220703125 0.046051025390625 0.6884765625
0.028076171875 0.042022705078125 0.6949462890625
0.02850341796875 0.040069580078125 0.684326171875
0.01959228515625 0.04486083984375 0.6756591796875
0.08746337890625 -0.032562255859375 0.711669921875
0.08770751953125 -0.04058837890625 0.70849609375
0.09796142578125 -0.019622802734375 0.70477294921875
0.08807373046875 -0.024932861328125 0.715576171875
0.076171875 -0.044342041015625 0.715576171875
0.07647705078125 -0.053436279296875 0.71331787109375
0.0989990234375 -0.027374267578125 0.70135498046875
0.09765625 -0.01165771484375 0.71063232421875
0.07623291015625 -0.03857421875 0.72003173828125
0.03436279296875 -0.062896728515625 0.7237548828125
0.0196533203125 -0.063262939453125 0.72393798828125
0.03594970703125 -0.07183837890625 0.72119140625
0.0478515625 -0.058319091796875 0.7237548828125
0.03424072265625 -0.05413818359375 0.728759765625
0.01885986328125 -0.0555419921875 0.7279052734375
0.02001953125 -0.07244873046875 0.72021484375
0.049560546875 -0.066314697265625 0.720458984375
0.04803466796875 -0.052764892578125 0.7286376953125
0.086181640625 -0.008331298828125 0.72930908203125
0.0869140625 -0.013671875 0.7249755859375
0.09576416015625 0.0050048828125 0.72430419921875
0.084228515625 -0.000732421875 0.73175048828125
0.07562255859375 -0.019683837890625 0.73309326171875
0.0762939453125 -0.02655029296875 0.72998046875
0.09783935546875 -0.000244140625 0.7197265625
0.09295654296875 0.01007080078125 0.72802734375
0.0733642578125 -0.011199951171875 0.73577880859375
0.03424072265625 -0.035858154296875 0.7401123046875
0.0211181640625 -0.03765869140625 0.740234375
0.0345458984375 -0.042236328125 0.73736572265625
0.04840087890625 -0.032562255859375 0.73974609375
0.03387451171875 -0.027923583984375 0.74176025390625
0.02197265625 -0.03082275390625 0.741455078125
0.02008056640625 -0.044403076171875 0.73760986328125
0.049072265625 -0.040496826171875 0.73699951171875
0.047607421875 -0.0250244140625 0.74169921875
0.04827880859375 0.06304931640625 0.71087646484375
0.04351806640625 0.055084228515625 0.71514892578125
0.0521240234375 0.063262939453125 0.71624755859375
0.0521240234375 0.07275390625 0.7047119140625
0.04437255859375 0.06170654296875 0.70343017578125
0.04058837890625 0.05401611328125 0.708251953125
0.0477294921875 0.054046630859375 0.72247314453125
0.05609130859375 0.07257080078125 0.7113037109375
0.048583984375 0.073333740234375 0.69757080078125
0.02093505859375 0.046905517578125 0.71331787109375
0.0198974609375 0.045867919921875 0.72015380859375
0.02923583984375 0.048126220703125 0.71661376953125
0.0203857421875 0.04779052734375 0.70672607421875
0.0113525390625 0.048187255859375 0.7115478515625
0.01116943359375 0.04547119140625 0.7174072265625
0.030517578125 0.046142578125 0.724365234375
0.02935791015625 0.04876708984375 0.708984375
0.01104736328125 0.049896240234375 0.70416259765625
0.07086181640625 0.094268798828125 0.6956787109375
0.0640869140625 0.08935546875 0.69671630859375
0.07318115234375 0.091156005859375 0.70111083984375
0.0802001953125 0.09576416015625 0.6943359375
0.07000732421875 0.094635009765625 0.68804931640625
0.06109619140625 0.0897216796875 0.690185546875
0.06671142578125 0.08642578125 0.70318603515625
0.08099365234375 0.094329833984375 0.70159912109375
0.07830810546875 0.0968017578125 0.68743896484375
-0.01416015625 0.040618896484375 0.708740234375
-0.0108642578125 0.039825439453125 0.7154541015625
-0.0076904296875 0.045562744140625 0.7076416015625
-0.015869140625 0.04083251953125 0.70050048828125
-0.021728515625 0.033416748046875 0.71099853515625
-0.018310546875 0.033203125 0.71826171875
-0.0040283203125 0.044769287109375 0.71502685546875
-0.0081787109375 0.046783447265625 0.699951171875
-0.023681640625 0.033111572265625 0.703857421875
0.1044921875 0.082489013671875 0.70745849609375
0.0975341796875 0.09033203125 0.7003173828125
0.10223388671875 0.08050537109375 0.7132568359375
0.110595703125 0.0728759765625 0.71160888671875
0.106201171875 0.08294677734375 0.700439453125
0.09771728515625 0.09088134765625 0.69293212890625
0.09625244140625 0.088043212890625 0.70709228515625
0.10650634765625 0.07147216796875 0.71795654296875
0.11248779296875 0.07379150390625 0.70416259765625
-0.02679443359375 0.005462646484375 0.7305908203125
-0.0218505859375 0.008270263671875 0.734619140625
-0.02764892578125 0.014892578125 0.7230224609375
-0.03082275390625 0.00103759765625 0.72442626953125
-0.02362060546875 -0.0067138671875 0.73541259765625
-0.01806640625 -0.002471923828125 0.740478515625
-0.0225830078125 0.01629638671875 0.72845458984375
-0.03106689453125 0.01318359375 0.716552734375
-0.02862548828125 -0.010833740234375 0.73077392578125
0.1119384765625 0.0411376953125 0.716796875
0.11346435546875 0.053466796875 0.7156982421875
0.10797119140625 0.04144287109375 0.72320556640625
0.1083984375 0.02911376953125 0.7200927734375
0.1146240234375 0.03887939453125 0.71246337890625
0.11614990234375 0.0506591796875 0.71038818359375
0.109375 0.052734375 0.72174072265625
0.10430908203125 0.03131103515625 0.72357177734375
0.11016845703125 0.02569580078125 0.71533203125
-0.00799560546875 -0.02923583984375 0.74322509765625
-0.0045166015625 -0.023834228515625 0.746337890625
-0.0147705078125 -0.024078369140625 0.7431640625
-0.011474609375 -0.0360107421875 0.73956298828125
-6.103515625e-05 -0.0338134765625 0.74212646484375
0.00439453125 -0.027618408203125 0.74383544921875
-0.00927734375 -0.01739501953125 0.74627685546875
-0.01806640625 -0.029754638671875 0.7393798828125
-0.001708984375 -0.03955078125 0.73883056640625
0.07818603515625 0.07122802734375 0.72216796875
0.08062744140625 0.061676025390625 0.72894287109375
0.08880615234375 0.074371337890625 0.720458984375
0.07763671875 0.079193115234375 0.71533203125
0.06842041015625 0.06719970703125 0.72265625
0.0657958984375 0.056121826171875 0.7286376953125
0.09197998046875 0.06561279296875 0.7264404296875
0.08551025390625 0.081207275390625 0.714111328125
0.069091796875 0.076202392578125 0.715576171875
0.00213623046875 0.026947021484375 0.73529052734375
-0.0059814453125 0.019195556640625 0.73736572265625
0.00860595703125 0.021514892578125 0.7392578125
0.01080322265625 0.033905029296875 0.73089599609375
-0.0030517578125 0.032501220703125 0.7301025390625
-0.01007080078125 0.02490234375 0.732177734375
-0.003173828125 0.01226806640625 0.74139404296875
0.02001953125 0.0313720703125 0.73614501953125
0.00457763671875 0.037567138671875 0.7271728515625
0.08245849609375 0.02813720703125 0.73504638671875
0.06842041015625 0.0201416015625 0.738037109375
0.0828857421875 0.01776123046875 0.7342529296875
0.0928955078125 0.035125732421875 0.73150634765625
0.08154296875 0.038818359375 0.73419189453125
0.06561279296875 0.03179931640625 0.73614501953125
0.07012939453125 0.007720947265625 0.73797607421875
0.0919189453125 0.025054931640625 0.7310791015625
0.093994140625 0.043670654296875 0.73193359375
0.025390625 -0.003448486328125 0.744140625
0.02996826171875 -0.0125732421875 0.74407958984375
0.03900146484375 0.002899169921875 0.74322509765625
0.02093505859375 0.00506591796875 0.74530029296875
0.01397705078125 -0.009246826171875 0.74615478515625
0.01861572265625 -0.015777587890625 0.7451171875
0.04248046875 -0.0079345703125 0.7425537109375
0.03515625 0.01434326171875 0.7420654296875
0.009033203125 -0.00238037109375 0.74713134765625
0.0450439453125 0.111358642578125 0.648681640625
0.0477294921875 0.09417724609375 0.65350341796875
0.0645751953125 0.11083984375 0.65447998046875
0.0430908203125 0.134429931640625 0.64288330078125
0.02496337890625 0.107513427734375 0.64288330078125
0.03125 0.087005615234375 0.65216064453125
0.06427001953125 0.0970458984375 0.65594482421875
0.0675048828125 0.13092041015625 0.6522216796875
0.017333984375 0.13323974609375 0.63006591796875
-0.0238037109375 0.06964111328125 0.6593017578125
-0.033935546875 0.047698974609375 0.66949462890625
-0.017822265625 0.052490234375 0.6639404296875
-0.010986328125 0.085784912109375 0.6474609375
-0.03594970703125 0.086212158203125 0.65155029296875
-0.04583740234375 0.060333251953125 0.668701171875
-0.02789306640625 0.03704833984375 0.6717529296875
-0.0035400390625 0.06695556640625 0.657470703125
-0.02191162109375 0.10882568359375 0.6351318359375
0.10748291015625 0.074249267578125 0.66229248046875
0.10394287109375 0.07110595703125 0.66571044921875
0.1156005859375 0.058258056640625 0.65948486328125
0.1116943359375 0.0765380859375 0.65521240234375
0.0970458984375 0.0909423828125 0.66204833984375
0.09429931640625 0.08306884765625 0.66314697265625
0.11328125 0.05810546875 0.66461181640625
0.1212158203125 0.0567626953125 0.6512451171875
0.10235595703125 0.099761962890625 0.6578369140625
-0.04534912109375 -0.01959228515625 0.69091796875
-0.044677734375 -0.041595458984375 0.6927490234375
-0.04046630859375 -0.0155029296875 0.6937255859375
-0.04412841796875 0.004241943359375 0.68780517578125
-0.052978515625 -0.0240478515625 0.68804931640625
-0.0523681640625 -0.049285888671875 0.6873779296875
-0.03912353515625 -0.035919189453125 0.6953125
-0.037841796875 0.003204345703125 0.6878662109375
-0.05389404296875 0.003662109375 0.6861572265625
0.1309814453125 0.01226806640625 0.66424560546875
0.12384033203125 0.012847900390625 0.67242431640625
0.13470458984375 -0.003387451171875 0.66729736328125
0.14013671875 0.009918212890625 0.65185546875
0.1275634765625 0.02667236328125 0.6612548828125
0.12225341796875 0.027923583984375 0.66925048828125
0.1239013671875 -0.002532958984375 0.67547607421875
0.14483642578125 -0.004364013671875 0.65570068359375
0.1346435546875 0.02325439453125 0.65093994140625
-0.0360107421875 -0.086090087890625 0.702392578125
-0.0306396484375 -0.098236083984375 0.70751953125
-0.02734375 -0.073944091796875 0.7061767578125
-0.0394287109375 -0.073974609375 0.6978759765625
-0.04638671875 -0.099822998046875 0.6942138671875
-0.0421142578125 -0.11358642578125 0.70147705078125
-0.0194091796875 -0.08599853515625 0.71075439453125
-0.0333251953125 -0.063262939453125 0.70318603515625
-0.0496826171875 -0.086761474609375 0.6905517578125
0.15264892578125 -0.06317138671875 0.683349609375
0.13861083984375 -0.06634521484375 0.69403076171875
0.16351318359375 -0.089141845703125 0.6903076171875
0.16796875 -0.06170654296875 0.669921875
0.14459228515625 -0.0400390625 0.67755126953125
0.13128662109375 -0.042205810546875 0.68798828125
0.1492919921875 -0.095611572265625 0.70269775390625
0.1781005859375 -0.08843994140625 0.67645263671875
0.15753173828125 -0.039306640625 0.66436767578125
-0.01190185546875 -0.1553955078125 0.7335205078125
-0.00390625 -0.182464599609375 0.746337890625
0.00518798828125 -0.14190673828125 0.7352294921875
-0.01837158203125 -0.1339111328125 0.72296142578125
-0.0284423828125 -0.172271728515625 0.72943115234375
-0.022705078125 -0.19561767578125 0.7413330078125
0.013916015625 -0.1693115234375 0.74737548828125
-0.00341796875 -0.119140625 0.72344970703125
-0.0335693359375 -0.147369384765625 0.7196044921875
0.1973876953125 -0.069000244140625 0.59912109375
0.200439453125 -0.074249267578125 0.57122802734375
0.18658447265625 -0.0491943359375 0.59564208984375
0.19036865234375 -0.065155029296875 0.626953125
0.20928955078125 -0.0938720703125 0.6064453125
0.21246337890625 -0.099029541015625 0.57666015625
0.189208984375 -0.05706787109375 0.5682373046875
0.1798095703125 -0.043060302734375 0.62335205078125
0.20269775390625 -0.089996337890625 0.63519287109375
-0.08203125 -0.223480224609375 0.6854248046875
