# XYZ point cloud file
-0.64820370908155134 -0.50451364167285107 -0.18864339128794949
1.2592381282295748 -0.14482776458991964 -0.419989897583946
-0.42587015589369925 0.34166220249248624 0.46584097319861328
1.1716336850886742 0.031928296596902328 -0.37992244929770447
-0.46407286460348529 0.26564366522185168 0.55169404620084528
0.93485957787668328 -0.22909550599801776 -0.3073744955820672
0.38248804180864271 0.35265397340225491 0.66979594759012073
0.80706799828452835 0.27254101848329526 0.040976705129398994
-0.59781906462144163 -0.55477103427867291 1.1803854480500853
0.82508539926119928 -0.39489113845934298 -0.17513511275338978
0.16705379764297823 0.62766742222449068 0.05967834819344997
-0.18010004111017008 0.32618923413432555 0.44003284425577061
0.39622884699322292 0.10450927739947957 0.65043298247392922
-0.68752267639207409 0.28746080337889168 0.2319154084590247
0.90997844109086401 -0.30630287749071528 -0.270371327756604
-0.68881033039787543 0.15898511425353945 0.1067257801580368
-0.03083761057672918 0.45164336370471148 -0.62425679844966009
0.90087863570055671 0.065576063514399152 -0.30045921976199352
0.32912860622592532 -0.42986422931372203 0.43496896560122877
0.82627584032044599 -0.21715372973765312 0.13278388405591457
-0.62045367309126087 -0.020357828844112191 0.47622309879815106
-0.40365693782621803 -0.30937487707988964 -0.63504834096204288
0.87597963438049176 -0.05871929129500586 -0.22987740806492418
-0.53387670001379361 0.2335941193891955 0.45985868803119789
0.90898832745557967 -0.30726578739911758 -0.20880857369690808
-0.16563411722864685 -0.22224153844292971 0.55347495076176312
-0.53663558474059658 0.16504266169268789 0.49967662991814965
0.34889745324695487 -0.35457548351585899 0.77373569343343362
0.91248275980499405 -0.069037169035155443 -0.26711233373098953
0.33557283838308827 -0.54643817034607167 -0.26219485297927747
-0.89285483853169301 -0.15890034838673017 -0.71214706686581142
0.41700032703183454 -0.39424929121233276 0.65533731101256087
0.270752798431658 -0.66694719496009469 0.92742033129522738
-0.85366269209315226 -0.25452204869714024 -0.5734722135107031
0.72457556142084112 0.035098567901634681 0.32353326805705507
-0.010517606470817675 -0.71448800093216391 0.92657808275678288
-1.0613965232765565 -0.50799833482604129 -0.35431052205330094
-0.33020284085868257 0.39372609375904943 0.50857600186269014
-0.17719979138939035 -0.65681989932827634 -0.33916799681969234
-0.22891664791537436 0.1089641596555353 0.67116363305125493
-0.98385997349020871 -0.24081560246096956 -0.75933136564546277
0.40723477727543211 -0.31884370200023682 1.027240867447774
0.51818767316700587 0.059401104169367613 0.6010624966232152
0.94133184424543903 0.066865028967242779 -0.22375668292691397
0.3032939514961579 -0.18674255927638228 0.62957301972309754
0.040601755447787324 -0.78672661292755919 0.95802525030196062
1.0638551161139385 -0.016409445435826342 -0.33715337718983829
-0.42099610278172794 0.33423078507794912 0.49236894979442969
0.1736787833736555 0.46505197660253828 0.47834084224078044
1.0168539741058649 -0.41369712100235745 0.18334245270023608
-0.64713869128203827 0.34046616509135674 0.4002561900000936
-0.85883477245230266 -0.51849459531616304 -0.14687193283894295
-0.61827096149769645 -0.35447251438756666 -0.082572295513491767
0.077269754607242058 0.65210741346327694 0.39829320843743243
0.13056950021004088 -0.60145203965774385 0.45449235764038409
1.2308918817024763 0.037992007854505516 -0.39436053756401979
0.24022671257778949 -0.11859629672780159 0.79450313934630756
-0.18243086767406158 0.15028577117424646 0.66266441747357163
-0.36359354948267986 0.38567240723040186 0.49914025191715528
-0.69186193397173179 -0.38446562734557688 -0.30838744325067147
0.51371759047181498 -0.94728336279537473 0.69834986466403759
-0.42619136836323901 0.26075755638381537 0.60071347035140121
0.33679197470219702 0.25150549481188023 0.70754893388691187
0.33392630310580573 -0.62608774431804903 0.89561062905069022
-0.39341377913412745 0.082105929994632731 0.61802746811656739
0.12990667207385687 0.23108962081321494 -0.73586066802856909
-0.97770213763019753 -0.21352242587023085 -0.75716379658815036
-0.67015561574978588 -0.23335070869536167 -0.12416404853788343
-0.65713442854620041 -0.14040516148696724 -0.44470422469553217
0.084959302074086196 0.57578358337028845 0.57732997307295175
-0.68908340572040983 -0.19163668836735326 -0.3201163554665909
0.33458191989345454 -0.79697282491918742 0.87918504255969143
0.18725491506206082 -0.6404856728579631 0.077969511330180374
0.94991339149432541 0.00081916358386990851 -0.25657866923144645
0.23065209514492802 -0.67113919773480291 0.93067613006090877
0.48298802256283624 -0.27940614184380763 0.26483628881452592
0.42651788085220255 0.42446836397561327 0.58447670482287162
-0.55638794305279693 0.2367267831124451 0.32518576383977926
0.39330092281413842 -0.47966991963519234 0.5239016158701979
-0.33794446190958594 0.18951588751365023 0.67508759668702467
0.071833316067476005 0.020683971558611347 -0.32218105232360728
0.12673289106219277 0.34816331325986738 0.62561018214710451
-0.75655348101876418 0.16481814573918996 0.20727904682893428
0.17064032845462895 0.67364349526113187 0.40464045307892871
0.047749397739391908 -0.16169488694296774 0.84545802538972659
-0.4543422295138444 0.24407177448599526 -0.56843554437453481
-0.54850783552019511 0.20787868702610979 0.47036430209920166
-0.46158858487456245 0.57757337147643995 0.1830485749838715
0.39399368203957152 -0.78505154785754172 0.88967194737334943
0.1838503368133988 -0.2453083101948863 0.81187695696799356
-0.14141027912608251 0.17508370245093374 0.64345678920310956
0.56293133119631866 0.54432019645098961 0.53547750010481199
0.76797704843850734 -0.11619142194616927 0.080206904283977032
0.36317604329656583 -0.23757651549350101 0.47847837712377483
0.18225963905893927 -0.83794547003523689 0.95182029366227816
-0.83159131887745774 -0.32493414747548854 0.28733145373119751
-0.40640963069544922 0.15656842332813881 0.64240180419643522
0.76263420273546623 0.18806362996090087 0.43421490442367094
0.23990580641242998 0.61303073562460497 0.39803388261002315
-0.73847277948772061 -0.31788209910492071 -0.38813157845734647
-0.85933000582646946 -0.3097975392014547 -0.4901168113779768
0.28320121214881633 -0.19391428791726639 0.73862218043361594
1.0620869490978795 0.11733514123774569 -0.36279287057255605
-0.29617321511073458 0.35569359805413825 0.49194422752527167
0.023068667650683938 -0.18300726043332105 0.80013713909822481
-0.12631661781599934 -0.29305573950826869 0.54558289020228123
0.134187006084723 0.38382422597648258 0.6140999946044845
0.38936208214283807 0.42746587618005805 0.58360141759089235
0.001581386097455395 -0.57637269203213748 0.51033669600571763
0.19164774927239869 0.33365585907824169 0.65634009968882623
1.2136548192516365 0.15294198395878311 -0.39624610880445843
0.36172890235217636 -0.77541242164941337 0.86753766595874726
-0.60425043170253057 0.26457725229543172 0.150732117096533
0.24031301024132889 0.10789528467863363 -0.083125979903329039
-0.13528354020375488 0.40724275979545865 0.36277283649450887
0.58064546472965217 0.43605293759340213 0.30818248267459314
0.37880087279483066 -0.92036930468143652 0.83399960994610556
1.3159009019451884 0.021274884654737036 -0.35077513391117598
0.21885633050727149 0.15773892871115436 0.67126772784033228
-0.27106142668043898 0.56375601316577928 0.37745710410248012
0.074498044272762964 -0.16385154022197668 0.84979730951798516
0.35546588199020279 0.12401448152503747 0.66183553909165749
0.26621826949401961 -0.16310409217644661 0.3187213705186096
0.31023454137367379 0.42406133339320462 0.65222118304297183
-0.39647070782687965 0.17986603320829175 0.65187349790981575
-0.58239661245395213 0.15304165183370344 -0.27415584270622695
0.57695523101656132 0.091621930808287289 -0.65880589659715305
-0.89688731011738132 -0.38151544636270529 -0.43878831298795884
1.3106666066494723 -0.09760900895411595 -0.36726620192323089
-0.69353869683661729 -0.30570752201333562 -0.34071792923937938
-0.91564639809525072 -0.31575665861513613 -0.53297408378252964
-0.44886984258351803 0.21863130914500317 0.60311241777926927
0.31689067458778486 -0.66251673963936497 0.9125115334510534
-0.52665021629628961 -0.064101543430780339 0.54325497162643277
0.99204557380291503 -0.31242773714336636 -0.29708549033066767
-0.18516327112443065 0.05559698059801832 -0.11244813423218947
-1.042217232809227 -0.43000558461869787 -0.45301010863917401
0.69345934654706509 -0.010582497592181994 0.33557862343327294
0.62380616953159951 -0.40949784951325086 -0.27300683180863583
-0.2634285115462256 0.15986991344682622 0.67085901371446433
0.20457556464137805 -0.12074887504552123 0.83189246357290259
1.3318901841035062 -0.18239431608676426 -0.42261075320233488
0.85891789542261798 0.17373802134898853 -0.19186415096424181
-0.29198359254138406 -0.17352634221330732 0.69516950795080046
-0.22837612314916877 -0.20867910897617037 0.049673564522184854
1.0201258695034758 0.059436317581841536 -0.28140791751156069
-0.16752312021262372 -0.61258397420785116 -0.47928534600184047
-0.35122214639561089 0.33112577954247513 0.56750171664856985
0.35754695353966648 -0.30607314819966547 0.70929301837495196
0.14185806009476565 0.14314565137116375 -0.82554277539395837
0.35256975578122551 -0.75377813306286612 0.84160993624917069
-1.0497071024934788 -0.4281823957486921 -0.44645798619638644
-0.19477867365660217 -0.15667400699371115 0.63898763404920533
-0.15393626987115283 -0.84934552366317462 0.45548422932524169
-1.0022193733247078 -0.30709533782067666 -0.61531753192777394
0.57077300463616987 0.33617941674042129 0.56762733098811413
0.26021200997387162 0.58729905583999908 0.14294389845152633
0.21766839686287276 0.51794115250478256 0.57299529842654273
0.07640342591738003 0.48184835702282669 0.32029527857707052
0.1250960665539429 0.36760236275607383 0.61988033643399643
-0.65079334554994994 0.17441345202524161 0.059460465870506241
-0.24892360036611194 0.23472246307136402 0.64785977231367031
0.89233269143425908 -0.20502374812189572 0.22815967617113841
0.30212249586063344 0.17299297931452173 -0.29089170678002585
-0.0064827240061460234 -0.33142306006253364 0.8136908100600877
-0.49525394914480203 0.32005794474431326 0.47839987903720438
-0.2071794148095556 0.1439336538357523 0.65361536251287156
-0.31060229778567217 -0.57782816394328762 -0.32710667116762515
0.91788468178499527 -0.29817263780694248 -0.28084323461516902
0.027189802863497148 -0.35723123112449429 0.84144735423982731
1.0334718254882698 -0.013782472007470403 -0.32518313505099616
0.8013386950507877 0.35063379042453136 -0.022809908919457555
0.34152614346297638 0.47681526699307142 0.50060033506991619
0.89138911710165414 -0.30642436731358202 -0.21897229775084526
-0.38721871746748016 -0.0041693985486475071 -0.3793669835878335
-0.47904797621782147 0.050295898156342389 0.53160697376292187
-0.27595260307770886 0.17705010410143984 0.685109501388105
1.1997146493267297 -0.25893789589626692 -0.35677000241220203
0.52182441132295243 0.55072340575290468 0.48284773545260773
-0.033505661654530172 -0.89641953541867281 0.21036177790345789
-0.25838216061595598 0.18217327618365431 0.67232936812660338
0.39604953459200498 0.37100870446263201 0.64192525782956533
0.18337875844319762 0.009592860414329607 0.73077248415322416
0.6334537190011118 0.4580989541590057 0.11470733634942842
-0.075545744021771277 -0.29920563556083124 0.69996058128808603
0.60905912157477005 0.39624798764760527 0.56020171970237786
-0.74496865845355575 0.23830847770570784 0.22601279889846193
0.2657409634782526 0.024203042755551962 -0.31185936646634449
0.43567853702634984 -0.80165404388321093 0.03754898789762251
-0.37548237975902343 0.36408812534555324 0.50256832751274239
0.76307218782438513 0.21044146382264728 0.32738042379058374
-1.0477227963112181 -0.3718580269525944 -0.52960123221175337
0.49279273194048701 -0.47979710695591393 -0.2269178302349939
-0.61586988601141646 -0.38822536959986564 -0.097097538554656637
-0.53318062286939782 0.35911160415421506 0.43259673367233464
0.78329724129051792 -1.285626601080736 -0.25804324883749885
0.98713067092132945 0.083177380645118149 -0.24449554318431588
0.24750042571710873 0.4298033514689692 0.63606154176696261
-0.92469347744795849 -0.34178017757267298 -0.49949997008513236
0.82263343883012308 -0.19464088433226578 -0.25488484007858681
-0.47804802067108088 -0.47621003771393333 -0.06227988396891071
-0.12811717636494668 0.30555302103396542 0.60539656143291953
-0.63951736119827851 -0.15707429392856653 0.18409572347365
0.071997497776427721 -0.599822631064022 -0.20548397561036769
0.30284263296200731 0.12664533366682917 0.65057357373401015
0.15562748482563094 -0.030747258463698302 -0.24293634117430507
-0.24442281051921944 -0.030222045867468239 0.68115204568392507
0.041221359200719121 -0.40018062729949122 0.17031812642746846
0.049941701075933986 0.53660712892087048 0.20279391869554697
-0.70910480934338405 -0.16489930611338366 -0.38269525722634068
-0.52445621231068751 -0.11882588113155634 0.48857534829391458
0.87532621163879942 -0.42032399794647546 -0.2637255545155508
0.28782499306150355 -0.5790209653376337 -0.50815856182871499
0.22239817432484177 -0.82881186030389387 0.94656743044143976
0.22079927280571976 -0.69910369763998403 0.52764975909082956
-0.41666702116692478 -0.47448916253240725 -0.42037689757275931
0.47188999917286534 -0.53701479884724534 0.71202134420214325
0.38411313663792312 -0.79581650673456039 0.89367166416781618
0.34496906501982405 -0.27215509408474503 0.66651813133698301
-0.7201319160833044 0.1393475261419681 0.14641220054645476
-0.20124788729593401 0.0052975332081430793 0.69284697963539177
0.10936237352071565 0.43344217081499181 0.59760720422802738
0.70528559293139836 0.1002206869579183 -0.37670219011513506
-0.81710291644712307 -0.35741147763977921 -0.40255060304487333
0.53526716172150568 0.4704977698135977 0.35245696178669483
0.46514769261328381 0.57300524199865066 0.48148915301747408
0.10065485540178432 -0.61350639840468801 0.48371755808653383
0.34337612072258961 -0.26654254780976316 0.62956078650185887
-0.11738037659009581 0.28082160995566596 0.61266521707138288
-0.53223619694418578 0.12613542933785737 0.53294583431647791
1.2718299896761507 -0.10481537522009887 -0.41713387849102901
1.0021357255369459 0.11614355266910081 -0.24173426467503045
0.27316913957088529 -0.27038086296941088 0.78547704873232238
-0.89441023161134803 -0.17227573654641049 -0.61600359995572962
0.88116362994588115 -0.19185256782349569 -0.30138953338980468
0.7429641598167589 0.46985959300467073 -0.14492099221776122
0.31722100440549106 -0.22740480844483102 0.54510582236705485
1.1917926953275511 -0.25229315326501478 -0.35709386571811752
0.16808063249087191 -0.072527460137266075 0.80611276119047925
-0.43311696082701978 0.5637853734119318 0.25937228789496114
0.76400234445059012 0.16551327074437694 0.38564708296174288
-0.71705889334907313 -0.44000496484995466 -0.23726698169696725
-0.17225353698606272 0.18756010801136824 0.64502278755750275
0.095153494777652448 -0.18244728509575481 0.84609425561908669
0.34778968721804393 -0.7532026258362734 0.84236491317971929
0.53499637475337902 -0.84287396005453274 0.62509755372955578
0.072830999269149821 -0.077601094481316579 0.77543595690191314
0.40675312291215726 -0.69251614572019093 0.8724315830345839
0.53428763738456464 -0.11853892617321549 0.4438289854391817
0.015535853887520767 -0.60089005706900167 0.53600057984962834
1.1304849167115254 -0.24414638142901168 -0.39241517445928675
-0.35409952522874222 0.33130535708799158 0.58202895788749043
0.35626865190606916 -0.58408585114594302 -0.13643872548155311
-0.47802259453228624 0.012117590251406796 0.58261002930720984
0.76722422054463313 -0.29399775272193551 -0.15122358341406539
-0.016571627439872394 0.45203338716402897 0.46086948316166598
-0.30438350940867576 -0.21346861068108325 0.49170959388266677
-0.56119897630412896 -0.068436755722586895 -0.61054044311145184
0.37291210435160638 -0.77347140500405942 0.8864503926940559
0.84563160029856954 0.24040147178947535 -0.17895769953855201
0.05374465864960043 -0.91936974754099055 0.88473624773272608
-0.28518694290313817 0.2320515486104 0.66794218111531478
0.31353156926581516 -0.18898419261197574 0.59285199805036637
-0.72269335389412825 0.21231305121236232 0.38440118188881467
-1.0415998503923833 -0.41299435418051189 -0.50516777432247117
-0.029997145179392337 -0.37700934323247282 0.81192585530197814
-0.18875538862421593 -0.022424270089153708 0.70181623317673214
-0.12037664116520363 0.34363797009518038 0.60403230351820714
-0.66981310099439684 -0.37434417614893789 -0.29258084658016603
0.064449029626786114 0.50143384772819388 -0.10801948693224439
0.31747612152645277 -1.1778042919114213 0.07741508608849923
-0.15593798582564578 0.019640633318438461 0.70440386629464591
-0.79471776905241032 -0.29787668607522022 -0.44901546700818695
-0.26133169421694458 0.22549394489503527 0.66987221066737668
-0.33416745190155028 0.52709070692474569 0.49007339194882071
0.99661569636485781 -0.40135422124566844 -0.36231829912644287
-0.68959900595780743 -0.3584996507660847 -0.33704290682436167
0.33437639673256059 -0.50723083026131377 -0.014663218946300738
-0.6827836852247724 -0.41546407583946632 -0.19865614774870899
0.22436716138771784 -0.58049383796480214 -0.25857224593772177
1.0299385751589272 -0.31275237242935106 -0.32631940936487425
0.89789349341357494 -0.31077203031804146 -0.19221178472930678
0.32944042954416064 -0.25437082689875012 0.56711582253177362
0.19775198708514452 0.3112185059253747 0.66322243942825665
0.97448034934222649 -0.27229095247361101 -0.3078731137398929
-0.42989115445175385 0.056419470514214254 0.60916370978489098
-0.33830279893897819 0.11277041523054265 0.65716459686177231
-0.55035041028106613 0.31890382990263788 0.43076052816608623
-0.36485332973891338 0.024750668224434946 0.61206943466928809
0.2697035281041551 0.42793272387619652 0.65455263184830947
-0.15759530392148857 0.16632319961740905 0.65017868365947074
-0.24381943753495938 0.26997482154990138 0.60755726818187394
0.16308538209483525 -0.82945669590684901 0.95785647888386727
0.81800737958657765 -0.049474491175516278 -0.034291378834303998
1.0517492911943525 -0.36994517145439687 -0.29822217796115158
-0.55657395682732158 -0.49599955533092555 0.90173407237977976
-0.8852607011505278 -0.27554902045356755 -0.59065189850068922
0.56529700539706118 0.1326823469505527 0.51301103989411612
-0.55590026311234753 0.22421300052677395 0.46428585651005871
0.5516795863557733 0.28417171782886186 0.58471197542570419
0.73703665560627263 -0.58617064235482275 -0.38857666627482423
0.41837478308212384 0.095240301048903575 0.62001831169618526
1.1971663552879157 0.084834323482169793 -0.35657235945333365
0.35458339771636416 -0.56178389700714604 0.49193853961967893
-0.56027207657714784 -0.3791301206965656 -0.45334444815764297
-0.88343935784960026 -0.44758511162054049 -0.36046167852472966
0.037772590419040242 -0.28284058917368071 0.81903911455529244
0.48290336305884241 0.33813886381300051 0.5698538028942508
-0.76375420499169744 0.21118836133192076 0.22733931777541727
1.0182893520654634 0.10323283965643526 -0.34919000642525955
0.96235242972442214 0.14516071596632685 -0.22408802089261126
0.10780887428765373 0.54633599887457507 0.57570326927665949
0.058843900865171994 0.65476017073408599 0.56419150187079481
-0.25535087130012935 0.22264114091321829 0.66753680897116752
-0.67599946103735031 0.077935922675770541 -0.29721624539037705
0.16001508855089686 0.23993091098297725 0.65608598965408138
0.38187009263779936 -0.4435126442415438 0.51771744679967036
0.63339793732688765 0.29244245209540765 0.5530395326959594
0.46542516055885219 0.42032275439730427 0.57982893490585141
0.53131508467183863 0.79871107007536324 -0.12035673376306377
1.2520506336022392 0.02106229625455569 -0.4006059803683959
-0.63783459005005305 -0.35437077506934145 -0.20889665546891756
0.29622649764234055 -0.49818035591620458 0.37067272595168443
-0.74400678742055826 -0.19833200397366824 -0.40437420727406614
0.14469151438215011 0.39721496560083835 0.6076619477538614
-0.51958739580993951 0.15189614281582919 0.50970060991876842
0.42590522458235602 -0.4051947787016914 -0.66133326758060385
-0.017446428486024512 -1.3108355556703657 -0.037379737896285903
0.21003783390917752 -0.73545773440283568 0.89594796077633276
0.43210271476675133 -0.46800869251684674 0.026685482391844317
0.37965571414273236 -0.76009583147880022 0.88384971185587879
-1.1176110225172269 -0.36824961523647204 -0.56370295308471796
-0.35291446409600469 0.33150690616673018 0.57539275704185933
-0.35201921403467185 0.49989623354408508 0.25999243633737024
0.072374365816316955 0.74864407985695891 -0.26599828906732892
0.31685590491509252 -0.66937044402011736 0.91141785391403296
1.2674398834196627 -0.165777350845282 0.40077388239817768
-0.71197629677877217 -0.30763345632060179 -0.37071435345056614
-0.8410173622143855 -0.36282778593817966 -0.41459521839617963
0.48504929382069872 0.53830399287444664 0.58550345423585881
0.21954354042315893 -0.63074936684785854 -0.12557927682999814
-0.79193753362996122 -0.1484097907365296 -0.49479420468952728
-0.97128024949834457 -0.4534996290239377 -0.4329209964052998
1.0731220010376019 -0.10326107106004656 -0.34299483995703905
1.250124872732099 -0.16160945433282592 -0.37417113590812789
-0.23014422531351952 0.072400238601730393 0.65075322165732086
-0.61035692705485434 0.061075533692907413 0.49330941822222041
-0.049096342383452729 -0.85214134361820015 0.80866576693014736
-0.64354750231127711 0.13233785328684888 0.45940821705923351
-0.21681046543844107 0.32250392280371898 0.23267755918729094
0.39603869277223303 -0.72572391933292835 0.88549210429028768
0.43982484570856184 0.13083850765953997 0.6286210529210523
-0.43641012439316818 0.34309852820803144 0.14011830732861608
0.026937423091666357 -0.17686890223797036 0.80746804368429625
-0.1637783927508778 0.38665058518116524 0.58577966249598212
-1.002994093171734 -0.29533011986801228 -0.61381421591059038
-0.26864862264701395 0.35174029441034094 0.5513306987587292
-0.33285040900440044 0.3267698510016146 0.58579869334167256
-0.25942115351172124 -0.5543144248717482 -0.50030907656523382
-0.6945862267221794 -0.19201679495269985 -0.53719919602417665
0.44223610174250294 -0.48767674877373679 0.5955959137889355
-0.27145646710881843 0.48963896266985074 0.52860328915247923
0.14473935448296227 -0.38369980115258073 0.86356899946637178
0.11241234890882423 -0.64664376625214004 0.95172853176114192
-0.39630344645368987 0.36585156673121588 -0.4989354630396905
-0.69043253875367783 0.12045069434607569 0.064945788225566403
0.34878374182150806 -0.31798298920053725 0.46516661868092424
0.96351739364481204 -0.30243338011211307 -0.29275352965586787
0.097152551712279767 0.59706551306221201 -0.40841454792212417
1.2437371780410917 -0.165055878086946 -0.38118991395922208
-0.71763749217135864 -0.40733138651952316 0.32544447476013705
-1.1036481747758935 -0.49486026190744781 -0.47815038048052028
-0.18896510204718253 -0.16891016883119647 -0.013843429333749491
0.16111076455685502 -0.57278827157543333 0.928012847643088
-0.44677207435625599 -0.02688237756296985 -0.70708812991686898
0.045401583415451086 -0.61539939512665853 0.52473996178772708
-0.0048377752401351781 -0.78006774712106619 0.68783991559641144
0.039719825768001593 0.27774566659758193 0.63182868396183611
0.74130540016721347 0.35214131603810017 0.39374640708299768
-0.19378451462821933 0.11162246631543837 0.66811475308137247
0.69934575891088913 0.34424310646969758 0.52024558904157736
-0.35250936428293422 0.11693973709311933 -0.73854508461184132
0.31462210989675099 -0.35674488297352269 -0.71512803910708378
0.36130216247181779 -0.7138849336160078 0.85268694039707782
0.35998041295985916 -0.76192370066697634 0.8480648755240292
0.37102908668136236 -0.41343085414800385 0.5127684615733541
0.4026176335089513 0.33417609957778893 0.66772693536080752
0.0077417607383782894 -0.26630982775034084 0.80031791603715785
0.30235416700743811 -0.81878776338565018 0.92541289382881331
0.00098756382402442888 0.58022954839893259 0.56704694806920397
0.2868655344421378 -0.82841945848021936 0.58419669452405998
-0.3647740753158395 0.36473231428534802 0.45862663290680672
0.37717320795475628 -0.57739794857260307 -0.30347303466848885
0.80650101099693972 0.22644840229472152 -0.017724434859884397
-0.50055719725310044 0.29131094667640411 0.47411674544278792
-0.65030119934029851 -0.33865251770098581 -0.26829094521231678
-1.1299053399959782 -0.41892979763372296 -0.52641677495929606
0.037726569816172395 -0.13447790482791788 0.84623526492794188
1.2984762886551184 0.12024176117638063 -0.33712098806357105
-1.0932355659908004 -0.48258316903385889 -0.40634361908718031
0.30677203219711657 0.38232056192315866 0.67801072894173764
0.14028941029314379 0.0010127825684662639 0.72521631259372832
-0.14055923052451358 0.44317378622096015 0.46602562356556643
0.10647501806214743 -0.599070103321516 0.34057158605945581
-0.87593687862940173 -0.48413052554327862 -0.27491492029388809
-0.25193091313391758 0.21976541168500319 0.66329829609316526
0.21177861806066645 -0.73906525413666913 0.95984345205571753
-0.39414897497731194 -0.50574100530454302 -0.067810298118893719
-0.67113772909475933 0.34283318431593557 0.29011083066222731
0.082861453532831142 -0.2970210129404478 -0.79860401076079324
0.25594392756625162 -0.7765642901012626 0.94079522003977445
0.054448958805098924 -0.20753345764472186 0.81414333171590503
0.16009441363988364 -0.89435076983460249 0.92266542223077863
0.95318050370551677 -0.17241424463728805 -0.31207210028645171
-0.74681595182672722 0.21321715103730554 0.36189616360695975
-0.65766506467011188 0.26609470242053845 0.41019185600120966
0.2601189263515109 -0.17890881183877383 0.76192025972454047
0.33747155101170367 -0.43971354452218492 0.82423493711953544
0.19494339012240247 -0.19441125592179986 0.83186266063124048
-0.37386227772562486 0.35850054605089099 0.50360152709884431
-0.034602755985772005 -0.66454082454685448 -0.45434531992833982
0.22984977807783058 -0.11057383587893099 0.77065982713480174
-0.72513175181363732 0.097218642541449185 0.15041248570862287
0.022842911279021827 -0.084019626780872159 0.80947999016508376
0.079287315164604744 0.50785367345603305 0.58577690226723877
0.32390019456005748 -1.1416347355476759 0.38257943051500476
0.42519605246070458 -0.84108478438359668 0.85762673801830935
-0.94719474498529443 -0.43048768739593157 -0.43484251517515116
0.76218476596043372 -0.27363215299957488 -0.57435782798506807
0.26937546258855405 -0.78512114413219791 0.88420576501516202
0.083380595166911986 -0.1234958332448528 0.84662528702776552
0.057097179076917248 -0.11447263345966974 0.84343545317680668
0.067889947018284102 0.27924225011726378 0.63209522453203348
0.1678503008970289 -0.93879634349988095 0.86171969625623124
-1.1285088325554913 -0.39066306923097471 -0.60854543242862391
0.15068477856817664 0.37953511931104345 0.59641487186349451
-0.62955364575303285 -0.45374690016343067 -0.044909969072312705
0.66526541066208122 -0.30445660540534192 -0.33167059754436146
0.70875409674936374 0.39735919188788671 0.5155310804540747
0.50638894210832386 0.18620040943832805 0.61762558681723245
1.1612549984378213 0.15530777241917804 -0.30693219232971014
0.2437510617659373 -0.2540793297545676 1.2297766958391509
0.3642802645863974 -0.78426106875865997 0.8895485726565493
0.51686006323286238 0.29488356845606489 0.55485507222174935
-0.19838697928396165 0.28214437453883079 0.6013230913898866
-0.39311612351086822 -0.47276282727234786 -0.37403858587280236
0.26716779769856869 0.36167922933552887 0.68825302389478971
1.2152895556554142 -0.026690894445451363 -0.38632305496811536
0.22007185909024551 -0.91586139442190984 0.68062160866428112
0.83558146917674669 -0.10418403339523508 -0.20821371108330844
-0.13122179831109548 -0.26468584312840449 -0.63849275427839025
-0.055050745817868174 -0.72764034011352408 0.87152106904332971
0.85140924859986633 -0.22032156771398093 -0.27861656230285714
-0.61783356202414619 0.004853981363424964 -0.50146176202534853
-0.70124414226640308 -0.085811969310917391 0.059198943450772035
-0.65651996584354566 -0.37382258805619983 -0.40313897929613773
0.16286347456909245 0.42173143884134845 0.59952909728894976
0.79608186439439521 0.26147473674318888 0.080379223061904703
-0.27321216876015497 -0.038332652732385952 0.58782016057412001
-0.60193228534667864 0.21058055239829088 -0.28529323792446259
1.2618495566126029 -0.10574975942152776 -0.41554368957124943
1.2808614557803482 0.2126514178858514 -0.34043486934409906
-0.55750703060297901 -0.48791122031511236 -0.10623382429653994
-0.12073128138931555 0.38267887173315529 0.60137715555950599
0.77343337131630596 0.43532401809657273 -0.12774936881549515
0.99468050979404277 -0.072959226909944164 -0.31726841325726429
-0.65587032697510872 -0.26440577651445096 -0.17941546221176363
-0.60415264524149581 0.17054057280756751 0.46452472880726958
0.86719823974916488 0.80703623543381298 -0.92361424221870436
-0.049399571754206395 -0.52201839861201904 0.47946379890616964
-0.77057243059016045 0.13268841116530439 0.24482284007689437
1.0450158957165949 -0.028377612031761146 -0.33097050101143211
0.64160828981401474 -0.39012978995857139 -0.3319448733317687
0.52775839600429086 0.16869845745132039 0.60428266882936388
-0.62680218209805605 -0.33406959976179706 -0.1209241816364246
-0.64243527958780455 -0.39999456232177266 -0.15241869458419721
-0.86494074223857753 -0.17749752191162571 -0.58016380787533617
0.33075127054228859 -0.25887639911250915 0.52073429255429193
0.94533345191997253 0.11613952295614638 -0.21598723548256515
0.87683191082134582 -0.21288666705697779 -0.29919617848839231
-0.22730580093993002 -0.013187898299975132 -0.17187841062087728
0.24128470365814869 -0.76683376729823038 0.95079940586173883
0.065331647131275927 -0.6050082880863954 0.49106000895810986
0.57700835626280833 -0.094177035063182757 0.42605596602586537
-0.50969773718916711 0.30809547830354944 0.30492744303987962
-0.29590715529296152 0.28667957397734511 0.63502038546217587
0.34418815843927364 -0.7921935304333374 0.8748755033012241
-0.55081771583951467 0.23942740463611756 0.46080091053494332
1.2154056849085437 -0.21871358553600118 -0.40657237323345008
0.17156469236408478 0.49585145391442609 0.57879015544544021
0.92034445826332512 -0.26864168994976012 -0.29993195199094824
0.27880669620643839 0.11308350039390547 0.67182468245922689
-0.64532701306269957 -0.48859536461701225 -0.054227969091855677
0.30298227987939819 0.47219754483891307 0.60193785664065746
0.80154406111977905 -0.14042785042788353 -0.40856423235594441
0.32042142796815476 -0.7963873852752883 0.8739012263504442
-0.031760546443823534 0.42986079103258135 0.46377764140423672
-0.17776561172377381 0.42103509559768071 0.5793304853028225
-0.64350833262016405 -0.35314454828785102 -0.23504208114364289
-0.37374488629181002 0.46918560946450327 0.47049133449206515
0.92678943525643409 -0.28651034977848866 -0.29020910338995787
-0.2148951727135322 0.29602305467285817 0.58955907873348412
0.2696953074211299 -0.27031623779603819 -0.78138692300332746
1.2618219002472446 -0.1428096910883383 -0.41608375461007885
0.4715984567392526 0.50048943103968924 0.58145078269854267
-0.11187179730107832 0.41519986272737697 0.44918276906432641
0.18922456553709499 0.45268418300204871 0.5955265349557779
-0.37917242336950885 0.38261087836257701 0.49386594290646713
-0.026151178649462814 -0.54579434184478259 0.46137561384578785
0.24573502644444467 -0.77596586012315782 0.89187105964671165
0.49807397060321601 0.30246102516946394 0.57637245442762985
-0.36417655584030162 0.11424820157294135 0.64799468093602375
0.09798966280298238 0.15963010659367427 0.21655641089771738
-0.84126648992383934 -0.47431219036198513 -0.24096584507348595
0.22062913386704119 -0.097083693941364402 0.81119826052537913
0.63479731471212886 0.12736678140493751 0.54929038149028653
0.060434094146376127 0.55301037229279615 0.27360337626712017
-1.0311654906883871 -0.30066841473559691 -0.59584081527773147
-1.0298520867079211 -0.39899776822414168 -0.54963407730603553
0.033859434229920549 0.21293438160960676 0.64117966202691168
-1.0050611366240154 -0.39036229173808579 -0.62237460336957007
1.0191543950063535 0.17274026904190265 -0.29368295767600472
0.96779261532059113 0.067585929671587053 -0.23832429720279436
-0.87262374900837214 -0.47795326025534024 -0.30308182705364928
0.17931288732521433 -0.7988926849873792 0.59070536748286706
-0.6610184090814597 -0.28447807069511555 -0.27056948056748897
0.06096782951718116 -0.80395634344158395 0.66452183796845787
0.38406484515597539 -0.68499998764931291 0.88559847706530714
0.9962643055412792 -0.30254549996396918 -0.31572767722339279
-0.49859528943547193 -0.18840511441201357 -0.63893260174028033
0.40046110305476379 -0.3135890146333935 -0.21087528855510218
-0.17857690643492297 0.28602959159272956 0.60068061737776191
-0.086574822465951717 -0.5882463718481219 -0.5648597933200179
0.079378200820709122 0.62463662894459304 0.57236788308358832
0.11810444571181233 -0.93865686187776021 0.84631550829690827
0.35057855650820069 -0.90168586850809618 0.61656595334773012
0.25472112704466632 0.077523940950847248 0.59948790816762276
0.36357456022410095 0.40752783546859206 0.62641064046121375
-0.16377815498698789 0.24830933397383603 0.61819040081039933
-0.035262175574683585 -0.31479888623372432 0.77965097920027304
1.2401704584343796 -0.16954718609525798 -0.38995553091864288
-0.48559698345606717 0.31361487685971667 0.48386149944120493
-0.39704650355281301 0.06800683784904038 0.62920665730563119
-0.25793550859032477 0.36578476957060957 0.54948147212097087
0.16068569583631098 -0.22164293112896871 0.83159135666424611
-0.57338808194787649 0.19512178985233675 0.47618698911433288
-0.52184415796854489 0.28082467914584441 0.37509206156393748
-0.69797702380534066 -0.43643872883305335 -0.15332156474905645
0.32764065748041604 -0.77214211253879483 0.85428245088418464
-0.45622136894135501 0.25182275349016692 0.58161457853898302
-0.93139706086959095 -0.36034193363146727 -0.48492454594944157
-0.61400748225126245 -0.31699598622597591 0.051191396872402706
0.39254036762049616 0.21732134427543315 0.67620130069875195
0.4080081379834537 1.1463016541370976 0.33982886795066936
-0.17861962060034497 -0.5421006356107938 0.21596432216398131
0.53789897510574369 0.445027650539501 0.56916609889031822
0.6995613079765326 0.41159537485399511 0.1319472683905083
0.008012326518929358 -0.65731156478784669 0.59812950814493959
0.97076218317224927 0.0060171327520706086 -0.27241466906449929
-0.80524018192417346 -0.3864575450086889 -0.36088169399849779
0.14671731306031677 -0.2619478347513251 0.81788845918543718
0.45153606085619558 -0.68930066628437459 0.83472795272277356
0.7619322388860581 0.14551877682156089 0.31728903138187015
0.81827199045941912 -0.14007064007228109 -0.20499365871075526
-0.68706316110055732 -0.43367605698946221 -0.16675540918018772
-0.27661897451359918 0.57477061226003201 0.40575495420321506
0.33033110603701688 -0.22306418503918479 0.51212266153501496
0.79547743490091305 -0.042366704849861492 0.082661845574414805
0.88183650795522128 -0.11298620137992543 -0.26847689866517754
0.27618186632115527 -0.801705300913369 0.9382333114083341
0.66776614746061869 0.43735469484219891 0.12484581375545645
0.36450321077846959 -0.68133886823542866 0.88307704376296936
-0.45908023350632443 -0.34026117356052765 -0.62171484503135765
-0.063393456113279179 0.49845185202718056 -0.55149035088638776
0.51949591366217129 -0.41186756378365175 -0.064552821561857598
-0.57773019488923727 0.23367809536638617 -0.22322006539383388
-0.68995958958926717 -0.38597163655435907 -0.27394764399445393
-0.94268230020800647 -0.48532022565643018 -0.30469669039556901
0.49252283351719606 -0.59567291771593744 0.71780961867726223
0.43585604640296793 -0.5244296717233965 -0.37808514597696341
-1.0598714792781441 -0.42823993425297147 -0.44221198733170208
0.21467424656400835 0.47781909372766052 0.50074862686542954
-0.26383636395855103 0.32353668119292678 0.55035079084868421
0.10163287427232648 -0.91616279262979106 0.90035657950287717
0.15274286662866876 -0.066865785286033486 0.74417916991716204
-0.30224897383966631 -0.42285647885183408 -0.60670737609284053
-0.033139092346926358 -0.34316351349692553 0.79470397442240159
-0.18777186866968787 -0.12500015559178479 0.66578442433175677
0.45017097340292711 1.0211038871084099 -0.43502547277980774
0.070631455497412343 0.70953827212625242 0.43629999998226676
1.1014696380105844 -0.30185197405010911 -0.32297196095297487
-0.53360127444310246 0.23978808787023809 -0.43903708823208909
-0.82652576247245291 -0.2292951613696701 -0.53685562458784908
0.19417866308747644 0.2008458140173417 0.66833210570504686
-0.0052301183494947168 0.63410739376911351 0.47692963410264166
-0.78930658364029105 -0.45669296697993644 -0.13807466240340638
0.35328727331509224 -0.25894292781504191 -0.74856606496306544
0.40577587638273571 0.3960475939189152 0.59967261717325115
0.23309542423840268 -0.21575780209339968 0.7930689899842216
0.074582187507415298 0.32786270162491604 0.62199999489724789
0.0048491953731424342 0.52293090724108282 0.44619830164925389
-0.33372723043299768 0.37194975995570445 0.51916811297453513
-0.58942502486257609 0.25057963440809061 0.79576829751287548
0.21301026361396302 -0.74434197017135517 0.89834583792827516
0.39112138681202024 0.043992551097673527 0.5897012511297044
-0.098347888966828334 -0.3277964940356668 0.604505340638398
-0.67259991609052472 0.15137212221561214 0.063660447255589503
0.66149134325180947 0.48223841063861528 0.45201158445394007
-0.11797619684254923 -0.080546453645204963 0.69195605788579151
-0.092713372058955246 0.42028403213447518 0.48473132379851247
-0.21497610688621571 -0.56662764209335847 -0.51572186444846135
-0.77539227166847313 -0.25298893195127192 -0.46061988108396879
0.16466953616971214 0.32525112440485771 0.63090728987514488
0.42753885635506084 -0.24979552133824967 -0.70796782885580534
-0.59024636868820601 0.17256090396136159 0.47428044386658375
0.7265488355434937 0.48234857751838689 -0.090252994204821135
0.83425198444843307 -0.21439347336333014 -0.25830422993610824
-0.30476596286255009 0.5349965269380732 -0.42522013106350176
0.23316139592144158 -0.13785404456395867 0.82521955991717633
0.24080344335567294 -0.30378021272683498 0.81251706602067753
0.35977763048274114 -0.62813058342874939 0.88399130891868882
0.37828949350185215 -0.45174850953031154 0.19927723788295104
0.10841466626326901 -0.090318759212500765 0.75942128682131838
0.62107773190383009 0.36508998208383048 0.55628258163803146
-0.58079655787729934 0.12953718885890453 0.49721972116762991
0.91125147843070109 -0.28297417466956887 -0.35206405820007802
0.7437637311122125 0.33348030585720068 0.47966606925778699
0.12601081891121013 -0.082319202142031145 -0.85071450623168943
1.3480865528086969 0.035420832697099058 -0.35545459248568534
0.39868635739408731 -0.86715549178784812 0.8608939364239685
-0.12082945273109669 -0.24800285678332301 0.55941566181763314
0.5383961390420906 -0.25581437192266065 0.22762374419974307
0.22314746479274561 -0.36489274608531019 0.22129696589327619
1.0857001080443407 -0.045843993832917818 -0.34246873003622458
-0.61373625527080655 -0.35568564914210299 -0.028881846330351735
-0.3091674887808018 0.4006407893929449 0.51273203784685517
-0.42493984721790756 0.31080199615673365 0.56610247358651389
0.079617571505113283 -0.83277559007591151 -0.0034346667159113053
0.28326674808553642 0.16347824102864195 0.6763515338372299
-0.44073214997010401 0.29619927784777644 0.31417094460651818
0.29143157768587025 -0.57179784486045548 0.89233009637211591
0.84188560029687309 0.11555561678251536 -0.016075724583482831
-0.73667185992956696 -0.18297338475225189 -0.40083822747217734
-0.73943572400633184 -0.3410281776798314 -0.37101838739136461
0.33056875304665589 -0.7938190797870206 0.86923214481164557
-0.97966820365272778 -0.28473460510723925 -0.62792979087316247
-0.34838046345249052 0.37968810281801524 0.50986960633745326
-0.95774869154583886 -0.34404751013726553 -0.53738779258960712
-0.38867234007251117 0.52939252205922571 0.24729346034376398
1.2524920476293193 0.094193266518971086 -0.35043331914313303
1.183276505763257 -0.25068536825617116 -0.41146354573141775
-1.0431525266458885 -0.38624663163651718 -0.64388425219719725
0.64702194927274315 0.21321917074318719 0.54720444132597024
-0.71336945915949945 -0.37746903858982961 -0.32851921247537774
-0.4372109081257527 0.29850182972317185 0.56654883795384592
0.3295185933724385 0.45029458429382885 0.59428730639149574
-0.19206489677011573 -0.36937754006155643 0.4095747709107842
-0.31999467741861287 -0.52241667283805526 -0.47799136934908759
-0.47681677242833009 0.31627215969085398 0.056927323871109436
-1.0394467954256743 -0.42470241728118197 -0.52242903658731699
-0.66418788596241729 0.13346773279378965 -0.24884016615522331
0.21716098387078842 0.48499748833452117 0.5873524655956972
0.54427587919389353 -0.4032600592759934 -0.46457187320421767
0.49144922691816051 -0.85760365101739211 0.57724454903991607
0.10529615643209711 0.66696005285950832 0.39636886719544329
-0.0071625390019789403 0.021019045063511044 0.72203137798462613
-0.63865691712714034 0.12198854115298019 0.46136233075772459
-0.393757000804138 0.33545233768504801 0.52138164849665003
-0.62070551106589611 -0.36465532708963622 -0.12931784515664191
-0.29715909689213404 0.51897226224693327 -0.18720399685007649
-0.17524110514698821 -0.63791649134757478 -0.41328561522090546
0.05123415561127409 -0.80974490622025286 0.9592070412118785
0.45727710142148004 -0.57387198043485199 0.77796082199293082
0.33253143679045194 -0.94670127085719713 0.82232410932188849
0.17484266659603276 0.24806820452236167 0.64944562666003591
0.2134310393061587 0.25920731207258996 0.66783998543671519
-0.097015272958638432 0.20527709601490329 0.63202345241158753
0.27062184403539535 -0.18563388917514345 0.75208648177290183
0.41329212549853755 -0.96794787116186853 0.71289436457261957
-1.0172143099126081 -0.33071862704050403 -0.7009333995008884
-0.73436006362104522 -0.12780065374641936 -0.46970839672449038
-0.50981371618471027 0.11061897341754445 0.55281929943105546
0.31899353475786807 -0.2257808640335881 0.59536507540829486
1.1802078599434742 -0.017636532927369331 -0.37159995204631535
-0.31533643878914752 -0.1962987317489322 0.5188288327534849
-0.077750635550486891 -0.60265785478440392 0.68800435457641473
1.1746834749670163 -0.10964374637714513 -0.37787290303146381
0.81499079257993112 -0.048691387481156312 -0.0016562037862168921
0.8218433527229061 -0.41038424321990874 -0.20419882412466972
-0.81172583496575679 -0.45506698766149611 -0.26517920205914525
0.49899112479354857 -0.89502147112687425 0.58678608405178601
-0.69044171151645095 0.080415820752200773 -0.17666210641674773
0.39232651420348374 -0.68515817606107277 0.88176004808125708
0.66272689373429805 0.3886063322738309 0.54393921457800332
0.15700549255733831 -0.43168220071792973 0.87966803530658844
0.36971754043080196 -0.20238149500875124 0.48866005210736763
0.54990161771624813 0.14915192170930425 0.53624789622327196
1.2023977382121598 -0.12360734431909748 -0.39352328225205913
0.85322054677328696 -0.070660056937882132 -0.21176151606491
0.84395506459415737 -0.22718877808679139 -0.25378805496649726
0.72732703550760092 -0.36763441473144098 0.077148424761289469
-0.42481188465370301 0.41693227640112696 0.4553929396268579
-0.38689343002740695 0.43538843834780749 0.46572426134657174
-0.46853065709591224 0.28254163626414197 0.51558075603543063
-0.73376729029698917 -0.24618018006366782 -0.38503487936091041
0.44465098156473037 -0.96799514836172307 0.68941832547903292
0.13693696381099207 0.11844636495052896 0.67785917299582898
0.99229144891121868 -0.41714966506941664 -0.33279168564334149
1.0076673310613133 -0.16971999147008177 -0.32669334034934661
0.39738987001029913 0.60964466526838379 0.50556148308652116
1.0153629270995015 -0.026901036117322974 -0.31903034570792688
0.076805640637990891 1.0679981023370928 -0.16042476300599695
0.89035594966757747 -0.033973343630236741 -0.23032703983099267
-0.47509303894328747 0.34087761335393907 0.47656309339451752
0.22089139858943607 -0.12277252815326278 0.82797189145231265
-1.1136437243360766 -0.54609014623782315 -0.36932975849533189
0.72478245679522768 0.067995173899511485 0.42554045205085433
0.027081390086196144 0.13271128037600732 0.65875194937952219
0.32390678402450979 0.60293978607272436 -0.40540563486009518
-0.46319174771805915 -0.0099162420238556592 -0.26910231577701627
0.37590520430320318 -0.10610311736399325 0.50805089760383293
-0.71527919935073836 -0.33852980121260856 -0.36158541006861977
0.21124247641850835 -0.69702065325542151 0.94282002588813629
1.1124008268409586 -0.048909334930662851 -0.3477211020859281
-0.48702386222964056 0.50370373432920701 0.25174958190462338
-0.03005464894476173 -0.87660876255402087 0.79950359451261654
0.29477539682283682 0.479459525460328 0.52424757786216425
-0.66377761370101029 0.21514587125562912 0.14038082684497155
-0.0035654321258526966 -0.099004299330296419 0.77444399837478795
0.024797097338610907 0.12762803816190171 0.55289682563305664
0.31917780749910163 -0.82091773632460985 0.91817749771117718
0.23063078805069082 -0.1160240696754542 0.7584918674550174
0.23708796444134639 -0.76262757481040211 0.88813062748406946
0.22245513850790322 0.46563241951627532 0.55085922217759098
0.55010189010461596 -0.62153927995083791 0.66788550580491979
0.72341980693303398 0.34048366400288899 0.5012492785082463
0.55121374477203444 0.01352824100865746 0.57113710302229315
0.91872564438415383 0.19510729797863036 -0.48837776255926357
-0.01203074150422645 -0.82378374092829176 0.92936914760295153
-0.069503725708705666 0.60815031444897016 -0.28088910595868022
-0.23468000827370816 0.30374285183461325 0.57172179362151887
-0.83838699667103089 -0.34108082066076406 -0.43714971286862969
0.18059078495920944 -0.76400965063773185 0.96464294534423534
-0.30370199598362868 -0.088003515540528099 0.64420751932793685
-0.76390456699939757 -0.2588224756799562 -0.44242633608394755
-0.15010027391846092 -0.25276637744583752 0.54108054515622772
0.53995339022714672 -0.9080876972825962 0.63514081872535044
-0.75546607725240844 -0.48289408512275145 -0.070724126412587296
-0.14044939179489857 0.36614596730669291 0.59562357804186039
0.38340850154937423 0.372022357523214 0.65940662122899418
0.54347837478346239 0.1609011609092903 0.59563989817529617
0.26557961088462156 0.62808125852362906 0.072957052984111037
0.20810096356448371 0.28972677532636482 0.67023530645558527
0.39798412635189218 0.44357058127658178 0.59274201729171594
-0.79769579527604728 -2.0161335569593177 -0.39759270640794764
-0.19139570582281595 0.41686908275525525 0.35621135324072206
-0.20149063623449726 0.48124362932082221 0.39978328990746537
-0.27293515280892611 0.22902265162888114 0.6697700910625386
0.25345631631577903 -0.91624889693061817 0.66610969329547132
-0.74911543144022552 -0.30811619683129265 -0.40228991812019643
0.85869834612702078 -0.19566551866381587 -0.29662069075866349
0.17752740959972169 -0.20119179179485513 0.8364033923532519
0.39661855212276809 0.23366448243958615 -1.2160997783333505
1.1058301981723215 -0.28308811895582409 -0.38524785752577095
0.19749176920984501 -0.20297810290313123 0.82775947530975014
0.18413729097976272 -0.11857922613525318 0.83459560440747538
0.091446081231171261 -0.10551443786737735 0.83747277406247189
0.50476090662208484 0.38921197508233973 0.57662608258703774
-0.86392567602465498 -0.48043744366137275 -0.18612195364220785
0.86931206981287246 -0.31475022191928304 -0.256552693028544
-0.22842981351100988 -0.026107240089586981 0.59289803700373955
0.040520059260124697 -0.18513053530777057 0.8187956819150477
0.35980981183379601 -0.5427103484508109 0.33207532902833758
-0.97483321934399392 -0.5482110941818803 -0.27388039693239108
0.8499360377651668 0.20689187021994826 -0.10516887197693592
0.2597110135363192 0.18534534652083323 0.66749972451258355
1.1572396476509457 -0.022125681289601573 -0.43092442709702983
-0.53220794968876417 0.073470611423175569 0.30804752743169228
0.53549503283145272 -0.16635957930154177 0.35552011314829635
0.3703291521380967 -0.4270454249038238 0.26319817917986565
1.2731481915510594 -0.094559957205149203 -0.40470771669881245
0.245802264401213 -0.59250285058141117 0.16723849192287776
0.046544053762681781 -0.31399776799857904 0.83236252368470964
