# XYZ point cloud file
-0.20930265212884436 -0.14142250054459282 -0.14511264579215855
-0.40785251277191659 0.59231241352954811 0.29896415699764667
1.3876393268536447 -0.0081652628703068331 -0.41730506145757928
-0.23040254337478761 0.41106857693179677 -0.58729184220238118
-0.69130765366596103 -0.15953714321057078 -0.48145427871953395
0.63466365215432274 -0.12008158424594484 0.31634813378570215
-0.98198666423685532 -0.30912205951137395 -0.092200814336194981
0.52766914834367018 0.063110549704092023 -0.061445620622121666
-0.31304462341653583 0.070601075606361974 0.65982242053364537
1.2209525567583603 -0.21836896093183356 -0.38311827959960532
-0.77664603980141766 -0.13623394865555127 -0.50869216811994278
0.18510727805297611 -0.22049988952889521 0.8392006840629076
-0.015032304945027164 -0.87016176602784157 0.91582640355137457
-0.020665084317333271 -0.82921351898077944 0.73852790771100807
-0.051387639777002558 0.70360919629106888 -0.60858151255048654
-0.65529639684544128 -0.28054307081301033 -0.24843170519202928
-0.30130785666859827 0.27282418776340478 0.64497210995545373
0.19560820347136509 0.41387366875058973 0.60876682171418395
-0.094387165252136196 -0.38808279893343212 0.58370940047372244
0.28373945984696602 0.4640339703740608 0.60553074120141126
0.0068094972659560327 -0.4421458592514611 0.3057674852965615
0.37239406085311444 -0.49307975359067058 0.49839050492509962
0.3297418152030227 0.44813520968472886 0.57843981203500583
0.77010899590184811 0.37408843591140339 -0.15375907509222664
0.0096125601832377505 -0.20596744796748823 -0.10050633742553927
0.061199844992070318 -0.36154843783162249 0.85429854799945737
0.50157026830722229 0.37839872353409731 0.58348628444227657
-0.65304573211832606 -0.35745259354571601 -0.29543180882064135
0.30366147494236362 0.028638531204165929 0.58640848030127657
0.059862860043924826 -0.16750414908439382 0.85583350725238638
0.23536927132207675 -0.82069634812543768 -0.27878477000585278
0.82968571798935331 0.29751572756429567 -0.32524318147177667
0.3111886232685892 -0.063925036049084838 0.34970343938336335
-0.18072321211528086 -0.10540000146866646 -0.064998146848278537
0.69813203754066677 0.030829197468840164 0.47082443267565033
0.18760365464518181 -0.10181861783845392 0.82859348449028758
0.35639907903533086 -0.7959718939957483 0.86676974291644981
-0.6601175112360016 -0.47418777295367676 -0.036948358835452666
1.1470500572535283 -0.24253881320790072 -0.43935065204304102
-0.37719434755844095 0.39168226659080574 0.48636671362181616
-0.36116792343882631 0.14648355515318201 0.67726034006595803
-0.2979690311725216 0.20527520285914136 0.6814269647075939
1.3853673577099581 -0.05023728385495474 -0.42677450756489499
0.22289461310468273 -0.69185726559909 0.93346801418287662
0.6169212629604468 -0.041435691908937144 -0.63442762497003713
0.11322344796334871 -0.63254827616518128 0.95081095625262968
1.1684043634152768 0.069026243315114755 -0.40860878511889531
0.24546808713501456 -0.14183154273783316 0.77572817164905672
0.52999100072924854 -0.91574293567711607 0.61332658928134975
0.47059685911010973 -0.45580866785782348 -0.52786405368349598
-0.14990940719569013 -0.58999192105358134 -0.53498064966117553
0.36881766129440141 -0.19905399697086068 0.51185156960614719
0.28896639999601303 -0.68871477492204036 0.52300953704841646
-0.6843455897670192 -0.38526295424393453 -0.31807083256667923
-0.14984422814268505 0.12153062383526958 0.66816817733830014
1.3752546725944774 0.084286676524790494 -0.36775616413659407
0.30613129783204229 0.47663675175792264 0.60022930928238516
-0.643089630912141 -0.36448778037658514 -0.25187759486393801
0.95082081760014869 0.060822056011055281 -0.32588209232294929
0.67291180902556791 -0.31426792940226278 -0.43767277582449182
0.11931031904091993 -0.1985789579037629 0.85244763042996574
0.9461178484896382 -1.343576597516865 -0.29997603451197641
0.50141317918455952 0.44146984400559575 0.57385994656006822
0.037859731255256879 0.10952719601342409 -0.82273182457799443
1.1560739372551168 -0.29305882505281744 -0.3363415891376409
1.065641733575124 -0.31819744754590573 -0.30138278992420808
-0.063476090474484437 0.40116614527299532 0.4679300600226064
-0.89606294826459765 -0.36165905090054906 -0.46627697194219841
0.50427175483491071 -0.95627361880186612 0.61873691905502604
-1.0317696022159555 -0.45906424904062249 -0.4803976693693226
-0.31604975682371306 0.35376549961434733 0.53311464681569731
0.61997803585765299 -0.41008441176268207 -0.13804049152216891
-0.90075027491831339 -0.29684214334581327 -0.59147435757273392
0.3841559380507702 -0.3577896368238811 0.57970986882207853
0.48551017903134319 0.39386224526788993 0.5841290107962358
0.10749394879983143 0.45237829208545577 0.59603919885911694
-0.58313473681878936 -0.37170431867517806 0.046254348270457157
-0.34476332589284198 0.4326945710915524 0.48945424330757703
0.36677086518586188 0.1588516599862615 0.67452095880085317
-0.72218788845166904 -0.27866500227252544 -0.37485642771268246
0.47211597749993395 0.0203297779978584 -0.57651326960870719
0.1895099673889713 -1.8498403056649551 -0.90406553840717585
-0.04078131267524876 -0.82748065555210815 0.76237075040541669
0.87544321519916446 0.063628339112952403 -0.2931511032309313
0.12262222550588575 -0.2405696176795189 0.8295682877064845
0.8056492933341346 0.16958067466653404 0.13423274842182842
0.17766489827108112 -0.81209703974802494 0.96981445232318642
0.63739070122132535 0.16807228126601359 0.5605395852686712
1.0914559519396532 0.16286629890753801 -0.26581114378654114
-0.070816717294191367 -0.67395884998280309 0.76516932271449711
-0.65831006762720712 -0.43116676832509171 -0.15330016176422134
0.59707301255502321 0.30657745764449373 0.57044579211349422
-0.42004610978281898 0.18694150801378839 0.63789470574850426
1.1774940391819184 0.054558448640158019 -0.36444725453948834
-0.24819471857911601 0.13758564466542111 0.67322937374813385
-0.96229187064625554 -0.19837414539021125 -0.67605993109834017
1.0637937077912545 0.22472682099562036 0.084612646306005956
0.50043833352140243 0.40264505534391759 0.58024052212469179
-0.06945955517700142 -0.29261773477040975 0.69797002301781852
-0.057626016529554125 0.088182561426670247 0.68285791197274293
0.12887984558102872 0.71083669655768489 0.53312216659488065
0.7541535466710152 -0.10004051897627164 0.1495549784246144
0.33737873142610963 -1.0325439359314927 -0.059730488078477251
0.12037559495084071 -0.60241110156429301 0.387231591305639
-0.82315302624990361 -0.36080832827666143 -0.41498538598333745
0.24734476137179406 0.45958682514807947 0.598895461532992
0.3835505246459805 -0.72468408431349474 0.87739428621202364
0.68532701484348957 0.4546452606587863 0.077851853309475416
-0.068142029026856399 -0.49459432992295405 0.49379454750516061
0.87483980378283288 -0.32110551848580826 -0.27312063950260246
-0.47209718260994027 0.29753338392485063 0.48703525251560542
-0.31117383825179301 0.066005579759782051 0.66447693205253167
1.2081270993116124 0.032110965745062003 -0.38496484084901716
1.2276377332235344 -0.054979485350663992 -0.38483889100879232
0.13177178376897736 0.65558819881326968 -0.20205517836177478
-0.51753118577557933 -0.13990924176655284 0.46619702393601514
-0.34340489780776506 0.29405427613688317 0.62254215404011326
0.049623683359857118 -0.73443516511633078 -0.03035404653450513
-0.22989569260460563 0.32297774230050891 0.57875829568622628
0.9088191375889596 -0.10533956878789041 -0.27451712638172765
-0.27539361116541272 -0.72366500229084352 -0.12840199184701717
-0.56329649862456588 0.067185333180383111 0.52620045052563569
0.33748368993603295 -0.2686488413887389 0.70446222208223652
0.3082840786717207 -0.75168832950459574 0.86936008084249394
-0.66001768646252446 -0.013575002089616817 -0.37972272440212329
0.17919508679919938 -0.072008979358052727 0.78701608057872896
0.0074749563653848661 -0.83596401401275244 0.72207815557449173
0.36563694542676695 -0.76661287720011728 0.84914309083710116
0.38077080229406501 -0.74622514549616881 0.86776097916891359
-0.48312070583955169 0.11465400086671451 0.54931388515816693
-0.24645317079746976 0.025735098294703107 0.64594849164149082
0.031348747920851405 -0.1054512935452081 0.83059569185660287
0.078493671000241072 -0.21276645702688057 0.83494329227976927
-0.35281492487606059 0.60870897826872294 0.39376494696670328
0.32613059362470853 -0.97277350908527183 0.71336315880623324
-0.30478147633905239 0.15426995169057989 0.69396762386921651
0.69286623788405466 0.38721763073706228 0.18545531163882956
0.15092467707675317 0.33625633812638966 0.62378391515056819
0.15344870583194803 -0.83172403237933423 0.96883687667495089
-0.24299426813895098 0.24206934737318875 0.63636422345618548
0.41188625773634469 -0.53188192075531759 0.53659593192025845
-0.24023447429105138 0.067068476476798367 0.6749129842581123
0.28446687528507475 0.12342716851262736 0.67596309972587143
-0.39957874889103806 0.19584700554273837 0.36921833345254207
0.79198331712859105 -0.2244473780493621 -0.17727972013997295
1.0072153251372216 -0.35549732808648571 -0.24587907917297258
-0.75933634211691992 -0.45988650714279089 -0.13540845575118077
-0.39959051185668804 0.19169349686103487 0.649520760732198
-0.6400613465611511 -0.34696036431731869 -0.24240921320034126
-0.49097681641418145 0.27879971481788601 0.47894936795699294
1.0379844914181939 -0.12741721254583638 -0.32773876306760386
0.14861752290226793 0.52389098465894079 0.57843046027391054
0.7202982819283652 0.093579186296217642 0.47957162877215609
0.11901300714594987 -0.11052460973026257 0.7793706762101813
-0.33271668116971087 0.020885732699099435 0.65522715744354976
0.17717761127887588 -0.75548215688564113 0.97126677479860568
0.29305923964947445 -0.77104205308993556 0.87471211341932253
-0.47046580862035503 0.29833902149999858 0.46835583405737324
0.25501728172717009 -0.21972657163357923 0.78610883099693041
-0.41253688126773991 0.20578263359640658 0.63648435602462428
-0.19825036707411847 -0.48869928160979725 0.28176437843228364
-0.3336671191558529 0.006770717181211694 0.65288546364392097
-0.52894087383236554 -0.18209451485100203 0.76119915652247272
0.78518895978335834 -0.4186104389569536 -0.22808045331059112
0.32329121389850135 0.38772124522238016 0.67638822469617388
1.1281475929593117 -0.07051818811518018 -0.34611377049654735
-0.99276148694892274 -0.36466432216746369 -0.57653363291181314
-0.56868853256710228 -0.47992451375115053 -0.29558688327584726
0.40801052284314476 -0.2777350053045069 0.40760952347518753
-0.062408489780145349 0.19536957998824533 0.64139360684551683
-0.62743869538508124 -0.26669437281960739 0.094146186868622195
-0.53549636344344842 0.25256660267458386 -0.053701159855302549
0.55130168260174051 -0.93844055819846517 0.67886267040683634
0.28537650857758878 -0.45074087990234801 -0.66991348280626184
-0.077851187176329883 0.43829535465593494 -0.077373052252760033
0.61550323812520613 -0.10934533682140568 0.74444093140484746
-0.34287672808286951 0.20277762773068275 0.67206904235155029
0.49577499364110089 -0.4716009420268108 -0.44532658493195676
-0.7470852510427366 -0.406242444558508 -0.31956050675429282
-0.39157212668513797 0.58668897249427943 0.43339802976092656
0.33960758380418454 -0.24645018720581646 0.51327839768139505
0.006333376690307535 0.49364247274702677 -0.63961910293610913
0.3622007604775801 0.3107258888192419 0.69697218348341572
0.34668415051255419 -0.26163212657379376 0.50564714607676819
0.31845362886687623 0.20900823056192053 -0.48188328973076899
-0.38841893756125989 0.09044914645079416 0.63618580676390835
0.18492546945074562 -0.29226254107035743 -0.79635074466183298
-0.63259792706844742 0.24774608581907387 0.42250193590406404
-0.34053830505131355 0.072275327081229079 0.64002138983809331
0.97936165017843235 0.11321115550806837 -0.22061561414183473
0.41748168435949484 0.46153657740179455 0.58129279160472791
-0.25400591776349923 0.32583887821085966 0.56509189015358174
0.40071201802499568 0.013074894866520026 0.57559328269857879
-0.29921646336618934 0.2618959128757723 0.65211536956135951
0.76451440361579159 -0.62944484534014578 -0.81789288178441844
0.56810340750923505 0.21613159782137359 0.59235899988921048
0.18249156020896695 0.53304034127162225 0.39436118778807483
-0.73995147882978252 -0.13556362597191907 -0.51247047666453582
-0.7131744091285892 0.17108248978023255 0.39991353752269099
-0.49981735432079288 0.24957382193264976 0.48150143168089166
-0.44891413933308622 0.18187498247723255 0.60396108925398551
-0.18560589064484034 0.39863384662502455 0.58127730893456508
0.1746184627182541 0.23843592217678378 0.66075680661851166
0.42893609229252849 -0.87803306423262484 0.85502714178015538
0.20370224663419112 -0.68577266610571286 0.95974665843468898
0.12632396702406457 -0.16148512690635641 0.85474790340608564
0.14617610778920564 0.30312212442490249 0.64207565508190712
-0.21993275132318102 -0.18021861065025746 0.25106317237761644
0.13864684403410044 -0.093402795107209613 0.80540233629796631
-0.34433353311509585 0.35875896659841544 0.5205035508172049
-0.61397600850552081 -0.27249718305176884 -0.50125976717423093
0.058706814622726089 0.71429812919512159 0.49910732220565457
0.028774283200268425 -0.9240456269837054 0.89444229885089399
0.8299399681048385 0.33322132430926388 -0.21783569442533235
0.17321057818350116 0.25123315192256968 0.64179030935823889
-0.56134763104047236 0.21662655481991067 0.46971112451104702
-0.32958513030285896 0.28460196525271897 0.63287488773458911
1.1805102899816058 -0.33852099974318861 -0.36422609313249765
-0.32680171753219467 0.35504535508781743 0.48105518140261516
-0.72828447707603416 -0.46579235140368525 -0.2308769607831973
0.80672666995410891 -0.24734144703811012 -0.19786758634949919
-0.85645492590818861 -0.49853979187877684 -0.16339351291385995
0.32593631960827363 -0.92101547131771611 0.63956036117342308
-0.90449209869659297 -0.38581698633506534 -0.45030859609708429
0.21627624328837758 0.48594294659655191 0.5891364402541921
-0.00041670646213942675 0.47573961533138487 0.4616244820422466
0.34130298606299236 -0.28588698307579108 0.54686044268774481
0.17563066775088432 0.15809649938780979 0.6719004954525829
-0.089204929810625888 -0.22137411448446898 0.64391840645098952
0.22040936113664555 -0.73109679481461143 0.94063788416819705
-0.57209058082148001 0.094168134213994392 0.51416263442298238
-0.064896195330120587 -0.68166646746858817 0.019759368730232652
0.13819656616590592 -0.087322201649833175 0.76891915132458877
-0.69540011072954133 -0.25617003943890637 -0.33533249546919919
-0.72369712141055187 0.17411604285050686 0.18012106879808876
-0.80024640362548194 -0.28404149457281136 -0.48117621720073167
1.260413184694662 -0.25463488286307268 -0.45226362129006858
0.43417499843487217 -0.44448898610167475 0.11634689191019021
-0.17968520348689143 0.18074696383477828 0.64295559202097863
-0.38971905381489114 0.25595273182776168 -0.6198913289410477
-0.56408540269280394 0.18732972169166118 0.35194730573011057
-0.29470138122166034 -1.1907718259065305 0.096206810195463177
0.15770892330223818 -0.078511553245824928 0.77256575831436614
-0.30894908516509867 0.38228953014822054 0.52482401050180094
-0.19958238803956974 0.18494614404457366 0.1239542134717091
-0.0096631298936458165 0.39226151262511877 0.62234463960404263
0.35404096221892045 -0.53662601255263809 0.4846911423578284
1.2143758106329998 0.1902051502784019 -0.36469876184101402
-0.70864946380677063 -0.052459044261055965 -0.11465442108567281
0.10977986312721155 0.19702876974954364 0.65431892823984761
1.0001841482212717 0.05844118997085701 -0.25336833298608497
0.3528140054879918 0.20935267554662573 0.69879773071273377
0.071872988556209716 0.55507584713786429 -0.056693435772627865
-0.4029222827504042 0.39291949668516679 0.24886935524244436
-0.31571530292870165 0.30599280849279609 0.61667369920334814
-0.68760096734720078 -0.51038645651242831 -0.053465583527174232
-0.72020510472948684 -0.14043202281570899 -0.48310188010211874
0.094146682526036862 0.32707829978956937 0.52565039421544668
-0.084435992564723783 0.40090104747092425 0.46343358073771235
0.035426104620750021 -0.091159239775528533 0.7666221368689996
-0.018574745719852181 0.26429870508448516 0.63693754435835892
0.13418264151898418 0.32131374391224199 0.63813979500457663
0.13496618974359631 0.236582580643379 0.6529753241815115
-0.16151859032693094 -0.22843992006970382 0.56934654337341684
0.40704481333760123 -0.2483420007320376 0.43860805993358376
0.77386427025299742 -0.23480839572999201 -0.12519743345874979
0.37815481553091779 -0.3736120881250713 0.75759898876672693
-0.37028325365766435 0.32334526325011836 0.58034570938088237
0.21316562451248799 0.18170416732755967 0.67869055272052847
-0.66560550896543358 -0.35006851311516129 -0.31899831183100424
0.68372878773533197 0.28396150090828343 -0.51388122234380695
0.17445358179937642 -0.17508122415976857 0.84909926283689074
0.66054264750520053 0.50118317891847397 0.51307427954385965
0.66697914001501601 0.51121179792760785 -0.29473545975584159
0.23587714353704214 0.41544056358786463 0.65956834625558258
1.1386019147125239 -0.044645216103681662 -0.34852517227013635
1.2325554500514824 0.088122959243200683 -0.34975101123790253
0.077412438556718755 0.076372736598344204 0.068457775292381839
0.65703756563924243 -0.050495086692812663 -0.59937486151492614
0.018511843553183471 -0.14936375350792019 0.80996843566750876
-0.68028507119314208 0.22162494965554913 0.17913330412243766
0.94160803302240925 -0.28058064155343487 -0.29376989271279896
-0.5089414372778247 0.33681546861856759 0.047236204603617438
-0.3130175810403637 -0.19854115943859085 0.54932357599778037
0.301114345976492 -0.52855218680334559 0.41650976374143234
0.24169780437550425 -0.78532943873474181 0.96093427796719944
1.27454362920402 -0.076493625647671593 -0.40830779983037324
0.22924589953547159 0.31904626288034876 0.69852866992368767
0.25030197124949272 -0.71314805224645283 0.90232105866033407
0.071495696635790473 0.47716590514411905 0.59861194184686362
-0.27656839068160943 0.43170552275681473 0.31078007562414811
-0.30884775118353147 0.059556566009398182 0.66717390606189397
-0.95992331190743574 -0.49197117324025896 -0.39396499734399093
-1.0374166118742014 -0.41059255585104637 -0.54577587174888897
0.15403749680521095 -0.076962647858834998 0.79266982292432253
-0.87148600162480649 -0.29294409910102814 -0.5561588083438842
-0.55604248477328566 0.23239924189228844 0.46603250815340758
-0.067137903607290994 -0.87933996471219444 -0.45143973950007776
0.85777205277379753 0.10658894400337715 -0.055884583160633383
0.25568731836456449 -0.77952434644325308 0.89078451024881744
0.46196458625228676 0.64018632740522463 -0.051135532589539068
-0.64219965968859904 -0.11220982685788528 -0.45006664876465585
0.80862262716082078 0.37850531969222345 -0.22987816280994799
0.38753955772837845 -0.34065234441396086 0.6484649595278853
0.33321389007584923 0.50230385011922607 0.58283408977468731
-0.77520133181542494 -0.200883770611199 -0.62727016095825938
-0.083298953998385716 -0.0073823192139883531 0.73847746375034617
-0.27136236679979175 0.23421158663542485 0.66912049741338642
-0.23675894032371714 0.340959273367055 0.47082744914724017
0.31660747851222748 -0.2282064838195268 0.69903872361917863
-0.036833013077527621 -1.4211753913070808 -0.30341881504389967
0.49492724627421936 -0.95950140614325363 1.3188305928404418
-0.33040661595364895 0.35140101981549066 0.52721589333572894
0.90233072595557839 -0.24329129729105858 -0.29525233184611288
-0.43260281703107495 0.30580790773878164 -0.5048813524528164
0.6451346749211182 0.5406246211214949 -0.23685210185163186
-0.25374068206414879 -0.27155380148739994 0.47174051566051745
0.76442561004886755 0.24550699847900148 0.26106415235189573
0.58147533310833621 -0.51349223837890179 0.270940070621986
-0.57417602469032847 0.23441018073998521 0.45469968099580527
-0.44737410244496889 0.14056966918015235 -0.20775252177280379
-0.76684717392553825 -0.46234713601248245 -0.1558482336161191
0.76604627631434452 0.29529365561926113 0.41307207312544136
0.86131529032929377 0.068578131669305264 -0.33406042786397627
-0.50732606232266475 -0.028926062676170261 0.57131711053300016
0.6661736500553781 -0.39292446307199924 -0.13452904436743651
-0.80652346919562934 -0.44390993132855527 -0.29956958318775584
0.2168565621346672 -0.094626564825816217 0.81136164331826244
0.28469707408443501 0.65874199103765108 0.5003815258610409
0.8221652461379243 -0.30595222931409438 -0.19408257676300877
0.0050362936713224116 -0.1867402347954723 0.79088173771082104
0.42061435775453404 0.24344591745995814 0.67905675521543252
0.2583123407482355 -0.14927283609146258 0.75785245850395633
0.43875287070852931 0.27321356228242877 0.65923897915624252
-1.097315003756163 -0.5056785037041962 -0.41669291935017228
0.080762722583564539 -1.1492031338075748 0.28596237831319726
0.20572314433882344 0.33394820139809411 0.68422797973351734
0.87603657677880387 -0.24718573696748081 -0.27355183342536371
-0.32261751359430235 0.14936645895261336 0.69037885726987547
0.34620026991697772 -0.71618704315144299 0.86729796242762625
-0.15205649694214918 -0.52242330091544886 0.30062889277288285
-0.4606205787652109 0.13097704133888044 -0.64602281887000146
-0.82658003859360907 -0.29454835281568847 -0.49769645807782759
-0.90998677309260234 -0.56375338133016584 -0.30306004479890447
-0.86755501287142556 -0.25203711195366907 -0.58254429015859088
-0.18532219758864166 0.29681040587918517 0.59774688241195939
0.50778747703792426 0.31713782926976819 0.58010306597760675
0.49746287555853774 -0.74678196073018199 0.59155339196223622
0.29205900617978786 -0.1789723321155634 0.7032542326847846
0.51273002720818717 0.21217575502141983 0.61789302767734711
0.6851078107161257 0.13843693028378112 0.52551793175901906
0.79681782508149945 0.37436719560380993 -0.30003809077107668
0.012466315447735354 0.42671532329633521 0.39623390101171019
0.021934442113443531 -0.36469358891514503 0.19914771743139603
0.85398006972487162 -0.22749151380009636 -0.26556870142707822
0.41861711394707601 -0.51911926522480201 0.80269833207469432
-0.55395880598825276 -0.50632561084296412 -0.16071253334358993
-0.66847786454636138 0.1923543176634368 0.4239382895492394
0.41464839783832108 -0.66314093980178512 0.5337600557932749
-0.92312091364767301 -0.34024346390853566 -0.5184508533446941
-0.89816375062314879 -0.31484657213889022 -0.53846249116092793
0.033352792030146183 0.50440495177097233 0.42961021538225452
-0.060637188501158512 -0.60776579702681488 0.65001780905316409
-0.56680862264347276 0.14721903444905848 0.50277137211607936
0.013011060602861058 -0.1381594215326345 0.78942436329333887
0.43856494556229064 -0.97865149465781798 0.67131060777827223
0.43681300480459884 -0.93783214823265837 0.60822856512456625
0.49671943036666466 -0.2519117826473618 -0.66200532055739814
-0.59520975691907996 -0.20404011993138482 0.22764586793090125
0.056697724576497688 -0.24761808837541111 0.40095378437485607
1.2831138851243069 0.077948896751522057 -0.34368192801054143
0.084377125202286241 0.66247484039094218 0.5697625091049261
0.41677138487609033 0.24855406912209332 0.68510936019925595
0.49265227476742801 0.46602797843001298 0.23766304685355522
0.83439364955013717 0.24443063082608063 -0.36205646489287346
-0.11876684255502523 0.19876015026462568 0.63738747409660412
0.090058065296472645 -0.91077133167208046 0.93069337212260805
-0.25457404263763417 -0.30560901528674833 0.43106078663525871
0.37581795911834925 -0.3273143228632307 0.60870601871617147
-0.27835417534678264 -0.55405634639811296 -0.48709339586442546
0.2937373659107636 -0.027138128758060986 0.71041085726474229
0.23952913440432422 -0.74188435353228499 0.89342254962306278
1.2232678751387209 -0.1513939488638556 -0.35526559180670603
0.2184479782675206 0.38730914201860145 0.67389335105803916
0.27505297049739719 -0.3947427931836387 0.84130908310675068
0.93368157546100194 -0.011679672426822663 -0.23836783285653418
0.34874391398429516 -0.40372319824485459 0.8066367998191275
-0.021969580671660438 -0.17838329842305001 0.76670468433806604
-0.29646795385123692 -0.0693436127415481 0.66224269647878309
-0.976341227120475 -0.49530181341878432 -0.31023875173671378
0.14553806443936779 0.26423578998201691 0.65383338039150019
-0.31612690757357909 -0.052699790050510842 0.58396414148322151
0.53843575848946879 0.087206961471068212 0.60451326283120999
-0.24183367911240117 -0.13277308837285773 0.65370828256900992
0.33087248137835479 0.21070168685864132 0.70141732586246519
1.0944634624706802 0.1972839991788149 -0.26461820003620495
-0.9761720332067001 -0.32252275234733929 -0.63037162728418927
0.69008566516506953 -0.060796076786417075 -0.56728000395948719
-0.61371849052879401 -0.36898780683696941 -0.10080665955746504
-0.52039501249389408 0.21648224230824553 0.46767625935665968
-0.49111030847296089 0.20200578239484202 0.53293536702561539
-0.74063939872105866 -0.54032197512576374 -0.19406834308514043
-0.2974551230105078 0.36115624473223562 0.54035810955712726
1.0693700707794265 -0.094711050227559213 -0.33477713233287787
-0.53860255803638291 0.34042864686711738 0.20953011085332918
-0.37788934745900349 0.36438846056022101 0.2164164259496939
0.36046104422631275 -0.23331014239604286 0.49687941915374267
-0.50613404092132797 0.19414641271663413 0.51038084796459771
-0.29614976533700155 -0.020798254777282921 -0.76542160866243059
1.1549429593181855 -0.2827599428272336 -0.39618961063387381
0.36091004218035971 -0.31561625438239815 0.57446472069068477
0.48479710093473427 -0.69499108622292738 0.58753746987246913
0.25211125295929993 -0.15995622398176579 0.78095318484485432
0.15685210936359839 0.058287198920552896 0.70960654897099928
-0.5776917429056887 0.33834724996737719 0.43009631265497994
0.33737436509731467 0.41193036710049569 0.65357824424866173
-0.45077455784185405 0.074791383667900391 0.60132594151498964
0.01553824554773886 -0.55118281014953396 -0.64092740453133779
0.77132363526046399 0.16877284013483518 0.41657698799589049
-0.047285735029342302 0.55314922537673539 0.10468926943266688
0.2332886457591794 -0.76617478043407772 0.9266516186977416
0.90157619958532775 -0.49240421072944685 0.24122214757131033
-0.32870369548760392 0.37748097985758733 0.52079645447793155
0.92996694187333873 -0.31545843289283937 -0.23562451533855011
-0.24401865061292449 0.52372145408181581 -0.34522386583988229
0.090416999373749807 -0.80102929885703844 0.05003152034647762
-0.2506159952477458 0.53210407474910681 0.49420046875761514
0.086291290201108595 -0.026858446439305794 0.7291537516143336
-0.70676640695388526 0.01502061375067143 0.059108442873897715
0.42755155855544791 -0.67902620236080224 0.86173944532931301
0.93641937119986673 0.12007270502256517 -0.23929909895027812
0.0021518196160532632 0.62469062893504201 0.54069014921926595
0.35710268281275237 -0.65371100039160268 1.131906016613673
-0.47218087282018706 -0.11651185768830885 0.56191006213892791
0.084163459060800694 -0.090916819558223949 0.77352890444477751
-0.17113336497193643 0.42626468876106571 0.3974723367868247
-0.42842227779551356 0.17916464564046208 0.63312841565403488
-0.55177273275983696 -0.4378043772076694 -0.011819916072351333
-0.55397149957596747 0.2515394949792622 0.46233654882935582
-0.36161435285429722 -0.0070868283261091847 0.60341767711723548
-0.15871593295012776 0.48478190098338558 0.15697918561084023
0.032740242234176709 -0.091041659331082769 0.78541390069129946
0.0073944014755240595 -0.083518897698013461 0.773915674003673
1.1219507183381956 -0.22415010693755733 -0.37648265362681421
-0.60634129858465435 0.18476591708336798 0.0060232237604864736
0.82381448816889868 -0.42065083110466617 0.6450693468149904
0.45848816473161902 -0.62434736612436126 0.81287629206450163
-0.19055266831004802 0.19259322197695639 0.62184473311729249
0.26310117609389083 0.46567310760723046 0.60206563943217262
-0.17979846111492748 -0.34774030846750037 -0.7183969688806684
0.15630328403207638 -0.19872021603906376 -0.031174205130518828
0.28621782174445132 -0.23606345138095008 0.76621172975209184
-1.0875570145526554 -0.48891982197159933 -0.51792350157603195
0.55003429846880669 0.52481972402521393 0.57996617509814286
0.11540738403012618 0.25231095573023765 0.57619688017388349
0.38450862550037579 0.15015880371829127 0.66087384452085729
0.63438163405517445 0.32329683354655003 0.55995688088368212
-0.26596701950984603 0.41879950843245695 0.17853159562092102
-0.012386459218177492 -0.5722785365959524 0.40587002869772171
-0.050546736674406567 -0.39997031460872279 0.79438847921270472
0.54015540825673236 -0.83855917723546725 0.76251060004887528
-0.84960749346013431 -0.15814206824194343 -0.67597675782201527
1.1080599962083606 -0.11222188551718659 -0.34730897983210873
0.99014746283673105 0.16051862104675507 -0.25369973528452583
0.32664123529035471 -0.24737050296785412 0.5737704085126083
0.617497306963807 0.28044934637938468 0.56678378588932077
-0.49042650155731904 -1.1075084803984794 0.064620678673767529
0.46242801352379281 0.10586433260854733 0.63949872261619767
0.83897468198441993 -0.20507476098696031 -0.27404128180792142
0.40564325858168004 0.44204289855875345 0.59798803855085403
-0.45756234553254371 0.19942544466063339 0.59068133597786954
1.0579146194004201 0.15351208075300349 -0.2521350601952097
-0.76560444556563212 -0.28112094081991756 -0.44271414100463424
-0.43482918107665469 0.17053300465299515 0.62373402401779821
-0.018014997860803295 0.53871196165398771 0.50578097259491273
-0.16662615197465724 0.257531681174612 0.55596943716159153
-0.65696622786485159 -0.42361331043394301 -0.16546614057049069
-0.092118991413523865 -0.40980471194654911 0.59516444780433453
-0.29969012517612814 0.026387932635131506 0.66443882482406025
0.21285709044606049 -0.68680108258755723 0.95688626441487479
0.1207680188910456 -0.21659751600250843 0.84606210372198909
-0.67887075954483311 -0.40949481817699507 -0.21896038746787738
1.1070037538508464 -0.14906730608775121 -0.35409620665543073
0.34931000291355208 0.064784149455412887 -0.79956310755681947
0.41445328242057178 0.11147574873101718 0.64329137762969779
-0.61594766457963512 -0.3655788077075286 0.72835791319142196
-1.1092893717342154 -0.3655186407157629 -0.64489290714844216
0.20340422571058614 -0.10401664420373891 0.82692828737044621
1.2095640378979171 0.051526313237793886 -0.37508144183423298
-0.75982630076063318 0.25104192525589042 0.28476422758271802
0.32978180230145826 -0.62420196443032694 -0.29902597961529942
-0.43853935114314746 0.29135287097937379 0.56494089793562452
0.22006918839198875 -0.82375144979552317 0.38751454582354761
-0.56488462996586142 0.22017352139000224 -0.064024838293592623
-0.63116940723463344 -0.33737683365243498 -0.19262073036329319
-0.86987578441423441 -0.49441748433614663 -0.25494353731138553
-0.5033193514584231 0.28572528838452627 0.48187063809010411
0.27202223648070412 0.42560849242277499 0.65462351461711776
-0.49563225151904655 0.51320179903484586 0.28007687517055935
0.40841169247075948 0.22967870072539398 0.68478207068490704
0.23461677892082244 -0.10907287673764188 0.80276910821574354
0.21650557744078602 0.18708438698793373 0.68009617153150614
-0.045958934667134965 -0.48744766434932529 -0.67456695420535695
0.38891790676848537 0.45391534568944536 0.51013324306488705
-0.2122394340065501 -0.29991625794937704 0.57828816005025097
-0.71136933211538089 0.025543581305250029 0.11353102898351963
-0.012562697652142241 0.40668928027259454 0.42059344289044986
1.1030722142373803 0.0094751012131055745 -0.34677984071529089
-0.65233419548548754 -0.37157599472966751 -0.29788321879161828
0.10520936691850036 -0.94294442738540596 0.79521199614824667
0.01882639994927171 -0.90394383855186788 0.91952362650376784
-0.31515464227172396 0.36009001470569046 0.53309360278149143
-0.10073813551964239 0.20505741625568419 0.51939624746385604
0.36045828881671405 -0.33607488411119846 0.75023962334324956
0.58336952508350892 0.39861075439604576 0.56961253538833567
-0.36059375204125566 0.12031706269440434 0.66019649258158175
-0.28029794947357578 0.34147843435879821 -0.60094841768781926
0.15622869337407908 0.3506194603389261 0.61473105182763632
0.62498350015577708 -0.091720994530042788 0.3724395521059467
-0.66123621441475144 -0.21591516015448775 0.058361721609900385
0.57376463490618512 0.53597939639197989 0.51661678822574153
-0.74988715131326567 -0.43373794729770765 -0.28923460859229699
-0.68955221235617703 -0.16992528925550943 -0.36102433980269488
-0.088797773611335007 -0.47423302156501279 0.45869042542314631
-0.7190826105140542 -0.42674024445631886 -0.27980867418011357
0.038074558557703142 -0.41745467829101557 -0.06592407886074092
0.41861129044055678 0.13472913273172082 0.66182155752066052
0.24542956392957826 0.43052546666152836 0.61831743402093942
0.7881627301951859 0.28693124558553507 -0.41242516593701772
0.90539146003916215 -0.055185508107243209 -0.23862044676202032
0.12644901022853805 -0.87933168835206743 0.95404163161437339
-0.53947963656701647 0.13089435562107354 0.45726508965169366
0.39894439181974306 0.34643893405578297 0.66989214975260225
0.73537076797918877 -0.25862592764094927 -0.0093064535807556581
-0.099201804094767976 0.39458792332959547 0.38432640989386968
-0.52260868939342231 0.27538333668560711 -0.13223641609914338
-0.1056677034952318 -0.2223688750425481 0.54472185092794767
-0.28935162954891247 0.16194320018482244 0.69511851822819537
-0.39331711167111205 0.048999473522293613 0.63547761428087668
-0.68766517351533274 -0.1483966199279152 -0.30812281186696211
0.27927462287603477 0.491688867457448 -0.17142517689268999
-0.072517986885050512 -0.63954681000032565 0.79665021467347685
0.75341812582487666 0.1235176320535345 0.4437518476099509
0.49825690236641274 -0.93304692881085316 0.76911996880813227
0.26043031229411628 -0.16915625579868276 0.765805564277942
-0.61832585786373739 -0.42302394702008428 -0.090441696542072236
-0.096406212273632885 -0.70422095664860507 -0.18120969919916163
0.45002918161425942 0.33694533454564635 0.61503988578729896
0.056215097177350515 0.24080050936976249 0.64330163959647457
0.28284451502793262 -0.61475158800864449 0.91490367006500684
-0.53731176542663173 0.13634224886676805 0.52338041594899742
0.22987110671343558 -0.74572334602542867 0.95027573251027952
-0.39049621273635937 0.36310374338322049 0.50191250096994189
-0.95805967277598469 -0.20625592282820548 -0.65842336091451337
0.050924777435432222 -0.62317151725147824 0.29460471577345082
-0.41864732959122408 0.60558531257230186 0.35902076101357139
0.14432573404721882 -0.95150533279893068 0.78658909595923809
-0.19613456412897667 0.29329358960588081 0.59868013522872054
0.20151568065875924 0.35268616184522017 0.67279245920009423
0.20884661218703293 0.35396577939526708 0.68326943896555115
0.0014631545247443256 -0.016473947936489708 0.30221994565302168
0.14881659655118407 -0.16066946201107157 0.85194686615863979
0.63692895046216336 0.30712995626819861 -0.53871689295309899
0.25970293307293968 -0.54048995375311648 0.89639590881684406
-0.70112734650152619 -0.33954902073138982 -0.35694502860331134
-1.0654642391154594 -0.4498051279102242 -0.57645255575367038
0.16343046888964707 -0.21475000617810736 0.84678475783494633
0.47039445359181187 0.25217207796086427 0.63367809200103586
-0.066481150270786937 -0.23681384322415511 0.68334558518106903
0.94953462222058693 -0.37396064604175194 -0.20938555899821765
-0.37946749516403422 -0.42383257688025111 0.16483951421278853
1.0646868837910763 0.024372791018286932 -0.32462586806279603
0.80088461343151707 -0.22296543755170717 -0.37733862194157375
-0.058071787744852443 0.39183546134500347 0.44110422680895667
-0.03337474848769828 -0.69888904217465608 -0.37364170634358196
0.45663356243168085 -0.49075085281728548 0.71124129130628333
0.74376347217599381 -0.39798856906447355 -0.15327890297542979
-0.73093082337031401 0.020888330864607951 0.29208154564972055
-0.50921111290566579 0.29894643932480136 -0.21443282989767276
0.30719591036817473 0.55280734813138821 -0.94145755152748656
-0.78686749191602123 -0.40545242113703495 -0.33895164812473233
-0.12997922590057387 -0.13936598172307413 0.68968026472534305
0.32295461872017306 0.15933835210662295 0.67057432962146812
0.26497661512188841 0.4598575311743005 0.60115253146864589
0.23928342607631325 0.43944657495241302 0.60068599575159531
0.30778262321177197 0.45502476145311022 0.60553821163408195
0.67773693737575647 0.50894681747686121 -0.046458158078015899
0.21053571784306024 -0.59015716800915641 0.4160519252649113
0.2590407213741055 0.48398017141640537 0.4788144729592414
0.36579889712646407 -0.79734434552698019 0.88729568534360936
-0.68324540114665488 -0.15057691512431859 -0.34136986257382773
-0.72441748080682133 -0.17914911373804898 -0.39491732011164693
0.27612505476237326 -0.21314159865112003 -0.42682026278764518
0.30148914160212748 -0.54568014870836379 0.43751545989105267
0.85398269119847914 -0.16668266127987863 -0.26384971668276691
-0.093422366756026332 0.10786902039474455 0.67245607361857473
0.206268921710691 -0.76321465587535187 0.56262457073074934
-0.68881424609366393 0.066794689166215448 -0.10822932495903004
-0.67920741967648723 -0.41884744875468272 -0.20496594914160937
-0.20612605299076492 -0.50619849874562561 0.036402965186931979
1.1910619799932105 -0.35292375947965127 -0.40861065734560675
-0.77399837496952451 -0.46844668772158116 -0.18940044394359568
-0.010208085301870895 0.33282792610911116 0.62975411785814295
0.028958837251642944 0.24793218387825533 0.15948131745000715
0.44618871107775027 0.018976868492188714 0.56598610383658254
0.21298192734707388 -0.61664742937439598 0.46460502653287783
0.11011609931320754 -0.11045033552179717 0.83833317461125212
0.22805668089280795 -0.66544359722829682 0.94880813465780456
0.30955538656130122 -0.88392951815547605 0.61393559965062394
0.35630136879558849 -0.81183699222044936 0.90876621564458659
-0.069539379715797711 0.06664736298101559 0.69762370841588428
0.44799389821239322 0.13109542832524568 0.65146814487654581
0.22016211836106869 -0.71025449381428274 0.91275119929693815
-0.014556534787999009 0.27274404622776416 -0.37197981958028592
-0.2971375536048515 0.011570651804063914 0.66394236592316425
0.2955717123964452 0.41041979788192862 0.66771495325628827
-0.72653975684769057 -0.46059788554309478 -0.17318295905839065
-0.53173520348232417 0.16968995279883359 0.49300149021672723
0.50874631616134014 -0.79617089004668884 0.59555819046724068
0.2488466978238848 -0.78826871307963131 0.90930782657402709
-0.46780449776374988 0.54745850409663177 0.28207731724003793
-0.97007317540955507 -0.49371482827936575 -0.33904692642326673
0.31705682106581312 -0.21828765117306403 0.63492521679503966
0.12630770043040673 -0.3962671589595459 0.87232215211866126
0.47543292051707153 0.54994283562864155 0.45949079235827206
0.32999227161910971 -0.71755831366195366 0.87371600387188764
0.3100477254732863 -0.95410918301629977 0.68505571118648234
-0.36631931952855101 0.33038304010729291 0.53703793020606128
0.17142344275382904 -0.076681059962190545 0.80501817824143629
0.26643186865377633 0.17935065406309292 0.66792858617668749
0.89175929109895113 -0.31701639009963145 -0.27704943994145026
-0.070206819014861921 -0.02997941862561504 -0.82447633618116534
0.47975559278902091 -0.8918225014839507 0.81439260000583324
-0.30961946885413205 -0.17790315687617664 0.59354666052595384
0.14994510731510768 0.34304970956596037 0.61188926091824669
0.38978186935610903 0.22486269729115804 0.69620691709994453
0.44260458043859563 -0.3030506226289944 0.32077303514683564
-0.97642300060205178 -0.30722071536304441 -0.62699894804496203
-0.23699699165945631 0.53514855674231399 0.43895055539774575
-1.0906568843238125 -0.43406006752084636 -0.60201434600996606
1.2552620339007161 -0.29360345072787908 -0.43875556674439942
0.10101134426380032 -0.44808188821762229 0.2025584987806095
0.84446650976253412 0.197454376150489 -0.022626496911819061
-0.26741155313751852 0.71667909053380896 -0.32890971979952432
-0.386321486351898 -0.49547455655724804 0.01639175948985816
0.22111131537305839 -0.10759628628162687 0.76106865728435658
0.93450792939307536 -0.10356176232048142 -0.29268150521705572
-0.81616083958472574 -0.31766886457386079 -0.45836543506302974
0.2419294070295992 -0.7828158825756546 0.90147267418403665
0.025747843486873645 -0.33280836644031098 0.83239961101173066
-0.72114158244345505 -0.10648290552884276 0.56029844022846831
-0.39515058165631389 0.35133509675947039 0.45262766174404589
0.76730543137801233 0.3071119225449479 0.43885638308372599
0.30856600571320403 0.2159641698820991 0.70264864281397976
-0.6542364922384496 -0.3348357451282169 -0.17657133594057228
0.65565155809836417 0.39536024806670156 0.22926607309420355
0.37746516672234387 -0.71000267529289118 0.87841427951894246
0.23501290087794047 0.48641955317579999 0.59041531448552576
0.14438900555185352 -0.23774834496647657 0.83439626525618138
0.88209913317209043 -0.24908718686686626 -0.28219427111463347
-0.41430914744933345 0.078607189511934905 0.61017148815223443
-0.020515107743271255 -0.012188470466220735 -0.06257590114321232
-0.43684701326887021 0.16609042727300505 0.61762454001905454
0.57247862285067486 -0.67469612045115923 0.089184148148641285
0.29273076056165026 -0.14636515195811484 0.67283530012507953
-0.6422942921602024 0.227219917555189 0.42382961861687285
0.43383763498892414 0.85155138858996793 0.17741355196940845
0.40851841997698957 -0.78349505846507128 0.89245126728568813
-0.65461598556293055 -0.31939420521702999 -0.45932411419833308
0.32692447612275854 -0.25324112320843994 0.55058232546702079
-0.25506738807280849 0.28172143107813241 0.60090152864119339
-0.46475156074150403 0.32525196166115222 0.49698253701401995
1.2011856445631022 -0.059377947018397492 -0.37229249146464127
0.42164654250474554 -0.90322782930583401 0.58959131402097142
-0.89953612353235934 -0.53534163281351965 -0.36474566896480098
-0.43556581924161852 0.37771421068008237 0.4675216301938292
-0.48860974716343053 0.11203604789375987 0.55355968335309669
-1.0822906848222686 -0.30514141348636059 -0.66542531884211797
-0.55613899541521228 0.16976271783654795 0.49660761065809389
0.20706258060029015 -0.59346281959400926 0.32210178467416917
0.13357588320163671 -0.077178755226022133 0.7506853437136467
0.24550459095150234 -0.6036259749153956 0.45828553153631368
0.37056671589698231 -0.36170703131081439 -0.36946342296855406
-0.65913411185648307 0.059105481922635761 -0.34768194955468523
0.0079433000066204684 0.61765148723686991 0.45650823993733347
0.3425560560996046 -0.68493705937964933 0.90650946493402351
0.81748731435436062 0.023962351998484621 0.093258259833147505
0.33912532948898377 -0.49972826994368802 0.8523298008014244
0.42689015808732522 0.28294004507680626 0.67388338505431911
-0.57995669407468053 0.18371913420543251 0.47694993179386813
0.75112958495216509 0.3735136690346863 0.45613837226995457
-0.25217166661954016 0.42445627240341111 -0.17680611487792319
0.19067953242816271 -0.14321935896039406 0.84448506713668081
1.0957581776146039 0.02101948059877401 -0.34348566945433134
1.0642455796073351 0.04134418594328082 -0.38204280604416674
0.51929395589979199 -0.80925973895520542 0.79165560412745606
0.29546577153191711 0.43450231057485666 0.61550296972299101
0.36168424776145924 0.55000464578040464 -0.47587229563067979
0.25133504213542013 -0.66048632087345993 0.50658304637702223
0.36715851572350822 -0.82156341422101065 0.90935615232936584
-0.49995890342919314 0.10541173101564993 0.55939644581121506
-0.18273671298157224 -0.81011556806330987 0.027852216652117789
0.50118119531459726 -0.036426034525334217 -0.72243155694514805
0.36866965847145217 -0.74661340262608178 0.85029472974467346
-0.64422051985474127 0.018741670017938361 0.46679923671173995
-0.62467298542643546 0.20164840422005881 0.43780124853804381
-0.39089887006207924 0.069017685682069896 0.63013110496523872
-1.0959205785195847 -0.45386597222906744 -0.44434576295570416
0.2545109276811286 -0.17690309156552786 0.78532640266415044
-0.16274094349846857 0.20625188842361553 0.64042765521524281
0.16923139516675212 -0.59628699139047114 0.40442461800932605
-0.55399489932577906 0.49011374653176887 0.16215819561951328
-0.047086132399287273 -0.43949575935283747 0.81475392447905826
0.8549926078569694 -0.2120471185515953 -0.28833613778748202
-0.38300443918165383 0.13397653447260183 0.65563887258111109
0.31227337171213909 -0.81744748227193043 0.93098524067238131
-0.8442172665394776 -0.34535550199996123 -0.44845722846351599
0.070080676607652492 0.68775118358253451 0.55197621900837923
0.87862386759189448 0.0041503586856990182 -0.33626783134373994
-0.73450725335431066 0.14217190375373434 0.18520044326964857
0.22842074884869934 0.46461333951255313 0.59815491671888665
0.23941334877437015 0.35778512790205497 0.69059282461501859
-0.7049997216016024 -0.45500081482968824 -0.1671936080492511
-0.36392027188410125 0.033682849904174361 0.64665226947460752
-0.3986781981019627 -0.036842377132792592 0.62592064793148161
-0.77916165920369806 -0.31674813663664736 -0.42705107770272122
0.14566744184731606 0.37321792638637419 0.61860976871912321
0.024745756326562951 -0.7119190413295442 0.94760595838290307
-0.19655597838175964 -0.19217337301861903 0.61849109328207064
-0.093535547833683008 -0.45710091366673566 0.70917241176123902
-0.96085467722022644 -0.32851768489582867 -0.60518467138508392
0.77882789226735039 -0.15693823873548496 -0.43512420118460859
-0.64440620882823385 0.18631102746216754 0.43632546714138343
1.0719989195345878 -0.31391247381029785 -0.32691396242505277
1.0980935856259801 0.20575729144304944 -0.27352796161660109
-0.27938969388256929 0.069916853084585284 0.67295733173087235
-0.99732425634560107 -0.49020279066074579 -0.40193548703269144
1.1949059597112339 -0.041256832354278572 -0.36939289401422215
0.48842337566495964 0.080271800988725772 0.62512573627190093
-0.27247340831052558 0.26650469171173796 0.6479939817708722
-0.71181488214624489 -0.29066312654445881 -0.36167980547696033
-0.35255106896467625 -0.97768649449696454 0.49905599393594713
-0.40551995214950187 0.13327113236341859 0.63754099885970561
0.4350882220248784 0.4232837665183169 0.59257262297361635
0.41415273627342808 0.34296920851702595 0.65254302941771591
0.19953595994300466 -0.62821926827147223 0.18086527437851174
-0.40364090669547448 -0.5131215672958902 -0.33034480862636606
-0.56246159997194267 0.23603743281171319 -0.2954069001437567
0.58191342115751299 0.5094416735169176 0.46020125804579237
0.22131542100302282 -0.21836256185119396 0.81775676671449915
-0.068922609912587252 -0.21621410115182726 0.68019770160413806
0.075173221587605976 0.41836451151175424 0.606449768043273
0.043570923482845192 -0.70049176610762487 -0.38745664410077119
-0.81158049442763636 -0.25896908979229494 -0.52048641868514878
0.49107644305058562 0.45895809220704109 0.2842064529960453
0.32409334418493518 0.28971741625782244 0.71074590242008107
-0.59119576679021746 0.089874126937687038 0.50293016301513305
0.046585871470310014 -0.086024529071991651 0.7818724414282503
-0.34400876023715377 0.1587383794921351 0.68342981657922763
0.040075770271723599 0.54120993146054985 0.59614811476659568
-0.0028219337451811377 -0.21649167203646158 0.78508501329072367
-0.39416203689363094 -0.73000384596940648 -0.1606497554896027
-0.01282247095174105 -0.47705866909552697 0.85940361873859672
-0.26966976816547827 0.51986544313432859 0.33509771363476837
1.2835802143554336 -0.021828637136330542 -0.39184168183600043
-0.49198797863284982 -0.011819471350200672 0.58067251285176091
0.27464463685071694 -0.69813734332655031 0.91540705371583897
-0.19809931508409129 0.14689530400425355 0.64803097479912353
0.3269514911414162 -0.24852370734216578 0.70079454752957915
0.14831059517419432 -0.095067999419086391 0.82079781828007192
-0.23216529780930184 0.52409962894929407 0.41050485488152155
1.285189428859713 -0.037054796505081811 -0.37488896913016845
-0.9595908927251604 -0.36890235309160602 -0.5203894678864156
-0.67423202893907641 0.00096621894804371777 -0.33109894354102742
0.26587662935890011 0.23673179765749097 0.70029967112118818
-0.47304320907652819 -0.18803870526086541 0.41388446113491817
0.35857391135580352 0.24439951236811908 0.71087552473141891
-0.70774041192409998 -0.049979693642733025 -0.0035711524450743326
-0.32070157373015462 0.36131558570571087 0.45482527153454022
0.50740338432281895 -0.71983793800609419 0.79103195721438979
-0.091298711552320722 -0.25904979564187869 0.59939733418432972
-0.78970530794918758 -0.27126355561343729 -0.48012677622585365
0.43980264980239614 -0.11342670150558121 0.57952395214256569
