# XYZ point cloud file
0.063629592098868759 -0.39205893991809049 0.16744706322246206
0.81025326675672016 0.227626326892306 -0.054967081964075071
-0.28917026434505466 0.7483356933459433 -0.36701555968032906
-0.42186630991640706 -0.43279704838238686 -0.019625007708198083
0.18876384719195571 -0.058070862261743628 0.72076295401647972
0.8952446557363114 -0.069124119571835507 -0.32112858520063892
-0.84809420175822137 -0.25573227993761805 -0.49375575475077049
0.20124974845753663 -0.71744898333082929 0.86319054117100524
-0.0081059226631945425 -0.27516032538049373 0.79151918275737909
-0.74835259839466817 -0.045386126926111103 0.51660109435538715
-0.41877823633883571 0.39706570262730523 0.40943730838737746
0.73612798869548324 0.33819608329165618 0.40206121734996536
0.27965176939810421 0.25663672759057832 0.66181627646210206
-0.68663450645649604 -0.27322508709971771 -0.21321421804771923
0.62572451526716311 0.42484831529872125 0.1931122251068258
0.33683953534992539 -0.64823190401066455 0.84069718004790417
0.20968320965913656 0.52133130228001079 0.54886384318749748
0.1110369217078766 -0.1838484133314644 0.79370017679436167
0.84132942769851748 -0.21057397692520752 -0.3103512181194219
-0.44087928005640764 0.13162678997201027 0.56687460249186739
-0.052318036268866663 0.034155953663010052 -0.098211616031886884
-0.46215298795589588 0.21745522714955001 0.573763813355332
0.52911120656664279 -0.62041117339434138 0.058425577102389603
0.2592366289961634 -0.097370290545573113 0.63375823634532225
-0.66609228671144427 0.2789458515879204 0.3801178835242629
0.41089397374601688 0.87334088779593699 0.13847368326508303
0.36681064708237865 -0.72039266689456483 0.85511502147438723
-0.68754024452487883 -0.25958846035366889 -0.49385344411680965
0.29155607275612039 -0.20289715150066456 0.51310276470922922
-0.28003634201036331 0.32792599805591038 0.55760908882787241
-0.48818009897682924 0.37273902125684089 0.45320085524064702
1.1606851102368576 -0.029933878497892863 -0.39892259777513761
0.37756440771564437 -0.83913120285126652 0.55519345104955509
-0.93349264967217982 -0.46684091915159698 -0.40032938117492911
-0.45857872489293294 0.4234616401436071 0.4238875355985483
-0.51445629449490671 0.16499751704828469 0.51016232616096335
-1.113003193080141 -0.24099166397240879 -0.70066492997925778
-0.58099498672430827 0.22201931078944526 0.45304010644067993
0.16750820153228174 -0.53493038510698909 0.28726861665413495
0.1021114080261778 -0.027226980304725146 0.70986596242942213
0.20594045937776895 -0.54467552273860775 0.42264750988201971
0.33120313250843703 -0.31421673428193131 -0.39912791076489729
-0.68694241462268013 0.11091501272742121 -0.38477726175998939
-0.014705966627292399 0.65192399910023724 0.41421843289969473
0.30252931165847374 -0.62312510507037899 0.86828119867878861
0.78153063716997373 0.059050211953387333 0.060651235978150808
0.30133009749756123 -0.44237252164564111 0.81367924352471377
0.39804441800716917 0.32035051211332899 0.63359616349087577
-0.6045434802684162 0.23587537894773902 0.43334753334462484
0.72093588768803873 0.4033893148237766 0.41883033239271317
-0.27734026375887644 0.46335816950157849 -0.21471083163741866
0.15827598976325685 -0.092043846522223305 0.80353407957926315
1.0569817531481711 0.050192042491559619 -0.37124781809049434
1.025816703754632 0.070276924265634477 -0.40976259940412962
0.47633826908155807 -0.74757422151513708 0.75579250647514051
0.26917991486369264 0.46991704747357232 0.57430502033418307
0.33367102263915083 0.57627145847418149 -0.50880720263754942
0.21113841505421593 -0.60006863110242747 0.47085520699610761
0.32525848928637213 -0.75695146567533556 0.87184170178918929
-0.52580664689233414 0.15870648432728629 0.51592397702893855
-0.22346237378011824 -0.74293323332646111 -0.0057893153209391812
0.46426032858638289 7.4428589368125131e-05 -0.7501288099409722
0.32755999382208412 -0.6840347328063423 0.81291116292540444
-0.67054244732222368 0.075469784119210459 0.42367080311375194
-0.64886509309170703 0.25379337918633382 0.39418738317130231
-0.41767957270831557 0.12204501851863725 0.58684531403135498
-1.1278721849521398 -0.38500187501484007 -0.48070440939927472
0.22114638451405311 -0.12611988543948982 0.74531617964140917
-0.18911864912785248 0.25314376380437054 0.59764868055246012
0.13007851412112981 -0.53675876668674505 0.36877008974472236
-0.57565580682558126 0.53331128702644293 0.11976321964500514
-0.081903234347013631 -0.3785292352499745 0.77410172939524635
0.8148392289810662 -0.17404684498138678 -0.31675216825184282
-0.40894259977852032 0.18554788595834637 0.6119092206457486
0.27080931241761164 -0.7520821410503622 0.89299786857801955
-0.87630867758617348 -0.28236038611814251 -0.48394808987384952
0.048194157467855048 0.72008377869642359 0.50896400753040094
0.84094989260881792 0.036656046897963535 -0.36514930794592448
-0.75944465569617958 0.19584398471445397 0.14322593539747785
0.20287358555750745 0.50015071413217171 0.55660588072433814
0.21268169067417531 0.39608802248746855 0.64886173875057729
-0.73859471593552328 -0.38992100837462829 -0.20364128788816238
-0.39126842859492106 0.087239551258605275 0.60353708275670037
-0.42676655305411226 0.018681931634883853 0.58309645986233427
-0.81122448968682526 -0.255166977200453 -0.46249364905377188
0.11950781329897886 0.41205469329734257 0.57687456478931409
-0.013616906943511697 -0.64501943319431376 0.90751458472510738
-0.22784382191823216 -0.13585421374480688 0.57747269623817488
-0.12856896925579719 -0.39565398649013162 0.66917001009015387
-0.99243605926981804 -0.2651515776644402 -0.64015020512433374
0.73945326700128167 -0.11993039065927746 -0.46305044193087408
-0.6686786746739426 0.23906271861302741 0.39268771260445234
1.0291569841350663 -0.27669769761056529 -0.353442189363534
1.061826671142251 0.23104605603314354 -0.30263789368494809
-0.30671629499481101 0.12164953351993191 0.62992109244806294
-1.030218212935037 -0.42161266464965408 -0.43794428828360132
1.1546803245608159 -0.012126879342879704 -0.39615873728661022
0.45651254319201562 0.12122838688937065 0.58643690636735357
-0.29741057803932969 0.31353228407299483 0.60431429580038731
-0.74378219447887317 -0.23024245656310782 -0.39739048152171375
-0.39317886527257939 -0.90197919607215837 0.46163071023474345
-0.43137877028263572 0.18506715182227751 0.59383625265492412
0.40776607368632689 0.4569643933213392 0.552333400972703
0.38609029270996942 0.37907134794709663 0.61208741824562996
0.15922357588722336 -0.56952116083842697 0.1472375605000007
-0.44019445982500494 -0.45159694011894302 -0.36369591255788514
-0.5884690385980833 0.28278510144879476 -0.33318484982019037
0.55446720171809027 0.53850662850234343 0.42137154521526998
0.18770650407414435 -0.16602175837309829 0.77750626202762163
-0.10112085437976526 -0.16073981682549388 0.63947843156239603
0.049977060533908713 0.45705394347945116 0.56423867847800935
0.0018184249559809462 -0.6409841956412059 -0.41719171693534118
-0.84295558548594962 -0.19875292522433341 -0.55563342751964928
0.4630816055140301 0.48948518777269001 0.24648338516732693
0.296042999810751 0.32854138830861146 0.66960514536992388
-0.61683961458629866 0.14445529435944238 0.45948476286345485
0.015609505782532951 -0.034544148450333267 0.7403956617147216
-0.3697947111115476 0.20936540537286064 0.63958000794588798
0.01662220166431494 0.57751484260122865 0.55328763690603378
-0.035150127583242652 -0.16135693804807261 0.74390367560234871
-0.43308936860763869 -0.66278566365047809 -0.19429888208375345
-0.048206654895315948 -0.41546497117600367 0.81875312879204376
-0.2922106456310094 0.55946426503287583 0.29272456717645667
1.2430136616490064 0.0055536540121075006 -0.41805541798153989
-0.51931655001074062 0.044151803322371563 0.53759782408649404
0.23487941809080826 -0.63506807681806521 0.87681275615343779
-0.2249992698243326 0.19565415207262404 0.60527144466940541
0.2920279952923428 -0.19751381244814681 0.66213454367718594
0.11671078574790483 -0.044544617750354121 0.77959385254815494
-0.25468345968881501 0.5634877178037101 0.36772713371743215
1.2444634563748089 -0.009259442208549018 -0.40115761806374461
-0.99147502818144417 -0.30419491733542969 -0.55582418094264696
-0.70264527981515212 0.054389654585161651 -0.36814341129582573
0.23747527621650999 0.27749090547776945 0.65916950700234356
-0.50314904159692864 -0.12916163364123179 0.37297898842397448
0.32974252892506373 0.2837954855088185 0.67011561261878949
-0.73576026881096324 0.0067432752747045299 -0.043094843916853698
-0.34464232674019679 0.40583188100206868 0.41196367108094645
0.46565172431558466 -0.66003509783100611 0.75471418708338422
-0.12411388578570337 -0.20271486350767276 0.55937477116427115
-0.82126388858701915 -0.21085207568094688 -0.51541645295069038
0.40560756563460787 -0.067635610130881929 0.54179201665464394
0.21515439741635389 -0.61144124561185009 0.90166725911205159
-0.62910995390585667 0.2693832409812309 0.39683473869818542
0.43834474981346094 0.43229300782519786 0.47970602100582838
0.085809430006689613 -0.33186722029467575 -0.090864698394655719
0.012323444263106831 0.72764748980607408 0.42810616159085413
0.066185299386155139 -0.1691239476820563 0.79434011479881494
-0.32318765403975114 0.2214714103934341 0.6492583021376479
0.26363073233502377 -0.74733503204528162 0.87502406974357161
0.87028842032279718 0.0097371926234437467 0.052506601398353503
-0.27435410681183936 0.37632463008232264 0.52442447717413909
0.087552555245054453 -0.15436609427428749 0.80862849906301193
0.25037571491035648 0.2212730808697998 0.63870781192933457
0.30937284404321663 -0.6848361693703815 0.81440015905722518
-1.114003323137994 -0.3789882050626403 -0.47463886965214375
-0.4367196651614178 0.59809525538436503 0.3991853006208208
-0.47784352082323456 -0.27163138011210464 -0.62746627672531474
0.45979866670890579 -0.1028448097030612 0.43244980780310804
0.14780727952749118 -0.58822884618710702 0.91417341313668832
-0.33174443910519136 0.63216523021080562 0.34331014123365655
0.54524710787512953 -0.007346886097106875 0.49803549045425299
-0.46784423284701959 -0.21175882394854995 0.29074205341039239
0.2054168937710048 0.38802532024883618 0.65002249606838625
0.99431257233880022 -0.22971920849937533 -0.36411597575852195
0.33169278494639021 -0.36807931322397991 0.27602991956826806
0.086867822313548171 0.40865309163523023 0.49535815521764714
0.21652800145110196 -0.46766968004162734 -0.65245592281708031
-0.41221860782658704 0.40307150466405872 0.46086269716388273
0.15931965612874133 0.40847688090329015 0.59567818658084892
0.950192574634938 -0.28041116357935891 -0.2939642523750754
-1.0273812050854976 -0.16448523988804098 -0.70545825607858426
0.5267877088749735 0.11418807119445518 0.55557040548596337
-0.42275310968203561 -0.32270983062319658 0.53613221393914579
-0.045558871795242872 0.35195279246341826 -0.30967803279775996
-0.14264873289118363 -0.15248940298256031 0.59702997919095591
-0.76517814148778163 -0.38863242153387034 -0.16773150292334815
-0.89917947338617865 -0.27111037248488756 -0.51300494594277612
-0.34760964931711413 0.36516546887493107 0.53113109361136246
0.25338551947810273 -0.74335936327613794 0.85595172460408175
1.3077147248383187 -0.024230261639473838 -0.47528355808852485
0.28194466150459685 -0.43146834395152567 0.38515156007270512
-0.39359565728932666 0.37035673557790005 0.52942063414287421
0.33866170877107482 -0.82979536382026353 0.49890645926619026
0.52400702004030753 0.43776262033932056 0.53063108664709535
1.2226205947719355 -0.15163561413611149 -0.48165836718374422
-0.73418308116109632 -0.056027446293690275 -0.093040786082891458
0.89302592770894251 0.064412111057528421 0.13337022769447326
0.95370536720648458 0.17746343913719898 -0.30787846057778445
0.81377768059656508 -0.26196293231325285 -0.27018851546205891
0.060607667707819779 -0.042716462716551717 0.74475377842296364
0.31127358709411879 0.41157367572339965 0.63798850340918811
-0.79419072019253023 0.16922112649472254 0.00081654646537110409
0.91472891258605937 -0.24829646012960183 -0.31918764358019214
-0.73403103843326933 -0.20995088638512271 -0.37922112789948592
-0.81291111994087428 -0.40280332904625382 -0.40297987858171513
0.12064792793626711 -0.011423446298575612 0.70464512081409225
0.060235853992552491 -0.65986424809252497 0.929123842333345
-0.016183821205351556 -0.083123146880978993 0.75271773310445411
-0.58174872271897193 0.20859036517804697 0.36211647294295712
0.084506890305391824 0.44038788170272625 0.43355372216861809
0.11844504190939809 -0.59021299109837955 0.39306635858116579
0.39641363763666337 -0.66245720118316243 0.82552211438676526
-0.4790671692212749 -0.44063432673286584 -0.34173249582477805
-0.64084097364480375 0.23179523534625446 -0.16669007609711084
0.13072170338857703 0.49921953021682697 0.55432565490118701
-0.41902703282583453 -0.40122028581755131 0.05449644378468399
0.02756476020116172 -0.029923461316620603 0.74784242181695237
-0.22641457841086665 0.38612754453064824 0.53307366725402883
0.0762534251525957 -0.70829600433405204 0.93367493754087683
-0.60380585093659422 0.25663611207095371 -0.034074655438590895
-0.12332655134916037 0.44330504777127189 0.32845238983930614
-0.33663065993465424 0.35567152440800598 0.56649810438554038
-0.29175438559671196 0.31355084760323138 0.60033456733704949
1.2448415424390489 0.17524942443040814 -0.35290386175483501
-0.11114187201302506 -0.14223723775937103 0.63509482636189851
-0.26688924723050778 0.057110685906582859 0.58975269339175806
0.44450831378909705 -0.023508520996976756 0.5500926137410902
1.1730129644912595 -0.24053559548606529 -0.38262368328726382
-0.17122127496687001 -0.11779375460060137 0.61764730996460315
0.51534609815667243 -0.83092390571341923 0.63261285975525894
0.37890372665335481 0.39877206837400436 0.59885290527949131
-1.0802518570596589 -0.20510043295115565 -0.73703031254221862
0.78231409973835575 0.2060920670085622 0.058613076037278056
-0.12158195114265236 0.065719093313671095 0.0079743024561720333
0.57630110231242559 0.54570331877135914 0.52085558904886931
0.22371545472704879 -0.76801650582164882 0.90776748791721129
0.16494075254770801 -0.54954597855940079 0.89823215799285006
-1.1064661551674781 -0.29602248842229884 -0.72155240685476318
1.1760990713821748 -0.14165019825777847 -0.4301686800454263
0.0013355300399828796 -0.21140834625563087 0.7736240913145167
0.50231033264725933 -1.5875187482847615 -0.63234674796088086
0.99121552529944257 0.023983032032326435 -0.34171174032822282
-0.12508902781399267 -0.24757666665464484 0.5657151628975452
-0.7932124079916314 -0.17199334590925375 -0.46696525867773797
0.1306601583173872 0.34234177858931503 0.59123014971387544
0.15562787156549129 0.28251528247823288 0.60878634458324665
0.4050587902731797 -0.8102732767591263 0.8084939226026302
-0.78852689918120022 0.13827147652880711 0.25057650229451411
0.14675047510408712 -0.020477292708768857 0.7102671665952478
-0.67765275273467407 -0.45123469045617171 -0.21912584124426981
1.2241657564591384 -0.12100129409850524 -0.44168649808685778
-0.44614410577037455 0.37968828324814297 0.42923215265559556
1.1388719140473103 0.053702488780174917 -0.40293174648832419
-0.48475351678390366 0.30585749754675717 0.51468064198803187
0.90067417562097574 -0.19953031190062021 -0.33091981651395841
0.35907386554295329 0.38205099898295813 0.6356268193595227
0.7794255772060168 0.29587988944791022 0.012847282849250519
-0.62485818404460902 -0.49540139586996546 1.1420799642904802
0.79000747430938056 -0.36048162951214024 -0.19935327189308527
0.14604935763621696 0.65195244008053876 0.027154353882475668
-0.20172465896969727 0.3615663581574573 0.4047655524235525
0.37015806312367938 0.1381980926136066 0.61738280884882446
-0.70768745959378143 0.32849867123110243 0.1957206313907216
0.87519998135936583 -0.27488658712334058 -0.29396147395129368
-0.71057739939254638 0.20185754356135632 0.071765499081666739
-0.054315217923164738 0.47853984909212599 -0.65290195294880604
0.86989174741949737 0.090180494514598308 -0.32531773636786454
0.29738181473767455 -0.38655331161664819 0.40493170351447283
0.79372738804300247 -0.18470826121542316 0.10604346036232659
-0.64352527826884809 0.026557333683577156 0.44002958003587267
-0.43325763272128515 -0.26434510243325349 -0.66245828092412573
0.84399351187401561 -0.031262516149585196 -0.25480492515363995
-0.55477678257601815 0.27480899325205499 0.42319949106847865
0.87434638958117361 -0.2755616535051324 -0.23277046852765704
-0.19269631151460809 -0.17653965442015007 0.51966706267881424
-0.55813515420321247 0.20770833014015722 0.46302444365215578
0.31861430880339148 -0.31144271189345574 0.74146409948935421
0.88013683499988193 -0.041967951847990292 -0.2916088887027124
0.30099196938151795 -0.50400393139438293 -0.28756172419427628
-0.91883421257902698 -0.11132370610039288 -0.74190554334858128
0.38572293461812057 -0.35167204852452727 0.62424150429565817
0.23797650058326258 -0.6165684750703484 0.89504794859064241
-0.8804849767618701 -0.20506623544067182 -0.60352468589677422
0.69552580675468656 0.064908613177614427 0.29422199141512806
-0.042488436456934009 -0.66001386133255835 0.89309993952146272
-1.0893593074238517 -0.45060736397768508 -0.38567621963207532
-0.35028419945043376 0.42988220629758445 0.47195163243440508
-0.21072970313982564 -0.60680339271650752 -0.36600614422122124
-0.25201422403413698 0.1498399666124719 0.6351026548381391
-1.0103699406080693 -0.19089673336714341 -0.78891260364183502
0.37763491346297973 -0.27596852267183891 0.9935755580662553
0.49097803308384069 0.092305006032106007 0.56904028356167657
0.91034872346344109 0.091303752775463209 -0.24889641659517903
0.27461182616488955 -0.14675587481051267 0.59732456363621012
0.0077262720871964508 -0.73138898254742912 0.92486607614403837
1.0311915126185602 0.0076653211211699102 -0.36073221494362873
-0.44130763631317294 0.37244807870618502 0.45565084296516911
0.15193915328659813 0.49399050875325656 0.44394081783784323
0.9815264689069032 -0.37964028988860221 0.15791680847088863
-0.66655683428143497 0.38077986761430083 0.36303202991087158
-0.88736054038869128 -0.46236575998038276 -0.17851900297044487
-0.64607262445834768 -0.30383073105252834 -0.11412471659879309
0.057710829237949568 0.6784011342953562 0.36322502114022548
0.098020244458821182 -0.55264534451279346 0.42407605713875185
1.1978864106217795 0.058914031241123155 -0.417033719638078
0.21291546550977136 -0.078436307249116766 0.76071404654425034
-0.20533780984330829 0.18983737663479516 0.62671148612082561
-0.3836255677364262 0.42231946379931529 0.46245000723828422
-0.72015310497871043 -0.33338058337128729 -0.33880326958681017
0.4764154014452151 -0.89554091432007965 0.66953399073452591
-0.4469836363858648 0.3008315069981613 0.56359712056702538
0.31263647114742699 0.28343307173629739 0.67332554430889058
0.30120519957062486 -0.57731425621357602 0.86356494871597089
-0.41615195201850708 0.12513833913864758 0.58163346163448537
0.10316641267006688 0.25969754270634482 -0.76226104359961333
-1.0039552228800086 -0.16416347237500872 -0.78683319309400801
-0.69657028088194495 -0.1844993797265353 -0.15616248796246346
-0.68339352639642748 -0.094748464688358069 -0.47506349037791828
0.064994010298304206 0.60413531145912103 0.54150760333055015
-0.71543423676049911 -0.14415362268464804 -0.35117889935131252
0.30006522539509373 -0.74515644395931346 0.84788863394214165
0.15317545636272656 -0.59320016825749988 0.050228975357950567
0.91813684447820965 0.026227188339856156 -0.28123126991698388
0.19802496204240461 -0.62020960428139205 0.898115960863338
0.45168540099191223 -0.24132496923850866 0.23596017260515012
0.40344170678957547 0.451689655451883 0.55075168884699188
-0.57746279734148676 0.27757698297519795 0.28922259982541387
0.3609522634574398 -0.43581320249258226 0.49381199792239361
-0.35970338833412985 0.23018964860692748 0.63819785457988409
0.044152894328604031 0.055540994690485235 -0.3505442343914833
0.10434865528716686 0.38039457308827451 0.59055016622726608
-0.77771661914754109 0.20878479660750315 0.17138030017157924
0.15088717716861644 0.6984980786139019 0.36988107835779083
0.020999701488466416 -0.11832283447420266 0.8106418994781226
-0.47787228059157405 0.27985825548978838 -0.59857443509114994
-0.56958038449033443 0.24977533355617965 0.43367205798432895
-0.4799273169557603 0.61051301614362785 0.14708657236302969
0.3593499838340446 -0.73409128007192592 0.85853996569576196
0.15553752435317092 -0.20211418121970226 0.77820430747948777
-0.16429581751752131 0.21363059247712002 0.60771387493080642
0.54034490843215854 0.5675799917257649 0.50222028181329925
0.73661263886604544 -0.085140623310309138 0.053133229329684006
0.33334750771108745 -0.19798461688321112 0.44760718189640603
0.14819143226435849 -0.78332626622762547 0.91954267732221062
-0.85725369469893264 -0.27082681326688629 0.25246062607161424
-0.42826693355456347 0.19849285213200574 0.60551952181439006
0.7352354978803286 0.21510874847119865 0.40383275097563143
0.21919581833175994 0.63816871958687571 0.36386154565571704
-0.7660492624367703 -0.26781278801110986 -0.41853278933624249
-0.88650167953474579 -0.25891679166666393 -0.52048828612246201
0.25478957153725701 -0.15310760795970779 0.70565201545101619
1.0307459423930214 0.13888042529855937 -0.38673162253995041
-0.31684033203747441 0.39208343207385354 0.45572007531714132
-0.0038907924241096126 -0.13915297188607667 0.76556132064119531
-0.15430539850754643 -0.24654571557410065 0.51227110630212014
0.1121081549196179 0.41527030301870838 0.57900853968386112
0.36648580201486713 0.45505557703141264 0.54969975737635224
-0.029987357518104663 -0.52630739913924529 0.47889712662502326
0.16888639310479125 0.3655354888513429 0.62144788716147659
1.181904834080227 0.17195531590257573 -0.41942216557645029
0.32728168349142495 -0.72435039557888459 0.83635430970560698
-0.62522112456961132 0.30473529651843378 0.11549488114933215
0.21330334875133272 0.14022962924748938 -0.11248635244506211
-0.15646033099180578 0.44030022595605445 0.32786976268336154
0.55634119340623434 0.46013065485494664 0.27678518947904074
0.34270929410186679 -0.8669983070507854 0.80364572987052529
1.2824329696519836 0.04170887448217897 -0.37325725461918768
0.19419727010069332 0.19258095885708926 0.63707638275153577
-0.28997134065395325 0.59557675983310077 0.34125036239659412
0.047612995780233369 -0.12072914990386607 0.81508598685625167
0.32980947635301772 0.15786334283736991 0.62845573662113452
0.23723264322982374 -0.12442956087794599 0.2880852710966888
0.28784603242571771 0.45291059393803224 0.61755595410164066
-0.41811266964663307 0.22129069046980021 0.61489158295203783
-0.60559326178715178 0.19319891259758037 -0.30631083650869595
0.54690153768792871 0.11796494517118816 -0.68309101669545313
-0.9245040767001349 -0.32867808491220529 -0.46936973098047119
1.2759639230919566 -0.075013710464929773 -0.38922300689358913
-0.7210879033645976 -0.25617715684609266 -0.37124486733243423
-0.94271855729219478 -0.26430063628512812 -0.56332295319069914
-0.46998475502106896 0.2597450597519213 0.56603703932004468
0.28391296736776561 -0.61281154932884974 0.88042390547310401
-0.55044862375649095 -0.017183340529619784 0.50725361041957751
0.95676492419257309 -0.28195482351567946 -0.32011473720393191
-0.2108178474647282 0.093650738055817584 -0.14338636654626047
-1.0696950471258115 -0.37467385256223551 -0.48398850914415803
0.66411148718439095 0.020469741189049984 0.30622487334511028
0.58927936948809845 -0.3729207270905377 -0.29750412218990085
-0.28584496712396512 0.2002113297105339 0.63444882226173771
0.17749269545198954 -0.079982942844480931 0.79772276040666945
1.2960917149011322 -0.15872763431492842 -0.44381576824135394
0.82948528107289254 0.19730623589391882 -0.21797893503987709
-0.31763648214165596 -0.12666722930927321 0.65974416424325799
-0.25617196197765812 -0.16462172471626246 0.018560922270106417
0.9885709057091665 0.082863051479023397 -0.30581045576742749
-0.20096624499538529 -0.5640755566479605 -0.50540241714142642
-0.37171368687402784 0.36891410097019772 0.53066295775142081
0.32757337871728076 -0.2641960237166856 0.67726546172244095
0.11395296824620371 0.17284489176145712 -0.85101501612886477
0.31832702212666786 -0.70311469643290891 0.81045866956187762
-1.0771165818357207 -0.37277038531146545 -0.47751710758589727
-0.22083594093587866 -0.11147519035025866 0.6042827790508607
-0.18771809449849841 -0.79274102868220098 0.42469544731924547
-1.0289934723965284 -0.25514965370578579 -0.64559989351123725
0.54608679205178223 0.3632848964925941 0.53500019985132674
0.23855588575286668 0.61160119349948161 0.11049862034104496
0.19648772682074278 0.54580645925673466 0.5380269992707678
0.054919831062610003 0.51093321880417975 0.28633713418644025
0.10290581010276578 0.39947338041470815 0.58477374189240638
-0.67268611937946066 0.21636880820096849 0.024900874003788154
-0.27069115789531994 0.27343381190600269 0.61137129227597775
0.85982460092230117 -0.17315768404563059 0.20110219109900207
0.27501782450138434 0.20255486321333649 -0.31896307031317139
-0.034798977626872007 -0.28446263116859072 0.77945981556059252
-0.51540116800248548 0.35932825646387201 0.44147891929241734
-0.23005846192100132 0.18384749942618939 0.61762741374200569
-0.3426787523653072 -0.52767066416376807 -0.35492867987910337
0.8831291898823479 -0.26703965777941718 -0.30436478240873299
-0.0014825536632065983 -0.31006982092583968 0.80730151742819523
1.0010026256554756 0.010643716551022919 -0.34898353029847762
0.77437767678716862 0.37234432301735865 -0.050876964038757855
0.3191855937361292 0.50370444853787788 0.46679217345625545
0.8568134116345405 -0.27457614054853963 -0.2429569544912642
-0.41317162345978442 0.036174217380619211 -0.40939769394518155
-0.50191769151956889 0.094529581837704768 0.49546100700181395
-0.29810203229480492 0.21728154895768981 0.64849100387986169
1.163890035559092 -0.23207839896137372 -0.37868874666550845
0.49937167024111462 0.57411723470901066 0.44969450787695209
-0.068890932131305815 -0.84136925058907863 0.1817802130600219
-0.28058940324237125 0.22205564851310911 0.63584904944143172
0.37269712389810028 0.39979764451485522 0.60791674631475612
0.15749885131775154 0.047797545642634276 0.6966208325932417
0.60868655448973552 0.48035401245777365 0.084634416389491207
-0.10347540645140052 -0.25251787857656183 0.66597543121241731
0.58479643243338209 0.42178560773390217 0.52756774774997428
-0.7653872025746904 0.28087886197801737 0.18977617189842544
0.23722739101998247 0.056811602453219479 -0.33940816306325505
0.39870696095234948 -0.75445030794828583 0.01180260875489747
-0.3956734061894096 0.40128029268623422 0.46588458265221178
0.73565491378100822 0.23662382377014524 0.29755898534894865
-1.0747546929768972 -0.31784684148491849 -0.56036352398055556
0.45825348787513498 -0.44023746974001909 -0.25202795974234427
-0.64406271300108209 -0.33705597833395373 -0.12842362137017815
-0.55285767118585372 0.39791188149118994 0.39562987658946192
0.73907576593382851 -1.2348257686298574 -0.27858025466505332
0.95605646397346922 0.10670490995484627 -0.26936180797183429
0.22542256179737352 0.45920048454978968 0.60118392645181462
-0.95191402722811924 -0.28960432542129766 -0.52999349888736447
0.78943941312173993 -0.16419469052553026 -0.27939205097359388
-0.50769909681393899 -0.42487083738058473 -0.092850372950253224
-0.14981174012323617 0.34140487417068144 0.56945000189096984
-0.66457902442563888 -0.10867161920957358 0.15009193943741206
0.038213056339385876 -0.55314719818036906 -0.23219995328526544
0.27742963863747128 0.16100334707911657 0.61701006245194545
0.12721556351141095 0.004419527338644258 -0.27119773335543762
-0.26885540431451993 0.013415305319050219 0.64548671510428424
0.010495138010627292 -0.35521652323830466 0.14044100462892928
0.028871425393343086 0.56450202852887088 0.16921489162578851
-0.73523307375202962 -0.11793766999821997 -0.41357377403804829
-0.54895289145518866 -0.071163433234335827 0.45312055332077783
0.8395517214539352 -0.38639992003601975 -0.28708309894237072
0.25256274301857973 -0.53647779113119398 -0.53213932966572575
0.18822675238497433 -0.77484254016474097 0.91447106137564482
0.18700044110559499 -0.64924345815334306 0.49757693285569715
-0.44740864214967768 -0.42539230916536752 -0.44851484452959234
0.4390245444616141 -0.49222359610181599 0.68137693619650008
0.34941363971766348 -0.74452942675953437 0.86251103044329014
0.31530305687668858 -0.23093246940801038 0.63456195196078991
-0.74186482981816915 0.18310511374050975 0.11114353826776036
-0.2254876058397921 0.047839534277368756 0.65717484414084737
0.087869449964112389 0.46419804858995661 0.56231335454654641
0.67537929024360555 0.12611890196649966 -0.40213048014057939
-0.84475626255196135 -0.30577804368526884 -0.43307581841105858
0.51162776057323822 0.4946539428706096 0.32045432355095294
0.44318169798929086 0.59663754798628332 0.44799959532822164
0.06818702244279784 -0.56401316900116427 0.45303362568801386
0.31368982488493891 -0.22555939391166291 0.59779858101335748
-0.13936164413009022 0.31703228328844446 0.57681775809433766
-0.55407887668258593 0.16960082613909933 0.49626074049559232
1.2371171407768249 -0.081852071546030913 -0.43894133347349662
0.97133737634788631 0.1389083951082597 -0.26667305094561389
0.24412651741027647 -0.22786595881255067 0.75246828351137562
-0.92029822419948459 -0.12403256303609567 -0.64629797529029265
0.84762164339276436 -0.16232528885906561 -0.32535843395522068
0.71721498348565182 0.48955018656546656 -0.17297165237117973
0.28786227584155677 -0.18719066740518286 0.51358391978271101
1.1560720231403971 -0.22546532125094387 -0.37907218878175986
0.14160162208811755 -0.032331051314624659 0.7717481778308235
-0.45155242256724071 0.59697062939581969 0.22313329133954607
0.73625371993256206 0.1927502510714767 0.35564906460084611
-0.74564034682811142 -0.38731743238889393 -0.26801655312889228
-0.19486523402794909 0.22624004810854359 0.60908169156875758
0.067973775879880405 -0.13923820517052121 0.81157044480419138
0.31357661917174684 -0.70249160820343448 0.81118497857495786
0.49849918923189729 -0.79358954015871674 0.5964248537022856
0.046667847769451765 -0.03634676870389697 0.74083812242222535
0.37296102516770846 -0.64346403600296398 0.84111140407377682
0.5048136666261327 -0.083231884620580843 0.41350124497263785
-0.016289731327078005 -0.55042963685078306 0.50456337005794438
1.0950486709200824 -0.21691149661825193 -0.41449305779365009
-0.3745424513857829 0.36918450148797888 0.54508883282920184
0.32149570702556085 -0.54067322498705295 -0.16232561016891012
-0.50117147035543619 0.057250937667184587 0.54630614794134402
0.73350383921039541 -0.26066499474569227 -0.17623345114697919
-0.03760893906077234 0.48332164678059897 0.42575081611543109
-0.33085887170162098 -0.16659268946470007 0.4576038462890466
-0.58754318885899437 -0.025893586896689413 -0.63973284152779364
0.33847695978900538 -0.72249385497316609 0.85519715882961211
0.81697456468522334 0.26295936210517112 -0.20546355410213213
0.019277554346954551 -0.86206966716412836 0.85258117313699611
-0.30676853913176516 0.27131259437873467 0.63117650228160738
0.28469455514696063 -0.14922850508841634 0.5608801492745652
-0.74311615546467014 0.25576801783126868 0.34741105268703532
-1.069026046703426 -0.35819967019019572 -0.53589346847808805
-0.058677298452411097 -0.32895393750568047 0.77777022648160443
-0.21331667718922898 0.020518099493319397 0.66625236505663121
-0.14171884498502418 0.37869972834675991 0.5679853353163935
-0.69806549088891146 -0.32363068713730669 -0.32302912141778162
0.042233936623818913 0.52849754119558412 -0.13952642412779248
0.27727894256745689 -1.1222088605353697 0.0523110470421706
-0.18021246797358903 0.061448840227004808 0.66881573912181036
-0.82197000147844168 -0.24778274937365197 -0.47938347868413889
-0.28308608702326366 0.26460883389194834 0.6332291777758785
-0.35290346664034944 0.5607792311558093 0.4530376002278107
0.96025058352104309 -0.36958460265214299 -0.38459690707743821
-0.71770001391943516 -0.30803519299157855 -0.36737402168808941
0.30077415430321341 -0.46445779633999607 -0.041675216954839556
-0.71118205233741083 -0.36345588495880321 -0.22957409667476458
0.18995707639834247 -0.53614501048379282 -0.28434235050686141
0.99441283555354065 -0.2828318184967884 -0.34899734811843963
0.86330486576904386 -0.27880662117087596 -0.21631131863138098
0.29979925954295994 -0.21371222037020488 0.53561958270363519
0.17474793873879491 0.34346664763314294 0.62840172338355149
0.93966785254076135 -0.24239439796841822 -0.33106998499592688
-0.45274552896987341 0.10030263710963538 0.57275298760747528
-0.36088964128339684 0.15477434368432341 0.62067165165240912
-0.5703655488488748 0.35862782012208427 0.39387814663956
-0.38832588926562317 0.068477278265810071 0.57605946209573222
0.24754684246132874 0.45718668237710247 0.61967266296302181
-0.1804807499629415 0.20524421684485006 0.61435418734786396
-0.26534142303766384 0.30781445723579282 0.57120147593535187
0.12920658248623029 -0.77474682489729574 0.92542235706093745
0.78683386272697553 -0.020698052425732527 -0.060698250721712199
1.0156006106668665 -0.33911286115475647 -0.32075268899712661
-0.5838427478561663 -0.43934635694258262 0.86507252489643527
-0.91219291181410056 -0.22541867970388552 -0.62066611325036103
0.53841994470320209 0.16333691017175767 0.48145793568924677
-0.57678501582956465 0.26587073796545724 0.42753448914131909
0.52658654501160296 0.31251799017741178 0.55209114390750624
0.69990816655179144 -0.54815497111531997 -0.411188943251247
0.39203664021976525 0.1287161250294524 0.58728804106835408
1.1648841998051342 0.10544743441508331 -0.37980533897607494
0.32149609954430347 -0.5161175759708243 0.46217468662284666
-0.58944884534390529 -0.33026351755016847 -0.48230354131569708
-0.91161598974375635 -0.39336649834433501 -0.39120321157816829
0.0097637387167726075 -0.23725305531107566 0.78479502899658193
0.45864707860844178 0.36622733271788022 0.53680242908283038
-0.78436166944797647 0.25447529877131814 0.19111120297172679
0.98703645087534553 0.12559595670628099 -0.3733584216500585
0.93207588845951128 0.16792697049691441 -0.24942560804143454
0.087432120582817019 0.57495614939164597 0.54010698888719411
0.039779773037923682 0.68191448554330591 0.52802958315157955
-0.27716750528387735 0.26172961052649413 0.63094607778029133
-0.69958937822981615 0.12044275568829477 -0.32937728294180424
0.13643620994314132 0.27388426646494324 0.62140486407993212
0.34993111358954065 -0.4002107091373901 0.48747565412134897
0.60794046123681422 0.3195658190567805 0.5209533198571501
0.44211649662640129 0.44715326413172818 0.54632621348098898
0.50997479473125962 0.81493133264643802 -0.1507712748404364
1.2187595454824502 0.042024093188096856 -0.42308030424555998
-0.66583630498171553 -0.30403732628803226 -0.23977811028869578
0.26378139777397691 -0.45351441856674057 0.34113039647467769
-0.77036754598952162 -0.15045024866829593 -0.43515556998123373
0.12268696212217689 0.42826879626368708 0.57260679693362793
-0.54127740478651298 0.19464818414239815 0.47311601288264971
0.39143924056853852 -0.36805587408889551 -0.68441564556597978
-0.057731350271281956 -1.2494470039149235 -0.062825275501651845
0.17676506378764678 -0.68326307253226659 0.86374590828511533
0.39854851279136971 -0.42690065424167045 -0.000275554342736406
0.34532084957902343 -0.70945083555472976 0.85259241771342875
-1.1443624336544178 -0.31364524101593361 -0.5945937850723686
-0.37337608932157496 0.36934086921336373 0.538497270328123
-0.37148302541396472 0.53331927331274187 0.22436345907208732
0.052297635159685774 0.77043809334520219 -0.29745235361920663
0.2838054579503555 -0.6195443350645462 0.87936261411810968
1.2340062803245364 -0.13821160448796022 0.37425084574488654
-0.73952947263099089 -0.25798232510589614 -0.40113781014976002
-0.86864389995595936 -0.31087147860126407 -0.44513700467778694
0.4628751454229616 0.56277858605317732 0.55161018228875847
0.18494613104678814 -0.58486836856406654 -0.15198236870268111
-0.81777321341455189 -0.10126938228126292 -0.52543950208301027
-0.999279871513717 -0.3984690532910804 -0.46360627012012579
1.0395103655083642 -0.077731580533082933 -0.36616716266988902
1.2150276478393838 -0.13717921223113549 -0.3961220587271681
-0.25365876563992118 0.11387202556994325 0.61494793691400051
-0.63259930427577382 0.10645959857523835 0.45675101408572338
-0.082574995637811011 -0.79520649713363412 0.77624199691514306
-0.66498328678457375 0.17665941279849662 0.42263200468308604
-0.23878210157460034 0.35749839800782013 0.19850473033669491
0.36198509878415797 -0.67588767170818542 0.85416991346506421
0.41377337604310083 0.16345407563760617 0.59580269074567305
-0.4573720741274081 0.37985026978335767 0.10541766874930847
4.0098121590004254e-05 -0.13314033108139967 0.7728425965904826
-0.18452099173009517 0.42134874223455299 0.54948067936175082
-1.0296403478135399 -0.24358402155038306 -0.64415373313879343
-0.28934614485725718 0.38813575282020096 0.51489013386227001
-0.35342911343242456 0.36450358676112771 0.54895051373662884
-0.2918910568603339 -0.50590261697298544 -0.52694175671940258
-0.72141596972865019 -0.14537662392665496 -0.56697744957048357
0.4097452478316832 -0.44393477822777427 0.5653295365572264
-0.29077714933668952 0.52345301498582231 0.49176486338024894
0.11530475133507978 -0.3373125698136441 0.8299297228627065
0.080629949461414663 -0.59471461526945291 0.91840612772012165
-0.41868995658999775 0.39903990987964022 -0.52968782169281692
-0.71268424296186361 0.16386976205754777 0.03037562045285469
0.31816503473105606 -0.27681363523826974 0.43461401125077348
0.92848066296436937 -0.27179696430220446 -0.3159776911600467
0.075076533707730819 0.62074396073614224 -0.43832331027639704
1.2086177880352471 -0.14051884772942813 -0.4031148395743136
-0.74458319286137042 -0.35286818166375156 0.29117868690120385
-1.1315667989673068 -0.43774484692860227 -0.50901331636488489
-0.21668053329335146 -0.12629869851128106 -0.044543188750888696
0.12980771023067406 -0.52286639287934022 0.89477695030855386
-0.473439166095738 0.013181560585305618 -0.73533117112809077
0.013263454999261404 -0.5650644933885367 0.49356258396756036
-0.038059068249237216 -0.72546443279735229 0.65607366544752654
0.017027490279061253 0.31228843773595827 0.59659839607010579
0.71559678347344091 0.37626537532295856 0.3628890040548729
-0.21702367223584607 0.15203337412235385 0.63222326698944364
0.67404099637345727 0.36952518450518568 0.48846360431242708
-0.37820616330889356 0.15316242532513868 -0.76671055896559359
0.28104217145849053 -0.31943838446414574 -0.7385804520140109
0.32745439849465874 -0.66400351761210175 0.82135793939553814
0.32563480863877725 -0.71116959835262961 0.81693962435267675
0.33943753546355504 -0.3705743748582826 0.48239277728436303
0.37891618762521651 0.36367059446848415 0.63373260944908871
-0.020002185267221417 -0.22075778355436171 0.76598612590483572
0.2678685952602522 -0.76600879535708088 0.89377290131080045
-0.018568989862051577 0.60942144363962925 0.53088431577321504
0.25156505962342912 -0.77671999578390682 0.55457649105645501
-0.3851091839449523 0.40160503514884383 0.42225421984781075
0.34198774524117947 -0.53505001209686753 -0.32828304789442697
0.77825247215888815 0.25038858564428423 -0.045328406038287916
-0.52098511251291346 0.33114910694347799 0.43730605494289865
-0.67822098155745358 -0.28871263754006193 -0.29893123933777499
-1.1570345586462421 -0.3631021431128616 -0.55739675204806716
0.011304357091675543 -0.091484386499669057 0.81126540013895365
1.2661363439350288 0.13912641096278833 -0.36013996575484342
-1.1209106059581819 -0.42550943260762253 -0.4376379952275542
0.28403024502529028 0.41208018211732167 0.64333227989558317
0.11450704130361378 0.03984577323063121 0.69093282709276682
-0.16110450135674959 0.47606974097618249 0.43034048487497145
0.07379844748813591 -0.55050885314298625 0.31072176614048264
-0.90432615425413365 -0.42897109171460102 -0.30599910064152969
-0.27380261686733243 0.25884929828050574 0.62675966433625341
0.17860825370404587 -0.68655640249299665 0.92727839811934132
-0.42450259966477177 -0.45484957686124261 -0.097850767830196972
-0.69067507145640739 0.38291634439476852 0.25343108835898764
0.050769858098653309 -0.25849362991798586 -0.82284307027584447
0.22214114553686914 -0.72395829182541149 0.9086896244384981
0.027125381317981923 -0.16353299864153925 0.77972007376567731
0.12548186651808235 -0.83856978805293991 0.89067530072883461
0.91948201811620001 -0.14411417122727954 -0.3357195988129309
-0.76717024334506889 0.25683806958692301 0.32492754449476458
-0.67777561636558969 0.30792913040419378 0.37314104595310837
0.23202146242956845 -0.13801304398088021 0.72864703808209175
0.3064832480941333 -0.39468300933909362 0.79192929515499255
0.16714830457549712 -0.1521898636718042 0.79792785749693884
-0.39411577274410736 0.39578048017185807 0.46694013808989165
-0.069134185671187565 -0.61650587553428338 -0.47980602083634594
0.20261370394916156 -0.070541298631820126 0.73693628787822618
-0.74726507125238162 0.14181974944121833 0.11525626570492076
-0.003077337702965588 -0.041930846190410875 0.77447206006682556
0.058669919416700633 0.5375465060475122 0.55013467576890918
0.28474836348519839 -1.0854907444934518 0.3555300058532298
0.38975938266469878 -0.7895947648720707 0.8270432002981023
-0.97507348314701248 -0.37616190888513046 -0.46549292470989467
0.72772185350564045 -0.24239287045384827 -0.59691882101099658
0.23529235627379164 -0.73275090773627483 0.85253491718259067
0.056861766138554204 -0.08122562871736605 0.81182101848053989
0.03078473165256268 -0.072078654558541899 0.80849559507645807
0.04508383564926044 0.31343521890348924 0.59698695033571791
0.13260503864158601 -0.88254913198897711 0.83030048171244886
-1.1555435181796081 -0.33571299084407613 -0.63913112752012236
0.12844508404489696 0.41079567165481379 0.56152186908324353
-0.65823593915958134 -0.40100465811764963 -0.076365082425078334
0.63149122041497296 -0.2705203340180482 -0.3560218927892107
0.68394069125350576 0.4215434988641924 0.48361966003161161
0.48057415677691084 0.21699421611805292 0.58496945903702002
1.1299762418709194 0.17525544183927977 -0.33089584299837149
0.21603674760209923 -0.20965787831820748 1.193896507815869
0.3297812364137569 -0.73297438686580918 0.85827794014232772
0.49196852329405405 0.32330874131545784 0.52221363193723835
-0.22000765434326564 0.3192137277259306 0.56516723309053329
-0.42384172821238564 -0.42377311058370637 -0.40235424125572106
0.24442004570621756 0.39231375491661424 0.65340922490040576
1.1817101419460554 -0.0043748597576893644 -0.40887145542570469
0.18440366354279147 -0.8613933567161105 0.65044551446043108
0.80336433459351775 -0.075341923021483126 -0.23328509012993326
-0.16162649089651437 -0.22361596464803313 -0.66480133258536345
-0.087078543292882449 -0.67264577083032506 0.83821985138731847
0.81776434756108785 -0.189836890816661 -0.30275147152208426
-0.64291280809564211 0.047168207590125633 -0.53184866612967241
-0.72557759316681558 -0.038526572924716618 0.025394643082960577
-0.68508307823333281 -0.32373626879139294 -0.43286211086243576
0.14100826783699283 0.45209466120655861 0.56451354478936633
0.76846720818287562 0.28530755635876659 0.052003899718397584
-0.29781075630990372 0.0053913044529139142 0.55261548295188945
-0.62447368401617798 0.24986467480568209 -0.31768849766703333
1.2271767010125365 -0.082648054481918365 -0.43740301272237403
1.2495439729478317 0.2300372513974871 -0.36386452460585161
-0.58701349667402103 -0.43563054773387222 -0.13685966529251647
-0.14167699196708994 0.41702063764703823 0.56519679500369246
0.74722877448161218 0.45536742131596597 -0.15563289456475005
0.96180037432683441 -0.046973642060429199 -0.34107057967802845
-0.68279711067723925 -0.21538381972344922 -0.21089791630914956
-0.62536577587242781 0.21373358867912984 0.4277537695279543
0.84254594756813384 0.81586844803192804 -0.94767851010198179
-0.080246524809987507 -0.47248951316914756 0.44777031785113142
-0.79191435916331043 0.17756057342301546 0.20875527071698308
1.0123303401001196 -0.0038418985955921414 -0.35462777977603377
0.60706261253530291 -0.35435867380451214 -0.3560787211151899
0.5016346594448986 0.19951026844675113 0.57187124935977351
-0.65444343956869133 -0.28386360659800758 -0.15236193440707257
-0.6707541056607258 -0.34853779030904875 -0.18348875370627749
-0.89093553404034509 -0.12934668267094196 -0.61051927699545683
0.30095079778019262 -0.21834550952272735 0.48954044090171678
0.91485586983461187 0.1396652520159698 -0.24134191562571417
0.84309891327396036 -0.18291635649467253 -0.32311854491263592
-0.25360969465455097 0.026356067124456928 -0.2023915433707506
0.2076724395074574 -0.71419497159034151 0.91852943297304179
0.033130723775934845 -0.55523355984423262 0.46013755765113462
0.54754686210857506 -0.059880304743050061 0.39593915308480376
-0.53030143169385324 0.3470210113199208 0.26903034052324948
-0.31695425198568294 0.32492788780756854 0.5981970082526491
0.30966635037309898 -0.74059284950168447 0.843631028375456
-0.57157766507685026 0.28073429890556056 0.42403625769713216
1.1798071979873201 -0.19297817752856261 -0.4282713517576644
0.15038285885810576 0.524674088160765 0.54365893844088831
0.88583691504103879 -0.23815641094124729 -0.32343902423671178
0.25341414729174327 0.14805457222074025 0.63807421158229705
-0.67431596551494333 -0.43507490122559744 -0.085567310848769118
0.28100558740824644 0.50003978454924436 0.56735996958356338
0.7686497682013913 -0.11137550850572708 -0.43244769001987571
0.28596376600432549 -0.7444412016414752 0.84256940891677523
-0.052948919008091622 0.46174063917517216 0.42865566617282713
-0.19810549486902906 0.45523893048680719 0.54287603623094505
-0.67153158622282061 -0.30287826879414226 -0.26579667376126803
-0.39293848362986838 0.50430383067654461 0.43361102971179122
0.89209113447409383 -0.2557319875093178 -0.31367750366843605
-0.23632439331239619 0.33297916130804239 0.55334579202125678
0.23705717616971445 -0.23435037198803599 -0.80497348730156215
1.2267673598972741 -0.11903332053332605 -0.43779966133532167
0.44908850633744501 0.52579199799959753 0.54766325806844751
-0.13287538899533891 0.44820631928252652 0.41383656568821792
0.16755662188668707 0.48216255699811228 0.56053894174058705
-0.3991762834891035 0.41947061571862676 0.45714758252952148
-0.057391107391944196 -0.49617446118205066 0.42998780738190945
0.21187249618658255 -0.7234589676704033 0.86001086766474355
0.47339641028992707 0.33105408967314531 0.5434865092864456
-0.3866501749666349 0.15648380341463763 0.61143266218540759
0.072857897381989112 0.19391477187134498 0.18454171322858937
-0.86963644240875415 -0.41958739982304039 -0.27213278055905477
0.19366761440085023 -0.057021212428406187 0.77713723478583407
0.60762929414456934 0.1574724786817967 0.51785802132935377
0.039647278764948002 0.58078289988781862 0.23958390670927621
-1.0576953377212912 -0.24842574057254296 -0.62639758140730617
-1.0572911745865847 -0.34478056407779789 -0.58009096321943776
0.010550001328005765 0.24876722956063446 0.60611148672438198
-1.0326934160098991 -0.33689341935981432 -0.65231219420222608
0.98873925706976062 0.19405775563210881 -0.31844487715904357
0.93666152148542658 0.091646247033285277 -0.26325751040266354
-0.90102978842955039 -0.42306310438672412 -0.33400449896094297
0.14482595884693072 -0.74646926966750016 0.56044045897186567
-0.6883377416875418 -0.23541381423651586 -0.3014503302832674
0.027144320965965196 -0.74977085228893969 0.63328848982415842
0.35048479655504394 -0.63576912591885559 0.85406640383733823
0.96102276745909609 -0.27237987637999694 -0.33866267101487679
-0.52652532566804577 -0.14450992931926621 -0.6672126034709196
0.36809079216725027 -0.27593572537935529 -0.23713525384843859
-0.20025041930352305 0.32279774783296844 0.56460481792921513
-0.12033806804639191 -0.54147213095219016 -0.59018202373240936
0.059928946532857852 0.65213951682102689 0.5363649366359029
0.083054194422007566 -0.88190541586158844 0.81476019098421482
0.31430707368253752 -0.84924499383942376 0.58732086810478901
0.22890741461957953 0.11311698896585298 0.56619709106953131
0.34071101855782504 0.43595777844002725 0.59220826314063935
-0.18586686233695593 0.28566987063264548 0.58221982978728271
-0.063353675406376153 -0.26795437768845076 0.74542990625532557
1.2050011688745892 -0.14492404468323272 -0.41182702808772298
-0.50584226672673749 0.35291487860805404 0.4469763261497679
-0.41988695137731669 0.11138539214212528 0.59278203987806144
