# XYZ point cloud file
0.331787109375 0.977783203125 -0.33697509765625
0.31951904296875 0.9468994140625 -0.336212158203125
0.336669921875 0.9676513671875 -0.36199951171875
0.3509521484375 0.9954833984375 -0.35614013671875
0.34808349609375 0.9998779296875 -0.346160888671875
0.31353759765625 0.953369140625 -0.32391357421875
0.32550048828125 0.9461669921875 -0.3470458984375
0.35626220703125 0.990234375 -0.3656005859375
-0.75689697265625 -0.6182861328125 -0.426513671875
-0.73931884765625 -0.59521484375 -0.404449462890625
-0.7578125 -0.6124267578125 -0.419097900390625
-0.76885986328125 -0.644287109375 -0.440948486328125
-0.7545166015625 -0.625 -0.428955078125
-0.739013671875 -0.6046142578125 -0.408233642578125
-0.7410888671875 -0.5870361328125 -0.396087646484375
-0.771484375 -0.63623046875 -0.43621826171875
-0.76617431640625 -0.648681640625 -0.439910888671875
0.3997802734375 1.0025634765625 -0.39971923828125
0.39666748046875 1.0072021484375 -0.3916015625
0.3826904296875 1.0096435546875 -0.3880615234375
0.4000244140625 0.9984130859375 -0.40716552734375
0.41436767578125 0.9903564453125 -0.411102294921875
0.41448974609375 0.99267578125 -0.40142822265625
0.37872314453125 1.0169677734375 -0.379364013671875
0.38446044921875 1.0013427734375 -0.398193359375
0.41351318359375 0.985107421875 -0.41790771484375
-0.792236328125 -0.7298583984375 -0.42999267578125
-0.7899169921875 -0.7020263671875 -0.435943603515625
-0.7943115234375 -0.7254638671875 -0.424896240234375
-0.7879638671875 -0.761962890625 -0.41619873046875
-0.78997802734375 -0.7330322265625 -0.431488037109375
-0.79010009765625 -0.70556640625 -0.435516357421875
-0.7926025390625 -0.6966552734375 -0.432769775390625
-0.789794921875 -0.757568359375 -0.41217041015625
-0.78485107421875 -0.7625732421875 -0.418212890625
0.44366455078125 0.9019775390625 -0.44512939453125
0.44329833984375 0.9039306640625 -0.4356689453125
0.43585205078125 0.940673828125 -0.431549072265625
0.44158935546875 0.9002685546875 -0.446990966796875
0.44976806640625 0.860107421875 -0.45269775390625
0.44879150390625 0.8614501953125 -0.443359375
0.434326171875 0.9415283203125 -0.42486572265625
0.43475341796875 0.936279296875 -0.43597412109375
0.44775390625 0.85888671875 -0.45733642578125
-0.75189208984375 -0.8363037109375 -0.353515625
-0.76849365234375 -0.815185546875 -0.380401611328125
-0.7510986328125 -0.8358154296875 -0.350341796875
-0.732421875 -0.8531494140625 -0.34130859375
-0.750244140625 -0.8350830078125 -0.35888671875
-0.765380859375 -0.8135986328125 -0.384521484375
-0.76727294921875 -0.8116455078125 -0.377227783203125
-0.7327880859375 -0.8524169921875 -0.33074951171875
-0.73236083984375 -0.8514404296875 -0.3428955078125
0.4388427734375 0.734375 -0.445587158203125
0.44085693359375 0.733154296875 -0.439483642578125
0.44476318359375 0.7745361328125 -0.454681396484375
0.43603515625 0.73681640625 -0.44866943359375
0.427978515625 0.6925048828125 -0.433990478515625
0.4300537109375 0.69140625 -0.424102783203125
0.44549560546875 0.7744140625 -0.446014404296875
0.44110107421875 0.7757568359375 -0.456451416015625
0.425048828125 0.6927490234375 -0.438873291015625
-0.6549072265625 -0.8533935546875 -0.259613037109375
-0.67987060546875 -0.8585205078125 -0.278900146484375
-0.65179443359375 -0.8543701171875 -0.2515869140625
-0.62823486328125 -0.838134765625 -0.22821044921875
-0.65728759765625 -0.849609375 -0.267303466796875
-0.6839599609375 -0.8551025390625 -0.2852783203125
-0.6787109375 -0.8582763671875 -0.272186279296875
-0.62652587890625 -0.837646484375 -0.214385986328125
-0.6304931640625 -0.8336181640625 -0.236480712890625
0.38739013671875 0.5908203125 -0.35107421875
0.39349365234375 0.5855712890625 -0.344512939453125
0.4061279296875 0.6197509765625 -0.3841552734375
0.38262939453125 0.5953369140625 -0.36431884765625
0.3734130859375 0.56494140625 -0.32879638671875
0.3731689453125 0.56005859375 -0.319366455078125
0.40740966796875 0.6177978515625 -0.37188720703125
0.40325927734375 0.621826171875 -0.3892822265625
0.37530517578125 0.568359375 -0.33660888671875
-0.54864501953125 -0.768798828125 -0.133453369140625
-0.57440185546875 -0.796875 -0.16485595703125
-0.5460205078125 -0.7681884765625 -0.12127685546875
-0.52825927734375 -0.7418212890625 -0.121673583984375
-0.552734375 -0.768310546875 -0.146728515625
-0.575927734375 -0.79443359375 -0.17974853515625
-0.57330322265625 -0.796875 -0.1478271484375
-0.525390625 -0.7412109375 -0.110107421875
-0.53277587890625 -0.7427978515625 -0.132843017578125
0.32269287109375 0.5865478515625 -0.33416748046875
0.3154296875 0.5711669921875 -0.330535888671875
0.3282470703125 0.57958984375 -0.337188720703125
0.32196044921875 0.6070556640625 -0.334808349609375
0.3134765625 0.5928955078125 -0.328765869140625
0.3060302734375 0.5748291015625 -0.32354736328125
0.3218994140625 0.5628662109375 -0.3316650390625
0.33233642578125 0.6024169921875 -0.342041015625
0.316162109375 0.6099853515625 -0.328094482421875
-0.5350341796875 -0.653564453125 -0.19366455078125
-0.53277587890625 -0.666259765625 -0.1846923828125
-0.52398681640625 -0.64697265625 -0.18341064453125
-0.53594970703125 -0.6385498046875 -0.197265625
-0.5521240234375 -0.66015625 -0.19622802734375
-0.546875 -0.67333984375 -0.190643310546875
-0.52423095703125 -0.65966796875 -0.180450439453125
-0.5260009765625 -0.6319580078125 -0.189605712890625
-0.552490234375 -0.6427001953125 -0.204620361328125
0.33782958984375 0.6741943359375 -0.34295654296875
0.334228515625 0.6544189453125 -0.3416748046875
0.34649658203125 0.66748046875 -0.354766845703125
0.33880615234375 0.6993408203125 -0.351531982421875
0.32568359375 0.677734375 -0.336090087890625
0.32501220703125 0.6575927734375 -0.336669921875
0.34100341796875 0.6466064453125 -0.3460693359375
0.34686279296875 0.694091796875 -0.3580322265625
0.32794189453125 0.700927734375 -0.343780517578125
-0.59051513671875 -0.672119140625 -0.23297119140625
-0.591064453125 -0.688720703125 -0.22711181640625
-0.5777587890625 -0.66796875 -0.21295166015625
-0.59149169921875 -0.654296875 -0.235687255859375
-0.60382080078125 -0.673583984375 -0.246612548828125
-0.6031494140625 -0.6920166015625 -0.24237060546875
-0.57611083984375 -0.686279296875 -0.206085205078125
-0.5772705078125 -0.652587890625 -0.219482421875
-0.60064697265625 -0.65380859375 -0.2493896484375
0.343994140625 0.7706298828125 -0.35491943359375
0.33990478515625 0.747802734375 -0.353759765625
0.355712890625 0.764892578125 -0.361968994140625
0.34649658203125 0.792236328125 -0.34991455078125
0.33245849609375 0.7718505859375 -0.34735107421875
0.328857421875 0.751220703125 -0.343841552734375
0.34954833984375 0.741455078125 -0.363983154296875
0.358642578125 0.787109375 -0.35968017578125
0.3343505859375 0.79541015625 -0.342742919921875
-0.64825439453125 -0.6722412109375 -0.27569580078125
-0.6505126953125 -0.693115234375 -0.268951416015625
-0.63604736328125 -0.67138671875 -0.265899658203125
-0.64605712890625 -0.6552734375 -0.279296875
-0.66156005859375 -0.6732177734375 -0.2891845703125
-0.6619873046875 -0.692626953125 -0.2886962890625
-0.63653564453125 -0.693359375 -0.26483154296875
-0.63470458984375 -0.653564453125 -0.2764892578125
-0.6612548828125 -0.656005859375 -0.2918701171875
0.3582763671875 0.852294921875 -0.3521728515625
0.3525390625 0.831787109375 -0.351531982421875
0.36724853515625 0.8515625 -0.361114501953125
0.36334228515625 0.8743896484375 -0.355621337890625
0.3466796875 0.8551025390625 -0.340545654296875
0.34423828125 0.8349609375 -0.340667724609375
0.365234375 0.8306884765625 -0.362060546875
0.37261962890625 0.87353515625 -0.371429443359375
0.35491943359375 0.8780517578125 -0.351287841796875
-0.69781494140625 -0.6805419921875 -0.323272705078125
-0.7012939453125 -0.6982421875 -0.318145751953125
-0.682373046875 -0.67431640625 -0.315460205078125
-0.69500732421875 -0.660888671875 -0.32867431640625
-0.70953369140625 -0.68408203125 -0.33001708984375
-0.71136474609375 -0.7025146484375 -0.3277587890625
-0.68585205078125 -0.696044921875 -0.30767822265625
-0.68463134765625 -0.6563720703125 -0.31878662109375
-0.70782470703125 -0.6663818359375 -0.3358154296875
0.3126220703125 0.8658447265625 -0.328216552734375
0.3050537109375 0.86474609375 -0.32275390625
0.30902099609375 0.842529296875 -0.3197021484375
0.324951171875 0.863037109375 -0.331512451171875
0.321533203125 0.8863525390625 -0.326934814453125
0.311279296875 0.89111328125 -0.3267822265625
0.30059814453125 0.8433837890625 -0.31719970703125
0.31976318359375 0.8408203125 -0.33087158203125
0.3311767578125 0.8817138671875 -0.33538818359375
-0.69610595703125 -0.606201171875 -0.342742919921875
-0.68402099609375 -0.601806640625 -0.323089599609375
-0.69378662109375 -0.5899658203125 -0.340667724609375
-0.7066650390625 -0.61376953125 -0.358917236328125
-0.696044921875 -0.624755859375 -0.336090087890625
-0.68426513671875 -0.62255859375 -0.32476806640625
-0.68109130859375 -0.5849609375 -0.324127197265625
-0.7086181640625 -0.5966796875 -0.36358642578125
-0.7056884765625 -0.6297607421875 -0.3543701171875
0.29833984375 0.7764892578125 -0.31658935546875
0.29949951171875 0.7554931640625 -0.31719970703125
0.31005859375 0.7763671875 -0.326568603515625
0.30120849609375 0.799560546875 -0.32025146484375
0.28955078125 0.7811279296875 -0.302459716796875
0.2882080078125 0.7557373046875 -0.299285888671875
0.3079833984375 0.75390625 -0.326934814453125
0.312744140625 0.798095703125 -0.332183837890625
0.29150390625 0.7982177734375 -0.310577392578125
-0.64306640625 -0.5936279296875 -0.28936767578125
-0.64520263671875 -0.614013671875 -0.288330078125
-0.6279296875 -0.59228515625 -0.279144287109375
-0.63848876953125 -0.57470703125 -0.29205322265625
-0.6583251953125 -0.59375 -0.296539306640625
-0.65777587890625 -0.61865234375 -0.2974853515625
-0.629150390625 -0.6143798828125 -0.28045654296875
-0.62530517578125 -0.57470703125 -0.283050537109375
-0.65301513671875 -0.5758056640625 -0.2984619140625
0.2921142578125 0.687255859375 -0.30926513671875
0.28424072265625 0.6900634765625 -0.300567626953125
0.2913818359375 0.661865234375 -0.31072998046875
0.30596923828125 0.6851806640625 -0.316680908203125
0.2935791015625 0.7099609375 -0.305938720703125
0.2845458984375 0.7120361328125 -0.294708251953125
0.28240966796875 0.665771484375 -0.309417724609375
0.29986572265625 0.662841796875 -0.314056396484375
0.3072509765625 0.7071533203125 -0.317169189453125
-0.58917236328125 -0.5938720703125 -0.24212646484375
-0.57598876953125 -0.594482421875 -0.22930908203125
-0.5865478515625 -0.5751953125 -0.239837646484375
-0.59942626953125 -0.5938720703125 -0.2578125
-0.590576171875 -0.6148681640625 -0.244049072265625
-0.57513427734375 -0.6126708984375 -0.22955322265625
-0.57403564453125 -0.57568359375 -0.229736328125
-0.60028076171875 -0.575439453125 -0.25567626953125
-0.59912109375 -0.6162109375 -0.251861572265625
0.2855224609375 0.59619140625 -0.314483642578125
0.294921875 0.5953369140625 -0.320892333984375
0.28460693359375 0.6160888671875 -0.3179931640625
0.27545166015625 0.59814453125 -0.308837890625
0.27996826171875 0.5772705078125 -0.31207275390625
0.29119873046875 0.57666015625 -0.316802978515625
0.29296875 0.615234375 -0.3226318359375
0.27752685546875 0.617919921875 -0.30987548828125
0.271484375 0.580322265625 -0.30731201171875
-0.53314208984375 -0.5882568359375 -0.20947265625
-0.54840087890625 -0.5926513671875 -0.2138671875
-0.53448486328125 -0.60498046875 -0.20330810546875
-0.52490234375 -0.5850830078125 -0.205169677734375
-0.5325927734375 -0.5751953125 -0.2142333984375
-0.5419921875 -0.5765380859375 -0.216827392578125
-0.5496826171875 -0.6082763671875 -0.21136474609375
-0.52374267578125 -0.600830078125 -0.199981689453125
-0.522216796875 -0.5728759765625 -0.209320068359375
0.337158203125 0.5426025390625 -0.32928466796875
0.33831787109375 0.52978515625 -0.32843017578125
0.34442138671875 0.560791015625 -0.337371826171875
0.33636474609375 0.5567626953125 -0.3377685546875
0.331298828125 0.5272216796875 -0.33221435546875
0.33233642578125 0.5164794921875 -0.326812744140625
0.34735107421875 0.5458984375 -0.328399658203125
0.34033203125 0.5767822265625 -0.341094970703125
0.330078125 0.5394287109375 -0.3304443359375
-0.5120849609375 -0.6881103515625 -0.15380859375
-0.52264404296875 -0.6968994140625 -0.161651611328125
-0.50506591796875 -0.68994140625 -0.142578125
-0.5030517578125 -0.679443359375 -0.15496826171875
-0.51953125 -0.6834716796875 -0.16656494140625
-0.53460693359375 -0.6929931640625 -0.173980712890625
-0.512451171875 -0.69873046875 -0.147125244140625
-0.49737548828125 -0.6810302734375 -0.1414794921875
-0.5101318359375 -0.6776123046875 -0.163482666015625
0.37030029296875 0.63134765625 -0.370758056640625
0.38055419921875 0.6561279296875 -0.38104248046875
0.3642578125 0.64599609375 -0.368743896484375
0.36590576171875 0.605224609375 -0.353424072265625
0.3748779296875 0.61572265625 -0.370635986328125
0.38763427734375 0.6400146484375 -0.3863525390625
0.36846923828125 0.6724853515625 -0.37066650390625
0.3582763671875 0.6224365234375 -0.356414794921875
0.3704833984375 0.587890625 -0.348846435546875
-0.57025146484375 -0.74072265625 -0.18328857421875
-0.5791015625 -0.723388671875 -0.204376220703125
-0.5938720703125 -0.7548828125 -0.2132568359375
-0.56494140625 -0.75146484375 -0.170257568359375
-0.5556640625 -0.723876953125 -0.171051025390625
-0.5665283203125 -0.7120361328125 -0.190460205078125
-0.59967041015625 -0.732177734375 -0.221466064453125
-0.58837890625 -0.772705078125 -0.20361328125
-0.54693603515625 -0.7310791015625 -0.157958984375
0.40081787109375 0.7489013671875 -0.42132568359375
0.4100341796875 0.7823486328125 -0.42083740234375
0.38372802734375 0.7535400390625 -0.40008544921875
0.3934326171875 0.71728515625 -0.411712646484375
0.41668701171875 0.7427978515625 -0.43670654296875
0.4254150390625 0.7789306640625 -0.443023681640625
0.3890380859375 0.7838134765625 -0.40106201171875
0.37860107421875 0.7257080078125 -0.39190673828125
0.40643310546875 0.707275390625 -0.43328857421875
-0.65557861328125 -0.7818603515625 -0.2784423828125
-0.6527099609375 -0.7506103515625 -0.27276611328125
-0.6763916015625 -0.78759765625 -0.2957763671875
-0.655029296875 -0.812255859375 -0.276947021484375
-0.63323974609375 -0.7745361328125 -0.252899169921875
-0.63330078125 -0.7427978515625 -0.258087158203125
-0.67059326171875 -0.751708984375 -0.2940673828125
-0.6783447265625 -0.8182373046875 -0.289306640625
-0.6337890625 -0.8018798828125 -0.247955322265625
0.41473388671875 0.872802734375 -0.418426513671875
0.41107177734375 0.8992919921875 -0.4102783203125
0.39532470703125 0.8594970703125 -0.3995361328125
0.41400146484375 0.84130859375 -0.423675537109375
0.42669677734375 0.8853759765625 -0.4310302734375
0.4224853515625 0.9124755859375 -0.424591064453125
0.39471435546875 0.8829345703125 -0.397491455078125
0.39019775390625 0.83740234375 -0.398284912109375
0.42755126953125 0.8521728515625 -0.439971923828125
-0.72515869140625 -0.779296875 -0.336944580078125
-0.714599609375 -0.75048828125 -0.316619873046875
-0.73797607421875 -0.7720947265625 -0.358642578125
-0.73486328125 -0.80859375 -0.359130859375
-0.70758056640625 -0.783447265625 -0.31494140625
-0.7008056640625 -0.7535400390625 -0.313018798828125
-0.7247314453125 -0.7452392578125 -0.33221435546875
-0.74920654296875 -0.7955322265625 -0.375213623046875
-0.71563720703125 -0.8145751953125 -0.337310791015625
0.38494873046875 0.947998046875 -0.386749267578125
0.37664794921875 0.9542236328125 -0.37896728515625
0.37750244140625 0.920654296875 -0.37628173828125
0.39349365234375 0.934326171875 -0.3973388671875
0.39422607421875 0.96923828125 -0.399810791015625
0.37847900390625 0.9727783203125 -0.38519287109375
0.36474609375 0.926513671875 -0.37139892578125
0.3883056640625 0.91455078125 -0.38690185546875
0.40643310546875 0.9580078125 -0.409271240234375
-0.75445556640625 -0.716552734375 -0.393463134765625
-0.73876953125 -0.7060546875 -0.3685302734375
-0.75469970703125 -0.6937255859375 -0.40301513671875
-0.77056884765625 -0.7283935546875 -0.41375732421875
-0.75128173828125 -0.7393798828125 -0.380889892578125
-0.73858642578125 -0.72314453125 -0.357421875
-0.74151611328125 -0.6871337890625 -0.379058837890625
-0.7686767578125 -0.7027587890625 -0.420562744140625
-0.76824951171875 -0.75048828125 -0.401702880859375
0.34381103515625 0.94677734375 -0.365875244140625
0.3388671875 0.93212890625 -0.357025146484375
0.3504638671875 0.953125 -0.3702392578125
0.34033203125 0.955078125 -0.370574951171875
0.33258056640625 0.9376220703125 -0.3582763671875
0.3458251953125 0.931640625 -0.366241455078125
0.35357666015625 0.9703369140625 -0.3736572265625
-0.74700927734375 -0.640380859375 -0.411224365234375
-0.74896240234375 -0.6539306640625 -0.4158935546875
-0.73681640625 -0.6300048828125 -0.39923095703125
-0.74957275390625 -0.637939453125 -0.4239501953125
-0.7584228515625 -0.65478515625 -0.4329833984375
-0.7373046875 -0.648681640625 -0.393341064453125
-0.73651123046875 -0.6199951171875 -0.403411865234375
0.3983154296875 0.4752197265625 -0.372894287109375
0.406494140625 0.4725341796875 -0.349395751953125
0.3704833984375 0.4359130859375 -0.333404541015625
0.38641357421875 0.49365234375 -0.392669677734375
0.41741943359375 0.5244140625 -0.405364990234375
0.42486572265625 0.5220947265625 -0.377410888671875
0.37713623046875 0.43212890625 -0.3028564453125
0.36688232421875 0.453369140625 -0.360443115234375
0.40582275390625 0.53857421875 -0.43365478515625
-0.48516845703125 -0.7962646484375 -0.10675048828125
-0.44842529296875 -0.755859375 -0.08795166015625
-0.48162841796875 -0.7989501953125 -0.07135009765625
-0.5260009765625 -0.8406982421875 -0.12664794921875
-0.499267578125 -0.7877197265625 -0.149261474609375
-0.46636962890625 -0.7471923828125 -0.1334228515625
-0.44366455078125 -0.7537841796875 -0.047119140625
-0.51861572265625 -0.8387451171875 -0.092071533203125
-0.5396728515625 -0.82666015625 -0.171142578125
0.47503662109375 0.711669921875 -0.4793701171875
0.4774169921875 0.7061767578125 -0.455902099609375
0.4625244140625 0.642333984375 -0.467864990234375
0.4678955078125 0.7266845703125 -0.49560546875
0.48626708984375 0.7838134765625 -0.4881591796875
0.486572265625 0.7794189453125 -0.4698486328125
0.4635009765625 0.6395263671875 -0.4466552734375
0.4462890625 0.66064453125 -0.47869873046875
0.48455810546875 0.7996826171875 -0.50079345703125
-0.6553955078125 -0.9271240234375 -0.236358642578125
-0.61309814453125 -0.9083251953125 -0.204498291015625
-0.6474609375 -0.92578125 -0.211944580078125
-0.70172119140625 -0.940673828125 -0.26348876953125
-0.66741943359375 -0.9169921875 -0.26971435546875
-0.62310791015625 -0.8916015625 -0.242645263671875
-0.608642578125 -0.9075927734375 -0.172637939453125
-0.69525146484375 -0.9375 -0.241668701171875
-0.7120361328125 -0.9305419921875 -0.295928955078125
0.48773193359375 0.987060546875 -0.450286865234375
0.48590087890625 0.982666015625 -0.434844970703125
0.4986572265625 0.9219970703125 -0.472320556640625
0.4874267578125 0.9932861328125 -0.46234130859375
0.477783203125 1.0460205078125 -0.416900634765625
0.4757080078125 1.0428466796875 -0.402801513671875
0.49676513671875 0.9183349609375 -0.45330810546875
0.49267578125 0.931640625 -0.4835205078125
0.47393798828125 1.0445556640625 -0.436248779296875
-0.80816650390625 -0.89599609375 -0.36871337890625
-0.77276611328125 -0.92626953125 -0.33660888671875
-0.80157470703125 -0.8912353515625 -0.3515625
-0.828857421875 -0.8602294921875 -0.402740478515625
-0.81109619140625 -0.8946533203125 -0.390380859375
-0.780517578125 -0.9212646484375 -0.363250732421875
-0.76800537109375 -0.920654296875 -0.317413330078125
-0.82763671875 -0.8560791015625 -0.3861083984375
-0.832275390625 -0.8604736328125 -0.41802978515625
0.41180419921875 1.1470947265625 -0.3623046875
0.40521240234375 1.1466064453125 -0.341339111328125
0.43682861328125 1.1243896484375 -0.38067626953125
0.4202880859375 1.13818359375 -0.392913818359375
0.3839111328125 1.1539306640625 -0.35546875
0.37835693359375 1.1553955078125 -0.328582763671875
0.43402099609375 1.126953125 -0.3565673828125
0.43994140625 1.11669921875 -0.400115966796875
0.39215087890625 1.14013671875 -0.382659912109375
-0.86474609375 -0.721435546875 -0.4912109375
-0.86029052734375 -0.7711181640625 -0.4659423828125
-0.86407470703125 -0.7083740234375 -0.482757568359375
-0.86199951171875 -0.671142578125 -0.511077880859375
-0.8602294921875 -0.73486328125 -0.502777099609375
-0.85797119140625 -0.7811279296875 -0.4732666015625
-0.8585205078125 -0.760498046875 -0.4564208984375
-0.86248779296875 -0.6585693359375 -0.497100830078125
-0.856201171875 -0.68896484375 -0.51995849609375
0.308349609375 1.09033203125 -0.322998046875
0.30206298828125 1.0986328125 -0.292327880859375
0.32818603515625 1.1240234375 -0.33453369140625
0.3177490234375 1.0677490234375 -0.35247802734375
0.2818603515625 1.04736328125 -0.3050537109375
0.27691650390625 1.0538330078125 -0.275238037109375
0.31964111328125 1.131103515625 -0.306121826171875
0.3404541015625 1.105712890625 -0.36419677734375
0.2928466796875 1.0264892578125 -0.343475341796875
-0.80810546875 -0.5426025390625 -0.5013427734375
-0.83416748046875 -0.5797119140625 -0.51873779296875
-0.8109130859375 -0.532470703125 -0.4813232421875
-0.78173828125 -0.51416015625 -0.483367919921875
-0.802001953125 -0.56787109375 -0.51129150390625
-0.82763671875 -0.60205078125 -0.52587890625
-0.838134765625 -0.5684814453125 -0.503204345703125
-0.78485107421875 -0.5047607421875 -0.466033935546875
-0.7724609375 -0.53857421875 -0.4996337890625
0.2325439453125 0.9228515625 -0.26995849609375
0.231689453125 0.9368896484375 -0.23577880859375
0.2459716796875 0.9615478515625 -0.28173828125
0.2379150390625 0.895751953125 -0.30340576171875
0.22052001953125 0.8839111328125 -0.26043701171875
0.219970703125 0.900146484375 -0.23211669921875
0.24383544921875 0.973876953125 -0.2467041015625
0.259033203125 0.93310546875 -0.314544677734375
0.2283935546875 0.855224609375 -0.29388427734375
-0.70782470703125 -0.44775390625 -0.383758544921875
-0.734375 -0.4649658203125 -0.41802978515625
-0.71429443359375 -0.4437255859375 -0.36346435546875
-0.68157958984375 -0.4375 -0.3580322265625
-0.694091796875 -0.46923828125 -0.39556884765625
-0.719970703125 -0.4847412109375 -0.4334716796875
-0.73577880859375 -0.4559326171875 -0.3951416015625
-0.69158935546875 -0.43310546875 -0.3358154296875
-0.670166015625 -0.4537353515625 -0.375885009765625
0.30755615234375 0.687744140625 -0.392669677734375
0.3306884765625 0.729736328125 -0.41497802734375
0.341796875 0.60205078125 -0.41278076171875
0.28717041015625 0.6456298828125 -0.37432861328125
0.28118896484375 0.772216796875 -0.37213134765625
0.2989501953125 0.8165283203125 -0.3824462890625
0.35748291015625 0.6468505859375 -0.43951416015625
0.31884765625 0.5640869140625 -0.389862060546875
0.25921630859375 0.7315673828125 -0.35089111328125
-0.6007080078125 -0.6351318359375 -0.320770263671875
-0.55859375 -0.702392578125 -0.256256103515625
-0.62982177734375 -0.6640625 -0.350128173828125
-0.6380615234375 -0.56494140625 -0.3636474609375
-0.569091796875 -0.6048583984375 -0.29022216796875
-0.52777099609375 -0.6658935546875 -0.23211669921875
-0.59393310546875 -0.7364501953125 -0.28973388671875
-0.67095947265625 -0.5908203125 -0.39508056640625
-0.61358642578125 -0.542724609375 -0.33563232421875
0.39385986328125 0.892822265625 -0.470733642578125
0.36224365234375 0.966064453125 -0.42822265625
0.41326904296875 0.9473876953125 -0.46734619140625
0.42529296875 0.822021484375 -0.489410400390625
0.37750244140625 0.837890625 -0.45513916015625
0.3428955078125 0.9151611328125 -0.41925048828125
0.38348388671875 1.0145263671875 -0.43951416015625
0.4395751953125 0.8800048828125 -0.49493408203125
0.40655517578125 0.762451171875 -0.479034423828125
-0.73504638671875 -0.7529296875 -0.42352294921875
-0.76788330078125 -0.77783203125 -0.4493408203125
-0.763427734375 -0.67724609375 -0.470977783203125
-0.69915771484375 -0.7255859375 -0.400970458984375
-0.70977783203125 -0.8277587890625 -0.369415283203125
-0.7401123046875 -0.842529296875 -0.394134521484375
-0.79168701171875 -0.7037353515625 -0.4906005859375
-0.72723388671875 -0.645751953125 -0.452056884765625
-0.66973876953125 -0.7960205078125 -0.342041015625
0.451416015625 1.0462646484375 -0.45574951171875
0.439208984375 1.08056640625 -0.44189453125
0.4635009765625 1.0263671875 -0.463958740234375
0.4427490234375 1.028076171875 -0.46026611328125
0.424072265625 1.072509765625 -0.44219970703125
0.4554443359375 1.0660400390625 -0.44598388671875
0.46490478515625 0.98681640625 -0.478240966796875
-0.827392578125 -0.8173828125 -0.4681396484375
-0.82293701171875 -0.8505859375 -0.44305419921875
-0.841064453125 -0.7928466796875 -0.48699951171875
-0.81689453125 -0.8111572265625 -0.47119140625
-0.8056640625 -0.8604736328125 -0.428070068359375
-0.836669921875 -0.8260498046875 -0.459228515625
-0.83465576171875 -0.7626953125 -0.5009765625
0.20220947265625 0.7852783203125 -0.26904296875
0.1971435546875 0.765869140625 -0.268829345703125
0.20343017578125 0.8017578125 -0.234130859375
0.205322265625 0.812744140625 -0.261871337890625
0.2044677734375 0.7503662109375 -0.302703857421875
0.19403076171875 0.730712890625 -0.3126220703125
0.19512939453125 0.78662109375 -0.221954345703125
0.20977783203125 0.8319091796875 -0.232147216796875
0.2078857421875 0.7808837890625 -0.29443359375
-0.62225341796875 -0.419921875 -0.3089599609375
-0.63311767578125 -0.416748046875 -0.2822265625
-0.61749267578125 -0.4127197265625 -0.302764892578125
-0.6090087890625 -0.4322509765625 -0.328033447265625
-0.63946533203125 -0.4248046875 -0.32427978515625
-0.649169921875 -0.4202880859375 -0.300811767578125
-0.6236572265625 -0.40869140625 -0.267303466796875
-0.59588623046875 -0.420654296875 -0.32843017578125
-0.6265869140625 -0.4407958984375 -0.3365478515625
0.2408447265625 0.552978515625 -0.370758056640625
0.22210693359375 0.6328125 -0.359893798828125
0.25848388671875 0.5780029296875 -0.360687255859375
0.25872802734375 0.4764404296875 -0.371490478515625
0.22265625 0.5308837890625 -0.386993408203125
0.209228515625 0.611083984375 -0.376129150390625
0.23480224609375 0.6605224609375 -0.346435546875
0.27923583984375 0.5008544921875 -0.3636474609375
0.2359619140625 0.4561767578125 -0.38348388671875
-0.5103759765625 -0.5328369140625 -0.28582763671875
-0.52532958984375 -0.552734375 -0.276580810546875
-0.547119140625 -0.4927978515625 -0.321441650390625
-0.49603271484375 -0.509521484375 -0.30596923828125
-0.46728515625 -0.573974609375 -0.239959716796875
-0.48321533203125 -0.6031494140625 -0.229766845703125
-0.56280517578125 -0.5072021484375 -0.315032958984375
-0.5360107421875 -0.476318359375 -0.336395263671875
-0.455078125 -0.5433349609375 -0.26904296875
0.297119140625 0.34814453125 -0.290863037109375
0.2705078125 0.3245849609375 -0.29302978515625
0.28924560546875 0.3690185546875 -0.332122802734375
0.3179931640625 0.3714599609375 -0.296051025390625
0.30963134765625 0.3421630859375 -0.246826171875
0.282470703125 0.317626953125 -0.24786376953125
0.25921630859375 0.3477783203125 -0.339447021484375
0.30902099609375 0.390869140625 -0.33154296875
0.3316650390625 0.3687744140625 -0.254180908203125
-0.38409423828125 -0.63671875 -0.092193603515625
-0.40484619140625 -0.627685546875 -0.145904541015625
-0.3692626953125 -0.601806640625 -0.107635498046875
-0.3724365234375 -0.637451171875 -0.04241943359375
-0.406005859375 -0.6722412109375 -0.071075439453125
-0.4171142578125 -0.66357421875 -0.121368408203125
-0.39306640625 -0.5938720703125 -0.16937255859375
-0.35430908203125 -0.601318359375 -0.0526123046875
-0.391357421875 -0.6729736328125 -0.0318603515625
0.1107177734375 0.55224609375 0.644012451171875
0.10406494140625 0.5423583984375 0.666107177734375
0.09393310546875 0.531005859375 0.683380126953125
0.09796142578125 0.5106201171875 0.690704345703125
0.109375 0.4949951171875 0.691802978515625
0.11431884765625 0.4794921875 0.689422607421875
0.1270751953125 0.462158203125 0.67767333984375
0.13897705078125 0.462158203125 0.663604736328125
0.15338134765625 0.462158203125 0.6419677734375
0.164794921875 0.4932861328125 0.617523193359375
0.15185546875 0.5198974609375 0.61407470703125
0.13763427734375 0.5423583984375 0.619049072265625
-0.38360595703125 -0.2220458984375 0.639007568359375
-0.36175537109375 -0.2266845703125 0.651031494140625
-0.33447265625 -0.228515625 0.66497802734375
-0.3052978515625 -0.2098388671875 0.691650390625
-0.30584716796875 -0.191650390625 0.70355224609375
-0.30584716796875 -0.1754150390625 0.714630126953125
-0.32647705078125 -0.1673583984375 0.71875
-0.34271240234375 -0.166259765625 0.710723876953125
-0.36236572265625 -0.164306640625 0.69964599609375
-0.3824462890625 -0.16552734375 0.6817626953125
-0.38995361328125 -0.1766357421875 0.670135498046875
-0.39794921875 -0.1920166015625 0.65289306640625
0.13812255859375 0.5899658203125 0.54278564453125
0.1326904296875 0.58349609375 0.5721435546875
0.1265869140625 0.5738525390625 0.59637451171875
0.17791748046875 0.461181640625 0.5950927734375
0.1884765625 0.462890625 0.5665283203125
0.1998291015625 0.4615478515625 0.5440673828125
0.1978759765625 0.500732421875 0.50994873046875
0.18695068359375 0.5399169921875 0.5101318359375
0.16827392578125 0.572998046875 0.510284423828125
-0.41351318359375 -0.276123046875 0.550323486328125
-0.38055419921875 -0.2879638671875 0.56536865234375
-0.3463134765625 -0.2913818359375 0.58251953125
-0.308349609375 -0.27197265625 0.61529541015625
-0.3062744140625 -0.2578125 0.637847900390625
-0.30328369140625 -0.2410888671875 0.6600341796875
-0.416748046875 -0.219970703125 0.607818603515625
-0.428466796875 -0.234130859375 0.58636474609375
-0.439697265625 -0.2462158203125 0.559844970703125
0.16741943359375 0.4342041015625 0.62054443359375
0.16204833984375 0.4029541015625 0.631500244140625
0.14788818359375 0.373291015625 0.635894775390625
0.142578125 0.3359375 0.62005615234375
0.1513671875 0.3248291015625 0.5960693359375
0.1558837890625 0.31591796875 0.572998046875
0.18218994140625 0.344482421875 0.53900146484375
0.193115234375 0.37939453125 0.527923583984375
0.2034912109375 0.42041015625 0.519256591796875
-0.27032470703125 -0.2747802734375 0.613189697265625
-0.2364501953125 -0.2542724609375 0.621826171875
-0.20556640625 -0.224609375 0.62957763671875
-0.18927001953125 -0.1827392578125 0.65240478515625
-0.19287109375 -0.1724853515625 0.672149658203125
-0.19805908203125 -0.1641845703125 0.691314697265625
-0.2276611328125 -0.17822265625 0.7056884765625
-0.25482177734375 -0.1986083984375 0.69696044921875
-0.27685546875 -0.215087890625 0.689117431640625
0.1168212890625 0.442138671875 0.690582275390625
0.112060546875 0.42236328125 0.69439697265625
0.10455322265625 0.4012451171875 0.699676513671875
0.1041259765625 0.379150390625 0.689605712890625
0.11590576171875 0.3692626953125 0.67498779296875
0.125244140625 0.3582763671875 0.65740966796875
-0.2196044921875 -0.1396484375 0.720123291015625
-0.23138427734375 -0.1309814453125 0.730743408203125
-0.241455078125 -0.1229248046875 0.737091064453125
-0.260986328125 -0.1318359375 0.740814208984375
-0.2744140625 -0.146728515625 0.74163818359375
-0.2899169921875 -0.1568603515625 0.73638916015625
0.08184814453125 0.37255859375 0.715179443359375
0.0689697265625 0.3612060546875 0.718414306640625
0.05194091796875 0.3486328125 0.721588134765625
0.0384521484375 0.3323974609375 0.712493896484375
0.03912353515625 0.317626953125 0.703399658203125
0.03759765625 0.300048828125 0.691680908203125
0.06475830078125 0.2921142578125 0.665496826171875
0.0919189453125 0.3046875 0.655609130859375
0.11273193359375 0.3226318359375 0.651092529296875
-0.1912841796875 -0.1239013671875 0.707855224609375
-0.1796875 -0.0950927734375 0.70782470703125
-0.17291259765625 -0.06396484375 0.703277587890625
-0.1898193359375 -0.034423828125 0.71435546875
-0.2010498046875 -0.0361328125 0.72589111328125
-0.2137451171875 -0.0380859375 0.73773193359375
-0.22503662109375 -0.0584716796875 0.750213623046875
-0.22857666015625 -0.076904296875 0.750762939453125
-0.23431396484375 -0.0966796875 0.747650146484375
0.04052734375 0.2646484375 0.660186767578125
0.04046630859375 0.2498779296875 0.635711669921875
0.03656005859375 0.234130859375 0.613861083984375
0.07135009765625 0.23193359375 0.586669921875
0.103271484375 0.25048828125 0.572021484375
0.13525390625 0.276123046875 0.559539794921875
-0.16021728515625 -0.15380859375 0.64227294921875
-0.1427001953125 -0.11181640625 0.6380615234375
-0.1357421875 -0.071044921875 0.638916015625
-0.1458740234375 -0.03173828125 0.65374755859375
-0.15289306640625 -0.0301513671875 0.66864013671875
-0.16259765625 -0.0322265625 0.6898193359375
0.01287841796875 0.27734375 0.677825927734375
-0.015625 0.279296875 0.681793212890625
-0.0445556640625 0.2874755859375 0.679931640625
-0.07806396484375 0.28564453125 0.6627197265625
-0.08551025390625 0.2735595703125 0.64166259765625
-0.0933837890625 0.260009765625 0.626953125
-0.0723876953125 0.229248046875 0.606536865234375
-0.03387451171875 0.218994140625 0.607635498046875
0.0008544921875 0.21533203125 0.60107421875
-0.138671875 0.008544921875 0.624542236328125
-0.150634765625 0.04541015625 0.6187744140625
-0.17401123046875 0.07958984375 0.61871337890625
-0.20379638671875 0.0950927734375 0.6241455078125
-0.21234130859375 0.085693359375 0.644989013671875
-0.21734619140625 0.0767822265625 0.665130615234375
-0.205078125 0.047607421875 0.68621826171875
-0.19158935546875 0.0228271484375 0.6939697265625
-0.1810302734375 -0.0032958984375 0.70330810546875
0.02301025390625 0.3406982421875 0.723724365234375
0.00152587890625 0.343017578125 0.722259521484375
-0.017578125 0.34912109375 0.728240966796875
-0.03692626953125 0.3487548828125 0.7218017578125
-0.0452880859375 0.334716796875 0.711761474609375
-0.05743408203125 0.3182373046875 0.697784423828125
-0.23468017578125 0.052978515625 0.696868896484375
-0.24139404296875 0.03759765625 0.70904541015625
-0.251220703125 0.02490234375 0.71820068359375
-0.24652099609375 0.0068359375 0.73321533203125
-0.23797607421875 -0.005859375 0.737091064453125
-0.228759765625 -0.0225830078125 0.746337890625
-0.0440673828125 0.3712158203125 0.73077392578125
-0.0531005859375 0.384521484375 0.728515625
-0.061767578125 0.40087890625 0.729705810546875
-0.077880859375 0.4141845703125 0.71844482421875
-0.09271240234375 0.4080810546875 0.710205078125
-0.107177734375 0.40625 0.693695068359375
-0.11590576171875 0.368896484375 0.676239013671875
-0.10479736328125 0.3438720703125 0.67706298828125
-0.08697509765625 0.322265625 0.67767333984375
-0.24664306640625 0.076904296875 0.675537109375
-0.27410888671875 0.0858154296875 0.667266845703125
-0.30010986328125 0.0858154296875 0.658782958984375
-0.33221435546875 0.068603515625 0.655242919921875
-0.33306884765625 0.053955078125 0.67620849609375
-0.33209228515625 0.040771484375 0.688995361328125
-0.30938720703125 0.03271484375 0.708099365234375
-0.29107666015625 0.032958984375 0.717254638671875
-0.2747802734375 0.02783203125 0.724945068359375
-0.13360595703125 0.396240234375 0.662506103515625
-0.14288330078125 0.391357421875 0.6407470703125
-0.1561279296875 0.3878173828125 0.621185302734375
-0.16400146484375 0.3446044921875 0.598907470703125
-0.1494140625 0.3072509765625 0.600372314453125
-0.126220703125 0.2769775390625 0.605804443359375
-0.22857666015625 0.1220703125 0.597381591796875
-0.26080322265625 0.1336669921875 0.588226318359375
-0.29827880859375 0.1383056640625 0.573150634765625
-0.33648681640625 0.122314453125 0.576202392578125
-0.33770751953125 0.1097412109375 0.598663330078125
-0.3333740234375 0.09765625 0.626434326171875
-0.11907958984375 0.4315185546875 0.677825927734375
-0.1104736328125 0.461669921875 0.673980712890625
-0.09942626953125 0.49169921875 0.666656494140625
-0.08935546875 0.5299072265625 0.644989013671875
-0.1009521484375 0.533935546875 0.619537353515625
-0.108642578125 0.5413818359375 0.600555419921875
-0.14117431640625 0.5101318359375 0.582489013671875
-0.153564453125 0.4688720703125 0.588836669921875
-0.1646728515625 0.4273681640625 0.590240478515625
-0.37347412109375 0.12109375 0.54998779296875
-0.40423583984375 0.09912109375 0.5380859375
-0.43841552734375 0.0728759765625 0.522216796875
-0.45703125 0.0355224609375 0.538543701171875
-0.4466552734375 0.0269775390625 0.563018798828125
-0.4410400390625 0.0186767578125 0.589630126953125
-0.412353515625 0.0361328125 0.62017822265625
-0.38873291015625 0.0552978515625 0.633026123046875
-0.35980224609375 0.0745849609375 0.634246826171875
-0.06695556640625 0.435791015625 0.72650146484375
-0.06243896484375 0.45703125 0.72430419921875
-0.0565185546875 0.47509765625 0.723236083984375
-0.05120849609375 0.499267578125 0.707122802734375
-0.0604248046875 0.5029296875 0.695068359375
-0.07122802734375 0.51123046875 0.681427001953125
-0.42218017578125 0.00341796875 0.63421630859375
-0.4127197265625 -0.0029296875 0.658416748046875
-0.40350341796875 -0.0096435546875 0.673187255859375
-0.38018798828125 -0.000244140625 0.69635009765625
-0.36639404296875 0.01318359375 0.699127197265625
-0.347900390625 0.0250244140625 0.69818115234375
-0.0291748046875 0.506591796875 0.714324951171875
-0.0162353515625 0.5205078125 0.707122802734375
-0.0006103515625 0.5328369140625 0.70458984375
0.01446533203125 0.545654296875 0.6932373046875
0.01251220703125 0.5589599609375 0.677490234375
0.0135498046875 0.5723876953125 0.661529541015625
-0.01715087890625 0.5792236328125 0.6427001953125
-0.0418701171875 0.5631103515625 0.649505615234375
-0.06207275390625 0.5445556640625 0.655975341796875
-0.443603515625 -0.015869140625 0.610809326171875
-0.4525146484375 -0.04736328125 0.607635498046875
-0.46270751953125 -0.078857421875 0.609588623046875
-0.447998046875 -0.103515625 0.632171630859375
-0.4324951171875 -0.0992431640625 0.651336669921875
-0.42266845703125 -0.0975341796875 0.66552734375
-0.40966796875 -0.0745849609375 0.686859130859375
-0.40966796875 -0.0528564453125 0.68768310546875
-0.40533447265625 -0.033203125 0.6900634765625
0.01348876953125 0.6009521484375 0.619598388671875
0.01397705078125 0.6142578125 0.59344482421875
0.01593017578125 0.6268310546875 0.576995849609375
-0.02362060546875 0.6279296875 0.554473876953125
-0.058837890625 0.607421875 0.56005859375
-0.08880615234375 0.580078125 0.571685791015625
-0.4854736328125 0.0040283203125 0.499298095703125
-0.501708984375 -0.0377197265625 0.493438720703125
-0.50946044921875 -0.0802001953125 0.487457275390625
-0.49896240234375 -0.120361328125 0.518829345703125
-0.4853515625 -0.1181640625 0.55078125
-0.47412109375 -0.114501953125 0.5826416015625
0.046142578125 0.5914306640625 0.63775634765625
0.069580078125 0.5889892578125 0.63140869140625
0.09442138671875 0.580078125 0.628936767578125
0.1160888671875 0.620361328125 0.5218505859375
0.0802001953125 0.635009765625 0.534332275390625
0.04638671875 0.640380859375 0.54376220703125
-0.50341796875 -0.163330078125 0.50042724609375
-0.490234375 -0.200439453125 0.50958251953125
-0.4698486328125 -0.23291015625 0.516510009765625
-0.43011474609375 -0.189453125 0.62158203125
-0.4443359375 -0.1666259765625 0.6102294921875
-0.45623779296875 -0.137939453125 0.60809326171875
0.035888671875 0.5423583984375 0.700653076171875
0.05291748046875 0.5390625 0.70458984375
0.068359375 0.532958984375 0.700897216796875
-0.38800048828125 -0.14111328125 0.693511962890625
-0.39996337890625 -0.1270751953125 0.69268798828125
-0.4072265625 -0.110595703125 0.690460205078125
0.07989501953125 0.5146484375 0.714691162109375
0.08099365234375 0.51806640625 0.706787109375
0.0830078125 0.51904296875 0.70306396484375
0.01702880859375 0.5330810546875 0.7130126953125
0.0179443359375 0.5318603515625 0.720367431640625
0.01873779296875 0.5302734375 0.72607421875
0.03570556640625 0.525146484375 0.7318115234375
0.049072265625 0.5233154296875 0.72552490234375
0.06048583984375 0.519287109375 0.72308349609375
-0.37701416015625 -0.1280517578125 0.721832275390625
-0.3868408203125 -0.115234375 0.718841552734375
-0.393798828125 -0.1002197265625 0.71771240234375
-0.4036865234375 -0.087890625 0.71197509765625
-0.4051513671875 -0.08740234375 0.706390380859375
-0.40716552734375 -0.0892333984375 0.696807861328125
-0.3726806640625 -0.1490478515625 0.702911376953125
-0.3704833984375 -0.1455078125 0.71258544921875
-0.36761474609375 -0.1417236328125 0.717926025390625
-0.044189453125 0.489990234375 0.728240966796875
-0.042236328125 0.4886474609375 0.73529052734375
-0.0396728515625 0.486572265625 0.740447998046875
-0.02349853515625 0.497802734375 0.73663330078125
-0.00885009765625 0.509033203125 0.732757568359375
0.0028076171875 0.5189208984375 0.73260498046875
-0.39654541015625 -0.0689697265625 0.71856689453125
-0.3953857421875 -0.0516357421875 0.7183837890625
-0.392822265625 -0.037353515625 0.7220458984375
-0.38751220703125 -0.0201416015625 0.71783447265625
-0.39111328125 -0.0185546875 0.709014892578125
-0.39117431640625 -0.0167236328125 0.70233154296875
-0.06048583984375 0.4202880859375 0.737945556640625
-0.05706787109375 0.4222412109375 0.7435302734375
-0.0546875 0.4241943359375 0.749053955078125
-0.0516357421875 0.4404296875 0.752899169921875
-0.0496826171875 0.4549560546875 0.748626708984375
-0.04559326171875 0.47021484375 0.749298095703125
-0.371337890625 -0.0093994140625 0.723846435546875
-0.35870361328125 0.0047607421875 0.727783203125
-0.345703125 0.0113525390625 0.7259521484375
-0.328857421875 0.0223388671875 0.727325439453125
-0.327880859375 0.024169921875 0.72076416015625
-0.32867431640625 0.0272216796875 0.713134765625
-0.027587890625 0.3629150390625 0.73297119140625
-0.02532958984375 0.3651123046875 0.740692138671875
-0.0218505859375 0.3677978515625 0.7464599609375
-0.02679443359375 0.3828125 0.7542724609375
-0.0364990234375 0.3953857421875 0.75030517578125
-0.042724609375 0.41162109375 0.75128173828125
-0.31219482421875 0.019775390625 0.7412109375
-0.29541015625 0.021240234375 0.74407958984375
-0.27947998046875 0.014892578125 0.749755859375
-0.26171875 0.0096435546875 0.752655029296875
-0.2584228515625 0.0123291015625 0.74774169921875
-0.25885009765625 0.014404296875 0.739349365234375
0.03955078125 0.351318359375 0.729766845703125
0.0386962890625 0.354736328125 0.738372802734375
0.0396728515625 0.3564453125 0.74456787109375
0.0213623046875 0.3597412109375 0.747314453125
0.00665283203125 0.3592529296875 0.75091552734375
-0.00579833984375 0.3642578125 0.751953125
-0.253173828125 -0.0035400390625 0.759796142578125
-0.24798583984375 -0.0140380859375 0.76263427734375
-0.24041748046875 -0.0281982421875 0.767852783203125
-0.2340087890625 -0.0413818359375 0.769073486328125
-0.2327880859375 -0.0400390625 0.762237548828125
-0.2294921875 -0.0406494140625 0.758575439453125
0.09185791015625 0.389892578125 0.714447021484375
0.09014892578125 0.39208984375 0.723052978515625
0.088134765625 0.394287109375 0.728759765625
0.07244873046875 0.38525390625 0.740264892578125
0.06475830078125 0.3756103515625 0.744537353515625
0.049072265625 0.369384765625 0.746856689453125
-0.2391357421875 -0.0550537109375 0.768951416015625
-0.2412109375 -0.0712890625 0.77337646484375
-0.24871826171875 -0.087158203125 0.769256591796875
-0.25384521484375 -0.1072998046875 0.766143798828125
-0.253173828125 -0.10791015625 0.75909423828125
-0.25146484375 -0.1085205078125 0.75164794921875
0.10980224609375 0.461669921875 0.6959228515625
0.10858154296875 0.4608154296875 0.702728271484375
0.10809326171875 0.4610595703125 0.70867919921875
0.10296630859375 0.4432373046875 0.72113037109375
0.10260009765625 0.4273681640625 0.719482421875
0.0947265625 0.4114990234375 0.723907470703125
-0.26666259765625 -0.1185302734375 0.76171875
-0.2783203125 -0.132568359375 0.757659912109375
-0.29345703125 -0.138671875 0.754180908203125
-0.30810546875 -0.150146484375 0.746124267578125
-0.30712890625 -0.153564453125 0.739959716796875
-0.3072509765625 -0.15869140625 0.732757568359375
0.08453369140625 0.5001220703125 0.7178955078125
0.093505859375 0.488525390625 0.718536376953125
0.0994873046875 0.4752197265625 0.716156005859375
-0.32391357421875 -0.1475830078125 0.746307373046875
-0.3369140625 -0.1470947265625 0.740386962890625
-0.353759765625 -0.1455078125 0.7320556640625
0.0679931640625 0.4998779296875 0.72784423828125
0.06219482421875 0.4874267578125 0.734100341796875
0.04876708984375 0.4698486328125 0.746856689453125
0.05828857421875 0.4501953125 0.74578857421875
0.07861328125 0.4541015625 0.733367919921875
0.09136962890625 0.4580078125 0.722259521484375
-0.33642578125 -0.093994140625 0.74658203125
-0.34930419921875 -0.1107177734375 0.7425537109375
-0.35882568359375 -0.126953125 0.7357177734375
-0.310546875 -0.132080078125 0.754547119140625
-0.3126220703125 -0.11767578125 0.756256103515625
-0.31341552734375 -0.0955810546875 0.757415771484375
0.051025390625 0.425537109375 0.746307373046875
0.06634521484375 0.4130859375 0.7410888671875
0.07684326171875 0.4033203125 0.740875244140625
-0.26220703125 -0.0987548828125 0.7694091796875
-0.274169921875 -0.09033203125 0.76904296875
-0.29052734375 -0.0794677734375 0.770751953125
0.03192138671875 0.409912109375 0.759185791015625
0.03216552734375 0.388427734375 0.755584716796875
0.03485107421875 0.3740234375 0.751129150390625
-0.24981689453125 -0.04248046875 0.771026611328125
-0.262451171875 -0.047119140625 0.76983642578125
-0.28387451171875 -0.0526123046875 0.7672119140625
0.00701904296875 0.415283203125 0.7559814453125
-0.0029296875 0.3939208984375 0.75872802734375
-0.01025390625 0.3804931640625 0.75616455078125
-0.27239990234375 -0.0009765625 0.75927734375
-0.2825927734375 -0.014892578125 0.760650634765625
-0.2958984375 -0.031005859375 0.76324462890625
-0.00140380859375 0.4356689453125 0.75604248046875
-0.0225830078125 0.4293212890625 0.7608642578125
-0.03912353515625 0.427001953125 0.759552001953125
-0.3275146484375 0.005126953125 0.738525390625
-0.32666015625 -0.0091552734375 0.745941162109375
-0.3211669921875 -0.0308837890625 0.75299072265625
0.0054931640625 0.4588623046875 0.75457763671875
-0.013427734375 0.469970703125 0.749237060546875
-0.0277099609375 0.4786376953125 0.745330810546875
-0.37225341796875 -0.0299072265625 0.730712890625
-0.3609619140625 -0.0367431640625 0.734619140625
-0.34466552734375 -0.0469970703125 0.745574951171875
0.02777099609375 0.4747314453125 0.75091552734375
0.02587890625 0.49658203125 0.744537353515625
0.0206298828125 0.5145263671875 0.738922119140625
-0.3863525390625 -0.08251953125 0.72601318359375
-0.369140625 -0.0771484375 0.733245849609375
-0.34954833984375 -0.07275390625 0.740570068359375
0.5416259765625 -0.425537109375 0.572265625
0.55743408203125 -0.4000244140625 0.544769287109375
0.57281494140625 -0.373046875 0.527191162109375
0.58367919921875 -0.340087890625 0.52398681640625
0.58551025390625 -0.3309326171875 0.5467529296875
0.58245849609375 -0.324462890625 0.564239501953125
0.5653076171875 -0.3359375 0.6016845703125
0.55401611328125 -0.3575439453125 0.61627197265625
0.5445556640625 -0.37890625 0.632568359375
0.52978515625 -0.4149169921875 0.6368408203125
0.5313720703125 -0.42724609375 0.624542236328125
0.52764892578125 -0.4395751953125 0.608428955078125
0.5113525390625 -0.4239501953125 0.66790771484375
0.49554443359375 -0.4427490234375 0.6807861328125
0.47760009765625 -0.46044921875 0.70062255859375
0.46044921875 -0.4986572265625 0.69891357421875
0.45562744140625 -0.5177001953125 0.69366455078125
0.45074462890625 -0.533447265625 0.6767578125
0.46710205078125 -0.5233154296875 0.643798828125
0.4892578125 -0.4993896484375 0.6243896484375
0.5064697265625 -0.4755859375 0.6124267578125
0.59442138671875 -0.3260498046875 0.4779052734375
0.60235595703125 -0.3067626953125 0.457672119140625
0.61370849609375 -0.28759765625 0.4383544921875
0.61834716796875 -0.26025390625 0.45538330078125
0.61273193359375 -0.25537109375 0.48883056640625
0.60430908203125 -0.2510986328125 0.524932861328125
0.59466552734375 -0.2642822265625 0.556793212890625
0.59027099609375 -0.27978515625 0.56280517578125
0.5833740234375 -0.2974853515625 0.57196044921875
0.4534912109375 -0.4930419921875 0.717864990234375
0.437744140625 -0.50244140625 0.730072021484375
0.42327880859375 -0.51220703125 0.73321533203125
0.40130615234375 -0.5445556640625 0.734161376953125
0.39117431640625 -0.5699462890625 0.72650146484375
0.3753662109375 -0.5953369140625 0.718994140625
