# XYZ point cloud file
-0.43650097375367913 -0.81945595413529126 -0.25796967043662411
-0.30093779950536093 -0.36472370531688947 0.6662873580326889
-0.35342586346978416 -0.45173524740416027 0.64233401555312053
0.32534865575514438 -0.36376056029868842 0.7192431964769721
-0.18292318361524273 0.31750720827238421 0.76802192770560396
-0.24137685637309403 0.28033257018692748 0.78332844779932742
-0.50836526068657673 -0.62134896327804157 -0.29653902624044015
-0.7459777530328271 -0.96161950742664271 -0.43721430720144827
-0.55645339792976589 -0.030725249369028429 0.75865393060054398
0.44024151472470918 0.99367807857029988 -0.41500470197037137
0.20612666299809024 0.98426817403628419 -0.33063336423697431
-0.61623879815772531 -1.0285188085073143 -0.43094814923397129
-0.32097348622090749 -0.65042876383956383 -0.30031061493616917
-0.82564471585821653 -0.63327901438318346 -0.27947386801135998
0.063484776425320466 0.27789203814636476 0.74629201586425875
-0.037547607228795687 -0.30935144572635026 0.63848263352893952
0.47634907365095913 1.2016607822695031 -0.42762150327692866
-0.082310059156323945 0.58896803250657581 0.72654736360703787
0.20436776953784697 0.0095678987117501224 0.75938691400287528
-0.62854338438185109 0.67840367631433873 0.1213391323762156
-0.19009351340124869 0.27343288716536351 0.77070026115305801
-0.51432967090546011 -0.33518517489673139 0.6813710156770123
0.10392751805402822 -0.15674698979342416 0.78191035993437752
0.76491149282180471 -0.41731674352303072 0.67530239679473558
0.63320648036150362 -0.37824804501087611 0.72908191656621946
-0.22145778658671392 -0.5476424692694114 0.14638662599514388
0.2819715485594223 0.39112829704989238 0.41159774428598617
0.65327023041661625 -0.35773840818842917 0.72611329457479545
-0.78846523015500303 -0.87575541424916281 -0.43423088510673669
-0.62704183476515851 0.04320320583824433 0.8111472722268438
0.17861084708404018 1.1750911967971476 -0.39965611316305516
0.13822084286201441 0.64138175030122246 0.65380214662820801
0.34621784034326453 0.13392643368534607 0.51650836357137209
0.21616602062163492 0.78501846148979215 0.48675277318784582
-0.73771845361221455 -0.43476569542055088 0.46220755674030589
-0.52236365859325939 -0.065917902770204151 0.75156451174793681
-0.68775770948351411 -0.66656885288828693 -0.30799622541068272
-0.70239837441497155 -0.40254447864677562 0.67721607382464555
0.55805805209100312 0.86477421677357491 -0.38302216303928938
0.6387451467622467 -0.59185552847153988 0.5518310740861383
0.14671349675260803 -0.033967946341203037 0.77457710633172638
0.1579737005936509 0.0032792640766652337 0.76912735148974942
-0.44389100687764493 -0.75612545268982867 -0.31768169898024468
-0.26691061591814247 -0.027957390430144891 0.75266769003952216
-0.54841698680321693 -0.82822259520212782 -0.36088238598392408
0.74215157323666592 -0.38449816618602828 0.66721444220068538
0.38656615911308367 0.95898097186593345 -0.38234145670540642
0.51985302894569319 0.94149483032092429 -0.3797797665808948
0.043830816673748885 0.42450940783831181 0.79606767750945195
-0.238539043609725 -0.10642365095152506 0.75606610138434016
0.34445345042793996 0.083354153599998426 0.49438801114644804
0.14402818336608647 0.44142862998174159 0.70322972552166974
0.33050656876747642 0.77117736698292871 -0.31459636549151249
0.13587171501581996 0.54363475736052269 0.67034214405263981
0.16523221124623344 -0.33435507479063276 0.62656822890122288
-0.85336154849112567 0.36460017505659481 0.047483497286891573
0.29571849842663162 1.2504874190631659 -0.4126524782418789
0.23277761619399273 -0.053141670756991055 0.80596944800706449
0.68812720625878954 -0.39308722630708698 0.66728854028168971
0.30500470544188474 0.32258346832680473 0.50277568125153493
0.80591139591341499 -0.24694615711314327 0.67272201090866179
-0.74747496663670154 -0.34366578807308001 0.53598506443183336
-0.28563217925631701 -0.021925113029503063 0.73654201821765852
0.13381879531658303 1.1129865220933048 -0.35912383617263721
-0.24589880783067919 0.94889781567069442 -0.16680840796722896
-0.84296430803956923 -0.91098278842666236 -0.45079979137559612
-0.38805657386711845 0.55112211615310081 0.59840723884216374
-0.53624611449543913 -0.92299100268468148 -0.36237016467646255
-0.11996001366617692 0.58160278735715343 0.73131155993970509
-0.09311864087915743 0.92030714139487746 -0.33471870930447933
0.30515630506305658 0.83224217571673709 -0.35245635596553559
0.095438472979138211 0.57647109467182922 0.67907756750046655
-0.1458792372952864 -0.073322311920630767 0.74349487761427868
-0.56787829700181458 -0.80961900065132664 -0.36954203869229119
-0.20701520573433285 0.51891078728286133 0.75139917165562764
0.76204081613254182 -0.39014523482713592 0.67345404158244548
-0.03358931003829202 0.23108718896791425 0.75633196220310239
0.55834666999609261 -0.36866392392164826 0.73190258197106139
0.14325437368694693 -0.088177515947220675 0.78863593019319178
-0.80219284504982646 -0.74822605868127789 -0.39245397821862893
-0.27365564491416094 0.42890564569443868 0.65091932627037608
-0.39405881044612912 -0.74342388445271457 -0.2665657113422224
-0.74001999694721965 -0.51289401168445359 0.047812085376709057
-0.30468976522015279 -0.27237322785106843 0.76261193969652841
0.3910305897742834 0.94402531965839787 -0.37422326970722608
0.3488640946873609 0.18515661810018358 0.34655307662802048
0.45394417279046806 -0.04355889272620761 0.6848448950001238
-0.53395825749223813 0.7830015048754001 -0.29440159180826247
0.94083109849892621 -0.21530458377681272 0.54716942449155981
0.24724950191270154 -0.1873660170827709 -0.38480997234454561
0.11031942537543671 0.36954642439341878 0.74085911013974393
0.12824047780031211 0.69055986858976093 0.62437977760990737
-0.41651605908153977 -0.2846332642128897 0.7695114669838039
-0.79974313728002899 -0.21656567887151734 0.24832089837205962
-0.50798293916348092 -0.053744233256104224 0.76198728583455111
0.40343400332200785 -0.022211126485228494 -0.058767467837871123
0.085887875182801193 -0.39637634350594114 0.18745103649587372
-0.38994783103381225 -0.64772323251046426 -0.20566680993540309
-0.86034140697628114 -0.97153966734471631 -0.44006598555189314
-0.5755803542308362 -0.17843115449291413 0.73125036458404136
-0.0079642690654013748 0.59183876702348504 0.71510287003619943
0.27435620391695448 0.83600059808802962 -0.29428166396299771
0.28167455377318795 0.33862760499614808 0.5526986554422102
0.097023719714270221 -0.26538886274574941 -0.48809705368711082
-0.67933850717192446 -0.88187070153788838 -0.41805995115699623
0.074081674276509468 0.66444376260454785 0.62384199844362409
-0.64470367221304592 -0.65588318169815829 -0.32620214125443781
-0.54110778141991345 -0.36437565560816831 0.59652001852336412
-0.42763954552597561 -0.063953046500392574 0.78659171448215615
0.770863412815876 -0.40802384266448488 0.68827269088027876
-0.18122736107117721 0.34003208374007343 0.76881210045157999
-0.099369173876631578 0.59343063884469327 0.73040039792395106
-0.41332683695703132 0.021350352106546899 0.75801026076542044
0.47445703670731376 0.86305769105764385 -0.34977072926090069
0.28873118053489666 -0.12228585113617663 0.76569192548680265
0.65272734019088707 -0.68653185887500412 0.58190702578092623
-0.49042981578252132 -0.76108157887603944 -0.32018404845914383
0.72268702086896375 -0.53549311714765835 0.67314775320671405
0.020654403031279855 0.45236940007110515 0.79873219813143415
0.31245542017167471 0.73736532747667116 -0.28012869574072163
0.25874665085549831 1.1456770026841181 -0.42715085494409588
-0.38859458382760947 -0.77695736441990748 -0.27652478286809234
0.8492451257540925 -0.30445802541186961 0.66783717388845609
-0.34693077742751538 -0.66780902311143331 -0.17325159005447333
0.10743761142434671 0.54285310876907955 0.67966441594247939
0.60915826406685492 -0.63860294846768584 0.64350518037213866
-0.27207447627200576 -0.089194183690019635 0.77679156978460884
-0.27291903014219354 0.022795496081092548 0.77285935209169399
0.31835640922914898 0.73024904175587779 -0.27776546197671104
-0.41261125636474993 0.093195734218224802 0.74753517959125482
-0.34826361739546829 -0.030096214178405134 0.77063116792736985
-0.39907246212541214 0.85837045158507153 0.074385618400293119
-0.64381515230434205 -0.69623193630748625 -0.33854051332118562
-0.57578854215476905 -0.21709613432605401 0.7145625595312981
0.48038710924398487 -0.29633684344864264 0.7458025117346132
0.2487455210355014 1.2174955467010666 -0.42913355713462797
0.63707853352985511 -0.60784120452387669 0.65691836218823152
-0.026348087551118837 -0.25691397437117203 0.69707787900470297
-0.25249773070063153 0.16806196350427927 0.7838159778175271
-0.44222974456873576 0.38867958048856188 0.52888374877413469
-0.83356162318573024 -0.32716272132417701 -0.4003321880307924
0.23561545119516047 -0.23119170431408342 0.75489432618880059
0.062957919985257904 0.54509255510283783 0.71487382023856849
0.31010684972054126 1.1152123093686486 -0.42202656979354458
-0.41669730034477492 -0.013186136050466146 0.77502667648395995
0.10067693760483731 0.23977905144614198 0.65686888154487733
0.73994045939526565 -0.34513925040176652 0.69858379580498386
-0.0894253453071574 0.53664661017799375 0.77231939529944249
-0.84465773843463055 -0.91622298901497468 -0.44291921391468314
-0.26772821661920609 -0.026226239582362254 0.7518157390781135
0.67353883960755634 -0.48851359788043736 0.69152975197293176
0.37134796988925745 0.28210526900155664 -0.15847795607316062
0.26660100174591328 0.85357149448675207 -0.31168010643686461
0.70999056958157158 -0.4805924052736088 0.68374485516211303
0.33803772276039168 1.1686701030304909 -0.46529998752610879
-0.28827126357840066 -0.30599145935412392 0.72626060644917467
0.12564236502615422 0.93826724485325874 -0.26158159952540183
-0.49950556284799497 -0.35909226927268495 0.6768965273344042
-0.51586517309869429 -0.066212954386108969 0.75656470082105498
-0.86230287732811206 -0.20852084482756261 0.15569045589185193
-0.64182880798368558 -0.71455937213924514 -0.33829693364326974
-0.045308023621058346 0.4996380270024019 0.78435350456709685
-0.023491078502118956 0.18933011295277602 0.69732450464943518
-0.50975205173549298 0.11913074352291542 0.66265755652584168
0.14783824059477624 -0.076052973988220085 0.78281752837060914
0.40303167180927346 -0.59463312703774918 0.554827404355966
0.15965587415768923 -0.10071164487321305 0.80825895664003955
0.12756018462490704 0.88507068808899148 -0.067422477579702988
0.38254279730363017 0.58186622137909383 -0.076690985606741036
-0.14930521459040236 0.38587705389736104 0.79769809171786221
0.72727468025720299 -0.33389015986995085 0.67324411375362914
0.48518298922841829 0.014604791565654196 0.49630998285788408
0.11809884553989769 0.41962672504678089 0.72584368210462369
0.37373453843522686 0.65611404223595748 -0.20716250421681437
0.19827444002726535 0.075614661924641294 -0.60375010117645211
0.15542039442332456 0.50666058002924674 0.68112929993597504
-0.066882043975149408 0.60646995792646763 0.7081261223133879
-0.62935959224542337 0.15178229906709628 0.76867650002095544
0.040473463091476258 0.29187711283624296 0.7608872520962926
-0.14977395739651334 0.75696412532996549 0.71705748067770703
0.34739354576095405 -0.50185433078666275 0.43847506476109421
0.016820497025523018 0.7665772985430328 0.67254760611172415
0.12397920174372601 -0.095719082535066669 0.78670652507888028
-0.0051470890740867858 0.52286210689706647 0.76114495343404798
0.20313674630755774 0.0084405875478230641 0.77032309481728412
0.89628021510888467 -0.25504845620349403 0.61477801867490101
0.31955389481280028 0.73341671478544701 -0.27935221443443004
-0.48787387309688102 -0.3607296697701059 0.6777730390229757
0.91234688094280614 -0.32184701645610048 0.5619479414610371
-0.73002805542693228 -0.0039983581680140823 0.62103864448927748
-0.019870400393300125 0.25236456215949765 0.76417846878939422
-0.2271185838917873 0.47968015633044647 0.77017721259188221
-0.3748085894417077 -0.77718798039136683 -0.24353374483433221
0.29652141126403819 -0.077498059127306895 0.76963143082150154
-0.1808971091818431 0.48707160393857407 0.78798417625202077
-0.96740939929971237 -0.82309680747233838 -0.41538880997393779
0.52649708539269702 0.91025377568434584 -0.35467627481423036
-0.33128485779247141 -0.28995273172598479 0.76088850696193111
0.88836627517695554 -0.34108779885460505 0.46813594516211321
-0.31842581551957405 0.57884401090282633 0.46501433351870913
-0.27474781886137478 -0.06859082227423885 0.77055331541353245
-0.12616297718387326 0.75095787003482917 0.7170913141673374
0.29476825933660677 0.56474322340022809 0.52946444562651251
-0.11930836216819962 0.44125924177470677 0.80934346022363801
-0.53719410156243974 -0.83232690458438974 -0.34111253569701994
-0.11384089334343628 0.48471786885887247 0.79537563484609564
-0.54109209468455699 -0.041995293191394278 0.73206526335224353
-0.42569623304096527 -0.69178109372595387 -0.25049174923479889
-0.52917370635534411 -0.906696779734526 -0.3773093592590353
-0.65321024845373366 0.16998435120500144 0.76178550147654711
-0.66731941885316459 0.1303066457608324 0.67466150982558659
0.34987489159284113 -0.02350699837169179 0.71438800154843207
0.28852809476487595 1.1328329681462788 -0.44811658130482201
0.19843956710855259 -0.18353674498006622 0.78667733754348923
-0.2275636590134118 0.1276381758803895 0.77444383712100695
0.28340564030942028 -0.11363328893115465 0.77273196609984574
-0.5959091503553855 -0.57579170677240354 0.44826481278805835
0.88421372159654177 -0.27339244780025895 0.63068365212148381
0.24244302280754626 0.58389743914324299 -0.45645629327259041
0.12176874962738093 -0.14714263536576855 0.80774954348676231
0.50962499495834979 -0.05511892786013739 0.36636437270536248
-0.023112645297781675 0.506309623341482 0.77586149017887962
0.70791422217691791 -0.53626785276674482 0.67740939950101176
-0.0084664733355774846 0.3353336076539053 0.81132897313256969
0.065293676290280475 -0.40457956714448301 -0.2355113864435262
0.068317305466517153 0.92090328858076798 -0.13633898726575522
-0.80637251691923151 -0.98904912647219456 -0.4758021328119133
0.4927211065404441 -0.43888010955448653 0.72023082236368197
-0.27083577527810654 -0.045136223962123356 0.76164059519824434
-0.53812010145847289 -0.99985689510896947 -0.40968779651715259
0.31088995165328193 0.45595564842985326 0.56700199908291893
0.34391916583135451 1.0330363809679035 -0.41229460594211087
-0.015075489652273788 -0.052555390447661221 0.74619030387368501
0.46788970228498994 0.80381998970145796 -0.31014631890535382
0.42458724671858938 0.048217307517899322 0.019470134809759454
0.47006772399272978 1.1136858659532827 -0.44936851969494385
0.32329142290542023 0.21038158737378687 0.41236375221515331
0.35579612280638528 1.1768740861852445 -0.44912422538077479
0.15739070381590348 0.83626400919040234 0.16605418253654003
0.18434397627346844 -0.36121796932426298 0.6260494099637175
0.71181862371364701 -0.065726781737677653 0.46208427704293931
0.2810622814598549 0.084056541878107183 0.5896640211101003
0.73011799772665142 -0.33845511159651132 0.67164560886263924
0.47870538113634398 0.70816872212489301 -0.19821679505681833
-0.42187692053366987 0.40314347294157615 0.77563822291693008
0.073609882241457036 0.63426407381500005 0.6698834621709242
-0.45741018553620005 -0.088155515710031551 0.7899240096966611
0.14897991044240344 1.1508815808532606 -0.37772541060486375
-0.49439090440360078 -0.64273613417368258 -0.28714172811947591
0.55059393582678595 -0.1877099600018286 0.73535476846578351
-0.27147100017130121 -0.064363508427212723 0.76530544182270255
-0.65247414561348593 -0.59607644336225629 -0.2107527657262338
-0.0077828527317036489 0.11595847884724364 0.73918944910582418
0.5764854778423274 -0.038427756590294959 0.64591869775131716
-0.55935496052820621 0.02828352826781444 0.75960959568415021
0.62149573496464727 -0.50926714107270854 0.70098199019731666
0.025787106749999289 0.76453374703130739 0.67366104942762295
0.60542016056221648 -0.66228817641122362 0.57568418914339858
0.40869351502318985 0.71413647100816036 -0.27949138037446453
0.25371325791181798 1.0020525458468157 -0.35707292172808902
0.36688762127834584 1.2833771196266082 -0.49204121862885764
-0.78304163630299473 -0.67978115855354337 -0.30804118363106592
0.60177406840768577 -0.66236495666160877 0.62173446917727704
-0.89385061313120329 0.0066755951552412984 -0.40907937495073998
-0.24877424989844599 -0.32965914397667762 0.68698135847080488
-0.33557740387743196 -0.63671942835312123 -0.066454181563690096
-6.2526573039178857e-06 0.64687999248438199 0.68180985756410983
0.19545110330998128 0.0038438856798892404 0.77916955049180814
0.69608191445727696 -0.48925594233399994 0.69367729302750392
-0.59184190375692891 -0.19199800335123934 -0.62881554760315062
0.23310821482743993 -0.027596758809959709 0.80965063655436831
-0.61107302211141157 -0.63942971733418652 -0.2749862752993546
-0.068995353297447382 0.2819297252322297 0.78114780068030321
0.44021121909412297 0.012283592151533185 0.36154015728527611
-0.11020140906947296 0.77920862069365193 0.46198458633473871
0.25904598901731024 0.015717050445578584 0.73277753688183367
-0.59693263321531376 -0.75928015052556663 -0.35162838959669329
0.14871759200970747 -0.18438542958227444 0.75870321000200924
0.15120178138257367 0.47271371884424873 0.67486722599405358
-0.3009853686513031 0.12870080317401644 0.78649946113537617
-0.30330012938720152 0.90373553056186839 -0.008720363714632029
-0.46673909692246862 0.85957373425469774 -0.19406622788034425
0.097458683985568673 -0.13096113264335729 0.78859311592408154
0.22982163306918935 0.79737848697936986 -0.39027556362961224
-0.35127160636833965 -0.66875417154655459 -0.1645687218430838
0.030415803533598851 0.83812269435638331 0.64098265866468829
0.34868029921813792 -0.4321222260289832 0.69934936704109063
-0.028356955225627693 0.066319372607529389 -0.74078266654038916
-0.75448614100479183 -0.0080331347538342701 0.75195869742417543
-0.24820985000366136 -0.089958363273769049 0.75382420622700552
0.67082645469734281 -0.310802305226896 0.72152469428715471
-0.090125682647223648 0.41919241000631846 0.81796318416713198
0.14444988930556502 0.4704148939527526 0.69140627685423794
0.05177009432718524 0.91587494447475093 -0.0076805944243847346
-0.2591514690746326 0.52444351353802476 0.75883603313878822
0.073225238918120217 0.32620792034753698 0.75002261848264218
0.29206977493366937 1.1615000396655311 -0.44211734787115958
0.29961186408992013 0.7498593353214047 -0.27940409363012897
0.017082846923062167 0.63500380207944795 0.67253806162304919
-0.33635643902492962 -0.0082530480209319634 0.76066681610338671
0.18756420271366481 -0.050964781612315324 0.84962602351248862
-0.19160774198138952 -0.081618065989416788 0.74414217458667409
-0.014552115377437058 0.24669658018411811 0.75209269616032515
-0.22318037738895669 -0.10122586298434832 0.74865077628817245
0.73912874716610866 -0.19883062691453091 0.38175214217526282
-0.32605473235460458 -0.14267523629238466 0.81567116393246186
0.83324773871469304 -0.4568256426059083 0.47043277561604224
0.13184820949788811 0.88665701348312354 -0.2781364788511782
0.017306238073960589 -0.28010931866156308 0.67405220999895832
0.47087989173674538 1.2042978102272817 -0.43359167866282711
0.087058308414701191 -0.21933544689790196 0.74514742403864875
0.71390471567614089 -0.64454973392336956 0.47549534810395355
0.20346699578559235 -0.00061886583176029575 0.77943324828619787
-0.53242570417864243 -0.049711894210310081 0.74846589790517548
-0.8450362777958027 -1.0058392080474352 -0.44518094626169358
0.71447908887088207 -0.31444283419231844 0.70238294644187604
-0.93320884544546867 -0.049688563722514567 -0.34585883715013038
0.56415947489598439 0.87445118992695103 -0.40121558066279461
0.16148302585778218 -0.10345282420319757 0.80046848679611604
0.43212517491413038 0.74258516155420473 -0.32945565350354045
0.82850817143514033 -0.2038882093131118 0.40321687360364478
0.71088739520005939 -0.57045254176311433 0.64939909567159759
0.41565729192400314 0.5506062074614011 -0.27680809979791487
0.63338695654509625 -0.61111731528905722 0.41326728372537769
-0.13431535949585349 0.29187422370365468 0.76392843199675831
-0.26039293976382671 0.69687596075703162 0.5863107055276171
-0.69415204297886213 0.16456193303458866 0.70145755184127978
-0.0084412762734720204 0.32575326848124408 0.79817573394718977
0.26594997910241491 0.74895824186941762 -0.097323672011034645
0.31364221955803906 0.83755091763986478 -0.33958418457833517
0.45576630336554524 0.80995242627447483 -0.31865609476478918
-0.71126243710493942 -0.52709341761402739 0.53331699722318127
0.12036580484957593 0.54072974553444908 0.6866751717488393
0.21946776002902801 -0.04169959125729461 0.78698990197079688
0.65199443279323921 -0.30900685255137872 0.72958477788728171
-0.65703458694070704 -0.89145594352014723 -0.43199769168098001
-0.27389688777742016 -0.031549720560062333 0.75523719151623148
-0.19394606323494701 0.19848697725885511 0.77526192578325759
-0.24322750630105539 -0.014696501653526539 0.73847862824278954
0.20890350094703317 -0.024503826173849247 -0.56678501255817004
-0.14313624370923339 -0.4492648156263403 -0.36644664476010952
-0.36642882973760038 -0.81299789905269648 -0.27040115097330464
0.44186049888407064 1.1740460905271712 -0.4263946794211616
0.25657160355271014 1.0117692647398027 -0.36319032446637411
0.76780610085744661 -0.41319885989078609 0.66312063370729568
-0.12848975764277382 0.26968238410267364 0.76096665737233593
0.91389141853583666 -0.20753919875391386 0.59153294627466724
-0.051168925664880849 0.8197922281309431 0.64664844479224204
0.37475184956456697 -0.12723643519381378 0.74012532552380916
-0.24874603781717752 0.43332865068871129 0.70316977738546171
0.23752541325478305 -0.0011566275842636031 0.77044702571620172
-0.20582482690813375 -0.29697517626826642 0.69765069342073449
-0.11179677773731544 0.28231349008404472 0.76762876979238648
-0.73554864025051347 -0.4461090573574602 0.2483404944257292
-0.48999139268187797 0.053738888861291301 0.65163282751577256
-0.45769961101630141 0.60274238776458855 0.72819825936673688
-0.13728734632743628 -0.44177002312415892 0.53336236754039512
0.29945204219071897 0.7024794597278774 0.18401962416034223
0.21288834062487583 0.021468787266910816 0.75218981061253198
0.79679688992741449 -0.14411562805150702 0.41732124429365136
-0.62870643752008382 0.62056162291851702 -0.40587651119342527
0.70935307494839961 -0.52051786863171023 0.68012667341156519
-0.34576961454714539 -0.038455501510888723 0.76200109097079993
0.66920031681895775 -0.39319769589258957 0.67526915997650017
0.73695434585354835 -0.35874510420603434 0.66928576147230157
-0.80312848770925083 -0.79031611305951355 -0.40716703121322073
0.18517367907312321 0.84386822685390994 -0.1562723973741571
0.15212398605756672 0.5187933275181944 0.67136946335628345
-0.20693463408126189 0.10411512229890674 0.77210994751744888
0.29639020367336322 0.63141197485425948 0.38258049386664439
0.51078679319478582 0.0086424665833604308 0.56620162973088828
-0.61599068932873102 -0.70608441338166195 -0.33572632645457001
-0.42990634096151314 -0.012284192338848143 0.77220938895138436
0.23049733051940091 0.0043238451680700507 0.7677207437322674
-0.27356874949226473 -0.033023346259714259 0.7570790667004359
0.20299549569279329 0.080336590340285063 0.73714300407625899
-0.53392048706305761 -0.97450513091720881 -0.4137874764295848
0.67256090360707477 -0.45511231510370287 0.68645649233419892
-0.37887259373673932 0.89673287196025231 -0.21648129202520339
0.19979816861949296 0.80388315038426272 0.44575626882900377
0.68802835378902749 -0.1430458597966382 0.67094041247206793
0.6466673349840959 -0.15969403619421918 0.38018072958288229
-0.40306688462581591 -0.37629072092580618 0.670280060604175
0.2078560350848373 1.0078589785251739 -0.31844588037796662
0.2277032981171204 -0.36465244644964273 0.31383001885188677
-0.21563598196448552 0.49576435119753715 0.7156186886273268
0.32880467386905554 0.7505216864603379 -0.31868271242245894
-0.12769950398525287 0.55131819839116181 0.7415822333206652
-0.81702427369256858 -0.9061813673849084 -0.43971144482588276
-0.52432985634081586 -0.35044615290138226 0.67242614758365482
-0.10419906797349698 0.33287433711419245 0.8062979294078616
-0.29668766519713952 -0.14770964765393968 0.80683884190189825
-0.69995525339135511 -0.62992322850681304 -0.31336323339284444
-0.76279028740712995 -0.88640470349690847 -0.43379096923338523
0.27140078592180139 0.016662063820285233 0.7022439205134372
-0.25461531128193826 -0.062353681972725283 0.75872569083411179
-0.33487508057490345 -0.24754633739393589 0.79319730588536697
-0.42003684500783844 -0.27480118881473281 0.77548617762225547
-0.32978659199343596 -0.028907964125373553 0.76419562409714992
-0.18996661906277801 0.38140803279196245 0.77793628432494444
0.65840295059376164 -0.48318255585572123 0.68845749922356347
0.055426927821878635 0.56066579255494076 0.70895186691307366
-0.64233322211637001 -0.62226318172825756 -0.25109092867210325
-0.22621002182251537 -0.14551642314489044 0.76693965846646184
-0.52323400040655299 -0.62812429650173796 -0.31248600111779723
-0.54534640586091199 -0.5960422402573915 -0.13138375264528479
0.084106919837279567 0.31486419542036437 0.73910792719561114
-0.53365589479505937 -0.085695850799574702 0.76109565572780413
-0.744830908633205 -0.96171967043545026 -0.44830654560238736
-0.60260138977079636 -0.58498607891507848 0.11341194733790072
0.41003875139441615 -0.0066389205450534394 0.52560071306693334
-0.22820823119037825 -0.28272429466590276 0.72477859712972059
-0.92424165052406848 -0.68705881567778082 -0.34307501691698006
-0.063265280556750181 0.2369081644431752 0.75817947800826602
0.795024549005245 -0.33058822189005238 0.69327697927430965
-0.60830543939020743 -0.6343361830626435 -0.26999252941857854
-0.46929024723132251 -0.74748948518113467 -0.3143868635710767
-0.73008534412128245 -0.52730370866166165 -0.29911720895528049
-0.36191008601762931 -0.43215618938740419 0.6472083348925014
-0.64984293278998706 0.054898062659126445 0.67492622880625319
-0.13416974035305262 0.57449490734084652 0.73040235337840542
0.14075762579489748 1.139147302274834 -0.39600051513691614
0.13487134588954719 0.33958979487335483 0.70966466197709899
-0.52690252531641191 -0.061105264925823966 0.75616609306495519
-0.23390261716477179 0.23134383476864162 0.78543281245163232
-0.13405612881225082 0.55371592849101292 0.74516558649728726
-0.71717771717038481 -0.20039289867286358 0.51845663935891295
-0.19104686212896516 0.30585273309681593 0.77436250938230522
-0.20491753244961863 0.45816628183150687 0.76066020589458105
-0.2048135057251983 0.44943042303795711 0.76814186350816271
-0.517973757434675 -0.037753405914801141 0.77548232348329371
0.40106048288198948 1.184624616998597 -0.51585118298678756
-0.025448282972541314 0.23781531508616616 0.76131181902871514
-0.35760670904453917 -0.27749484846525951 0.78036158552400925
-0.79073267749885101 -0.75971864557543256 -0.40434326191717318
0.032000287666984706 0.37482277758252813 0.80776418241730141
0.057570071398554301 0.71934196729168098 0.65810431919229018
0.37332653413951489 1.2044507213498605 -0.44417355406651904
0.60935674410171536 -0.40432175372025547 0.7153165405037516
0.67550435274603315 -0.27973397914461229 0.7286415693281505
-0.093221350841929201 0.26204163248055057 0.76248253211884709
-0.079406195599750595 -0.45606405656297294 -0.26487484663484173
-0.16661897879072596 -0.28348044682240731 0.68037400068223874
0.25273336600144836 -0.4333531919018947 0.4442816509909433
-0.47514721403801219 -0.1935908750787565 0.79037548244299671
0.6636140350287123 -0.19951366791025826 0.38007911197999089
0.69291376590012721 -0.48804771776118061 0.68861249079991627
-0.15476209702700539 0.3865886801504459 0.79061974951877545
0.3349748052881858 0.18618073398173141 -0.37555050982979576
0.79433802589018643 -0.31462691526057052 0.69449088078330545
-0.13888546069587118 0.27144892289128553 0.75559835604026837
0.68111571512030411 -0.58082792292291585 0.66354644890842307
-0.83296567708811131 -0.17089219626601271 -0.46582715713683065
0.28902563237863405 -0.31261662058920803 0.13749142938162456
0.70710908908184411 -0.49278389730168276 0.68684735167613908
-0.091279278987205004 0.49313363377254271 0.79533541885149006
-0.46158566799531009 -0.68348514371016922 -0.30854067075313996
-0.17982779814571437 0.38153238989734461 0.75284093316590628
0.22737837987427056 -0.013396373426938002 0.79303833024829151
0.46529014369815491 0.8436930095432793 -0.33829351457424978
-0.6940535772591474 -0.65175715356986696 -0.28004856419938484
-0.54517847953053289 -0.24858807631801039 0.70856410086413768
0.16977276264811891 -0.033040469721697274 0.78594740160561427
-0.13299546163672105 -0.08633897756719966 0.74601873720308731
-0.71869529046765268 -0.98745100487008575 -0.43473392215228168
0.27146924136959605 0.78136092708743021 -0.25951843377190098
0.56574951063725365 -0.67161764155578396 0.50699887501805874
0.20667551444353238 -0.023491264836249748 0.79907962333798466
0.62523564852370472 -0.71296406908122734 0.53969184248312985
0.082069184381874161 0.84729048057172229 0.26489022271555185
-0.33342979052526811 -0.44639292151197091 0.60809686730999946
-0.43487414423847248 -0.28053844277335083 0.76831122053893519
-0.3176415983925045 -0.15512750791268859 0.81307208909550099
-0.52714333582481854 -0.35475885082891201 0.67181730620962099
0.11881683674837151 0.42489594114096185 0.71691220434952463
0.52057636398053753 0.81595028120489255 -0.33540753776155341
0.8932564527409117 -0.14717879410532925 0.47267259254918104
-0.34498653609224306 0.10807294248384147 0.7875540805503487
-0.35708006149487836 -0.00013171588915739108 0.74579139201530198
-0.69714024703932009 -0.37102860710469276 0.68966166334579837
-0.50702030215696325 -0.82146631374277668 -0.31088313493215702
0.14232413030035068 0.82328373683793554 0.36195715551219443
-0.031319514601126031 0.5356627086688821 0.7624478649372719
-0.47988945590723903 0.50284661946021636 0.75376886917011277
0.90624869138854725 -0.15980351429341255 0.46358291624947401
0.14775883940376211 -0.079133990022083545 0.79087057466633759
-0.2961666712501545 -0.28890417525935219 0.7444026159152507
-0.23799205164338311 -0.030045956105622551 0.74082078990687528
0.4349359683236631 0.75182324822966051 -0.33710559512564053
-0.15409076534456734 0.27936695305495896 0.76177918986603732
0.10909081073988264 -0.16143461519696611 0.80166123300676695
0.3111567989295676 0.77294896037112082 -0.29565041582542184
-0.31065265535147057 -0.31754416522150053 0.72072569983422952
0.14167324810962539 0.42436611048649819 0.70299138007524231
0.3955775552068122 0.081866380903583891 0.21360027607125964
0.46099135832034177 1.2482150401056171 -0.49804921986872941
-0.53258299795725006 -0.36278953287984744 0.66465259439667035
-0.24427295602551169 -0.030969576331175475 0.74244387863817707
0.88531661603545042 -0.15368464693173545 0.44834767914403617
-0.49738252134782357 -0.21981183408347515 0.77085553053969535
-0.0085269621641428373 0.24557137975889987 0.75978114810926378
-0.36250740574848805 0.29077909092908172 0.73323354010593889
0.13372279010133825 -0.20454254962269136 0.79652031408948876
-0.39846621116799696 -0.36416571442910639 0.68705921749123888
-0.59936500889614841 0.17846301893911676 0.72518696844816155
0.13846590067526268 0.86373800810076784 -0.3513901213318068
-0.90897440515884131 -0.68103093759386057 -0.35188742546506147
-0.26274868723485412 0.65799977913747565 0.7647611133325789
-0.43351067237439533 -0.27635362969375565 0.76416760290016783
0.59666151222343533 -0.43923629673277631 0.36408372183572246
-0.18604012919719093 0.58254508504239433 0.70972922026973606
0.43753316181141333 0.61969888191810807 -0.29745251753873792
-0.71747789988783772 -0.65964478270316462 -0.29196018779296296
0.21442205821615357 -0.19317281411906073 0.77835283814404477
0.50338938425486823 0.0098237713041058328 0.56471225750876641
-0.49889011843746922 -0.23306736677108653 0.7507108773004465
-0.050833012570633773 0.72741827291083005 0.69524992935841645
0.30182376252791165 0.53858229033587257 0.51261981922868216
0.13369715267322224 -0.12868879988135618 0.80768212631384606
0.37198195900202125 0.1786659406464306 -0.025285279799767579
0.6382131588346196 -0.030402264127934231 0.61304842861422415
0.69066392833665802 -0.038848845538183241 0.60091769237315651
0.74294221729087706 -0.32656905262768099 0.69385960501810029
0.39909041142270629 1.1282245938766957 -0.4925646666758916
0.53789223840500877 0.81575833335872683 -0.27449974670097343
-0.34862099680295788 -0.46192657512824609 0.63520412438678608
0.45197370614472709 1.183651752844231 -0.42789197855029448
0.74438784496266164 -0.41618456492860645 0.65858509304618007
-0.54716798012849432 0.18160352229453736 0.75307655670553242
-0.34692119002610866 0.457798558697605 0.80743888370530037
-0.48526572490730713 0.16237691323909331 0.58161334872559323
0.10077892828255663 -0.10741598023319532 0.77482511981926061
-0.74433158150415468 -0.26394168393866824 0.57766462825944753
0.23814952993404681 -0.065443367704629107 0.81037087491509041
-0.12364443777777767 0.52413891267439916 0.76533083091829024
-0.12339329216225847 0.54295538105650687 0.75622040274591207
0.76422001142735052 -0.38453967103236941 0.67744050404538836
-0.41794973225959797 -0.2834865128438806 0.76920570523295428
0.62125755335765209 -0.69556355777545242 0.55486594156426694
0.8221853034133364 -0.35011881898676478 0.68466050144600743
-0.66044155122831683 -0.3443082392648053 0.69680748411875881
0.22843721002966941 -0.021338296325708911 0.75975016792987748
-0.84155862511843438 -1.007974577813699 -0.44701965167074942
0.70727917940762319 -0.48633070497994479 0.68346043069706619
0.78326163508433377 -0.081763358683331511 0.51142135365077834
-0.49455546737788536 0.66007647446616824 0.286737389837457
-0.42267063471689226 -0.73241979118539269 -0.29070557138690944
-0.50133199689293395 -0.63233384289376637 -0.30127690708726007
0.24153521641961673 0.99703659635053454 -0.35362445640961676
0.28699284251252521 1.1159539196835073 -0.41003327700002679
-0.20896322371252399 0.69442776180583765 0.42642747385797541
-0.88342797422928809 -0.83399335843429068 -0.41209140589893467
0.14571853922497624 1.1096572082003875 -0.38271308951035232
-0.13917005346455902 0.6421678708564893 0.59954668325412763
0.3446973848883943 0.73224683736941509 -0.28715763809518857
-0.20323882172820573 0.050077399837139325 0.76128140965377211
-0.40635743040968286 0.20313407996065536 0.61174497547386508
-0.10583387109003795 0.36937839700112152 0.81335902661109927
0.26054523373017791 0.67740654176004966 0.53860822616112003
0.0095734321758773611 -0.32128993727977795 0.48590396324486518
0.13177331174571694 -0.18102488233445668 0.77626277885264594
0.12628137371874248 0.96940422030297424 -0.2521529137946521
0.19901731043552973 -0.30861694501395842 0.7067238312737274
-0.25401747938867025 -0.014215425177167784 0.74353634101246335
0.12934650398524816 -0.08350418412149696 0.78048818169886136
-0.32233712629790467 0.27778743254577254 0.81248918493006173
-0.50071398647576126 -0.63276338541388599 -0.29127797641143549
-0.50098143344640533 -0.72606621758738732 -0.33190217905709218
-0.02032775072440085 0.61891889924961607 0.70249385064572678
-0.27189119890825175 -0.042808423876202983 0.76103389372597641
-0.56001238793113484 -0.22943411392991564 0.71024502681264479
0.47309408282698329 1.196855085190617 -0.42524846894913632
0.70047147949722266 -0.22522556356208412 0.69182755327159473
-0.91272697531869529 -0.81059624893236082 -0.39611065680410995
0.72811601569243423 -0.44412465356162706 0.66485564818801113
0.39218159572390121 -0.53444964609917278 0.66716152658974259
0.45773021339292352 1.1234104124124071 -0.4515817663684869
0.49282643814093652 0.6884966657529441 -0.19353611113204328
0.12007106403030932 -0.095048803834034912 0.7781614198926643
0.083879654112617663 0.64190186453534537 0.65804798988743585
0.45358904314739812 1.1260446040835932 -0.45234590547392006
-0.43738268957797799 -0.35871437986608079 0.6820380889290929
0.21680043000560856 0.0041803120443630881 0.77497336668705619
-0.23559211383288892 0.62919044487155062 0.76186785531866619
-0.64988798006394499 -0.32855513748768056 -0.53508893677633551
0.654226444710301 -0.077124746547804435 0.65690349161912209
-0.43059242245433094 0.01436600446815639 0.76929577030887941
0.30967995632127554 0.54122929246295115 0.31952627594977656
-0.10450590421888251 -0.11283696181226421 0.75440433484659364
0.033531638566618782 0.29313089047463903 0.76290962117519179
0.12747656046905753 -0.15211655138076896 0.76494705253719886
-0.16931944085144446 0.36411070753488595 0.77828071583221359
0.55271478901917603 1.0226253186928507 -0.45914503215780844
-0.31455146530608358 -0.42358111726432385 0.61956105661150751
0.3208302994516723 0.72899021649963958 -0.29027151262040451
-0.035208462871524127 0.85505614995095769 0.56026394020146242
-0.019197873643409746 0.15543252227282967 0.74130268166850666
0.23137508955039632 -0.021442953473722604 0.78337818280812321
-0.83047784467590624 -0.95556494814735871 -0.46197992704354718
-0.041164745765518873 0.83321477844392655 0.65480523886817199
-0.45924108063551805 0.51864918307676788 0.67446723397047137
0.86940938658790201 -0.15448627080903121 0.43675496119581281
0.49072271057693762 -0.041101579128046462 0.68162616152014088
-0.73579442402231754 -0.22714788503616368 0.58494973619263813
-0.20350602575352106 -0.095500440082422422 0.74890966635879863
0.24276381994561436 0.9026483962958407 -0.30816837372415584
0.19426837276711861 0.0082993632184766852 0.7886623821225065
0.37057655055165262 0.58438293153709231 0.064478508953314084
-0.037588460129566847 0.55056278601757236 0.75659339229144251
0.62995792859063471 -0.054979154018544918 0.64891954462393819
-0.23682934122975929 -0.074958104939644166 0.7533367148912804
0.66754258336390815 -0.70190851027357837 0.5487941945701289
-0.6761287382393224 -0.97322699106023003 -0.44128046390614983
-0.51493785183644469 0.095942957779092453 0.77760361603566253
0.52954587307064926 0.91621391322232348 -0.3582238576694774
-0.484986299481313 -0.61968947291905052 -0.25517978567039123
-0.67061333818056967 -0.6273153010010688 -0.25451432701188637
0.12733197156795595 0.42447004443723202 0.72121803703417431
0.23509234445531546 0.99017392621546485 -0.34506083225347517
-0.46137458047564639 -0.6992802407999168 -0.2950815840960157
0.58022424766700009 -0.25937130863082114 0.73301959153564056
-0.49048723355050894 -0.63769331774456373 -0.29026758186233576
-0.51913428988341259 0.032967613703086762 0.77976438960387195
0.51439468092198304 -0.022862217763659487 0.47638030108607077
0.055764357546647325 0.82159737121447396 0.62768819015615041
-0.74367811875889633 -0.67201215319088803 -0.3338371189071232
0.10121707451557782 -0.1448659080549537 0.79321190227271021
0.22872128295565874 0.86653279992122023 -0.25850524497116201
0.76801259153824408 -0.29269041120355688 0.69665854668928695
-0.60647903055584163 0.034144406688047191 0.56132804825425819
0.05714501101824826 0.41728475884711691 0.79137336145327808
-0.21544492429137718 -0.33129975962958991 0.65233358539026298
-0.082787116875143507 0.62626763721125789 0.6775164405596783
0.16058068492775224 -0.2165079820998379 0.7704506970787417
0.74937537442614222 -0.43891499993909155 0.66038022486594627
-0.50132188952980172 -0.06798100477427127 0.76674642335642806
-0.75301308557830993 0.079825272513648127 0.6670063147443468
0.24439296303552638 0.011171393538452534 0.74215872812191108
0.13860720465181231 0.38094655776417241 0.71648004557719158
0.2459684408687508 -0.0054294600900304246 0.766884736127045
0.0055039101288345549 0.51076905440667764 0.77946667962846128
0.30103230433438999 0.72880135690128944 -0.25804664262210464
0.3047416609215588 0.079417279335020297 0.5446800552463289
0.1418368308182599 0.88725587848874077 -0.18553872667846028
-0.74462638254049307 -0.13680441803331878 0.36074195290667965
-0.26793027688090021 -0.050977464381758875 0.75732274590884963
-0.6864077416290586 -0.80452018045131335 -0.45009369789867648
0.16822069499826586 -0.1770599760742595 0.79789273983659292
0.85327990656125507 -0.46074235142458786 0.55708237588831633
0.37267930400931815 1.1084701907090551 -0.42369167305350786
-0.18526698388328322 -0.27771518652142035 0.71377785647380598
0.46044874427971738 0.66651711783287837 -0.30356279245307682
0.13603524476242607 0.99906874920756272 -0.26397477293647847
0.2956202353377243 -0.49023009799723649 0.48454427875070749
-0.75756599544933201 -0.33128784876307871 0.5862644499151648
0.08787528222104779 -0.12328737191995076 0.77037099088207028
0.49708018397630732 0.97200576915118253 -0.3948043398942469
-0.514832661823176 -0.084843364394439291 0.75764284977068908
-0.83210050441149708 -0.99318439490407706 -0.42470714567576096
0.68869239867392329 -0.49051067249646518 0.68200208476728719
0.53522383132404117 0.93800100887488314 -0.36321301482773694
0.39321552842660767 0.0011119572382187748 -0.1652852448403257
-0.27016838172047342 -0.38462353991408316 0.63513323188209903
-0.1042353985667841 0.3620332503452337 0.8146109492430309
-0.46144784998509714 -0.68753559100966344 -0.29074630061350781
-0.65087505542709279 -0.74273788899065707 -0.34852648974415423
0.42711624676329096 0.85601361727670966 -0.39121646113172709
-0.29627192689192317 -0.33306638615346085 0.7044337963285936
-0.20062587355361117 0.73260535842408259 0.57667060733256914
0.049578083408209572 0.61355502261727146 0.67794772034656248
-0.076273722277993394 0.25129994844729797 0.76175089573660415
0.39642768634096903 0.14692338625249057 -0.14761293647291956
0.30617247675138426 0.73166139486155402 -0.016536000758744507
-0.38867031427755272 -0.79855207985988752 -0.28396471763045561
0.14788449692668476 -0.047110285444338595 0.78050817811459972
-0.61130161453281318 -0.64137352024606908 -0.29972078212801234
0.13696284304674833 -0.23624067197649001 0.7498820626170648
-0.30534289180247853 0.27289248540448963 0.78577794482696817
-0.52702714889366309 -0.14082707318650789 0.75556495622812969
-0.88192188471421318 -0.96451270247924359 -0.4895270700022154
-0.1193867293018096 0.56685899344292756 0.74731102054198395
0.12918019260994718 -0.090075383461187708 0.77755407951199906
0.26257585719113941 -0.42082673822021732 0.39858913557422104
0.28283312914418413 -0.33928302374737596 0.232091704201772
-0.1314048832219652 0.52480022011203997 0.76496089687528634
-0.17310246378755167 0.61107918603073363 0.7359699287580419
-0.51720028073105073 -0.031308326666811048 0.76220842084523888
0.69981599727249089 -0.54889518373801205 0.66516276285819664
-0.51437631878720325 -0.012406828514494705 0.70383243689003017
0.20858038732832718 1.0470980423977991 -0.36057900064307979
-0.18945543176526147 -0.28928908320923075 0.71150013374654097
0.2908220800602983 0.72537486281629349 0.21210724841039053
-0.32769612346894217 -0.13087813077573673 0.81369675643205408
0.1509216058656726 -0.21758492839554222 0.77226461176252492
-0.021021441406041674 0.1614645938304764 0.68176182778021932
-0.27128513900025908 -0.052924429564676689 0.7640250672982174
0.75362952444282905 -0.44059495108048785 0.67586462888668075
-0.43833865729737109 -0.24507337831158171 0.78309887369987741
0.5926094684169626 -0.71935619688755281 0.51701602459919194
0.10252123992990225 0.86259965393449678 0.56710385886059367
0.20621339710519937 0.39808825248646218 0.60359507085696062
0.4110346431178058 0.58028740608902396 -0.16023090720816846
-0.24577195132390006 0.087020594857672773 0.77318770585820218
0.70811211860608114 -0.37043164234977899 0.66005742217850605
-0.64641118705991052 -0.35566832454133956 0.68452305040476258
-0.48735634857367449 -0.61769217743762073 -0.25673584158305418
-0.050536162183652866 0.64718054960410143 0.63202201039867489
0.90345460871459249 -0.27162890943080953 0.60321974446670357
0.15764418085683274 0.89679710755175024 -0.22936122293211558
-0.27002302214215135 -0.098406790045064474 0.77879627520073436
-0.16893156741355631 0.45054786736383878 0.77459906395295075
-0.50530540296916815 -0.029626138295674842 0.74039223775523855
-0.38481159912160834 -0.025685247429057867 0.77789103850988939
-0.32584461243351198 -0.68769798535328552 -0.16654915460632
0.57350783044526732 1.0132519268963585 -0.42446588611930436
-0.44280692908829544 -0.7378182908680051 -0.31033944540495106
0.69044053206924061 -0.47244866064351454 0.68287648909666609
0.68363443635561394 -0.47785280031478017 0.68774602795662076
-0.61406172426725059 -0.64371690024745409 -0.27953428661171564
-0.90853737882688801 -0.69595188437378663 -0.41710607950662393
0.35908782560214003 1.126772726653543 -0.4438549085872921
0.31613058809182437 0.37603470191909927 0.51510554230649941
0.088289000191735578 0.84409360312167037 0.26406880700686663
0.71579709391173885 -0.22729564858325713 0.56203411350197119
-0.74170513831668827 -0.36441041621132114 0.65690496764136463
0.069188260879131214 0.41281635783784854 0.77699759402381474
-0.95578239422457756 -0.83548370202436306 -0.40292583611492816
-0.62949344667417284 -0.23689665486703865 0.72433597024520902
-0.12940591447081573 0.58007776435615699 0.72833998932727972
-0.36429007487540144 -0.069529163433705854 0.79156201172847807
0.31382182338567366 0.10088545356070766 0.47748292692081062
0.6554793774489065 -0.44775101692734642 0.67948277842357463
0.39267413704995002 1.1709030511696541 -0.45554775015447913
0.066695977719542943 0.6337918656520376 0.65945791734096271
0.72932146752316029 -0.46737922483343031 0.67649258822070202
0.74574301728110903 -0.39889812596369456 0.66518335417049279
0.37616795381856544 0.63817364404842736 -0.17067259057620643
-0.37725699638551607 -0.57443333612953107 0.27224762457324764
-0.40693248947665728 -0.72620708934413192 -0.31156901533323644
-0.10113227231679822 0.5558640584492387 0.74754984315065975
0.01022263313642835 0.61342720032968712 0.69686399365469498
0.45567143700752089 1.1794448525362935 -0.42423682689517467
-0.68404772870805974 -0.077379536954424455 0.77624628740836776
-0.4781052285706382 0.20591724116198762 0.56546882033390489
0.12704822552524841 0.29600217677346663 0.72144679217431706
-0.61674889113718656 -0.95046789939722953 -0.43756647822112527
-0.67144294348111888 0.1035654981359837 0.80855441994602373
-0.074504964233339521 0.52179055847273181 0.77876129186669019
-0.87456143877856363 -0.9047659503116412 -0.44834532396619053
0.066219611192392724 0.36401038523896467 0.77507612381172453
0.67957600577549804 -0.48501713082962361 0.68057711629444961
-0.56835969895099314 -0.096667208005205341 0.69906623966992054
0.66845891915085942 -0.47890512902417437 0.68257541659209253
-0.61092500164042907 0.35254151892970853 0.39818234553477461
-0.025569468899012904 -0.12467992687150309 0.75268915152715588
-0.012700973567357998 0.22171401664819212 0.76103230510082476
-0.59256341983503558 -0.58407288730271412 0.14524853820365446
-0.68289037227646721 -0.50678812122850836 0.23664115360258792
-0.19329418979164004 0.29666571804437591 0.77619663418300178
-0.57339779173309502 0.24476167327933851 0.59209620559019527
0.71636831279296009 -0.65935388576188592 0.54817694826306163
0.73913905409342084 -0.31905248159168076 0.68726663540199839
-0.67462360961658918 -0.7074682179573375 -0.3823389751816908
0.051941636447509154 0.66979084761705021 0.5844589832090783
-0.42094254620806026 0.22048215116564407 0.6265696182548055
0.77614242063065464 -0.39270596305335592 0.68069408664895548
0.31162977688898774 0.084916036411719631 0.53440970979866353
0.34524228471257601 0.9937495765751283 -0.40814146858508238
0.76819205869907226 -0.3171061663658028 0.6863138712723047
0.11548445994156044 -0.10251574211288328 0.77153945299519044
0.33726172949339062 -0.37891175872272509 0.49280593949413642
-0.87557334922776131 -0.32217104663479157 -0.34594497467701935
-0.40427569058682788 -0.77868326567602253 -0.29663813672691752
-0.62273622933912387 -0.36592831691931721 0.67512682450283779
-0.12082409049325857 0.93927985060325747 -0.24457790284693845
-0.22304774519354886 0.47088121357219581 0.77136548681982475
0.13763209647553964 0.26770349648607628 0.72284463777125296
-0.2171221635262226 -0.33728943674590106 0.66352635048072273
0.21266446835280994 1.0100625569669797 -0.32610816101362028
-0.55342571150384945 -0.88861681862459108 -0.38914626955225629
0.39194662977255845 0.18511629064499946 -0.038880263645800994
0.23666515621431206 -0.026809598618052988 0.77964339493152934
