# XYZ point cloud file
-0.54548179701013311 -0.59671205534692717 -0.12937417824070518
0.090827996715546533 0.31226927555212569 0.73469109054184933
-0.5731512412708657 -0.092564722332480365 0.76397064183334429
-0.7534671183339352 -0.95521656903788177 -0.43647246498636072
-0.6078143031739599 -0.58472316713033234 0.10396013073350985
0.40373228262961369 -0.035960819398139776 0.51298303841530091
-0.24197091279949956 -0.29030997025864158 0.72742004951216854
-0.9360876722798519 -0.70128362086577489 -0.34333736974220508
-0.07886768670810973 0.2367724672083753 0.75805707908743969
0.80227704042759729 -0.35005606725310279 0.69043764261196883
-0.58830987387061962 -0.62893383597676733 -0.26291727610268167
-0.44262163556278367 -0.74079111596799807 -0.31684981935231793
-0.72650770325108027 -0.53087965396585979 -0.30460927620342293
-0.3712823691701041 -0.44419435289002362 0.64704415070028842
-0.6512737249230458 0.065651105023110778 0.6779296058269324
-0.13574353485148105 0.57370454342725985 0.73705200545162874
0.13112442537773439 1.160709877655858 -0.40762055319341517
0.13911303278194609 0.32782649417026022 0.70918277515417216
-0.52974245516303187 -0.048075194515571518 0.75739410209917968
-0.23943833350976007 0.22452357387163957 0.78475807085306926
-0.148624584991631 0.54905612269683157 0.74650353526512525
-0.71299072079457559 -0.18441853301045974 0.51959842834482828
-0.20334047949136635 0.28315298609335438 0.77631006499151978
-0.21760503124783526 0.46716040599901021 0.76706455295506526
-0.21014842938172862 0.46923351520009149 0.75941604762543413
-0.50635762954396168 -0.055825631079445159 0.76752744447531018
0.39806575597137228 1.1635273574286944 -0.51737383155126504
-0.015409865791280231 0.23733336896066781 0.76227334853350115
-0.35085336523473654 -0.28275804718528619 0.78263166493205638
-0.7845312985517765 -0.75653350712819289 -0.39979446052854151
0.042905853401531857 0.3880632489124558 0.80710498668340946
0.056401915807341718 0.72356203765092353 0.65827171841081089
0.38884895107096007 1.2032275350909885 -0.43490522917512031
0.58993269273746307 -0.3843455700602405 0.7288867243407271
0.67411105518577141 -0.25862801673713465 0.72749037819721707
-0.11438786904394505 0.27145501355288992 0.76674996066706669
-0.079564431534374147 -0.45613948179339681 -0.26489578289267574
-0.18293047384075356 -0.28915472780396545 0.64174520326685602
0.24783229071015078 -0.43524808648622937 0.45170928253809528
-0.49705706059460519 -0.19093557872957412 0.78258250772180471
0.67369407310934171 -0.22307083681059936 0.37473179275758239
0.7152372748956779 -0.48418663609572832 0.69063246386406618
-0.12966634289863421 0.40248275125900612 0.80977488108947604
0.33498157163902675 0.18621046654485696 -0.37539627709114765
0.77053739801065113 -0.3068921931421067 0.70611525349458226
-0.13388599530028777 0.27515392549441842 0.75205486466958238
0.69022216924162461 -0.58756508245605432 0.65537967789968121
-0.83276430189312389 -0.17023973980981921 -0.46629686760825173
0.30015452356144412 -0.30230266094253577 0.11849492146172275
0.71595141828018782 -0.48741041905706339 0.68632136788161846
-0.08102855074432469 0.47969347066328538 0.80389215396477098
-0.45498521461462005 -0.70721957847956318 -0.31758955668420041
-0.18581072821728806 0.38969558375291946 0.7581444115261764
0.2434738594422855 -0.0039264688793920755 0.7847957665498948
0.46686804005854921 0.84533668051552713 -0.3409230422881131
-0.70886818829440479 -0.64902090417575575 -0.27159459081516957
-0.50921712227105909 -0.27439579315016083 0.71736695115391669
0.16127002472964769 -0.022633157121053404 0.79292750133431245
-0.1342742308819922 -0.090613739485254197 0.74996747453031531
-0.73400309073279058 -1.0047091621563782 -0.41006071703742641
0.24714904911715152 0.78859112733203318 -0.24508525084793931
0.56834518829771241 -0.64490344325842841 0.49966805163572259
0.21855733605214078 -0.029594550311902168 0.81704215406532565
0.64486779334538546 -0.72274560841464464 0.52300285805520996
0.068505470008515118 0.85012971381161107 0.26964330673782311
-0.33891050911001441 -0.48067233426768408 0.6212928167086269
-0.45266054525003341 -0.27293177708991045 0.77098422378990283
-0.32802355659695337 -0.13900782322128791 0.82035449786418368
-0.53869133577355965 -0.33622373070230704 0.67934267503213142
0.11662048828528615 0.42803540458960931 0.71451007743981876
0.56341257109432374 0.80045822708625836 -0.35680386618020155
0.87136649057955107 -0.12168880388944842 0.49739181457174575
-0.34379787385008953 0.083152283149070527 0.78952863944025875
-0.39672131947143363 0.018730102782220648 0.7185090908994991
-0.69805251886984765 -0.34917567262532789 0.70303661204415135
-0.48269014746333028 -0.81662874299474097 -0.27538442339901237
0.13815995148683502 0.82609688486190325 0.35761456602320862
-0.018742878867387347 0.54240486732628712 0.75766667962006196
-0.47696736825992758 0.47983625623629855 0.76765529607697758
0.91728271665661953 -0.16264725243631073 0.46346517310976276
0.1530840170347112 -0.080338412354524102 0.78612986188882239
-0.31191809903881484 -0.28943071265324694 0.75327694775660703
-0.23550687024425088 -0.0020739518351560182 0.75471402948258159
0.45895070734558319 0.73157137495934421 -0.36155997691413866
-0.17917219323189038 0.26637845472208443 0.77206877462816337
0.10457994957779237 -0.15571746546904075 0.80679518366394376
0.28993366396814046 0.77261716175108575 -0.29818844111312437
-0.31047699709901511 -0.32071546781321203 0.71373216790962646
0.14417926136533055 0.40100325793144753 0.71045266182220601
0.39501824087347048 0.083107619586258563 0.21331305956195701
0.45675084832964608 1.273129175207707 -0.48571874161130246
-0.53755693986310948 -0.3523178494810742 0.67975472016198457
-0.23622503414084406 -0.021632703312681301 0.75999796038956546
0.89103539226601791 -0.18299221653805731 0.42350206216327813
-0.49167268283682186 -0.23592297523713235 0.76224038431504781
-0.0074286503623319788 0.23980232597704187 0.76281021789100834
-0.37666803971342233 0.28694828040609233 0.73251210071758521
0.14373467078763991 -0.19884016821478312 0.81183038302414356
-0.40710442874228336 -0.36869760495819826 0.68193568443497021
-0.56835518972895471 0.18324023177978521 0.74227309640384576
0.13628239411473395 0.87280534534448639 -0.35057407100672444
-0.91098370954928498 -0.66806863039592557 -0.33905117551120334
-0.29233436953167846 0.66038194776063275 0.76619577510318004
-0.43111578884055923 -0.27793657445308462 0.76692285021900064
0.59466342337377887 -0.4392128964104689 0.36366655529863556
-0.16390389503220781 0.58326806969167189 0.68090004209016675
0.43323242473419121 0.61654665303408418 -0.30167052049809229
-0.72031572795723875 -0.67261945249713051 -0.30411218462984113
0.21159068187713359 -0.1749864958070404 0.78801080845220284
0.52478513338004973 0.0090955573326105821 0.5731001040243342
-0.49155337980608493 -0.23566122100251086 0.75882660569416749
-0.035566701794222944 0.71684673566273727 0.68853066121530127
0.29787045454022376 0.54856767379809313 0.5177204261760977
0.12396821926779156 -0.13009464822470829 0.81301184914941871
0.37851383732651045 0.16754889427045683 -0.041405526342412458
0.64168791945834869 -0.024352077687529672 0.59946157419362578
0.69879472059837155 -0.050163085727177759 0.62340128931124639
0.7444692692510877 -0.32620036227455174 0.70329127300475758
0.38811694375038819 1.1101717695844684 -0.50463697658412787
0.53972118593721197 0.81790136148797521 -0.26893625726256964
-0.33993496596967798 -0.45267318722810163 0.63623695693799176
0.4652585776971444 1.1739044290213259 -0.41401789922520521
0.72958635098863667 -0.40800760005461356 0.64376648339822284
-0.53794891676084378 0.1812877344683006 0.7543067538736814
-0.33932501991031394 0.43113512013831379 0.80523822736209416
-0.48401863545393997 0.16316383771228438 0.57388529150237844
0.074566790693580742 -0.10574821472539286 0.74819445591492517
-0.7486831602302304 -0.30261030808193223 0.57265971876479682
0.235190037179283 -0.070205541351838541 0.81349634528056303
-0.13001114786787937 0.51786754005826996 0.76179967728078957
-0.093141936786313551 0.54310754513466919 0.75790377461054526
0.77147874339731004 -0.39653728959501677 0.68257306182809341
-0.4070158954484171 -0.29199099917291915 0.76681425998584718
0.61153593586396404 -0.71600528242541728 0.52950130879444313
0.84205812008924319 -0.34410502777301133 0.66779049382354039
-0.66141256934050308 -0.33858741222456823 0.69897367398732513
0.22890566230612208 -0.013070473007793681 0.75389034705643243
-0.83535757611202577 -0.9950969488875252 -0.4236047948226016
0.71095241336558468 -0.50511342019214966 0.69139642614257735
0.79067785436096472 -0.08161789832524402 0.50734107908621695
-0.49386062070048142 0.66026554322351139 0.2870044070033595
-0.4120021643489194 -0.73247579942135177 -0.2903524342099788
-0.49970276172506445 -0.63588498330602494 -0.30769164585838027
0.24375331104911444 0.98498114801146364 -0.35244621437489765
0.32549009165157372 1.1222864897919322 -0.39304742135078641
-0.2086974836681228 0.69400797644347767 0.42560460137466327
-0.88995289341937767 -0.81961706744065088 -0.40236081247630473
0.14524221358759659 1.1239093733621708 -0.3987404429620085
-0.14055438010803381 0.64271820338951535 0.60144090366534408
0.34062107575860878 0.72682069163940977 -0.2748044412161037
-0.19364662183372117 0.049022018559517377 0.76160381067063687
-0.4012555535544049 0.19498524926551042 0.58295510333939582
-0.097876413977109777 0.35394491505084069 0.81453989370725388
0.26320918308405972 0.67662482512145949 0.53760284353120014
0.011241406713594415 -0.31775418410290968 0.48974724172027173
0.17914975255206311 -0.21320610425984388 0.77508458086639465
0.12240682189117802 0.95896720471117369 -0.23945211561856716
0.19892155829679137 -0.30560005072611673 0.7045221228046934
-0.24273253052950139 -0.02501607873927103 0.76345266527699707
0.099316822558567885 -0.085528575864649126 0.75527096025553409
-0.32593220147004054 0.25039935592257212 0.81357478160768082
-0.50813259610297457 -0.62397872546228106 -0.27816233639776999
-0.47442443894574637 -0.73366512421352681 -0.37186042681294218
-0.015894917030692568 0.62414545264019416 0.69272529137721151
-0.29741021185311922 -0.040949183794663835 0.76499032922257015
-0.55396912016123301 -0.22821236941012124 0.70936877280065358
0.48687887447661887 1.2147245540888241 -0.42985066669410127
0.70316902085582633 -0.22583515508930674 0.70715987059277197
-0.88725333293191788 -0.79623192309510227 -0.39879607939832695
0.74349207203638989 -0.43610678014509746 0.66040444400981535
0.4039904458631085 -0.54006997194071005 0.67237421696076893
0.45629401147759907 1.1304836895781669 -0.46404851612139542
0.51939415621989893 0.69114694128399989 -0.20249737490380504
0.10244413666506702 -0.092087464383229567 0.7615944433127968
0.070861146328648594 0.62111649849879491 0.68103993199013502
0.44642817667880674 1.1196929969673768 -0.45574807160381781
-0.44468757396945002 -0.36189916626938334 0.68416066968649591
0.21613647543774039 0.014128985607449351 0.75583864318213645
-0.19068485507571786 0.62105809152926206 0.7468923125520357
-0.64996869358989495 -0.32851822078830473 -0.53508334851242645
0.65289332157362878 -0.080211717616011313 0.6578499221387375
-0.43701863300715083 0.03865647379128756 0.77853326010683022
0.31756608912575501 0.53837033379136656 0.31635183712774051
-0.10240106470711652 -0.10633448911753507 0.75881666248087143
0.025205060708888283 0.27824668426531218 0.75751193768667591
0.12882384023041737 -0.13321676133709914 0.75628874910159638
-0.1563593536889174 0.38996296588795687 0.79250753023476594
0.5509576825738749 1.0270759239139124 -0.47791692608520409
-0.32228746623118076 -0.42415609070468907 0.58439124256059705
0.31758808094702973 0.74017159396929344 -0.30928935340983621
-0.034645692897105951 0.85539067298048421 0.55344960970042401
-0.020077491390317448 0.12562500816848754 0.74468540041817732
0.23085411600525785 -0.015220397071015412 0.78316418578496094
-0.81207029652911622 -0.95027707551212159 -0.4835976183590498
-0.039538070515751922 0.81774660915447317 0.67691098133381544
-0.45896104012586125 0.50673625994522098 0.67064178645490102
0.85034961844036205 -0.13774322513714776 0.43294790618984313
0.50463700334933748 -0.048815444019511434 0.68884079123533359
-0.74817229113911843 -0.24779310466190907 0.58947248001913
-0.18550872643472616 -0.087735045883777119 0.74719259333880927
0.26099598445991212 0.94091878345933821 -0.33971338086745284
0.2016443526922167 0.0080879377847704603 0.79965724127407967
0.36922940345283639 0.58431854531240379 0.071526419656878559
-0.026498652393065925 0.55501194060337022 0.75240106260713802
0.62978042825735514 -0.050850174832133277 0.64650234455051248
-0.23281227101862356 -0.049133787931898043 0.66845588830616265
0.67718186627895971 -0.69466288336707083 0.55862753355403116
-0.67817058029587685 -0.97339082257472143 -0.4536675476372114
-0.50214062731303066 0.096414440090649478 0.7997865608178909
0.52009025990597735 0.90279004990983935 -0.34377248781431291
-0.4759097060777826 -0.61513581390299876 -0.24084676197825994
-0.66466594145349234 -0.60067577814722029 -0.2188947640857295
0.11833477323933561 0.4550902252183302 0.72116907564795696
0.24411473494106534 0.98447378685204967 -0.35277038092613155
-0.44980087880664499 -0.72337744331374765 -0.31004131114270805
0.57204136907297887 -0.23643697457503343 0.73338959459025688
-0.50310225608622094 -0.63332957186908656 -0.2987754508463909
-0.52650986524661825 0.056237835018888127 0.7846029019156775
0.52068954819959146 -0.019732559568950592 0.45854130041763597
0.037727295369693437 0.83777986140263838 0.63804702626682719
-0.75672826221792544 -0.68031815161019349 -0.32848382126858455
0.10460367632008172 -0.15953601251974625 0.80812753371839108
0.22867940698686873 0.85824563565029865 -0.25283151601136211
0.76946262061233028 -0.27036586980331734 0.70995914994425524
-0.60596250944628771 0.032715016233277439 0.56089694654578803
0.066606054411980864 0.42841022682382857 0.7873809407421426
-0.23436839658344688 -0.31717571744466966 0.67644016851469502
-0.095550652901090771 0.63928369346022307 0.71242706651458221
0.14421233801080979 -0.23454121951783247 0.7432688169341688
0.74583997423948445 -0.434189877062094 0.66034499464803531
-0.49829158848405886 -0.079181097406870293 0.76815237619641774
-0.7563766026075931 0.080293379872403481 0.6672235887200646
0.24228167995716243 0.03499256480294477 0.7249078954365844
0.13418220224033739 0.37699361519096009 0.71934170037144618
0.25390066908694076 -0.0025759805421827764 0.76264638310863109
0.014035195663041122 0.52002385403415552 0.7744475876508794
0.29084128171048518 0.72584960330689297 -0.24143626820593023
0.30897606355536977 0.070300379077226083 0.56571121110001776
0.13561484628265455 0.88217719862512634 -0.17302204387268905
-0.74493550336733705 -0.1354291869422557 0.35929559183571536
-0.24636872802845033 -0.068852075189107742 0.76576529818504468
-0.66765127008456915 -0.81827220217201813 -0.46858161536493981
0.17819040652765139 -0.16789886935270104 0.80902583656278182
0.85391554534024294 -0.45955811846619454 0.56097369974511579
0.36375610760592769 1.111027624771654 -0.42327451133476668
-0.19030871704662711 -0.27232665633352604 0.71698130014702521
0.4680629255825064 0.65828702857736232 -0.30189231617042456
0.1573229514396117 1.0037831923357268 -0.25788508058687842
0.290342267534482 -0.4951802882822447 0.48645854807555011
-0.76112577511088841 -0.35504651966911638 0.59659664275031243
0.083387445914184788 -0.14260522065375092 0.76209588669542327
0.52716628646186425 0.98171670294908708 -0.38024880922237736
-0.51258020803449544 -0.090807942157017152 0.75284624023988655
-0.82897560530644832 -0.93261663937194372 -0.42976014230707804
0.70666074539862578 -0.48999144361052593 0.68814076282339864
0.55243089678813417 0.92924666461136107 -0.34204798375784595
0.39254722799739294 0.0015283674843249995 -0.16520056347888651
-0.29243078923763743 -0.37313780898861282 0.65299145180489049
-0.095461114385852142 0.35037412348420993 0.81517989733484875
-0.45081372206696457 -0.70364875971303853 -0.30015225048401284
-0.64683408426684608 -0.74391047097316232 -0.34901742536754554
0.4150276496857348 0.82721810709038612 -0.40695504466463106
-0.29319872673943514 -0.31819686269682901 0.71937814144579448
-0.205346047098943 0.74454356335038252 0.60142492020969041
0.073586316231290638 0.6005271183443277 0.67319322208813048
-0.076088887841212482 0.26178335533948882 0.76146994975342874
0.39630812988294339 0.1445153364559566 -0.14795281762617751
0.29931992565402865 0.73840549072074779 -0.015110591492884851
-0.35853894299936684 -0.80819404925865079 -0.2913631733658173
0.14763220896327844 -0.042501260055821 0.77150106870356439
-0.62889611727746697 -0.64929085551515531 -0.30892975489969243
0.12848288237224992 -0.25753926670326166 0.72166206907542119
-0.30781515740987331 0.27217842788853819 0.77893524413262227
-0.56585454765860455 -0.16077548399418184 0.75425644121042268
-0.90795487505999439 -0.95213203669548285 -0.52190930070415309
-0.10787618691405854 0.59049877225702518 0.73324438002602932
0.12610141696793775 -0.095194337352658032 0.77062788912948577
0.24546658771453878 -0.41676549550690467 0.40840669323704581
0.27835341141614389 -0.33978092374386637 0.22605203963335851
-0.14795392767471949 0.50870027992607092 0.7596098503581441
-0.18154248653728344 0.62201479078431454 0.74274655475124352
-0.50014391660090141 -0.0026993165148390119 0.76622677561247965
0.70003559277358707 -0.57461675722299155 0.66105772771901883
-0.52913199880267081 0.0011399786082302299 0.66645612232131768
0.22786959048202604 1.0522157077361101 -0.36808804225062275
-0.15612332979408583 -0.28801917146689204 0.71124683176855541
0.28013394760031929 0.74335727941854657 0.21436426560505595
-0.3459506382735853 -0.13580589292250345 0.8183369736779369
0.1600305120246297 -0.22561110302061849 0.75797463858436842
-0.022608229970298765 0.15986597396485891 0.67613448033218759
-0.29261460268330808 -0.039493253208715995 0.76427780490569219
0.75644684270322138 -0.45992005737669561 0.68107082243246886
-0.44042366319147952 -0.25530606593011917 0.78103900595669551
0.57759001608340732 -0.71503379869841055 0.50740113955902499
0.10763347073485674 0.86205373299930921 0.56976970116074277
0.20457487501536242 0.39599003324349524 0.59899518114237749
0.40401855332078229 0.55918216155218303 -0.15089722641140746
-0.22423153901084625 0.082827353407214588 0.77114956050883787
0.67902931058898908 -0.36667259860399459 0.67754938398655495
-0.64338601441988397 -0.36197084257863477 0.68215902088880487
-0.50848581213404387 -0.62414244664854346 -0.27917966014826678
-0.046880879708440126 0.65778535777753611 0.60753131413174799
0.92944689908549449 -0.2622262614822759 0.5607317427632097
0.1740277842294578 0.88040949309025174 -0.21871271736749875
-0.26513113054047466 -0.074797545504090124 0.77687791683996466
-0.15734324955011836 0.4433259425734053 0.78166894935582754
-0.4957743285982481 -0.056979653885104398 0.73051794711438034
-0.38007903083177652 -0.0061039620363261271 0.76246593336413415
-0.33910293776180306 -0.68822731404787685 -0.16713947119996808
0.5871878529236787 0.99288371467884462 -0.39264769962716239
-0.46258661213116525 -0.70772174404551169 -0.29365474597411811
0.66517917197397303 -0.45883412202337048 0.65534336860404618
0.65361985488294749 -0.48161705727327231 0.69040334181713447
-0.62577344240692323 -0.64107373538030732 -0.27334489469028522
-0.93446318191883293 -0.71069646709226308 -0.41972551553352933
0.34894904810799943 1.1234640461875456 -0.43119053441794364
0.31992454973835116 0.39739352589609123 0.5284496180660595
0.12073990967570358 0.83846901623861592 0.25365303384878501
0.725941631426815 -0.1844142225994112 0.56015917724294062
-0.75127576088352721 -0.35748489787523402 0.65294104720924462
0.079526667817514607 0.43432415376028288 0.76690522026975572
-0.96860466207487228 -0.8193926222089285 -0.39299530525286208
-0.6507980816005503 -0.23990606976797801 0.72842770704978221
-0.11916214260568658 0.57515930865829112 0.7358805273592548
-0.36083211864949405 -0.078829552682564419 0.80374194377018782
0.32045570491470288 0.093398480485676838 0.47279941860119656
0.6304263169520663 -0.44451874459076102 0.67840749616308393
0.37846229660836173 1.1893108987482712 -0.45891903150001312
0.079640922229808009 0.62521385805395813 0.67834891244951656
0.6866474011581265 -0.49552025113755604 0.68872382547606925
0.73593927142047022 -0.38917947824888088 0.64909521097532696
0.36842282386595726 0.63756276264235567 -0.17773358455095756
-0.3771836842918696 -0.57454157245251247 0.27235560512609469
-0.38065047464461088 -0.71829400243124297 -0.34155886789124956
-0.084630578764202546 0.55169887051037847 0.75077357924795862
0.030738019552337903 0.61882976571471371 0.68261010531588795
0.46537486452217414 1.1738946189426096 -0.4138356304005153
-0.70402107363739752 -0.075201321066998617 0.77543891013488064
-0.45012159300704546 0.21154575386177576 0.55036214884926693
0.14457600893144384 0.29376604942367024 0.71461368761052646
-0.60027186257740084 -0.93599891363400634 -0.42601959872251349
-0.67667586485030462 0.10087876416135 0.81103943109989807
-0.06314579114218688 0.53072147785879498 0.77512705283941941
-0.86668528789185117 -0.90337161828865353 -0.45306013315115717
0.07977932912540453 0.37201657458429715 0.76580076561172561
0.66192770133186274 -0.49804003297567345 0.70427800485662218
-0.56528925868140867 -0.090702784621418786 0.6932201373233422
0.66392050327209251 -0.46032076046175074 0.64839143811505162
-0.61731961127107127 0.35622882552572221 0.39681525367515036
-0.01237425530862879 -0.11563710965448948 0.76502791112994473
-0.02763522845797084 0.18791578939035958 0.75934486107837884
-0.57951874282053184 -0.58312165363515844 0.18471093564647781
-0.66983111775792281 -0.51771126774756837 0.24591901306743136
-0.20828165360557649 0.3193613760527656 0.77812188772260527
-0.58291056563872168 0.24529359992175515 0.58608306896586981
0.7228154068524173 -0.65253618616372755 0.55417158572132319
0.72096675001544896 -0.31655017965461385 0.6738974470549346
-0.68777122305833238 -0.68877429670338941 -0.41236466177699427
0.04280379505298626 0.66235028800264772 0.57005582919031639
-0.44167343287687721 0.20525678093357058 0.59446671872806434
0.7740185486268325 -0.41298952102518005 0.6856031192906924
0.32428727239754362 0.070945570315663176 0.53747909950932549
0.36422770175487962 0.98142560332652096 -0.43337644776271489
0.75344679400372483 -0.33787058849721596 0.6858613843146637
0.11507932014977662 -0.09644914009209149 0.76665045586549496
0.34254757364212285 -0.38994438951434951 0.48634870741050307
-0.88141788649526553 -0.33125278290339288 -0.32701218125503217
-0.37234708598601074 -0.78764604605557409 -0.33008454837578771
-0.60207201653977171 -0.36542118759490294 0.66952896358836411
-0.12141628248695248 0.93946089295616975 -0.24363384004687441
-0.22030074882101403 0.48642182265748168 0.76240865154074733
0.13466624137557837 0.24923371406747563 0.72659789585145251
-0.21678947270490623 -0.33907734301338621 0.63118927383812817
0.20133250093876603 1.017489714890897 -0.31390755963992323
-0.55010328588647894 -0.88884919002877893 -0.38688716897075892
0.38674968410077071 0.21625794653964725 -0.036965997273089357
0.24322350339744858 -0.0046082580304425136 0.76894410261256851
-0.56909712253196254 -0.050283201975640068 0.83362619344801159
-0.6053390108373371 -0.20103515278919892 0.7158890534216269
0.57036746851689202 -0.0063125087015514225 0.60047786110597912
0.52273543249614329 -0.34742822346199276 0.32771834403179445
0.36775067877530532 1.1035718614228642 -0.43289659624644727
-0.27189463678976367 -0.11507283464149032 0.78958038146793541
0.10834889383777035 -0.14078835962849112 0.80962487750762691
0.72584707284592298 -0.3734564478568565 0.67991764385182929
-0.19452299643157445 -0.0029258409992483081 0.74943475866269837
0.26026307206662924 0.75356959685543612 -0.19951635668430523
-0.80060315704455931 -0.90005258220458373 -0.45252043405862441
-0.62717522996526132 -0.28611796599436801 0.69845854017423825
-0.67845404418598498 -0.97543106411695035 -0.44650719958680796
0.13615059190529699 0.41782628346029282 0.71781662182612394
-0.35166695859477537 -0.28059046389345887 0.7850912958812275
-0.39666459800544729 0.021503081948298863 0.77609387283566189
0.10210182262225054 -0.17909411169244649 0.80416640498090608
-0.91914085270468437 -0.17633571296724404 -0.35012387742760054
-0.15507744305348048 0.55793466044751483 0.73845415914804136
-0.61860248699412779 -0.64460813474787848 -0.27973291791898813
-0.18834280330223407 -0.22943088789822319 0.7371118208824825
-0.64831245847324226 -0.96056518631462251 -0.43485508744331192
0.21997557294434902 -0.34052900541237791 -0.060500300989220449
0.21385505024737883 -0.38241357625726602 0.65042392151644757
0.17932352532652107 0.32986691569308846 0.62463290350926215
0.084023648342054003 -0.14713385245126176 0.76467581334225798
-0.10281183069414901 0.37269471296424683 0.81634476786404875
-0.70153054993847919 0.15514048306037864 0.77993052933920382
-0.015711593556115844 0.15979492558345854 0.75811044566748897
-0.5458395586395195 -0.17068042638835212 0.74898327355515804
-0.75270115864849352 -0.15146617401735796 0.67524594934086091
0.33882279939712834 0.43051258684704635 0.27540561159355348
-0.42219866507986459 -0.7587295270640253 -0.27451068965559866
0.14476463806712658 0.74238207268489464 0.60329115402822353
-0.22503223115908622 -0.36139094303896879 0.6822319207294012
-0.90906848531849316 0.26797153299517396 -0.17684883398909501
-0.17126191134804936 0.32448876225507473 0.77209201288114815
-0.36977377516016263 -0.38844044037065784 0.66231051912376426
0.28491993786902969 1.130843176341771 -0.4358320010959762
0.19200110527412434 -0.36986354306151598 0.04783718560488108
0.33078549135186375 0.96362531666138551 -0.38622654896599684
0.74052755699897688 -0.41310562098742665 0.65510764187480763
0.1514751792941702 -0.20531793224238726 0.80480123772826762
0.76129960693138843 -0.35191251720912708 0.68502545075841281
-0.29036278472997878 -0.13952943180353117 0.79515324994296321
0.9203122549481787 -0.19840420329651032 0.58565616684544775
0.42528923451033734 1.1731569861878282 -0.43066641435070852
-0.0042877546988311366 0.26284406784470704 0.75867828820392802
0.36065724411407835 1.2682623968866069 -0.52068413910940659
0.15814122094122585 0.33493859780131174 0.70053607497037973
-0.51316031877547807 0.0059798922033333923 0.77862871103134612
0.1300876043440623 1.074957644529615 -0.2915882055940594
0.12292023257528406 0.43448493690259737 0.72436291410332032
0.24311259546025354 -0.0057044320928607561 0.78864955642939094
0.081615961141315196 -0.11132376500865138 0.75202786958104362
0.11428205557115945 0.9772369850206859 -0.32965578708728444
-0.53417699091214388 -0.83151322498608327 -0.37313751524021477
0.12386863121764002 -0.21047353212352071 0.76542230747394768
0.72008290348801385 -0.47995034771947731 0.6835945528721239
0.092107265402365357 -0.30998720295125715 0.51448261770807946
-0.63534733948325406 -0.1098933132663733 0.76878454407272656
-0.82341409965917123 -0.69996749944511905 -0.32568713109594061
0.19893224215102023 -0.1043285771469411 0.82024596850646425
-0.61310500108190247 -0.08111292953063598 0.76349407010722103
-0.63633312325356961 -0.6570033478045354 -0.30539028437715876
0.29221910511654414 -0.24299402925234403 0.76694816395927745
-0.65605728496801774 0.043380031155677901 0.69410340829393391
-0.7525766074658371 -0.94521679416358673 -0.45844449662931319
0.21642515657464756 -0.32411791421251301 0.70024842460281533
-0.5153963921619038 -0.61151984864008568 0.052801819169757722
0.34195334831364754 0.72745710791094575 -0.27303197455986528
0.11899133491059688 0.91443859807003591 -0.24130886777851823
0.29911165259404271 1.1710786533192135 -0.44645013711327053
0.66718652636327014 -0.29740959909777454 0.73267739854706626
-0.26690441210865856 0.085584474391005472 0.78317123862775517
0.21118996306262428 0.083136515452817861 0.72058012154978623
0.04885837804062021 0.40876814920057392 0.80239894965496461
0.20663178015538008 0.78673358543924365 -0.24482447066695112
0.071983546459781778 0.57307058200075467 0.69703973100586225
-0.37604018017199792 -0.63145663184301881 -0.004130228978013295
-0.28118962165635963 -0.40425361152171035 0.59042405065489145
-0.52810877000457257 -0.077890094256700237 0.75831496541586674
0.68120554495717656 -0.43337719194361668 0.71241805562084792
-0.51852422227114126 -0.34555979361210909 0.67750828425330556
-0.57434743947631262 -0.27065538588096993 0.70578019962131577
-0.76487026752371445 -0.87824336971931549 -0.42785529821461399
0.0099821341071547331 -0.43922895725862937 0.0074816063530766252
-0.65686820952051761 -0.89344775912112695 -0.42454962706473687
0.72116971821943565 -0.28399358715764222 0.71334337081045995
-0.033619501976389188 0.35737897756467918 0.82130353012684765
0.22568875787336806 0.21962768032294377 -0.57913426827288617
0.24673817976705092 -0.0092536777961491623 0.78663031980670461
-0.26836606992363699 -0.22136029354627773 0.7796404036262583
-0.58441869554695991 -0.62912646318861531 -0.26412233297788568
-0.24943467270840358 -0.0093172070923333017 0.7559706411645486
-0.2585429145704623 0.39210145875389291 0.7593406211735747
-0.64702813163170614 -0.010425711248932767 0.72520174194587028
0.50227885259997151 0.018249247180779804 0.55727399228419472
-0.53661552538424218 -0.33030851438612707 0.67824673180622241
-0.96158024264354669 0.03770408783709378 -0.25656941753676321
-0.60472531123132889 -0.580477922579135 -0.38539285539362211
-0.20312283347614368 0.3378168229173415 0.77744480585632125
-0.085005685576289736 0.25495782687312207 0.76442007281191238
0.30561645045147401 0.71673489240856902 0.097950241030076768
0.1545081542237785 0.65693070213288696 0.63336981015872729
-0.6740854457348977 -0.24479607340019927 0.73464928435559962
-0.92423117406307531 -0.81521456354492461 -0.39479589806742688
-0.24335531765256491 0.55178773773214473 0.77209816108527951
0.13146095502452759 0.37838790620504703 0.71985780040433678
-0.49031409855735664 -0.37027603019013533 0.67546071056292289
0.14178787120858694 -0.036292056789018368 0.77378949916362227
-0.44126332709845784 0.11330134647521639 0.70009776348437658
0.14528464366665084 0.40911907555705351 0.71366655246679755
-0.74673183085718975 -0.67271812342172943 -0.30860180173676088
0.14069145107473879 0.35956652625278096 0.72412971745390653
-0.52583787909005508 -0.035484620544856682 0.75764677211078979
0.19914457690313814 0.0038866048848120727 0.79617482958987185
-0.39300446490566543 0.20835978232992858 0.61776724840268216
-0.74173998167830035 -0.52934679057206679 -0.049024812615757973
0.23226520739074119 -0.00022099380376872091 0.77594311715263853
0.10930367348416947 0.44582460213189368 0.72695994188060098
-0.4592525277512074 -0.61377502176190823 -0.21313238653840294
0.14910923388271158 0.17110233186060952 0.73813403588788873
0.6018851873038038 -0.32745911459565136 0.65884408998254962
0.19669283224645162 0.83094789728151741 -0.010483730238990407
-0.45608600320252468 -0.36363244617366963 0.67623728138075156
0.02118750209845513 0.56638607247578121 -0.60957285884916179
-0.88829491442308495 -0.68170666715553185 -0.41251129310550594
0.23961025141167802 1.3130134500353279 -0.45340963065597073
0.23387790529158359 -0.036739141587458946 0.81756966471547621
-0.54982588200972593 -0.30775598268598303 0.65202576426582759
-0.20126255834182416 -0.094841758265144627 0.75605130261561015
-0.98687865444325151 -0.91443359134951663 -0.44745692796667846
0.69691140635265825 -0.68198166137126393 0.53637744086473038
-0.57242056990804535 -0.10524242778846205 0.74398943644606863
0.29617980838139113 -0.19440504874755682 0.74796143008904892
-0.56811175549462334 -0.10666292333429706 0.72535125577124049
-0.3092107946415501 0.31747222459046454 0.80332492727849392
-0.57092749132952925 -0.11063458672731485 0.69948902104576405
0.43314615954617075 -0.083855407584122243 0.72256065193708441
0.31004355698484837 0.72364466902746616 -0.27136926883271251
0.20389214640983688 0.49369180570240334 0.58096950118084911
0.28198212737281336 0.10680695095966625 0.52481752533308479
-0.067859581020920601 0.55941464331561264 0.74203674547762688
-0.5984064050367639 -0.36321283075219757 0.6673200063466681
-0.55945134952815434 -0.17109088047148902 0.74536222062878998
-0.55371375275522983 -0.069736207791748051 0.73913487037181369
0.19801324904592921 0.33640886726166741 0.68512991123596656
-0.74775026080234852 -0.95094116124690231 -0.44679898638353865
-0.038257873922718844 0.22085631070877199 0.73167053008658556
-0.25923569142281999 -0.29843770319461993 0.72423880370483529
0.29380850611623544 0.36613730652574716 0.57871885383853794
-0.25342550791605856 0.50265351344924447 0.65177721314254677
0.30870206325269578 1.3147600898358931 -0.45800417134172022
0.39855296044760957 0.079340671464963375 -0.032585532070143461
-0.34832353152093409 -0.25320845708899675 0.79808029603064234
-0.080831845242812506 0.59916742493767616 0.71984077813408476
-0.29991774675301031 0.56796305889201593 0.78410525342862414
-0.36526296965389093 0.42963330521440479 0.62881843982419383
-0.39409832380308529 -0.77404023094725716 -0.30535637425337869
0.82286141631861298 -0.38331408614704365 0.42765134834576868
-0.33887658215738464 -0.43993021929798148 -0.50028711484789568
-0.71286407505062321 -0.23345358571692287 0.44022263878834877
-0.58107331962199638 -0.71318058277431673 -0.33531860894351251
-0.67979243462841765 -0.9979345983048038 -0.40361744323196191
-0.096902515787164134 0.51651741571920695 0.78264784001445165
-0.02179820113931985 0.20089106336357077 0.68174144611987941
-0.44700759121938544 -0.75745635580331649 -0.30521631793098969
0.30699560372562473 0.083029334469514993 0.50315849744897889
0.74221500352451164 -0.46169911064444191 0.67998169395003005
0.030846886824334785 0.92309890619074075 0.0050438289637328992
-0.48638592635585975 -0.61872357623982699 -0.26039690257411641
0.70009325799561495 -0.40704993020170832 0.65702060418350205
0.20208921957544046 0.92956750993871684 -0.26256341181162135
0.0255740492879859 0.56486244246023176 0.71690119215019266
-0.22717631315503617 0.28640640291892439 0.78486314375291677
0.19543815027391886 0.011322092214588686 0.76405059757312288
-0.39411119661880178 0.32360988352474607 0.59902761573562824
0.71754776874031378 -0.47491440596335721 0.68724245587460331
0.22035389406984907 -0.040183532565040814 0.8137067732538128
0.14402437487939462 0.5350880807418984 -0.55270138529187429
-0.32355159963544722 0.18049503095158137 0.80445536556353936
-0.79382708812991432 -0.41526597437878543 -0.35541074001377204
-0.57361973087527929 -0.71738682346777494 -0.33662894927603926
-0.44300482232956995 -0.6623051598178078 -0.28712904053770538
0.39231009070288092 0.81502790759774157 -0.32518352495934266
0.30714895280815568 0.50664612970248868 0.47510992330136048
-0.40060438587315694 -0.073492913612998034 0.79907050658346535
0.046033023277362695 0.71973901198331225 0.65682223351639735
-0.77435409367897989 0.12962538024883208 0.33014578323711963
0.13267738218434921 0.52969520094663913 0.6721818061594238
0.27051744021104795 -0.44497680581152999 0.4116079781929386
-0.57080862330067461 0.10847122478400628 0.61291035635969848
-0.45815527101509756 -0.36301132696262517 0.6742607119122449
0.50456744950027144 1.0711855298551924 -0.41651370556629974
0.27678689786546329 0.48271461436078056 0.60815600242126777
-0.42885155608106373 -0.63573426049560844 -0.22773288756324273
0.38422579843374893 -0.15242583802700782 0.031745603645411791
0.27720934467359282 -0.087142233034434469 0.77508821777029624
0.26414012736124981 0.87458877974223626 -0.31621289184264967
0.027231109417193977 0.87483532295771882 0.49466535783093413
-0.60528468518194245 -0.64158657940129293 -0.29411297291548621
-0.35808320896935797 0.43642872625643037 0.59756613661776825
-0.084786981971712194 0.24185983564184355 0.77513913996845574
0.15608414510272972 -0.041074249317925915 0.78820804174343273
0.3030343637348949 0.60383797596422895 0.33900816622614371
0.29792760951402031 1.2202591653015042 -0.41241223269735283
-0.34648000210038754 -0.27733379120385848 0.78276167490268733
0.30087426546597484 0.99909290825945618 -0.37125098486865582
-0.33774743587858103 -0.37997980138964493 0.66131775179754015
-0.48862991124771327 -0.19505598135307034 0.78562715855288001
-0.52166143552956612 -0.62378949125823624 0.0061623974657669667
0.74695175687905202 -0.45721211046975085 0.67762700885053473
-0.2027629867054932 0.19218797638515284 0.77710160733108502
-0.71580941101402118 -0.46205046972326258 0.26313420420774192
-0.74824033954584457 -0.35699689791960704 0.64803733696827326
0.72027590926954232 -0.34637871389427133 0.65611985849730958
0.39308169219864109 0.084082539995449679 0.1199518807087212
0.139775725276575 0.80046146799965889 0.59677676850778383
-0.51326330287629029 -0.058683608848934643 0.74762689652352199
0.15983354731982446 -0.027538465199963724 0.80488399742066896
-0.1692663436465871 0.5710028116862178 0.74077922333216817
-0.60920179988999479 -0.59343430444597622 -0.2014914459533057
-0.45779036987538518 -0.60922426789451412 -0.1959116615287968
-0.50088196605414093 -0.031357818421178241 0.74683061466155198
-0.35650445920698282 0.21853621487840713 0.77760956660992164
0.062530821154253791 0.70535133603176892 0.66033201391546115
-0.85611138358544991 -0.99227477461735525 -0.41248777955672367
-0.14929604656253304 0.49874769215387627 0.76415956556111553
-0.66473542065558977 -0.0020502121408441099 0.7931616956478571
-0.40044616394168608 -0.35707815212672855 0.69695402758738823
-0.66749351722484995 -0.77378187673257637 -0.35487269439256053
-0.28353256451502173 -0.65057792263999226 -0.15100232950360612
0.19029152040929231 1.0834415097849472 -0.32848796938675839
0.3781222176479393 0.591877029923494 -0.035749978852836983
0.29119042267344497 0.88928174449483066 -0.33336790666048444
0.15278861895507134 -0.073442246944781964 0.78779816040862016
0.17425774536472716 0.014128264375118604 0.77665087738104965
-0.43627058475118474 0.39674286571443851 0.67630997570825901
0.62491120882875739 -0.697681052220815 0.58930575880348002
0.81225528630129418 -0.31565201980235469 0.68487959495181761
0.27939448025138092 -0.0024203727918408191 0.73369866411674867
0.75790299228484592 -0.58443037685386967 0.59786832120558175
0.39559903992518786 0.66971772399241225 -0.21941963979127044
-0.57281506607981925 -0.62775871701512465 -0.27029333393939226
-0.29847275135344375 0.35012194750696679 0.6830751915781903
-0.072296555341386792 0.81081588951835148 0.32638878967690577
0.78221962748008522 -0.5474169572565728 0.4882431804023053
-0.30683051784539472 0.085058669724425329 0.78965894413996018
-0.184094623211422 0.40611254260558205 0.7725252059754304
-0.80407619548632248 -0.96742849459589841 -0.44063368723940677
-0.51937058772151046 0.016590515778941217 0.77298198052567169
0.6894974766860642 -0.072779251254232236 0.52705717059668444
-0.85503199511767747 -0.97455569904715267 -0.50059323724464444
-0.10675691516622976 0.25895350449122567 0.77537943697064282
-0.0058090283330756165 0.31828311782409235 0.7935045620917478
0.27938521027210506 -0.0031810528039706298 0.73360896202982351
-0.71868962224558786 -0.97490927388087378 -0.46086217258823181
0.34111981580933559 1.0499585016220578 -0.400220009904384
0.55659597672210981 -0.52088590159775983 0.37527638404001173
0.24432130444812827 -0.25937237083159204 0.73477574451971961
-0.059602872072471058 0.38465044506991486 0.82515859926177626
-0.58244561680496965 -0.65820636439109492 -0.31735539960409209
0.8757366157259785 -0.37504837203676855 0.61348690550379992
-0.24174720985313902 -0.44312861117810498 0.62666643930707
-0.093218280305846335 0.63659393076946458 0.63780755207372586
-0.16704732282089019 0.94032008072599749 0.02958712382497275
-0.012024762524035282 0.26803713966675247 0.7686909739215686
-0.3400533541379257 -0.34309336495163512 0.70802013758307136
-0.23076783263778822 0.0062563535853739083 0.68771232829397633
0.47107954586265066 -0.53860279752309737 0.6887509136768486
0.15616665152208498 -0.22159400627304393 0.76249987594152024
-0.80221445162129079 -0.664335820279915 -0.28480801589686466
0.72651571492272193 -0.44127345695703113 0.39825755797779649
-0.72722995631835019 -0.66757600207411905 -0.30290458234450979
0.78087615524185594 -0.086085103630125559 0.56648125742513855
-0.14661609085645111 0.2747663502136044 0.73496245413175298
0.40514715254641498 0.6480993433328841 -0.27559775654516727
-0.25018116578670657 -0.068055524371815501 0.7644521179657211
0.48478297886345789 1.2438437673217262 -0.4980888203884607
0.38676588790017563 0.44022244407882738 -0.22143792172490429
-0.2647219914387513 -0.27830858736595454 0.72597754518171298
0.81517292858651835 -0.40550483499149492 0.66385310378102735
-0.24234807078203247 0.44814907632841283 0.77085006216678309
0.39110633380867554 0.10077677339789659 0.28409847129585941
-0.22706061230497987 0.00043454430792611021 0.66248603989931176
-0.18997957240173058 0.24908188581831592 0.77136244544805699
0.33153969441175235 -0.25346169364229709 0.75461827271982784
-0.046585469836790239 0.52873485034881762 0.77275564129046614
-0.49171237572925675 -0.19122339364176355 0.78496809714386107
-0.28774300592070434 -0.70922570697529519 -0.16555792853060619
-0.092649611323810888 0.26391552016866981 0.76056495179483008
0.19725688307442635 0.83535384913140409 -0.18408775801121013
0.29559030609456816 0.64680554493614251 -0.3911618302254129
-0.29837739497486071 -0.51030955142471579 0.57920099748133946
-0.27347124774377818 0.3452545752263978 0.77706007226104035
-0.25687722836541127 -0.060861875773785989 0.76786599291401814
-0.87906471981131418 -0.88301053152147091 -0.42300687002938808
-0.3906436769601882 -0.69928090169948831 -0.23943848983595939
0.71555241168383787 -0.30914783316282524 0.70227004761483158
-0.69739538415615998 -0.34957445709802759 0.70152516709933055
-0.63763068912503051 -0.41261215840796517 0.66266266183645062
-0.052246729898584698 0.23083237226210329 0.76497101067393025
-0.73236180942109863 -0.50280197158088002 0.58135239223433066
-0.97682265573545113 0.046814858540094484 -0.066157524123751088
-0.44706176510433338 0.17745457071932513 0.71298147403622991
-0.22298720239967196 0.42293131748458812 0.76764200666179505
-0.44356644415603874 -0.18779028123468633 0.80673203699321783
0.48742378683327797 1.2432478335237587 -0.49484784313665009
-0.61271026152505925 -0.15468807386414385 0.71932831766673466
-0.26243039058894069 0.70770419977195775 0.71140956880300354
0.00028374537212982887 -0.11329542968731632 0.77371972869631733
-0.47708739472184902 -0.82537767730864786 -0.28934750153024869
-0.93764756887707001 -0.84505244233877086 -0.39906261961620615
0.67038798361421037 -0.48918775843125495 0.70616695415020558
0.062847633400469505 0.39316976826521755 0.78252110252851281
-0.55689929903102298 -0.18602169567045124 0.72198796826572931
0.018977383597878372 0.63323346720168594 0.67418362674442989
-0.43945894110965256 -0.685885437767908 -0.26408279112173005
0.63233347154663555 -0.35535527723661886 0.35825769654201722
-0.74393383020870818 -0.05238565161383435 0.36945097816051747
-0.33957170643895651 -0.0075086801967909622 0.75721360735858045
0.1505130853215455 -0.057290480458372706 0.79973021215132167
0.82338278232752771 -0.086801158983504934 0.54180900459551395
-0.63795754326790899 -0.82629565853318354 -0.39647832330614463
-0.11124679089248879 0.30740485598190848 0.78792165970995853
-0.51683733847141156 -0.85867178703569103 -0.3460845557515777
0.78265563565058116 -0.42023074128945836 0.68301472706846411
-0.70410939541765671 -0.638490213556409 -0.26460980437312465
0.032265753356814864 0.63503140036622341 0.67760268288961534
0.38679434997206741 0.73668206034261985 -0.28703541144472311
-0.65021675224016029 -0.65996608390779743 -0.30498917843309703
-0.4966227521300004 0.53086841855913214 0.74933289695600358
0.060220788267306702 0.62671451802623146 0.68135730516880955
-0.50561415517563235 0.42273545667189083 -0.6654620800143094
0.68680204305655579 -0.57707762293551568 0.66549895975606699
-0.32085078625376262 0.11757514737859509 0.78615409026572269
0.42093117058423063 0.72035162299117061 -0.29462380774435049
-0.065708852485002467 -0.20905211842526938 0.74439381359850287
-0.50098501142385743 -0.31346035775435332 0.69811564698603312
0.40673656472093511 1.2100034188252828 -0.5226978897622867
-0.49003301296255231 -0.64357703484326212 -0.29826655473992836
-0.5340989114752035 -0.39341558694933365 0.66724303215599912
-0.1600737003010817 0.27776963288517553 0.7325941287079889
-0.44709227731881995 -0.27380604575667533 0.76838753742549271
0.68802481052653519 -0.044296590095854071 0.61978668001061976
-0.57677150767353136 -0.01239901978448632 0.79517522044158184
0.11604343780826909 -0.13286305521622488 0.79765966063528637
-0.11881529475218677 0.35409303761429989 0.80678884483981683
-0.10881681652831077 0.27797753288078653 0.75819641204726729
0.52745519418539366 -0.13280490777652787 0.15387137778591864
0.18149922762406945 0.44246776432206225 0.65359080793946411
0.01831281549092878 0.18115753538391033 0.64597287009100235
0.1579352924486046 1.0035871331628954 -0.259297392512154
0.76988788501236138 -0.30194126213366346 0.7042428897168751
-0.32124755452055298 0.91953691878312249 -0.1638757110152459
0.12780594849502075 1.0028812735302635 -0.25064080603581457
-0.547609967520577 -0.050120120947982016 0.80066892098538744
0.16295542978698752 0.84030537793946669 -0.37587456932068952
0.10686205969654594 -0.28028206598854766 0.66985683313921385
0.21904217213785793 0.0020169939259702119 0.78343862901606298
0.078969022166106129 0.44869547724431769 0.77625386622958104
-0.20843986022050487 -0.18806506919458199 0.75306991913926069
-0.36751852073769031 -0.44399336074887508 0.65030341848285111
-0.77248180099498143 -0.57618223851274308 -0.32336026943397278
0.59908733368984457 -0.054184024934934794 0.41298094647358585
0.20173241605651349 0.82273944393503606 -0.1389636715919913
0.36577983956015958 0.66742567708106226 -0.21296041617390171
-0.61832453534715626 -0.91429389833515851 -0.4210577530529554
-0.42516113614728468 -0.032656126717947487 0.78621314143048426
-0.91641360022902774 -0.29480410865094697 -0.24814155605313726
-0.36999934627158559 0.8982262375068133 -0.082482692682227743
-0.32110380450170162 0.86566894537510497 0.10670769110817524
0.07035459028232971 0.64410703216998577 0.67637694036538587
-0.37036996682424039 -0.046954206862311665 0.77348347336027956
-0.13178451556059922 0.26918829269634337 0.770326758025907
-0.22801574913143696 0.48074634681901518 0.7268448210257219
0.94609648548375702 -0.1692846403934567 0.49535807665834852
-0.12658916141260285 -0.51346786208673456 -0.11594243360042786
-0.22724084264249456 -0.0016696274890741769 0.75687973280238552
0.46399126794840839 1.2257169764025519 -0.51870480738186231
0.18101348613028989 -0.1138401102427018 0.81328484680830471
-0.62620217851743121 -0.98844580744340771 -0.42185187916904354
-0.01441787375095771 0.261264973230805 0.76001483979499795
-0.55643636322918977 -0.11089638827692383 0.73583732033571647
-0.30145110932222963 -0.25520468341822244 0.77612436572568377
-0.056827515536868489 0.22436585765266415 0.75373454714635457
0.40763365922622224 0.71636118466219845 -0.28054474288701542
0.25617308157221075 0.85120636844978748 -0.29916852812504047
-0.64351186416354622 -0.35894686792574448 0.68052062143475567
0.20515439806266222 -0.0037572210313467913 0.80479847292341233
0.55428643955943713 -0.2230211926881509 0.33882482581568452
-0.098985973675171479 0.51310779525380745 0.78619332421448362
0.25193856894693667 -0.051403346600437105 0.81056177704107979
0.36231270377401881 0.62466109961536209 -0.13408616785896643
0.69950878496309832 -0.49005542838407118 0.69667542836949536
-0.50497925665376719 -0.38569126946662546 0.59494263583675933
0.19849234603458399 0.84252635283972588 -0.20325775362750953
-0.36921413003162229 -0.70713229796756494 -0.28943415828224928
-0.18478031340479362 -0.093663617252050857 0.72428894861235094
-0.66166379401305875 -0.88310778412122914 -0.46981522345509319
-0.57705272581731526 -0.072464972157771035 0.75404675668260168
-0.71567033883933107 -0.85051443516722003 -0.49722956340314006
0.72973652249013554 -0.31181646830164667 0.68760524746851903
-0.047629789790221366 -0.11799452302318736 0.76518752844661364
