# XYZ point cloud file
-0.34589840753321255 -0.13591523795108706 0.81909100136118695
0.16052183390489461 -0.22610101073991373 0.75723377820325766
-0.022108807953360454 0.15904172924315674 0.67690764301321416
-0.29224557875932788 -0.039311758458199009 0.76444788548667475
0.75630336151013555 -0.46012404384931455 0.68113892242265717
-0.44067483252015727 -0.25556993772622238 0.78077453083336779
0.57726870246550277 -0.7148782420776536 0.50673454650434013
0.10765396364748669 0.86215809489387096 0.56970438909507237
0.2044232256992089 0.39573338381152939 0.5989609074462563
0.4041316144765168 0.55926569145442961 -0.15112639007288564
-0.22369805233604367 0.082897721232377819 0.77111343448853376
0.67901750449582021 -0.36668777014159382 0.67749384369299159
-0.64345959548176834 -0.36198209527031544 0.68208529284680885
-0.50940700331046784 -0.62441036621710211 -0.28056203186538653
-0.047008274484860557 0.65807279089144721 0.60735074611305429
0.92945738823997459 -0.26220283351972284 0.56071907018519518
0.17404770981784301 0.8803501084871117 -0.21871316064872559
-0.26627332448815366 -0.072309298809284162 0.77800719472089597
-0.15614076780333441 0.44369689310372662 0.7830264332248027
-0.49636886872772168 -0.056562490110035668 0.72911966752001511
-0.3798698951025905 -0.0053521955398654342 0.76160679277936971
-0.33908535323791383 -0.68807921060537658 -0.16714733510178409
0.5871908414877377 0.99288446786412499 -0.39265041579100496
-0.46271286083284124 -0.70679248243793369 -0.29271154976997771
0.66506484968173218 -0.45884595207249745 0.65499603030050579
0.64952170873687365 -0.47991879416551697 0.68949460119227979
-0.62568210309079308 -0.64111808006840976 -0.27341859790918033
-0.93445453372778076 -0.71070101414594333 -0.41973441190312322
0.34876350649731863 1.1247821775275759 -0.4319821659708511
0.31989254395820588 0.39715096843866565 0.52836098766568484
0.12083754135871505 0.8384241307710395 0.25373201224168085
0.72670517518364752 -0.18408659828391905 0.55967982462137167
-0.75125093408626797 -0.35746760421963469 0.65290303076063971
0.079624284142475688 0.43461269062785846 0.7666813954716325
-0.96891768156324964 -0.81924528810150576 -0.39309914667392754
-0.65026109493239659 -0.23953423450684808 0.72836123165863498
-0.12200127238540226 0.5741973707323389 0.73590918307682074
-0.36200996210931891 -0.078408546034999915 0.80324028834204475
0.32048558078553047 0.093306687152804463 0.47289916675932231
0.63035331083720436 -0.44402174699584762 0.67821833878140403
0.37838045181496227 1.1899097264533438 -0.45872360301001969
0.079710850706837366 0.62660364206109431 0.6785092136499582
0.68030474736049462 -0.49474376516416285 0.68940037367682372
0.7361082527764804 -0.38889288816845635 0.64917845743768954
0.3683888727992749 0.63756765929510828 -0.17775810962601724
-0.37718319462601724 -0.574542253235797 0.27235632967074291
-0.38063484771164013 -0.7183320755535636 -0.34161545438065716
-0.084464013812803662 0.55159977594161269 0.75097200548985477
0.02998342766190909 0.61917983178759073 0.68372302383823325
0.4653906228631618 1.173891509763636 -0.41382109324161381
-0.70398896262307176 -0.075211571893836648 0.77535631720104448
-0.44999544025265159 0.21136792953488204 0.55019641061607061
0.1443962696057568 0.29375419739863773 0.71470704215994685
-0.59927006030365959 -0.9361218366034727 -0.42587268719756821
-0.67684723616225062 0.10040756058318467 0.81133675929793725
-0.058816181492083786 0.53184014123819967 0.77408480009765768
-0.86582343306966614 -0.90660890615605538 -0.45217409273537523
0.079855279336104701 0.37169475701415022 0.76564984827427196
0.6620459691938505 -0.49809517789376079 0.70432461248061173
-0.56526625046874379 -0.090203549396803417 0.69350539988939097
0.66396278260894692 -0.46041128464631764 0.64838170456852906
-0.61764335309029317 0.35623206522147832 0.39700892572239521
-0.0095567666566580556 -0.11608891342990812 0.76835635119821433
-0.028078446200291651 0.18805559718776621 0.75926449222888692
-0.57951587101062396 -0.58312447019637048 0.18471640076922277
-0.66983568570307739 -0.51778952646187548 0.24596367505347527
-0.20768942703125903 0.32084892656495612 0.77808851795748879
-0.58273946772655982 0.24508893274909127 0.58600499474471235
0.72278057526875372 -0.65252520756901333 0.55416985590348666
0.72087053552481051 -0.31636583452365719 0.6742261702198501
-0.68819009510447238 -0.68876545551172086 -0.41238864845320578
0.042692946999896009 0.66233768395117743 0.57004393091139605
-0.44163619006677202 0.20521269507427142 0.59433314812689542
0.77401348546335602 -0.41316664640462619 0.6856132546827034
0.32460102874817665 0.070723425815178764 0.53744421218269567
0.36684026596187103 0.97046124462949734 -0.42702134214260568
0.7536434038131401 -0.33875136675866813 0.68519446782746396
0.1123681132318719 -0.096587518162293051 0.76599720404413674
0.34196190540722782 -0.38993284320589083 0.48684120138142362
-0.88134153096188328 -0.33120773458511366 -0.32700833551179898
-0.37134359824642083 -0.78815563611845008 -0.33197960323921727
-0.60202600063015388 -0.36541888639087583 0.6695157609918827
-0.12141587141269163 0.93946111044478742 -0.24363365927551656
-0.21992692814101034 0.48694426249221578 0.76237943855197443
0.13456829715865393 0.25013195455814952 0.72679382200865295
-0.21678807180786963 -0.33903052552815183 0.63124414326740919
0.20102830457396481 1.017945302319279 -0.31368892284296868
-0.54923956901859583 -0.88917101449411717 -0.3861376896163744
0.38674245914785033 0.21625153998363622 -0.036969554745652999
0.24303263267541908 -0.0044049904375569326 0.76869536510290892
-0.56958689385148631 -0.049571819869279388 0.83675205375952411
-0.60510175047281223 -0.20120006458271344 0.71569841466347839
0.57042753118545875 -0.0064179627408229578 0.60058235594210174
0.5227293700008766 -0.34740029683344176 0.32780536060252019
0.36946877010872292 1.0991915746713872 -0.43338287481054749
-0.27289475849046596 -0.11393323933645494 0.7896904682713668
0.10891326663414169 -0.14087465077927508 0.80983072595371297
0.72529297328885889 -0.3720124445943398 0.68059205074641582
-0.19436449315154247 -0.0028085856715147628 0.75018426669563532
0.26025435425931054 0.7536024879437917 -0.19957844706131223
-0.80031653133706016 -0.90075871959861331 -0.45266797038242768
-0.62700358835808245 -0.28609162459283688 0.69870323641268328
-0.6782434453675652 -0.97672476906912209 -0.44621412826786511
0.13749299175711904 0.41458201324432042 0.71749871687662381
-0.35145943792173728 -0.28068941968869954 0.78483178255396702
-0.39525499460068403 0.022493577505585449 0.77578892761106433
0.10227623684301079 -0.17892107800373935 0.80418998925169483
-0.91914184136185495 -0.17634016573310074 -0.35011160357158855
-0.15541349323647857 0.55759965150540403 0.73870938084639448
-0.61922946701679749 -0.6441213432858417 -0.2788269082567173
-0.18839777899307109 -0.2291394236468669 0.73757004254190761
-0.64692224912086971 -0.96014776616396302 -0.43487555635936914
0.21997627956580759 -0.34052912980461819 -0.060498451446390253
0.21387954606321502 -0.38243684303109182 0.65043464890889213
0.17932142137613116 0.3299852357905948 0.62462855787497773
0.083887043204072143 -0.14688885001060292 0.76451207291594514
-0.10247442661774109 0.37192567321990033 0.81621761043848018
-0.70198524393774631 0.15407068729809192 0.78152538135514504
-0.015883047095659464 0.15998476653538063 0.75798799836743491
-0.54563724284003179 -0.17137785778410031 0.74885988052238872
-0.75272454957773149 -0.15146094896307938 0.67526366047115038
0.33881667769042584 0.43051606744824378 0.27538328346518337
-0.42221274242435175 -0.75883146078907615 -0.27441591553174094
0.14412797034099079 0.74216934904249898 0.60322709436168154
-0.22494335247354469 -0.36145966354422709 0.6821990532648925
-0.90906504445201941 0.2679754764144362 -0.17684635563705142
-0.17189306943199911 0.32577905120786976 0.77238682962443239
-0.36993839511951787 -0.38845952056870425 0.66224229767678333
0.28500480697890951 1.1316358398115638 -0.43621236439304756
0.19198245474889153 -0.36987186930206783 0.047841566444041139
0.33154014195425763 0.95872543623008255 -0.38250193959740031
0.74076350564510207 -0.41372441608255883 0.65495085350553062
0.15208622428704288 -0.20565270348757991 0.80470615559488889
0.76139748774076521 -0.35196007089160974 0.68510495273098648
-0.2905843526346743 -0.13915441074638402 0.79468976786703394
0.92031352415028123 -0.19839186593808922 0.58566480135831878
0.4253030936036466 1.173145575852822 -0.4306666966394736
-0.0057870223234566254 0.26235728160405714 0.75867892705617557
0.3606475120659971 1.2682505723735717 -0.52069281771118014
0.15802839288631976 0.33475058010455427 0.70060179197164274
-0.51294986876052384 0.0057610560825844814 0.77907851017368945
0.13014382481800243 1.0749464147132795 -0.29156155783602589
0.12390097971480429 0.42824518860505245 0.72378859642414106
0.2430143793952535 -0.0056698442710647612 0.78875574722437847
0.080436469856543624 -0.11313079133575243 0.7527718641289507
0.11417625210107651 0.97767285428266271 -0.32936038912614851
-0.53491964143094961 -0.83145585708068559 -0.37423764632650514
0.12317388038651456 -0.2100540482002673 0.76545482876644799
0.71991338752634926 -0.47950298601238606 0.68323825450162756
0.092184120983441531 -0.30990881140614768 0.51446689083021013
-0.63530483271072113 -0.1102235016944908 0.76872186788777341
-0.82348535933376965 -0.6999854389004696 -0.32570281172242765
0.19990115856945145 -0.10167627781692179 0.8201400589893133
-0.6131899864136201 -0.081222488561647599 0.76366672172572692
-0.63663915008582128 -0.65756321164118758 -0.30619820769332495
0.29094676882172621 -0.24142009604035053 0.76820553466705022
-0.65599048086118472 0.043637502740087264 0.69392884958252665
-0.75253080665251204 -0.94592271988222265 -0.45878327613837799
0.21605526800937458 -0.32460958511646165 0.70013167727865167
-0.5153827318970059 -0.61152516486326647 0.052834316131194103
0.34188435179975896 0.72727915725310199 -0.27282274408597917
0.11876362544351521 0.91274642988216159 -0.24073959084749452
0.30125538981139854 1.1671234269195168 -0.44900561747184575
0.66695229531042766 -0.29865385708485093 0.73275737876371494
-0.26663689686567338 0.085411158564928868 0.78326229675605374
0.21109111763829858 0.083458559975902347 0.72044536694611461
0.049622064762495199 0.40933226857103655 0.80193076238982286
0.20536988377930498 0.78651959057693688 -0.24428146299190878
0.070615790248995225 0.57164786681620683 0.69907930262795048
-0.37602100586387621 -0.63140038741099147 -0.0042239430545026324
-0.28121498625445618 -0.40427366333283743 0.59041915211736296
-0.52962314717946679 -0.078305307160453808 0.7583871160701996
0.68076827058243694 -0.43402733650406056 0.71286103078282359
-0.51555888529585836 -0.34721425990327859 0.67716274857340109
-0.57441802044828272 -0.27022088478546857 0.70611242871493118
-0.76469599850973768 -0.87815659338881424 -0.42745350465279675
0.0099823190982605003 -0.43922870888073667 0.0074822700956909821
-0.65373671199498773 -0.89247935572571357 -0.42411700117768802
0.7214934804811044 -0.28470194555522355 0.71323574509993382
-0.034222333382491144 0.35735439353496545 0.82129675513346356
0.22568869760092511 0.21962829010016199 -0.57913469320854627
0.24673783472124233 -0.0092975862830577682 0.78705115658517832
-0.268508398317298 -0.22139905242500468 0.77985650836983922
-0.58444832744884323 -0.62911393880087019 -0.26410639238577716
-0.24805123883442803 -0.0090770725857582946 0.75571120214068088
-0.25850290591638014 0.39203021731560028 0.75925348749159838
-0.64706780912401296 -0.0099718997052578029 0.72489812689765998
0.50247874046621632 0.018318577468102504 0.55718342984431501
-0.53665699732951921 -0.33044572327577804 0.67828851312535132
-0.9616009454919574 0.037701130661147886 -0.25657617227109242
-0.60482414071017843 -0.58048797557423804 -0.38541458936303563
-0.20266245030380547 0.3392547705908715 0.77762971121941504
-0.08610727341601887 0.25759828899930959 0.76386771588635582
0.30587172689132558 0.71697840463490081 0.097728390648974539
0.15458376287820741 0.65641668950729404 0.63347719627570109
-0.67397674981634914 -0.24468668125678539 0.73449700244568383
-0.92397866941614293 -0.81478199556266695 -0.39439167000345243
-0.24382988560274299 0.55103057837441538 0.7722607514859634
0.13132166321310024 0.37843867593226221 0.71986917358996649
-0.48999394444851041 -0.37045251211434049 0.675462177028189
0.14184487908296983 -0.036184119120752367 0.77409730701642054
-0.44130934052676629 0.11310399509236291 0.69979780243823697
0.14462426770873371 0.40884543471789048 0.71400297587006634
-0.747296768767443 -0.67278255798298758 -0.30854841969168767
0.14001437148870544 0.35887972816344238 0.72450848743140384
-0.52445157957217692 -0.036344660707245069 0.75622175900863731
0.19836248310043603 0.0040062413815675768 0.79603764943296951
-0.39299377722282713 0.20837120036737744 0.61763421817646957
-0.74168304873505519 -0.52933352918712728 -0.049178058415268788
0.23419490022887979 -0.00096874844264149829 0.77582858969950252
0.10979785818339494 0.44588951796544807 0.72654297580845739
-0.45906048717071712 -0.61373887202104349 -0.21274119535086733
0.14916173574783764 0.17118064404504096 0.73819533359866618
0.60165438677289984 -0.32621510605972937 0.65855722557820684
0.19670025989841633 0.83095673347514243 -0.010473709298617129
-0.4559209924893215 -0.36360802270409104 0.67622967466549944
0.021188604851736403 0.56638663822326663 -0.6095720970726819
-0.88827549006943674 -0.681723567862627 -0.41251287201428655
0.2397856603670645 1.3126051391831339 -0.45339359193547857
0.23349560945404768 -0.036720736838845802 0.81740009512851941
-0.54990113302794263 -0.30753992169540845 0.65232338888251284
-0.19843075740671878 -0.096244633457628126 0.75558040326716736
-0.98680734890679123 -0.91477283386087405 -0.44755154343167991
0.69695843979415706 -0.68196441160959154 0.53632734300673457
-0.5727831315596994 -0.10528515818990059 0.74542130503371862
0.295020085420024 -0.19098196748418772 0.74791084588994394
-0.56852141850973759 -0.10670146928507673 0.72620514229682365
-0.30902445446336779 0.3174428200599273 0.80344239603446255
-0.57113711326566907 -0.11065407929077953 0.6996030771207149
0.43317744129871372 -0.083872192497215003 0.72258879951608534
0.31067884631826542 0.72355458119898663 -0.27174886892074035
0.20406260588831238 0.49384868941725868 0.58101234362819087
0.28186555222417597 0.10707362313998423 0.52488805064824007
-0.067804876301165606 0.55900841501547749 0.74239939729217852
-0.59833946399744953 -0.36314753021371704 0.66735531653006164
-0.55913575105525082 -0.17146129270707533 0.74498224838311877
-0.55384700472937354 -0.069565998260710415 0.73952658125896953
0.1980200751774257 0.33512719778655153 0.68514025901715758
-0.74820831068584681 -0.95130125150634015 -0.44664643818485494
-0.038469872753765344 0.21926845487717728 0.73221880396631533
-0.25988357497613612 -0.29938905026329343 0.72450791519746027
0.29380999695804633 0.36603421489183674 0.57874747230899004
-0.25343887980999558 0.5026127363439592 0.65175112157454684
0.30864783882000246 1.3162178495172085 -0.45786279533802343
0.39856074158238508 0.079587397063109133 -0.032611389030093973
-0.34838788025114176 -0.25287250577039799 0.79791522271914772
-0.080761827026172739 0.59954112645565427 0.71961862573851576
-0.30052616145706779 0.56711953050910568 0.784135515338928
-0.36548210455542218 0.42958481269874138 0.62890700210319039
-0.39438307033840303 -0.77349083089397208 -0.30523049770695554
0.82284996547768374 -0.38332596430340793 0.42764033220673303
-0.33887625947221789 -0.43993036835711141 -0.50028727716366772
-0.71284227595181027 -0.23346725457975648 0.4402003833784276
-0.58036472775720682 -0.71354821309310745 -0.33538807685407557
-0.67993858880974045 -0.99799919515004376 -0.40356811175490215
-0.096388131299903534 0.51706129885960628 0.78233534621037926
-0.02172570629218562 0.20037790072969131 0.68201660764182037
-0.44700398112016004 -0.75769163142444773 -0.30511239691144088
0.30680563105890712 0.08303946354085312 0.50339526745123209
0.7436221311199791 -0.46091849525124395 0.67990672109583317
0.030839842721969934 0.9230597203771882 0.0050152032375150313
-0.48628269288354181 -0.61870714857161357 -0.26032707896469809
0.69933422078342922 -0.40574044550241695 0.65716745926154863
0.20212247030955677 0.92958145790936542 -0.26255169641244258
0.025210093445348747 0.56506394060145926 0.71682981158373238
-0.226960281586849 0.28735897654276599 0.78440385995514728
0.19535707655131795 0.011451467599875143 0.76369240244858005
-0.39404504570589793 0.32357966214147815 0.59913847853504798
0.7164286782350473 -0.47503889288436696 0.68680864345415138
0.21950622018988541 -0.039773604848473809 0.81318890383603204
0.14402473130953311 0.53508867026064766 -0.5527007463764122
-0.32342350674874432 0.18076134407580247 0.8042145706451711
-0.79406832502713698 -0.41540478531720382 -0.35535418943885233
-0.57469039343415051 -0.71683873771611206 -0.33654199762992576
-0.44388226933210007 -0.66071235029732467 -0.28767348798449666
0.39229035839138993 0.81590165303851947 -0.32572067354944512
0.30725477734728202 0.50676263692635359 0.47485188635974396
-0.40602304371789266 -0.072968387657771583 0.79775752038006242
0.046617168936760933 0.71886815387508118 0.65653687996535126
-0.77435580589156405 0.12962657961380919 0.33014593129803282
0.13051849251685121 0.52845778520469722 0.67266368404773402
0.27059435779987595 -0.44493645489604106 0.41158593076426353
-0.57077826801860532 0.10847342219851708 0.61287933807157202
-0.45835758319484543 -0.3630236211253437 0.67422397125876898
0.50455094838997105 1.0710278585507851 -0.41638168820602406
0.27677439436948248 0.48274344752016063 0.60817332622524134
-0.42883948589194176 -0.63571922799952496 -0.22765105296943777
0.38425969648468605 -0.15248454871861528 0.031666804379081759
0.27716297792922795 -0.086531655043287969 0.77504476751032847
0.2639008587777667 0.87455444484285039 -0.31622727489986602
0.027230026574938115 0.87482697084793126 0.49467146299324405
-0.60546085797374083 -0.64144392365755909 -0.29453359480057045
-0.35789392670014042 0.43644744070473607 0.59739148331663472
-0.085916277628073523 0.24254122721942473 0.77518937755734996
0.15555004097804215 -0.041179278174072742 0.78831290699674916
0.30303082630345557 0.60381412310650706 0.33903728710836845
0.2979355582371736 1.2202568898895225 -0.41241500826023753
-0.34672231013872301 -0.27710452747832193 0.78310562602371903
0.30043690926010136 1.0001242294464063 -0.37173449838935646
-0.33766436835468006 -0.37992741888581882 0.66134697959058997
-0.48864681514794128 -0.19506275908517345 0.78567286036915518
-0.52168949103985085 -0.62358584107480652 0.0062166854784312386
0.74747397401902749 -0.45602760071549397 0.6769407093666957
-0.20365874233046011 0.19217355909933964 0.77721683674565556
-0.71582438913792856 -0.46202911417893944 0.26314149431104783
-0.74830281107681229 -0.35699046297641612 0.64813229014401041
0.71967390434333112 -0.34294216879159301 0.65717578909203778
0.39306948636894212 0.084158189166153363 0.12027546516915977
0.13958248590513556 0.80038249614231916 0.59672463293516032
-0.51514817765913357 -0.060128129045964762 0.74794521389415891
0.15998282419801857 -0.026277576196577002 0.80457844178064253
-0.16977986012521384 0.57141302040982467 0.74046400482361219
-0.60911590775955915 -0.59348388939752894 -0.20148532811185627
-0.45777895064989904 -0.60921728809996312 -0.19586292365441893
-0.50037954554123099 -0.029590414900376061 0.74434713665450403
-0.35643325444392238 0.2172535799290447 0.77841272881651236
0.062274140172457582 0.70557559516125146 0.66037643594943773
-0.85613393664522164 -0.9915239534350615 -0.41168768416877199
-0.14952079030548582 0.4986764450032366 0.76432807011462423
-0.66483669675233337 -0.0020573440825559786 0.79319665877589607
-0.4003645732171206 -0.35717344498809744 0.69694053691457114
-0.66717094448238345 -0.77384502406704669 -0.35463223834362201
-0.28354016885212763 -0.65058575770719196 -0.15100380612078135
0.19034556628368038 1.0834072485423611 -0.32851003695015457
0.37812185893926864 0.5918881899034294 -0.03575537389579897
0.29079954692144305 0.88845732231375862 -0.33284735725649739
0.1524114316967502 -0.072923614116190194 0.7877812511818334
0.17561277012813825 0.013429595263194649 0.77777590176686218
-0.43630862656043412 0.39676530468086924 0.67635623253457688
0.62481647095794157 -0.69782499851600099 0.58923942517794181
0.81225258041363535 -0.31566014968627121 0.6849100753434092
0.27958786594610152 -0.0028856763472262514 0.73395471537913171
0.7580371423796084 -0.58427009108866201 0.59784206783597793
0.39552931890970022 0.66974918063249445 -0.21948112501505124
-0.57318230011143889 -0.62753135248190084 -0.27018489368950105
-0.29844536088622675 0.35012163172809063 0.68305435090371702
-0.072296907958997458 0.81082627983227362 0.32638344149229614
0.78199232150322473 -0.54752852532993046 0.48850442635042768
-0.30661992347338263 0.085176121145794426 0.78940520570031691
-0.18443466872589909 0.4061292056704886 0.77281340668353948
-0.80634778083266312 -0.96579159985628316 -0.44020201996063246
-0.52046694872026134 0.015646245328755803 0.7730099147497782
0.68952702461066906 -0.07278383163907165 0.52697081311587368
-0.85678434598276709 -0.97407928517417419 -0.49994872947331226
-0.10673701591265505 0.25873015450865644 0.77542605167804179
-0.0052888688596262057 0.3184163425979083 0.79365606165890057
0.27957142900739385 -0.0036221842409860372 0.73383162693230719
-0.71880805937391301 -0.97490311808238062 -0.46077212987898264
0.34194187789741193 1.0473460537919834 -0.39750995057831062
0.55655910891389992 -0.52094216812083971 0.37528434284691969
0.24437265332854352 -0.25960356655970429 0.73451953480916643
-0.059331801775460491 0.38427225898010153 0.825107974207274
-0.5828824848681915 -0.65881739171641662 -0.31676616465512097
0.87569960509509581 -0.37496803606751028 0.6135533023633748
-0.24173306980014475 -0.44311886518854071 0.62667839958690363
-0.093150499106466 0.63650638903283951 0.63783017555068078
-0.16705173286060138 0.94032921610345332 0.029576771391092826
-0.012085228666130376 0.26798067928432534 0.76890557808362558
-0.34054909401484812 -0.34356255094668786 0.70794171687132701
-0.22804436201328571 -0.001057340846346122 0.66850306583195973
0.47138130768568942 -0.53856301140419305 0.68881906234762624
0.15592655518234722 -0.22160313145666777 0.76253762533927549
-0.80220511997999555 -0.66435977963357296 -0.28482178581596029
0.72646146207830498 -0.44120719677381004 0.39823142991130567
-0.72814069385849933 -0.6676491785469798 -0.30308540398291628
0.78087993508054154 -0.086005898312087936 0.56646845549433777
-0.14671117203654838 0.27422830630834127 0.73431083913523043
0.40411334099635354 0.64729192017559356 -0.27416473112569051
-0.25138048439785976 -0.066707643819735818 0.76535962498265064
0.48471226142810009 1.2439005331259441 -0.49816836383222107
0.38670360731309783 0.44012138796121292 -0.22158673097921167
-0.26486405850067163 -0.27830914510313964 0.72601162778713979
0.81521163698543875 -0.40551621502722401 0.66384345496685659
-0.24247990091510374 0.44806704966356925 0.7711301374722197
0.39094200319985717 0.1006485904964336 0.28434529018845822
-0.22585063587078125 0.0018260858192316043 0.65964262865015399
-0.1900101060891668 0.24920174441461151 0.77164455797705145
0.32828250909367895 -0.25283988196873608 0.75453407606782008
-0.046220679090875905 0.52877350889353103 0.77233942551178103
-0.49179599245919547 -0.19121842923822197 0.78496372975756312
-0.28774140528592368 -0.70922747504576533 -0.16555728258091715
-0.093832079175250271 0.26629332896025915 0.75988334031864113
0.19731817081464298 0.83513362782294664 -0.18346193014209344
0.29577737467400134 0.64608887864247022 -0.39108694078078643
-0.29837852985614965 -0.51031009274229011 0.57920127540924271
-0.27389426387882665 0.3458901643550707 0.77573980131180775
-0.25440098601951888 -0.062824010679472408 0.76729672334874266
-0.8788224496965924 -0.88379963732780586 -0.42325010560049936
-0.39081017334080315 -0.69875146721696169 -0.23965651658118348
0.71540338259568514 -0.30881443643676931 0.7029666984446834
-0.69745764428975154 -0.34954718995317646 0.70160571933787874
-0.6376569171297084 -0.41257583863229419 0.66270561324976507
-0.056588082235426107 0.23012405390608848 0.76500407268294524
-0.73236321866023446 -0.50280123776956998 0.58135407713001652
-0.97682370667379015 0.046819547730875932 -0.066156032204242265
-0.44708684442939273 0.17749373193746898 0.71273250018245449
-0.22293165779134227 0.42298617911694336 0.76787678173509732
-0.44361106979772913 -0.1877802368985213 0.80670607483418899
0.48758222394224082 1.2432398489839531 -0.49472757376062931
-0.61267201458586928 -0.1547118234834457 0.71923267251782796
-0.26252360488833559 0.70784788068665705 0.71147911502825956
0.00046665352613217692 -0.11274209927554213 0.77350671526515313
-0.47643780533514857 -0.82571596546527282 -0.2892042955976839
-0.93783800759541691 -0.84500897011302456 -0.399000405840372
0.66913720648031827 -0.48921776901962488 0.70611533780250113
0.063111783616836448 0.39305060259593372 0.78234319453801149
-0.55476598129052013 -0.19206098695641671 0.71544322669430116
0.018348781189336805 0.63407103209188653 0.67545791838233527
-0.44033806652540441 -0.68616828678858788 -0.26489073878360792
0.63232766172275978 -0.35537148186667267 0.35815402819705766
-0.74393599211263428 -0.052380604554238319 0.3694528096118147
-0.33896036829575849 -0.0071177815571328296 0.75712270194870079
0.15081284095377789 -0.056676653281867884 0.79936939065068557
0.82334826568335018 -0.086825204776936005 0.5419694409981517
-0.63801658616551293 -0.82625782358239519 -0.39645356333675785
-0.11213361325078175 0.30657761276535744 0.78776491327141507
-0.51643524786191364 -0.85836082762895138 -0.34561956800715854
0.78259468135531662 -0.42076066750897922 0.68305300735412078
-0.70488714234261352 -0.63885533815657425 -0.26507822465869424
0.034209506193394301 0.63267594846760922 0.67720453365377864
0.38623889881604168 0.73654067295720083 -0.28651962971281719
-0.65066806375577002 -0.66041525474625073 -0.30512920745558247
-0.4967356355722643 0.53091657209006904 0.7490689332987186
0.060247908760673319 0.62833748410978529 0.68131496181924334
-0.50561593800975757 0.42273535232569309 -0.66546091140449892
0.68620330103836125 -0.57617086696270903 0.66622793377660416
-0.32093736411354534 0.11592741265548412 0.78624549346640382
0.42081735227966716 0.72057144575509269 -0.29466155561146112
-0.066064078542435567 -0.20880928869569537 0.74448045770349225
-0.50068494604000335 -0.3136187240154662 0.69804426339499381
0.40673728550733579 1.2100127007277388 -0.52270308652548203
-0.49139279051705387 -0.64124457959380576 -0.2976769092808691
-0.53416254694498466 -0.3933937781699286 0.66725470717644897
-0.16099669368128389 0.27779201274995824 0.73233035768896215
-0.44764114243664288 -0.273419494448504 0.76849564951030835
0.6878980131971133 -0.044441382926194706 0.62010077793827634
-0.57684612392924905 -0.011043032508970541 0.79320659086541312
0.11826768596066017 -0.1337921813145373 0.8007760004120783
-0.11840868676095084 0.35340023478409677 0.80671204248244521
-0.1104383119034722 0.27916979002623776 0.75766815598134851
0.52757987387032534 -0.13300741534244764 0.15334647573285221
0.18359696756435717 0.44182598553667063 0.65156468603711382
0.018453539052034396 0.18119058298440294 0.64566273125340601
0.15800935644628714 1.003581089402021 -0.25931416646203287
0.77081538417917939 -0.30199973022156001 0.7038940742371913
-0.32125183525769746 0.91953609979783213 -0.16387464907061783
0.12761166460651202 1.0022260600842865 -0.25035758572676176
-0.54781518773819204 -0.049640664737332862 0.8021353360899468
0.16278934141704049 0.84104286798554173 -0.3753901612345496
0.10681267585172449 -0.28026569468054774 0.66981355687891586
0.21844350769494714 0.002164482033563786 0.78344680869185612
0.078984745121555733 0.44895251021948646 0.77572784724070232
-0.20846794532881052 -0.18788695041021741 0.7531479366419358
-0.36661797977290256 -0.44192507010651028 0.65150291270320793
-0.77248106027735997 -0.57618466940600133 -0.32335456767731707
0.59906403443053868 -0.054182497784082351 0.41295108650076173
0.20198104758413571 0.82249301088793036 -0.13875107688451926
0.36545726795952377 0.6673474547292878 -0.21277801238308802
-0.61838698560547911 -0.91422003415199438 -0.42120171863179956
-0.42503370877178881 -0.031187179902153694 0.78676809518338686
-0.91639971546444166 -0.29477945850162435 -0.24813449009026423
-0.37005402314102298 0.89825388278883156 -0.082488219129009721
-0.32111600280402897 0.86566735417943974 0.10669454461450023
0.070932365790154606 0.64463275691026922 0.67667570243475517
-0.36858523122766229 -0.047148659644705049 0.77301646824333625
-0.13362533504044938 0.26839959097468835 0.77114585020600623
-0.22783620867294019 0.48081329141746387 0.7269331871672513
0.94612190034612098 -0.16925279374976299 0.49539341717003182
-0.12658962862704654 -0.5134680220985508 -0.11594228611447352
-0.22745109073446912 0.00082256752601939098 0.75728715843152727
0.46394840726007303 1.22575394016053 -0.51859507737200516
0.18221584437130645 -0.11467452966497049 0.81528896673132323
-0.62679808871079246 -0.98862554121632673 -0.42176320048978333
-0.015723913859538641 0.2601695951551406 0.76029463417805232
-0.55285415153675999 -0.11611151203028136 0.72919079474969628
-0.30133639302056459 -0.25521814910806206 0.77568226481310809
-0.057339735919306634 0.22335176460089556 0.75424105648674455
0.4114595460185127 0.71705938387227719 -0.28460248479334782
0.25598506931356324 0.8517648221921057 -0.29956577635967463
-0.64350620215589505 -0.35887745346506827 0.68049801250209008
0.20465348057916088 -0.0033494715212993853 0.80434485235230291
0.55425969995396818 -0.22300568803142351 0.33884386508160969
-0.098483565988786381 0.51349683731253215 0.78640136810208716
0.25182751215400501 -0.051391552372883176 0.8105621392677973
0.3622543581855826 0.62462484823199849 -0.13409776220722813
0.69991352709766597 -0.48970230095627598 0.69638248513286882
-0.50487175455327993 -0.38575738264093484 0.59491357445527837
0.19847410415197952 0.84271977008601484 -0.20373206567626312
-0.36945412437474801 -0.70705342337931398 -0.28982235891772734
-0.18442535772464197 -0.094327258676955017 0.72227226550658941
-0.66162116407370064 -0.88312657306721576 -0.46983628469427785
-0.57717723022222556 -0.072565478589515342 0.75435622683116144
-0.71586879737406406 -0.85041949114287974 -0.4971444875084563
0.7300458108080754 -0.30996998430077838 0.68878891171708068
-0.047875498028616903 -0.11814064980661931 0.7652243313499909
0.1324719903951177 0.41628448289597131 0.71523276525183199
-0.79204291229299173 -0.82146964621131513 -0.41138644089516063
-0.63794386792552493 -0.13664654654114461 0.74856855065532457
0.25420501575715371 1.1307142735978515 -0.41607034303114221
0.10921470714455417 -0.14021179631977354 0.81591373493333474
-0.11290200485266144 0.18007164508925033 0.75798251675603145
-0.50193858841070949 -0.60655499050472272 0.097434433398483622
-0.0064660269768863632 -0.36122921915326955 0.43182837713810596
0.10800809130494826 -0.35768438626300109 0.37444528692047441
-0.11126242443088508 0.42336091549853094 0.82097797837558772
-0.55209408226452084 -0.84910575381849895 -0.37547511171683323
-0.003861609772833674 -0.12505969427376074 0.76637150751120942
0.79925229730213765 -0.35493921433623044 0.69057088439708991
-0.37590311776041574 0.23685389302462889 0.70976837404555226
0.018919498355215225 -0.29877022921027852 0.57836132430781539
-0.21666314372231482 0.53442180222986857 -0.67297687682206497
0.67301011620633489 -0.10613427747759729 0.65340107888221866
-0.26633369745441371 -0.058441714799206679 0.76632112100647021
-0.21312883408393901 0.56287389042027058 0.75109300285720382
-0.8522025010025267 -1.0335741700425745 -0.50313394193187921
-0.34144805343621831 0.0096389734122497295 0.77195703545006289
0.30737561484194975 0.0082609561211905991 -0.23671986315556093
0.10852970957151276 -0.14559554214308124 0.8095263645048334
-0.059944468643519766 0.21721122331305764 0.75023294980734434
-0.35419017699589078 0.82894000479812946 -0.40709305105520649
-0.28127103846996349 0.36852609373407663 0.73664739876780772
-0.64067120822782964 0.36984728760589197 -0.60478185876909274
0.032494716097218657 -0.27571531667675941 0.6196345069510194
-0.048898827057300309 0.17576975248874405 0.75387767455782928
-0.35365568128960057 0.51342264507170032 0.80136628028851487
0.23558542988810238 0.8540455731554536 -0.25701260893475109
-0.60905570190820324 -0.36789722684065174 0.67197555268969422
-0.17869958272925146 0.43384553955477401 0.76263109696012066
-0.96920149693259994 -0.80983533938789787 -0.48099061946500221
0.48560555855618015 1.2435913181519183 -0.49701765017437882
0.19457075540914204 0.005952101094301554 0.77370980478163931
-0.052621488788870963 0.22578213729354601 0.75923129812736434
-0.18894130885747629 -0.32673170133834883 0.6942496545580541
-0.38086418793220611 0.21060601419205405 0.6933231490223335
-0.4304825420473346 -0.68235638508926311 -0.31998759474949923
-0.19566048178433348 0.63209467809811315 0.74906866010827722
-0.37937013327014291 -0.47455028710806246 0.63053110649260979
0.44867876645596616 0.63049600548351026 -0.15781537026180359
0.92054494676526655 -0.19879326330190647 0.58499802835288173
-0.087554884888048079 0.38440419113126545 0.82032201079189448
-0.35019124322654704 -0.0016172835905923222 0.76333078853593217
-0.24021777025588875 -0.073976576601171296 0.76055580337186512
-0.86649859457660128 -0.68929792174053617 -0.31001059197312308
-0.48130451503735472 -0.92095057215857246 -0.4067210913102155
-0.30016076424742089 -0.22997400493123621 0.79538646273206304
0.50080391160693938 0.76751533024327157 -0.23407190562966035
0.4587208364078208 -0.60890738570867597 0.60402908463714411
0.77217218519007602 -0.40185335462322769 0.69089125771050652
-0.25295102375005918 0.85210035578223775 0.15295301089992641
-0.53058790679196743 -0.041246914785124211 0.74473910012373423
0.67600947530999811 -0.63903549047582686 0.62901006635801249
0.51631409237710457 -0.6560032092040835 0.44804307727653736
-0.86680508162383774 -1.0309958810069944 -0.46179286830652799
-0.71221063872653723 -0.037850404000977278 0.77123081200665666
-0.44079412955597491 0.25425277326592816 -0.75236984721876765
0.71128217256817505 -0.48705064082479765 0.68939770997830019
-0.21520824953950779 -0.12867604616274519 0.75963162696339737
0.030718741920653159 0.17045430706750508 0.75163469062926325
0.28667094388392389 0.72976670777548336 -0.23960870454997441
0.64506076212606089 -0.60824840991489082 0.65958714415561603
0.4572455569195526 0.021474887509874918 0.45680268463473794
0.15572099564871777 -0.20647665170464613 0.80499466093556649
0.16334464350059541 -0.030197192244966864 0.80774978321322877
-0.4572979961828616 -0.47404767195240782 0.63295047710778851
-0.41984938997208232 -0.0080523772462992582 0.77558328712791291
0.11777803626719091 1.0465822222526933 -0.27959882048758544
-0.097503508575687903 0.63919973009503206 0.70675564402989188
-0.4167219654130534 -0.61402571937187744 -0.16370096209685236
-0.57813556364883212 -0.22558108152428746 0.71849465483601094
-0.30381361541803642 -0.053977161778789196 0.7623068614224584
0.73851805304411045 -0.6221312201399698 0.50588819388872941
0.61062946682103814 -0.67058936736951491 0.42063071581070854
-0.46899953216219381 -0.52779937996700999 -0.44096375947521782
0.29936687428933695 0.25700313924912122 0.49965080774582282
-0.75675656037306804 0.30554990631012774 -0.51329628053134746
0.33092636803166542 0.77738142083311246 -0.3210119229039563
0.39311621691679477 1.2026933411460394 -0.42753148187059509
0.73588634013906784 -0.45058877683983933 0.66726021166266314
0.067470231544586312 0.64352793144995246 0.65081158616079549
0.75134459184932734 -0.44856580668739987 0.66857440092014997
0.62295793243165498 -0.67061068343158226 0.6156464166463862
-0.37656449296756778 -0.33314711243599082 0.7214606088125961
0.29082089529823918 0.19900065283903423 0.49586575486642914
0.047080079769528105 0.28506665443348567 0.75857176036293494
0.36473089205674691 0.75715274101324292 -0.30921614566393479
0.39145138214947028 0.5509526177254126 -0.069212325254960128
0.08870417722670787 -0.14996993903717915 0.79870906839710543
-0.56728243069939133 -0.2344321028609464 0.68475056013580371
-0.39228124122550412 -0.08959601427032915 0.81440142714266628
-0.086977567264645783 0.62488043970405016 0.66042103352299608
-0.14127103175284006 0.53395833176723428 0.75214383316720301
0.1738662436932592 -0.38545130309130826 0.45175184953485648
-0.52357708426774074 -0.069163554251051806 0.75829571375436977
0.33261075208422741 0.77718536943498595 -0.31731320792764528
-0.5150065294984234 -0.63368765692175089 -0.32723440942971571
0.087911253547559909 -0.15867714037837999 0.80037919616644615
-0.23275625509003461 0.30236817039693697 0.6730551976553576
-0.064110821301760268 0.052527072992061719 0.74411732920962947
-0.063875818337052692 0.26696667038399546 0.75474079579680975
-0.65107412728847724 0.093271889456579604 0.81489776048151086
0.22975116032258658 -0.071999304339785297 0.82456390036051985
-0.27965014713487335 -0.16811073146512712 0.80467689784647334
-0.092262850731703067 0.21373377923376646 -0.75484005271055143
0.13148155936553962 -0.16800169695622102 0.82199845726491994
0.34575869576053009 0.28669447972470508 0.24228273466415828
0.45203496519173925 -0.33408344390749001 0.73636309860280846
-0.43842291952630319 -0.81940315996205015 -0.25272843722713256
-0.86646310476980126 -0.91247748394075501 -0.44653974131152463
-0.13910922160796702 0.59551830388821203 0.73104320967923542
-0.61574428615361843 0.18852082739259401 0.72878134303054054
-0.10539875773811147 0.95901432074933224 -0.081724374436649816
0.43454250919615633 0.69906434551446761 -0.24779386368554768
-0.19348758847860736 0.38999381479997197 0.76617553133285554
0.12810358292731294 0.37598813948452126 0.72424871959671044
0.21431300146226206 0.34913592581185804 -0.55942379186077462
0.22203474910726806 0.76313078916254229 0.30489282888744818
0.19837629033323978 -0.18834677432956504 0.80022781684995792
-0.28664830280872877 -0.051719186587996901 0.75684549892462272
-0.068741574179597364 0.22915266678112189 0.76621352016405098
-0.23181417585568909 0.42015906842431328 0.73749563680160435
-0.5012993561857737 0.20714528824380274 0.56310505446965919
0.11611312822583209 0.35973286597361565 0.73320063022183302
-0.44345605537841948 -0.68014949301450045 -0.26795380116420375
-0.52929638868674811 -0.078811975753374952 0.74956057199183546
0.06476195634230919 0.54134935906963655 0.7173200162987925
-0.66566877926198886 0.17546769087819158 0.75608787538181232
-0.79703035442281323 -0.95094076948926087 -0.45597930434116218
-0.031393462460886923 0.85174241853035171 0.6365127136095996
0.4773162164922824 -0.29883308123972441 0.32091010061251302
0.72206404012489855 -0.49875251361309836 0.69259247819855663
-0.34870955115938074 -0.050341225332951822 0.77146129951943454
0.062429928398378465 0.00024669588848524882 0.75033232730026
-0.97145355645523601 -0.10308823536450351 -0.099667086630217616
0.23044242474744259 0.31155941527834941 0.66449924160102913
-0.068222366562597614 0.88027483459095812 0.18983829551909515
0.75156792518590265 -0.057328566443395346 0.57771272455206457
-0.5939727539117321 -0.87980440064661813 -0.40321481364431477
-0.4482814515241067 -0.018623532073906546 0.77016057843326458
0.71513486919330305 -0.48408313036320472 0.68710107190418146
0.68814355073194378 -0.38850693605754216 0.67907351522656789
0.22141882180858019 1.1295203175882182 -0.46933038222239531
0.38526361575167078 0.76479112091388002 -0.3159956015400267
0.093759279173232457 -0.23985380585789784 0.70768098303729943
-0.61891712055071046 -0.65442255112735426 -0.29031173000168398
0.12574667577401755 0.42324656215163747 0.72151391036560497
-0.22658515856196715 -0.081288448732065088 0.759562505395877
-0.51631957674330076 -0.053113464952231126 0.76213910712425914
0.077649659844670538 0.48390227014593812 0.74584344496480526
-0.26124190606111908 0.71073029179656189 0.71118976983205862
-0.77114529237067253 0.44517679617951267 -0.3839329518734047
0.0184113872699605 0.39138495582304733 0.81099685347487593
0.27999359231746723 0.51877426668990623 0.5948409950620146
0.34272861855331682 0.72698655850789828 -0.27351574753572727
0.16604004382660875 0.87940823589238448 -0.30798861260391064
0.87361000243751974 -0.36149602364162137 0.46100332159054391
0.19764030195431026 -0.0040370194573320362 0.78939068248676314
-0.556707567174616 -0.70248450159259512 -0.34314655899230306
0.31716927451255117 0.36763954687745226 0.47632257425954094
0.40949418927590386 0.066837361481166369 0.5085682951739372
0.30995931070741278 0.13888056592886144 0.4633578265831062
0.76686727669989807 -0.37930961613519187 0.68874645847203464
-0.28549391994440754 0.51739942586712351 0.72158071592508932
-0.027480446198618003 0.22542487866592609 0.7342836549873244
0.28974429166207871 0.30850948622132451 -0.45203783322601587
0.13971901994014679 0.43311722805168529 0.70020563336785813
-0.40563871223333337 0.18527474838395097 0.75697061965696832
0.13867754854123859 -0.18512279971055889 0.80778433814225581
-0.15143077866304999 0.30310925116772514 0.7672250030871135
-0.74025878693229075 0.053227950927087875 0.77125989418602359
-0.11587964930997607 0.8081664664420849 0.60611554887140073
0.7684160246496855 -0.36422109856407425 0.68593444903852907
-0.41781553777819802 0.33635222944714371 0.55175468424403107
0.026375000871933452 0.75821686226455132 0.67472174077791536
-0.51697832125976895 0.031442631256840992 0.78232086490827202
0.077831223612822242 0.59631939975886716 0.66813130192981873
-0.32470649753857428 0.28506961804213304 0.81788086237825297
-0.29736705764542393 -0.012393214116706019 0.76986242774608371
-0.13551282272685583 0.29759421614297477 0.76523574354501545
0.31864411226003497 0.69709291840456444 -0.028323326898949119
0.31659514127969146 -0.50038244684451172 0.45090138405118924
0.61304315051788905 -0.53412408831034952 0.69969405217002567
0.42784637995664099 -0.2107006821347035 0.74227188374206321
0.42431055003407803 -0.21072005282297024 0.26780803158221234
-0.55282511618014496 -0.881398076360421 -0.37557778485504234
0.066493062065967168 0.62779416433948132 0.67125207271309151
-0.46081463002680678 -0.92226500637634956 -0.31671495140510414
-0.15062633194169806 0.52273133643964265 0.75068122534567916
0.89247137553788369 -0.36963830436747214 0.57644987436247486
0.14563325227051216 0.51742067001809211 0.67635366177954648
0.91472821204735055 -0.33452224396275554 0.52790997116452942
0.2097250544205842 1.1254793362672757 -0.37008684524773372
-0.74468114411617847 -0.94668484215787352 -0.45928936741658521
-0.15353013165186713 0.42955565719078947 0.78125061679362595
-0.5181971019381959 -0.35391265581879328 0.67626565366240032
-0.51618345178679093 -0.35802404154376877 0.67595701597198854
0.19082752820963123 -0.42133119650198836 0.48682602309488132
0.12386257105284937 0.28849125155623412 0.71878776249860632
-0.14624176046295645 0.30855989276683182 0.77026049123290452
-0.40519894737447038 -0.76415399358038005 -0.35722185946366647
0.015441279081276349 0.65893768762335347 0.6817748552235976
0.49253953105437809 0.64446301887845081 -0.17709061224246136
-0.53654397237006668 -0.34224042448337388 0.6803847018280812
-0.13246037028408741 0.39319197725808763 0.81102396591821702
-0.2827935264681205 0.12356454563897046 0.7890313170789014
-0.44661399035906868 -0.87162306663116773 -0.27394696051761747
-0.25258939272552006 -0.61621785083108294 -0.14520473594358924
-0.039505432273437613 -0.22244575636535746 0.74102175021870664
-0.22751555915849853 0.35459672552384625 0.77271832636397875
0.16096195509202449 -0.032602959573418744 0.80772006901854798
0.031022239898113924 -0.13480454239311879 0.77923163390543237
-0.046606520158157139 -0.15763696028222718 0.76233206709216006
-0.85001472954057178 -0.99383301624712495 -0.41982213807947266
0.68856566105201544 -0.52874720471608327 0.39506551676139168
0.14101286880452385 -0.028305393505798859 0.76743877312924358
-0.089048555617310399 0.57106042864755757 0.73126434639586435
-0.77948801273422674 -0.49104196025237812 0.029157090514199957
0.58445853324744235 -0.29912170711627084 0.73705298440534861
-0.44894709907757729 -0.57977099256983589 0.49476380436713552
0.75355411171825537 -0.23351427929034685 0.7422565717431393
-0.72773474646518677 -0.24436146029997174 0.51907359864005675
-0.41953710632120256 -0.75984406356166279 -0.37251701966153128
-0.70559583631448675 -0.87300379001187078 -0.41760095031681277
-0.64562568283202992 -0.53992613032794401 0.40010591748476904
-0.15920290921656033 0.42931356501045048 0.78183618624016071
-0.46963391966289336 -0.93146802850544219 -0.40623943144735186
0.11823950224612956 0.90879295383518754 -0.23876387556466216
-0.16089129775810562 0.27106459735574973 0.72651037154285802
-0.29999468133055274 0.61494155456201138 0.78216979551372656
-0.28278431936657 -0.12014096310557154 0.79104449992142634
-0.075061357772424842 0.40579638563333642 0.82485899326954382
0.12925963798363282 -0.037695767884336817 0.75791269044089393
-0.35719144849192475 -0.23776715969202122 0.80855584858012342
-0.30091921260261856 -0.032641791889226113 0.77136248865857215
0.14260348635227427 -0.085956128898225348 0.79723748991940724
0.0042317293895830499 0.67907524233275751 0.67046186981589351
0.0022439876788844515 0.6277120400937708 0.64814312310543798
-0.82830529053218527 -0.76787058152881116 -0.41429924823715014
-0.54915362659551192 -0.81602776532924715 -0.35549948458777658
-0.70287554883614978 -0.17290857079312572 0.44435817757536089
-0.69228227773267847 -0.47353019580966882 0.63176079077557867
-0.057536117774905193 0.23314206017688122 0.76288996021530764
-0.19949936626562748 0.7156433237255404 0.53712267325116958
-0.22909390660253237 0.66623979571546776 0.76170573321594182
0.54715351119429678 0.73766082895207075 -0.25591734190488347
0.77519141421604765 -0.41134819223088748 0.68161301536529351
-0.97260893593477249 -0.814499024645432 -0.39161926546833037
-0.21321303783821688 0.28916788452393805 0.77383141474319395
-0.33282453002539114 -0.028729973924875196 0.75574130689210817
0.15998787762906552 -0.13752292503430397 0.82497311024049935
0.59204782596027261 -0.28498836358580215 0.73415586953095335
0.51060290063593072 -0.51550730322159488 0.70287759545104578
0.2468477853032871 1.2772170142461547 -0.49186801967582561
-0.79975660506679702 -0.94671483182229288 -0.4343039249760281
-0.20096524055488985 0.40108912535414554 0.76628865478653641
-0.69791761119003315 -0.78038853986581813 -0.37442976051265786
0.26387679499513195 0.70415513107027028 0.40170481462316276
0.023110871795491761 0.34969214345321964 0.80856017577952599
-0.66844277942341535 0.16999212591840163 0.6784146952468717
-0.95096525377957875 -0.20862446928006939 -0.13171509308888529
0.85779557556151609 -0.40299571354256969 0.62018313162897343
0.89088192983589032 -0.31322774085651361 0.62024621316027706
0.25928660987017904 1.1550212211185211 -0.41680808075211834
-0.20202954777785109 0.12638721349568272 0.77248792181490911
-0.2244889133247181 -0.23766748404254567 0.74257550209195955
0.088074280343975353 -0.15626345769762118 0.80281620004473453
0.38838631084824815 0.66147423687613061 -0.2972421503745033
0.44212449369182849 0.032103377827578328 0.41458811592601563
0.52465311064908704 0.97100542397851974 -0.47126928906915166
0.33276983363904789 -0.4491217080641583 0.38665768163319036
0.14138951105747566 -0.24514443191057911 0.71661183936531003
0.11170479437422642 -0.14579326415206673 0.81010518414649013
0.50661099227313144 -0.17082269596708333 0.32672066899638708
-0.72616045491904946 -0.41758077455769177 0.33926757753933984
0.60193966996163928 -0.44263290833607849 0.72738882990267406
0.16615505217209847 -0.38622738465852002 0.52621263617416858
0.26611285613129532 0.14406793899245685 0.6648410199635757
-0.81589523549403253 -0.59291206792106266 -0.30637607689035207
-0.53529960439681368 -0.32540950664601276 0.67468733368415801
-0.68408540783998006 -0.70861929162054338 -0.34992943679046817
-0.40215212969448189 -0.010512046731031788 0.77479246524386836
-0.34990564477126296 0.08380642826247979 -0.7707444615009893
