# XYZ point cloud file
-0.86351742119932062 -0.20709937549277235 0.15571752822496837
-0.64254188621105968 -0.72281384863961939 -0.33812919998949553
-0.039214281672554918 0.50300629796682017 0.78280930744139354
-0.028652377657323314 0.19428227588443647 0.69742158066849136
-0.48480441767835813 0.14136750195141801 0.66533859450668587
0.1456922170016135 -0.072912941862695035 0.78411390519951141
0.40092863634520626 -0.58683979364866445 0.5553323206377101
0.14699975967341139 -0.099195737562540742 0.81348024868650626
0.14383805199009425 0.87587893061811517 -0.067091561881079009
0.38488470525327134 0.57756377801261249 -0.076864635760076183
-0.13213265966014553 0.39413930274523246 0.8063472518621122
0.72318300900522203 -0.32204245843874091 0.66731064847309884
0.49309867199252722 0.019766214559581829 0.4859235357749796
0.11268737290347275 0.4216795907887696 0.72383253226061584
0.36432534181852994 0.6444571495848086 -0.18844392244394825
0.19846079546458043 0.075924520524045525 -0.60359672480835114
0.15347126660587129 0.52030039825094221 0.67031436851824111
-0.076621186873174985 0.59559922772713314 0.71634470217125212
-0.63989553497348695 0.15223341135886415 0.78394055508939875
0.042580938439074512 0.29202096786859322 0.75804872974444137
-0.15064645235554619 0.75346964507852121 0.71497079140826347
0.3584357403795515 -0.52044072296760646 0.44208223825146709
0.036456806019038446 0.74811040998761813 0.66491098418825345
0.13140046841720832 -0.096316661104058454 0.78303815750710015
0.0013206553280866729 0.53212650663536876 0.75627733223936655
0.20495613582909966 0.014783169893503256 0.75891109357771613
0.89683493413518534 -0.26507771130625835 0.62172938798202715
0.31542998448722215 0.72603995963883927 -0.27626545245869494
-0.47292143966285105 -0.36551298242700225 0.67841560401374701
0.9135058059245722 -0.328653062179324 0.54696124033577931
-0.72719366036766897 -0.004854333341846262 0.61994157004902295
-0.015879758293766866 0.25341549371490935 0.76381497025805078
-0.22982562128899531 0.48242722225543133 0.77039991764606697
-0.38926144074173452 -0.77330977688319358 -0.21528146807947302
0.30378480557647869 -0.068079412929835215 0.75774574453343035
-0.14891672175588955 0.48437906351507021 0.81188299316230328
-0.97313808969915883 -0.84684576762933261 -0.40289146104905882
0.51659627017003173 0.90060779668122848 -0.34748158005470753
-0.32642358955709394 -0.29871961668568225 0.75016000268966687
0.88984979432976408 -0.33704619559164573 0.4645023797164316
-0.31963007374264296 0.57750264251600081 0.46448353581728741
-0.28801158275030403 -0.050504708488603001 0.76825535961983249
-0.089319184455506129 0.75396811655134366 0.71882457634299612
0.28503913375786993 0.57283413512096182 0.54103348974847165
-0.13057668037216974 0.45447445350872684 0.80565449677852818
-0.54293102004707983 -0.82204031363947028 -0.35045403734519365
-0.10546170113030762 0.48221586118235749 0.8018123170496807
-0.55226306620708954 -0.032540434647193806 0.71721281346084531
-0.416452441415462 -0.69417293489773968 -0.24784397792895163
-0.52691181988673108 -0.90071007368937828 -0.37571080339006357
-0.66977436519787759 0.16978118774320361 0.76400661954392213
-0.65944505623473759 0.13723253366530602 0.66195667242518041
0.35382059671347221 -0.01939415890865126 0.71101091926264348
0.29148649983998598 1.0920661140179595 -0.48682854910570605
0.20904642774542026 -0.17549817415219948 0.79037832398742225
-0.2129035669504562 0.11797342511560416 0.77329968090178802
0.28209783939027666 -0.12556913131101055 0.76981116484740664
-0.59574314249829941 -0.57607565116621495 0.44876036075121051
0.87292126518316815 -0.26733088222179857 0.64330727072138094
0.24001824817746398 0.58340852550387723 -0.45665480503494837
0.12385231668544705 -0.14908789332790051 0.81502029178874835
0.51241925287035883 -0.056108051329074371 0.37022051883451823
-0.017648385999319061 0.51378650055553421 0.77238945182504803
0.71066446358264379 -0.56382705545150635 0.66680503258513624
-0.013756804663325184 0.32726542257477309 0.81021371693854505
0.065442342177209997 -0.4045190405807369 -0.23541878293240726
0.068962071954257187 0.91552390710929099 -0.1337498467173841
-0.79069141454617764 -0.99007838715834229 -0.50439184096792555
0.48838491886912649 -0.43910590410895978 0.72295506224963191
-0.26613700048712374 -0.049823062416646025 0.75943106149167861
-0.55616857373429696 -1.0096403825788656 -0.41516732712726068
0.30941998139719118 0.46350377222230321 0.57281139315784912
0.35257197476517366 1.0380110976221459 -0.43176549866898384
-0.022623130281449022 -0.054521640821183937 0.73953922412805895
0.46705516033621741 0.81423167711816768 -0.31920440740092448
0.42349962528927954 0.039624532690243686 0.029265232192017931
0.48652231008186675 1.1088411702028882 -0.44510826959648719
0.32169898483233794 0.20290657814009982 0.398880898165487
0.36999903491243025 1.1762403155158028 -0.46045427881860235
0.15845026295110137 0.8367031415345213 0.16479688964604078
0.17384258006017439 -0.34276884686989462 0.64612626628140513
0.69558312001695399 -0.062228842945814877 0.45758641755107954
0.2689186045597447 0.087487245067415564 0.60143660289021383
0.71999336794432978 -0.32943700508563012 0.66064052741871304
0.46163892579913413 0.71165820786779532 -0.19441815976022792
-0.45000290471476134 0.39712699185921974 0.75618381047397065
0.082941382632771621 0.64050373225832846 0.64835936554829665
-0.47639544878819995 -0.11643149331066027 0.79316727932618258
0.1379437491416553 1.163562960824656 -0.39727677756131285
-0.4861102164204647 -0.64585956552151913 -0.29259269662730603
0.54925365336823884 -0.18151289359670386 0.73383301519706734
-0.28690298697545913 -0.073213659245926266 0.77125539160473577
-0.65889684349654942 -0.58808702108417954 -0.20315790537243261
-0.0028204738072616919 0.094691683752269995 0.74457337582215466
0.56756026895302547 -0.046854937004121133 0.66512320002007996
-0.54720884670226155 0.019786671845350767 0.76811390067514296
0.62328322744161468 -0.51859449265720237 0.70984538674428421
0.027772925498757761 0.76122937930758994 0.67290001552992429
0.607911983631233 -0.64480978083918927 0.57293496878563355
0.40867635781683198 0.71585647938716335 -0.27007040861540155
0.2702232030584959 1.0075600765838431 -0.36955676662616121
0.38339338697210579 1.2954657479041778 -0.49343791262746706
-0.8006807645156746 -0.66707985783518531 -0.28568865333247728
0.58784228325532251 -0.66084009880139627 0.62440183254332748
-0.89432279014151739 9.2691787094700828e-06 -0.40918139455827873
-0.22577527972933442 -0.31901836607738843 0.68415783603275493
-0.3396233344771673 -0.62593410187296428 -0.062966910652594965
0.0073182168624720267 0.65675520946287902 0.6817320687099091
0.18724942524008537 0.010025921115129871 0.76997171554428334
0.70986776162743226 -0.48816060505875747 0.68943487505611056
-0.59194219628167821 -0.19227534338974012 -0.62874833149623222
0.23464089473201799 -0.039480741248958839 0.81791690294912911
-0.62070960942693709 -0.63994746775818401 -0.27378628784871717
-0.076297271743113626 0.28172129257297573 0.78204724686631444
0.4389617520273319 0.013860323011442688 0.34829504399048972
-0.11133848442733019 0.77686586353510734 0.46088769258465767
0.27684827634069364 0.0078305757433110301 0.72625776267230613
-0.60538808482953499 -0.76578037531358767 -0.36208426961840878
0.16751586325091239 -0.16284421772422419 0.75206301122478436
0.14506044063509194 0.45905947615855336 0.67926000943542775
-0.298673585646549 0.118081122499472 0.78627110152078505
-0.30938907747159483 0.91074017172377952 -0.025605707717926585
-0.46491151251582141 0.86050738990067266 -0.19456119856045598
0.089579041043187146 -0.12880354242800962 0.77531925645583399
0.22405698856157263 0.80582059153251429 -0.38663188492377421
-0.34363102708820037 -0.65908348300471431 -0.15401626341001418
0.035966562726129414 0.83683467044366822 0.64459520449736907
0.34873659681553981 -0.43861439333933383 0.69606896690350695
-0.028371735819674108 0.066341509170740359 -0.74081284909424538
-0.75989527984515703 -0.010249664323882968 0.73898053350878357
-0.23758634049693939 -0.084978299940818403 0.73569867349115903
0.66344608368505575 -0.29832140790471051 0.72791270558903953
-0.084039034638548671 0.41371140564056752 0.82015835424706829
0.14985924758221358 0.483398737700246 0.68813504300703343
0.081888967878981589 0.90722544735773658 -0.04745953946498549
-0.25757533580320313 0.52017000715207651 0.75548620776648967
0.076843887427772373 0.31601015247557207 0.74603202619400777
0.2917794780542437 1.1660786219921953 -0.44628605339108451
0.29084164208678054 0.75129631030188726 -0.28853292603132896
0.019214355530825511 0.64554987215678938 0.67702316166611887
-0.33469675291919287 -0.018012898386707832 0.76872099364812119
0.17905205133984747 -0.049468095059904904 0.88086183128725715
-0.18645712998398523 -0.075811314307891564 0.72154241714067702
-0.018264138527120721 0.25570217780006033 0.75740705006351661
-0.21367420113296021 -0.092963365886173932 0.73748818076286149
0.7376134268315786 -0.1987217315014245 0.38121620521187893
-0.33983468958463803 -0.13759837510336226 0.82032505293484803
0.83327008745610165 -0.45708800231533431 0.46947735039379523
0.11045153379565065 0.88192278552839554 -0.30126413004800412
0.022827937912123453 -0.26799868139828731 0.66639629572154302
0.48298330853609883 1.2129599914292513 -0.42774365114559387
0.098442681436050172 -0.22180137357555907 0.76268939746676012
0.71036314991097382 -0.64928335122353487 0.47393954516545661
0.1940307251763711 0.01169030208723032 0.76481456999741582
-0.5266426239389288 -0.0465855035845959 0.7514367878523931
-0.8357214104201347 -1.0016247494042472 -0.42616659130970191
0.71855898066121071 -0.29588348326380753 0.71087084144610579
-0.93801041393023421 -0.050466144465405816 -0.33763220267342364
0.56018750130357042 0.87785404060928274 -0.41974713637566502
0.17854923898411101 -0.11357465532423028 0.80762336431800108
0.43091224159144748 0.73627760587634228 -0.31586161377449962
0.83398520008822863 -0.21805959607309056 0.40142564702461381
0.70268677765783005 -0.56310536138440215 0.66336006483604737
0.41069174144113596 0.54283531129974882 -0.28577927875260656
0.63161769388861444 -0.58965531941810667 0.404296199245751
-0.13814119552437631 0.2904394257198728 0.7611721075751845
-0.25597102479308154 0.69903073950012917 0.58769797257310374
-0.7068056446627331 0.16223574000515772 0.71300317293959026
-0.0093794220346623547 0.33227703503204786 0.80126757805101434
0.26596280617735069 0.74898982386398494 -0.095740710020428249
0.30715210586518182 0.84026886825230207 -0.32240229274222898
0.46796598072050011 0.8157352007043035 -0.31604860233527265
-0.70249519378936076 -0.53613659881728792 0.52055921077286049
0.12595715560107301 0.54398061965808697 0.67870993723855655
0.22335357988071536 -0.039489548758745663 0.784824047695305
0.64009384205718423 -0.33198669184833429 0.73233163470329998
-0.64313453753673855 -0.87745058825467659 -0.41569403996188647
-0.27928781149287829 -0.043605961661484116 0.76339838425144779
-0.16574437473327741 0.20178756724660296 0.76935678139944041
-0.24523687596553145 -0.010118796769003069 0.74711318586550579
0.20875659038236144 -0.024705057014395432 -0.56691014512408089
-0.14375125177268072 -0.44921882706242255 -0.3674718202933393
-0.34478196156242724 -0.82358164256961786 -0.28137832130889251
0.42557825433021246 1.1733349010948335 -0.43000652393266547
0.26392808777060806 1.0340680812106164 -0.38042672169276059
0.75134307097510877 -0.41591882857055396 0.64856368019930688
-0.13053871569391173 0.27582586202146331 0.75980417467326955
0.89450844573598487 -0.20321690445761104 0.61422404187040969
-0.062178771593809135 0.82978100528564003 0.62756768653572248
0.35873314113809229 -0.13109325000479544 0.74278132332750069
-0.23917933574938388 0.4402507175999304 0.68631197425227075
0.23457076830789969 0.014878007133372506 0.76257055433992793
-0.20868369288335309 -0.30892224252154166 0.69998994339040621
-0.11125333459021647 0.2845954962334023 0.76587784449213459
-0.75209083074623351 -0.431819802092552 0.23360008263698015
-0.4917854027930737 0.048383134182447662 0.64001180021714887
-0.46135193017750087 0.60143851472640542 0.72946072010130791
-0.1373248765188167 -0.44190659178699687 0.5336147194893025
0.29620444393835754 0.71007985132310658 0.18549974865582897
0.22337703842584489 0.036396735582979289 0.73849465590320729
0.80714934466952704 -0.17293953873482382 0.39946458135608598
-0.62882421728268512 0.62038556587863947 -0.40618021881237898
0.72353360943620615 -0.48482838877786671 0.68769390885633097
-0.34722867515087508 -0.036007788362748983 0.76407293569276247
0.65739372771432869 -0.40460355516376367 0.68506272757875841
0.72324342173909528 -0.35024748215246504 0.65442638535670739
-0.80429416560415845 -0.79485930327040144 -0.40766201548801906
0.19225365187603938 0.83547655247830699 -0.14945551751247166
0.15640249521188831 0.53533542258831357 0.6694591154620646
-0.184600519924496 0.11485006866100278 0.76781486394866061
0.29235075466090876 0.63832178618027413 0.38463224997818202
0.53267772479812692 0.0022079983235130385 0.57898292457252154
-0.62516791727269272 -0.71478823294743066 -0.34477357696822963
-0.44176856925755004 -0.0066614992692004549 0.76925653234006486
0.22460526836590322 0.0044896834334249291 0.76529821585780056
-0.28043349162938469 -0.04121279865165306 0.75886365713123949
0.19653698647956919 0.093873612616448554 0.73252855228410318
-0.51911999514898355 -0.97268414143402004 -0.41914085942999701
0.64842202157998408 -0.46566070663301673 0.69560886973986413
-0.37357535343072173 0.89883728989853884 -0.21871148136001148
0.19856213576377924 0.80164993233852044 0.42212705744070611
0.68602612900193805 -0.1494502016372472 0.68207842602918589
0.6426608646812273 -0.15851102023236541 0.37490285596306094
-0.40218363294321574 -0.3614549147432804 0.6845953144363115
0.20640288954548547 1.0098876445245999 -0.31770143710165843
0.20800573873581379 -0.36314404278906975 0.31535519910422061
-0.21467703769714674 0.51665714543855845 0.69306006310849
0.31164235386074912 0.7599240718877418 -0.32112621743843839
-0.1438154618785088 0.55768812406872215 0.7388672361098596
-0.81355535039053173 -0.8908270576063213 -0.44289321782753355
-0.5295102684987989 -0.34453343598646485 0.67856499583445862
-0.10089896931296138 0.33063361268475155 0.80515216410772439
-0.29656033788819158 -0.1422033571565926 0.80641610816807141
-0.69474239095478652 -0.64920776958160609 -0.3132223975428412
-0.77631520122142561 -0.88406846363983504 -0.44125393548972847
0.27855170268498508 0.030705878977293821 0.70584365756820056
-0.24652874750019294 -0.061410744452494725 0.74930787459357084
-0.35435512374514122 -0.23775352356580087 0.80626589883511013
-0.42352480052037933 -0.26579498856467687 0.78134660885325058
-0.31007272221793714 -0.029870772639557508 0.76312093328515251
-0.20734553430922631 0.40029084234576118 0.76706527103591782
0.63654949634814173 -0.47853734506481871 0.6801643070659944
0.061686381486262931 0.55831195980989357 0.70599440571752758
-0.6672614833573256 -0.60582821184280533 -0.22776418976096169
-0.23542981949969288 -0.1439119980325958 0.76894897543557228
-0.51983332940311477 -0.62887327677852234 -0.31758388816850314
-0.54539066555359383 -0.59683483549779481 -0.1296484894302028
0.092220975224628354 0.31039867413171862 0.73326331251965238
-0.56571509037922141 -0.088785806301917347 0.76213019851585173
-0.74968090214771621 -0.96182670403014647 -0.4367768090197659
-0.60779649456345464 -0.58472655920793482 0.10394718805238168
0.40470475804316974 -0.038382187625602526 0.51710817832500533
-0.24205907517613889 -0.28647616547657839 0.72815929405684487
-0.93565482490633656 -0.70059802084734102 -0.34294223076150554
-0.068519452169797823 0.23141182501316315 0.75943684265560751
0.80643166649578779 -0.33736318567666435 0.68918582422863783
-0.59742005930984154 -0.63110270360551624 -0.26473107352400937
-0.44676921701019101 -0.75077069888612158 -0.31661638380702439
-0.72763618531713359 -0.53088309092054864 -0.30327803259094033
-0.36723170873538391 -0.43924556941347681 0.64959019045014887
-0.64686221171479374 0.065991083063985378 0.67648410126723491
-0.13618562469508411 0.57558930378614193 0.73491714223420779
0.13710484378974108 1.1556754956875821 -0.41067374857655103
0.14052550276036513 0.3256874621886503 0.70907018817269929
-0.53220962996007248 -0.060206354986005906 0.75714206918628335
-0.23731826915585863 0.22345035149574244 0.78432277546441131
-0.14885135115082959 0.55312608149748677 0.74434837076170002
-0.71312310950683511 -0.18444330497013794 0.51950070005022475
-0.20327901509725166 0.28086884261930933 0.77746877325800945
-0.22124583425595645 0.45701340398857404 0.76528443491508824
-0.21177408458006752 0.46072967219278915 0.76063134878437388
-0.50788887443305253 -0.053852141805664555 0.76899806240425761
0.39809393648082109 1.1636721022816374 -0.51736127051694503
-0.016474587350898406 0.24221086835312367 0.76274079483446078
-0.35080706519154115 -0.28177682854140107 0.78212187568178981
-0.786912626226691 -0.75379039944789916 -0.39843786065396003
0.035369129178040026 0.3837570467915663 0.80953291662798499
0.057743433109391784 0.7213674386229183 0.6579524726348005
0.38733142466524306 1.203906104071482 -0.43840184398133175
0.59426414371515079 -0.38707170051143436 0.72596877842150676
0.6720864435674514 -0.26299182403976107 0.72817239729676508
-0.096762718511664403 0.26543991384988885 0.76327857733990001
-0.079559775938731883 -0.45613455651417195 -0.26490226302345454
-0.18199444657045394 -0.28877314233429274 0.64119831405658712
0.24783808141828412 -0.43429841782146816 0.45223999359576128
-0.49709947740460292 -0.19126007031321279 0.78300391132241698
0.67391212273450207 -0.22183831186512393 0.37553172066519735
0.71049665712514454 -0.48644304979338671 0.69146198123305691
-0.13964580177305219 0.4051701710347011 0.80374793674655898
0.33498800059409106 0.18620240957070622 -0.3754253468894726
0.78711658790979833 -0.31309785333827822 0.69998331058646368
-0.13930526782454589 0.27707937914867919 0.75349963857376467
0.68860332554147696 -0.58380342803868235 0.6587519977222227
-0.83283556777488821 -0.17025797669320131 -0.46623196784364618
0.29968229477453284 -0.30262748023724217 0.11852872685067489
0.71322910293344444 -0.48962423741514183 0.68749153041233857
-0.08356826848860166 0.48229828537441399 0.80321876941166348
-0.45635715897198992 -0.7028949467319654 -0.31329269467942744
-0.18936768148263994 0.3829892794276617 0.75829122457373721
0.22950238621101793 -0.003910847530164574 0.79528166712824078
0.46657384621339038 0.8449365709712906 -0.34085160489766952
-0.70861194217646073 -0.64986718945872113 -0.27321656695903407
-0.5095419978678537 -0.27341758028844865 0.71887094930237438
0.16189768191181031 -0.029331234103052717 0.79403590561009452
-0.13522454654894744 -0.087654501478006352 0.74470444359149646
-0.73400772888118127 -1.0057554349042288 -0.41011081989762044
0.25238729882712807 0.78597861320979945 -0.24626725410680805
0.56678267087504253 -0.64581040286715563 0.50148921787033351
0.21594570707934935 -0.027180732622486659 0.81543329287294508
0.63072037163104255 -0.7239735260598863 0.52348805635581908
0.068387173224915054 0.8500944777712971 0.26981024372085916
-0.3393296806204984 -0.47802249340632819 0.62317098130369142
-0.45031710926387447 -0.27224545741099959 0.77190550842360794
-0.32887617843189787 -0.14483748497091931 0.82229660267849347
-0.53824624721383107 -0.34148996393768805 0.6795664371222333
0.12042868805084428 0.42176645258962964 0.71386159816307782
0.56343304284982743 0.80047920334929323 -0.35676564503022196
0.87133644123496923 -0.12175562396768269 0.49742455246232697
-0.35125355927730262 0.089579291692885477 0.78847337370222803
-0.38444352216590483 0.017630481118535712 0.7192367684833636
-0.69745905969536692 -0.349058565139716 0.7029282862971955
-0.48523919111776692 -0.81984548206207375 -0.27809829025231814
0.13806575987567227 0.82617322848418828 0.35744528104946838
-0.022711599664422266 0.54150613226272704 0.75890944100298441
-0.47640578888151364 0.47946250677396129 0.7663997908049538
0.91746673653608601 -0.16282263035707301 0.46351390730051145
0.15112905468350846 -0.080047417330077586 0.78656546386307724
-0.30818900938213467 -0.28888595829760222 0.75208188009308241
-0.23705434430615924 -0.012171409650193254 0.75188639666167667
0.45875991622771739 0.73149973685853631 -0.36176966192250237
-0.1698576457067853 0.27041011654345326 0.76000516348612202
0.10859347167862143 -0.15642227302789735 0.81040108218016726
0.29544931955134324 0.77531798353716752 -0.30364019243090556
-0.30424323268889286 -0.31848106130537235 0.71697330746904941
0.14281401085030243 0.41243383765496056 0.70852209624495366
0.39504072147667424 0.083074714903339508 0.2133345812717955
0.45797902522507705 1.2728336424671269 -0.48628118704665368
-0.53286446804848175 -0.35465296478113878 0.67921456238910616
-0.23823883845276583 -0.026970414116991748 0.74560507676123144
0.89096035751314639 -0.18283002413209648 0.42353021823909875
-0.4919339808295955 -0.23519245096105124 0.76315481189610868
-0.0051353549631176776 0.24451862009436809 0.76143614933735115
-0.37408061133454851 0.28838965678738226 0.73378099921208939
0.14248950950539108 -0.20004976553178011 0.81114706461034203
-0.40613080139534974 -0.36682059665992472 0.68393261453684673
-0.59230019647034382 0.17734039319648609 0.72001485449587221
0.13627086783365649 0.87277086091131295 -0.35057913269949359
-0.91130086693999601 -0.66893081208237248 -0.33965137085313679
-0.29242869659138293 0.65992225584098474 0.76638064384643023
-0.43379419461128776 -0.27420551086248146 0.76876897057921023
0.59465147634914417 -0.4394748915934823 0.36378603453117364
-0.16467913302484938 0.58181314720541799 0.68017042428205166
0.4345138402777633 0.61695643214067175 -0.30250534237919879
-0.71527778471703485 -0.67148039642104607 -0.30045737295865038
0.21706596804511946 -0.18635832381955453 0.77917500553165553
0.52313187993541277 0.0095023970488270493 0.57260837038344903
-0.49080982519475969 -0.23653138735381241 0.75754621567257985
-0.03579515892309474 0.7170531265038429 0.68846934205217458
0.29807598971659388 0.54595662199965034 0.51662880073185136
0.12517081384635009 -0.13107544819211459 0.81341978458839037
0.37825751696979504 0.16701384137620323 -0.041074688143983629
0.64326001521500586 -0.024566365038040772 0.59983459689203755
0.69977836015834072 -0.049184373951163707 0.62126189201970305
0.74369581132231488 -0.32665945309125277 0.69973442082007242
0.38815297393386849 1.1113883125031876 -0.50453927519082242
0.53969975610461174 0.81787307100223139 -0.26893243362300656
-0.3412625363861812 -0.45305843337821816 0.63583707436330894
0.46457511427513054 1.1739068660919196 -0.41452325046540051
0.73155957360017432 -0.4102655989127264 0.64402031051127051
-0.54928886997982684 0.18206450513502048 0.75414946327696519
-0.33920883255319012 0.43131758437399803 0.80513220839338917
-0.49031619545248972 0.16246171762446515 0.57350741587593745
0.086889826680216942 -0.10117945929825467 0.75005161433172773
-0.74820604990835238 -0.30294904809050216 0.57270309183449841
0.23472978569504477 -0.070092871659166001 0.81329567210701725
-0.13223092613634702 0.51598177670161771 0.76224541768256948
-0.10827485997677488 0.53745442384293751 0.76003879085059012
0.77036998113739941 -0.39330814742053377 0.68077274038320201
-0.40826788370474176 -0.29314829028298028 0.7649751850439408
0.61351373951146204 -0.71212970822705657 0.53060702915673019
0.83481581396124938 -0.34231996262544584 0.6733172042696367
-0.66205054531972607 -0.34229709106569217 0.69705629922130541
0.22545282192141602 -0.0095115759630237662 0.75523328982462878
-0.82636330995038509 -1.0056839923120653 -0.42989365363659893
0.70898757491163966 -0.49911953446032653 0.69102771620465275
0.79098831001008563 -0.081667722188331737 0.50805558307344256
-0.49393281046205662 0.66025316958198399 0.28698110890593798
-0.41801454264324966 -0.7459511941400796 -0.2829762856545659
-0.50205205643656914 -0.63381450465844846 -0.30493568377149138
0.23866042256834791 0.99314311036973968 -0.35281817508614777
0.31681268535906781 1.1302052350349925 -0.40192653300490377
-0.20874016370355442 0.69404697065280185 0.42572431373468689
-0.89297317417596389 -0.82328113130568958 -0.40438900245345266
0.14526889850842606 1.1228335222011623 -0.40137073146687463
-0.1405761731849231 0.64264690871689201 0.60125257193355197
0.34170700260866305 0.72592560396782613 -0.27351632110385449
-0.19384102513153234 0.049379412389584765 0.76198981940889188
-0.41009731694045115 0.19851487313497529 0.58357014908862048
-0.10204733377440789 0.36103128824030151 0.81422451901133996
0.26351251199829662 0.67734331418994032 0.53725796207295806
0.01120017348859359 -0.31789574782494778 0.48953304825910582
0.1500173682522874 -0.212934771583555 0.77702199846633668
0.11989528884175416 0.96617385078150586 -0.2457352586161532
0.19729945401953941 -0.30623737965070319 0.70347007241181103
-0.25199363501207372 -0.021489456830437348 0.74801603555855312
0.10865039812813748 -0.078736954388663349 0.75799796045915713
-0.32261177577059996 0.27309247083231725 0.81744391102637692
-0.50703131231834631 -0.62881342615222513 -0.29008547597141709
-0.48897226922044795 -0.73254658535026351 -0.35534465983926289
-0.01711600122954593 0.62355912703529448 0.69263659979701675
-0.29817840021874886 -0.040760455045624866 0.76355480146028754
-0.55713418456074804 -0.2294761667241314 0.70735492065786953
0.48579207442071753 1.2128046782440307 -0.42853630503795992
0.70244751668792738 -0.22599152164060854 0.70647197626971092
-0.88773235885174628 -0.79681789236010925 -0.39855848294773955
0.74328373717825391 -0.43932323060316569 0.66258311682568638
0.40397988367045912 -0.54027920141304264 0.67193873940206039
0.4531514966858321 1.1282033475798983 -0.46221670589353892
0.51934637026502894 0.69113840395144033 -0.20247710576985156
0.11126068566541747 -0.089927446078822193 0.76518644619907761
0.069700290540578802 0.62575469541123585 0.66953039395366432
0.45053569244188729 1.1225625321700057 -0.45717309772371628
-0.44468340750142521 -0.36054340862215728 0.6833590703820569
0.21323970973316508 0.013221589020009361 0.75800783282116235
-0.19431853199469762 0.62333795697454608 0.7502630203689673
-0.64996168614217231 -0.328516770798431 -0.53508289908941253
0.65493368301175536 -0.079366189648174768 0.65654287143921408
-0.43898019248314135 0.040403261829320414 0.77725124367696363
0.31814504243799036 0.53524555248698924 0.31530007631134538
-0.10485125276130702 -0.10439018745924855 0.75742836563741278
0.030943314284233248 0.28218171644907031 0.75850657556399792
0.13007212438698801 -0.13612301025035123 0.75767783075029627
-0.16578912554099468 0.3853689480655742 0.78550608283688383
0.5509350450385323 1.0271024612048469 -0.47791748382769272
-0.31798134155394164 -0.4214877672373214 0.58497941977762469
0.31175814674363966 0.73461257401256841 -0.30253939987819001
-0.034667058924880645 0.85571288593533756 0.55371656258316015
-0.019239021281744151 0.13570828978658867 0.74568278845282521
0.23228943707325289 -0.014382168196327427 0.78237265214429641
-0.81136389233782147 -0.95113249567690339 -0.48787408012250744
-0.038508113595149496 0.81799343960314008 0.67682496600752096
-0.45976187168151839 0.50738354715717016 0.67208361094747815
0.85027563420480368 -0.13787259472299618 0.43293420475957767
0.50447649223628233 -0.048395926597506245 0.68791203186453553
-0.74816428451275563 -0.2477002970352945 0.58961653886200782
-0.1956656132333876 -0.085902874749407943 0.75239893606914698
0.25909551521266394 0.91994251737082067 -0.33198338139485184
0.20120964746559267 0.010299216193465632 0.79641471250082674
0.36929628160176425 0.58427406863873166 0.071212305104890183
-0.029426065724608819 0.55511551383917723 0.75401111670279963
0.62897762954668224 -0.051147680978850474 0.64717571145735775
-0.22847448076921495 -0.071456865196719122 0.73554777243100489
0.67199420836192436 -0.70142123720009097 0.54900482180211485
-0.67560625326579071 -0.97502412122777926 -0.45384521010450918
-0.50297897791243429 0.095436012041687945 0.79819802505517945
0.52426984399982679 0.91105976784795928 -0.34433757556158184
-0.4772694218513287 -0.6154066420001616 -0.24308511286369772
-0.6715251413580603 -0.60796781336435401 -0.22793896700631544
0.11942732820747537 0.44114191672092451 0.72235934500561427
0.24782272855852161 0.97450030784939201 -0.34977949794902585
-0.4558210478584015 -0.70804086605823358 -0.29973653416266899
0.57154789662618466 -0.23880654757230357 0.73317518964231354
-0.50205596515320461 -0.63323180972095339 -0.29707235709182056
-0.52424801361744144 0.049281680480580903 0.78329290433532961
0.52065510802110282 -0.019608090250500254 0.45968023413273329
0.043105988085873292 0.83517004442621068 0.63359825655305979
-0.75167362074477495 -0.67908992958968994 -0.32553144943056689
0.10206246452275636 -0.15143565192445152 0.79966525302729252
0.22958799062630408 0.85723338213549938 -0.25353228858334997
0.76739689483030959 -0.27644069241448577 0.70901208036132291
-0.60601995316077684 0.032758499073692882 0.56086219944057003
0.062789524126147356 0.41863716488596836 0.78979113660422406
-0.22480849554361271 -0.3278724911327191 0.65309827839545953
-0.09301313592212157 0.63786437228328996 0.71149090324599662
0.14949347011227632 -0.22754030233605782 0.75484054831174774
0.74585060070637488 -0.43657265890482755 0.66108863549031582
-0.50007595784123904 -0.077722050786041663 0.76766754428190964
-0.75621729057099385 0.080291199487506626 0.66736630266872332
0.2441275281882529 0.033374462673833705 0.72508204124480624
0.13641685371023193 0.37800742731749803 0.71874025801309394
0.2553375079832696 -0.0025108653141003856 0.76123368918787415
0.01233888209535916 0.51468099485447283 0.77768946421799789
0.29149046123675221 0.72560701899064761 -0.24252448991568887
0.30865766943329942 0.07061973296045565 0.56543754967072157
0.13566625875026389 0.88212774940228122 -0.17278219413064111
-0.74501568014855835 -0.13543995155539612 0.35932833513421253
-0.25961036913682989 -0.059125478058579262 0.76625228849016658
-0.66810297800374485 -0.81753063487153099 -0.46733952430390868
0.18333430227146152 -0.17070113525605279 0.80527862572535369
0.85394547455171832 -0.45951793160595145 0.56091321725452126
0.37277569127643417 1.1079847750134908 -0.42281430140520637
-0.18827760382563152 -0.27348893086135395 0.71618426524692613
0.46732597194942471 0.65973709540438819 -0.30124865913154686
0.15225306718869996 1.0040261894265756 -0.2569563530828427
0.29042287342636941 -0.49482894460346705 0.48749788886738799
-0.76149709583603198 -0.35475622842327659 0.59667617245435745
0.083129277172465876 -0.13520720352974536 0.76265231593034422
0.52613511010702507 0.97785458211322662 -0.38175716350874117
-0.51614558158803625 -0.084739498416988468 0.75606616938209292
-0.82964541671565151 -0.98391982584466398 -0.41866599113676095
0.69967481557590361 -0.49019361385838156 0.68818141445701109
0.55495382470793309 0.92855360326532588 -0.34176026034846929
0.39272079720063946 0.0014162197471254585 -0.16528408930303506
-0.28730502587989548 -0.37852831318704272 0.63986726396541371
-0.099935154424023231 0.35607994183666669 0.81491106496919663
-0.46115935138122799 -0.68802978402261949 -0.2847749406750868
-0.6518327355546063 -0.74221432229007434 -0.3509058594207044
0.41544532606830264 0.82771817660818803 -0.40657604339125675
-0.29595456582847923 -0.31909767105060016 0.71831855348153617
-0.20487230090682251 0.74499583045848583 0.60146963049254687
0.070294511678925531 0.61113447042558189 0.66485482811034302
-0.075474293612192156 0.25349306114589432 0.76344391989680815
0.39628876275502734 0.14417201007745639 -0.14853083473489903
0.2996037024000664 0.7371782113498293 -0.013476687006871657
-0.36712116627139668 -0.80515978395055932 -0.29009479076889155
0.14800874506236117 -0.045366219363035087 0.77178541728930128
-0.62383912768359107 -0.6487768474645117 -0.30478754404885322
0.12892529247363704 -0.25400194541828114 0.72627540263487944
-0.30578049609102465 0.26562134254546343 0.78290935248046623
-0.56377727730760796 -0.15254583180109726 0.75534265921704957
-0.90952216933081154 -0.95840126374418322 -0.5174476982595495
-0.11785685630760301 0.58146020476454474 0.7378441721312381
0.129472939400614 -0.094112096602727568 0.76915393474207505
0.2479232148944952 -0.41887694823945054 0.40937283356143794
0.2785260029020773 -0.33964377712372706 0.22607916338207334
-0.14855136138219471 0.5162155362222105 0.75841299505678528
-0.181631016370013 0.62135661723695534 0.74254698752294424
-0.50503519768473737 -0.018094246845969497 0.76433574963058959
0.70364447596826474 -0.5714491406187675 0.66073093636725222
-0.52255192003006457 -0.0017224663478639657 0.67787369997121161
0.22323948313296604 1.0580065548792845 -0.36997595891456569
-0.16005326902011596 -0.28675015746214738 0.71353231954484997
0.2823177521712168 0.7376506899852977 0.21357073091304812
-0.34416584713193643 -0.13202920502269944 0.81579514039000589
0.15923874117716963 -0.22148429897666944 0.76294533321457081
-0.023258468173809277 0.16610440349913347 0.67591405059606835
-0.29224749250384718 -0.041162077836098376 0.7643680041692118
0.75491870319504661 -0.45419623280963117 0.6780902077159725
-0.44169382162601423 -0.25397236980221116 0.78060078253006815
0.57827625617984957 -0.7154914310575613 0.50861502742512155
0.10742529256769995 0.86150738019728301 0.56985150235542115
0.20418225969898351 0.39437800002851153 0.5992655080255318
0.40414389487365643 0.55888657326380553 -0.1512358769904254
-0.23077071500130408 0.078605646770846249 0.77109524565000953
0.67873909150702083 -0.36674969765671839 0.6783057997828732
-0.64558118394047481 -0.36088821649543879 0.6837353122568679
-0.50193882143046054 -0.62198439339776224 -0.27108916457250309
-0.0463313951221348 0.65614202662185939 0.60791306119502053
0.92713780068892149 -0.26258149430999111 0.56683988081973169
0.17328210892382834 0.88042154530408157 -0.21913920208798743
-0.26621995204645188 -0.083747133558590647 0.77796370277189597
-0.16003999386109369 0.44052157678136661 0.77800483759917727
-0.49944844253541731 -0.052834756795641091 0.73227898369166056
-0.38037577044185977 -0.0093529171025021896 0.76635198024436768
-0.339345046396551 -0.69034622116225297 -0.167025685425708
0.58714312847875605 0.99287324876109984 -0.39261710478876477
-0.45804029805927549 -0.713936369686067 -0.30142393168175374
0.66607590920786564 -0.45939460688149936 0.65644032214440262
0.66983456985597467 -0.4776937355681028 0.68720255013863962
-0.6276151056694772 -0.64138158526341194 -0.27368419931330301
-0.93439592929671633 -0.71041442154676382 -0.41978503153480007
0.35486133875863163 1.112168891669947 -0.42527376469744538
0.3198164110717796 0.39683007181414592 0.52793914399066455
0.12052842616313075 0.83849414542715417 0.25371469526406543
0.72871362756871383 -0.19695361329486438 0.55675288693762948
-0.75142002709127731 -0.3574289173230159 0.65289725175685254
0.07539282364023947 0.41212342695201176 0.77223469478375684
-0.96847132165266858 -0.82845886228668686 -0.39478418119626557
-0.65304206278492138 -0.2397450542777122 0.73104214925371735
-0.11927615139421333 0.57850054766829473 0.73513432068277318
-0.36307893978146799 -0.078531494691484127 0.80317151050639923
0.31976972058007369 0.093909464944572058 0.47285284636380565
0.63339922958119033 -0.44804034571178342 0.67794201962259404
0.37916698895683609 1.1872766967341271 -0.45626521096968098
0.078614340371821356 0.62395740195266569 0.67848635842945093
0.70862884439840546 -0.48756859974389499 0.68294622679486139
0.73604333822018475 -0.39204995134307552 0.65022845625631698
0.37025284709046169 0.63608604122684009 -0.17667621027903146
-0.37718808826709993 -0.57453484741897953 0.27234538653931617
-0.38182908293690332 -0.71785698280535293 -0.3399264273371112
-0.084870384696965395 0.55267039936557261 0.74876885922131464
0.02694009614392634 0.622002332769652 0.68207406265350379
0.46506430881358818 1.1740318257269862 -0.41409439713358459
-0.70657519827772219 -0.074604032516884189 0.77585573210237158
-0.47518759535982724 0.21008897756137301 0.55224033897306768
0.14440855859951895 0.29406737621646073 0.71464671396609347
-0.60687987434211266 -0.94133560769345692 -0.43037597023487972
-0.67415407887048673 0.10172880925799332 0.81000417380794687
-0.076886611466099097 0.52718221561004519 0.77787088629457735
-0.86691160152573943 -0.90232476873965251 -0.45080553327655126
0.079645370774729329 0.37061932197413805 0.76536971366976747
0.65976962352544044 -0.49501540762504159 0.70249102053619605
-0.56753797813526141 -0.093838970180995851 0.68841753266634598
0.66320807682069127 -0.46086552169716632 0.64936738950263906
-0.61658675345516478 0.35588028867196542 0.39690222930165397
-0.02906794400804813 -0.11517801464982647 0.7505327090619538
-0.021198130830367923 0.19981283193918742 0.76031777610487872
-0.57953539305389035 -0.5831213352583382 0.18461355162295004
-0.67073623300530727 -0.51550887451619687 0.24506400086977931
-0.20076999962458686 0.30803812442437817 0.77694425724134852
-0.58441401256991199 0.24599196176465199 0.58365763394239423
0.72217496479052112 -0.65285675351310601 0.55405240096776254
0.72230899918854141 -0.31711507861617738 0.67520093863923503
-0.68460812548961414 -0.6888995735226382 -0.4135036735990969
0.043409517161594025 0.66305669576897586 0.57056376007142706
-0.44117230396425278 0.20742040688259245 0.59727092017664063
0.77455769952650089 -0.40976103779462114 0.68537227077935503
0.32324934798567195 0.071476523343261711 0.53979139653804431
0.35877916136922217 0.99720926847101055 -0.42113640326653012
0.7578651645571175 -0.32116233879215095 0.6969918482754931
0.11616963844559258 -0.095380994899388227 0.76568136833360612
0.34409560870555067 -0.39540193579880634 0.48233178533115506
-0.88196639538571642 -0.33088959043417887 -0.32728594512078324
-0.40252055666795328 -0.77780191798068898 -0.30106937344920048
-0.60532877085601733 -0.36550165450926175 0.67013621791273814
-0.12142933548489511 0.93945936787003315 -0.24363166166092204
-0.22310944521990095 0.47970780736720187 0.76455564098611362
0.135309817654238 0.2497767445276331 0.72630132738736286
-0.21925001377621278 -0.34026312825012095 0.63265310879393866
0.20600475735200974 1.0128563453764454 -0.31883880483076021
-0.56395063245577148 -0.88598504908744857 -0.39346046472119856
0.38674619978371894 0.21623645496306221 -0.036743014802254947
0.24399860315958577 -0.0064618376350589202 0.77089895527035335
-0.5709282449479538 -0.05352176877133763 0.81480545453383968
-0.60549906934550357 -0.19570569212989319 0.7179732431981769
0.56925307616092624 -0.005342868491684527 0.59964184607335369
0.52212559819017845 -0.34848385660155756 0.32645712808725591
0.3583349015312951 1.1184750083597379 -0.43251459358799949
-0.27277632601977508 -0.11477330565070964 0.79041251697364734
0.10685786997005997 -0.14297657030288802 0.809053588052425
0.72588332578527925 -0.37432885740600952 0.67673611490335439
-0.19897440250336995 -0.00067814355574302709 0.74781410266494897
0.26027853772484022 0.75348134941262823 -0.19928029537283276
-0.79989263218718243 -0.89484618537493787 -0.45063832769727252
-0.62752291427094153 -0.28652575551888937 0.69771864280093787
-0.68188250420985597 -0.97215938211987729 -0.44945223055437067
0.1354528533856475 0.4254179274965697 0.71655887022330234
-0.35091877970837365 -0.28113305249013454 0.78509768123721013
-0.40652303966536074 0.012209100168336207 0.77596066083143089
0.097507169378904024 -0.17748911306149395 0.80475234044178734
-0.91914087307970938 -0.17623521962807254 -0.35020085826952463
-0.15481957097072468 0.55950372464100795 0.73814832932781904
-0.61766061280570739 -0.64531531947448983 -0.28206894194783949
-0.19580333676794481 -0.23151779496468272 0.73692667582721416
-0.65349241434679328 -0.96140868158023107 -0.43378670064493186
0.21996678210147888 -0.34052702212153491 -0.060527169692533134
0.21366471904959017 -0.38198523858101296 0.65041977201416179
0.17903950660817136 0.32891484082736078 0.62505218319378919
0.086347972242204918 -0.14608239036053661 0.76933160278579038
-0.10711516118877551 0.37991977566150759 0.81625935901754954
-0.69906789552039328 0.15601981956659738 0.7788833454428179
-0.012724463368395611 0.16957028558124421 0.7590640812236078
-0.54373018796396266 -0.16405950470971575 0.74945812587606753
-0.75263921932648037 -0.15153330297512158 0.67516926946872191
0.33872879505189901 0.43040502093377409 0.27566211383876582
-0.41967738980648722 -0.74900822764050934 -0.28245434301976458
0.14591400005522814 0.74607672926260427 0.60903523165015994
-0.22562825994874292 -0.3608188396077856 0.68254539459019625
-0.90907954693418258 0.26796449032680503 -0.1769092817655078
-0.17684610134497275 0.31785101556300432 0.77146779830663625
-0.36826074018759325 -0.3889632001512644 0.66239668886747594
0.28369633724219723 1.1258059386128934 -0.43313996528658372
0.19222468235575682 -0.3697147758502719 0.047792069701419304
0.33020704014819113 0.96755549947568653 -0.38154096732663234
0.74065490738267847 -0.41387994189607547 0.65693927508878502
0.14892569887618379 -0.20432867395533805 0.80179848380432284
0.76094437560308714 -0.35064596781625479 0.68481309728216777
-0.2902196841421798 -0.14435833567012057 0.79828569509760916
0.92066714474222655 -0.19893888460367837 0.58514599362741115
0.42548443804897224 1.1732157033652915 -0.43054604936119945
0.0063995551147881802 0.27177016937404197 0.75987120422368637
0.36094868956740817 1.2686220520416915 -0.5204414603114137
0.15859402530514721 0.33488897124985506 0.70075375151822428
-0.51719237682628894 0.0074788404822561105 0.77578886170888239
0.12910316912527303 1.0749612951812 -0.29193609658389075
0.12323685706843546 0.44137622581504576 0.72387553401684634
0.24386965270082683 -0.0057934499234413295 0.78925711408734678
0.094537018348727742 -0.10369577421174192 0.75434343706066187
0.11348504815703686 0.9779735396258582 -0.33085762851438805
-0.53056693784363063 -0.83077268239287827 -0.36692116303817635
0.1258260817231891 -0.21192509570322215 0.76390757659546749
0.71933132554629897 -0.48334041685988405 0.68548932653559191
0.092175915533392327 -0.31032903044383531 0.51467158481110165
-0.6309449177704014 -0.11198410650565371 0.76973437386883781
-0.82142327702912965 -0.69943636566955547 -0.32532566248501915
0.18960928453622028 -0.10137548686276077 0.821569918356305
-0.60570698067340611 -0.086670268946161144 0.76562682506981972
-0.63359849425683157 -0.65231708340092487 -0.29762518037900065
0.29754077485414143 -0.25572761898970953 0.7564954184593411
-0.63161447721371289 0.038866669128669429 0.70702057024329079
-0.75512076438650233 -0.93230532696699164 -0.45895772168322502
0.21471424856497734 -0.32418660183384596 0.69970479062694579
-0.51565524376221106 -0.61156006817213893 0.052255216868074439
0.3376632549441978 0.72801360374055857 -0.27542870126112895
0.12757904081344984 0.9251013642166106 -0.23530772024198721
0.29446491167440136 1.1774877902577074 -0.44163950727849155
0.67232670392474714 -0.29239216262516676 0.7322956578861568
-0.27183067308925235 0.087165184123279005 0.78177628303393121
0.21304746049184597 0.080858947125378222 0.72144849061992034
0.044767036525493964 0.39950422414036835 0.80407788948400594
0.21541793671352227 0.7855547154394813 -0.24520756472870886
0.069518061026897726 0.58023783948709884 0.68872726681386176
-0.37507305585735651 -0.63361342756218164 -0.0025831914704670389
-0.28109101719245189 -0.40413460778798171 0.59108024486754562
-0.51427388376306871 -0.077604684149585879 0.75962842886661397
0.68298244181811896 -0.43481401822192112 0.70981743195289226
-0.52686537919699106 -0.34041981489443884 0.67883817025404336
-0.57331796003740898 -0.26956560430813781 0.70742130886343801
-0.76613269013191854 -0.87422763457503105 -0.43116991340446198
0.0099795983892384255 -0.43923251602515545 0.0074723956199788527
-0.66676812991922674 -0.89930180461816711 -0.42813501253019304
0.72079563073689101 -0.28474726837194453 0.71122131636756825
-0.026064439230394143 0.3568766794773337 0.82159703872126677
0.22569642739980419 0.21961995453076527 -0.57913273843838453
0.24598218682683726 -0.0074649575305230087 0.78164345562344684
-0.27068391819604454 -0.22548085667714401 0.78031687171619257
-0.58170897982087055 -0.62904046562387972 -0.26458079661463785
-0.25567589705271487 -0.013180750501526006 0.74954439022631547
-0.26023150671320394 0.39504254462330124 0.76104197181340361
-0.62004228774289416 -0.021580939088202022 0.75268644320702549
0.49931895775987556 0.017477962979260298 0.55802041445470252
-0.53698147654123929 -0.32886118589659663 0.67774002030370128
-0.96153889270108284 0.037556617984734864 -0.25633679396804965
-0.60424968796905709 -0.58090140465441387 -0.38464704502879599
-0.19713096651688744 0.32265851010841828 0.7769087849157561
-0.083405400082118053 0.24965497526475033 0.76480232460472042
0.30557308431176722 0.7155489914344102 0.098888259572014192
0.15436583742568466 0.65933672870308868 0.63239494073984481
-0.67421955147970891 -0.24616285665893223 0.73622217583598193
-0.92630578096292382 -0.81575515278486899 -0.39486514606737266
-0.24062178089455699 0.55669229058213698 0.76941505957511147
0.13308225470115831 0.37750387247454853 0.71947705034707088
-0.49210352752456687 -0.36977408237335263 0.67541181040789233
0.14485619362876356 -0.034719184828451599 0.77540396898131903
-0.44650301660984049 0.11636112833450873 0.70104619828392689
0.14305234243892828 0.40787486996854394 0.71467872252146059
-0.74445030933510381 -0.67241159763519676 -0.30906275159477925
0.14275185137901536 0.3663029727263325 0.72232274922232254
-0.5271582796150609 -0.038782141640862022 0.75738890205417375
0.20233271611945014 0.001972840339199422 0.79745342745734327
-0.39435979072301919 0.20897797278779251 0.61687990816947291
-0.74275401077960623 -0.530076810231499 -0.047245716117312764
0.22447552046781261 0.0016275793710622821 0.77788769212772713
0.11245980349134399 0.43378418474037461 0.72695622500585699
-0.45930477809420545 -0.61591369839941912 -0.21543531618047673
0.14926119799009196 0.17310936638316576 0.73769090261845882
0.59952500978761236 -0.32661978802984581 0.66124058022404775
0.19668765846431557 0.83095652088947314 -0.010538829257119353
-0.46019774584072032 -0.36420106118814222 0.67632176577684566
0.021182907025267872 0.56637911675514929 -0.6095872410625669
-0.8883096461598794 -0.68171891739206236 -0.41262356595656247
0.25687402157567973 1.3060602175369738 -0.44939019855884155
0.23110935199626326 -0.034534577064589733 0.81669553155492736
-0.54974939334697126 -0.30807224832751956 0.65147497292314682
-0.21077162847381459 -0.098746028465010127 0.75642996317687938
-0.98652516045588001 -0.91447847790352199 -0.4465809876445519
0.69541911616684704 -0.68311656525711051 0.53895384818572323
-0.57199830093151327 -0.10312850801845208 0.74220466387390971
0.29641979879000591 -0.19546276760384296 0.74662775937979298
-0.56724102705982027 -0.10395970291963508 0.72543977251078218
-0.29864988836835593 0.31139390986785642 0.7956739528215806
-0.57010749461021248 -0.10872337192976378 0.70051816651259458
0.43299431876938321 -0.08374631183094472 0.72270565059729064
0.30514628301760538 0.72368218768829162 -0.26438037851417695
0.20387236457491653 0.49325766357831435 0.58109868430058542
0.28349823947080965 0.10447058428934619 0.52375626927052799
-0.063596312898922647 0.56021979011747902 0.73922423518120084
-0.59827075127164697 -0.36365924021506046 0.66708313384473861
-0.55873223779321668 -0.17088774102019144 0.74519524800294867
-0.55384588268043089 -0.074259865476874465 0.72593744348712264
0.19728729256786703 0.3385915215174915 0.68543543118041939
-0.74354340908798022 -0.95106906214234144 -0.44769865111520923
-0.033603897207738598 0.23552624965985913 0.73118464827164509
-0.25657865745107467 -0.29300646112930573 0.72378523928973815
0.29351793298984319 0.36728638124789992 0.57929348152251237
-0.2536841509384562 0.50300962781735503 0.65261254671119673
0.30516638835855403 1.3150877492970778 -0.46145342302171599
0.39866839043187596 0.077267344363127655 -0.031949568237606529
-0.34726055987366422 -0.25768849488562706 0.79624268202671622
-0.078659380826804792 0.59902185200588853 0.71918005391905737
-0.29623898353860056 0.57471377353452802 0.78206930371322336
-0.36234696222314966 0.42933960564394269 0.62725981524758723
