# XYZ point cloud file
-0.50150233029758029 -0.63371377073087987 -0.29703704934428421
-0.52461347027993277 0.047963020798128753 0.78300796249948412
0.52068765194640321 -0.019506608809436443 0.46013568990593967
0.045881867193169223 0.83369414944934483 0.62988330705688478
-0.75179643229668436 -0.67890104914550919 -0.32589898812529583
0.10191439589705809 -0.15017010173189771 0.79807280538560121
0.22979604122158204 0.85727248676940571 -0.2539619827007078
0.7676779261426292 -0.27792623619701828 0.70848404521910613
-0.60604112095806606 0.032774244441717393 0.56085107125252254
0.062304441219203532 0.41810110650074161 0.79002626818120092
-0.22268513826639591 -0.3288369381238363 0.65018134149742046
-0.09230495103608094 0.63770157409566419 0.71063671331606493
0.14992113218946823 -0.22690676139057242 0.75623783210491524
0.74646758629912957 -0.4367215478960409 0.66163950892926948
-0.49992572330009377 -0.077409051136305251 0.76764019504172998
-0.75611363596358094 0.080295534789154965 0.6673747639451495
0.24516589436236025 0.032027682835746418 0.72525675449809768
0.13710774446742668 0.37843184942989172 0.71841307308242008
0.25537112356714076 -0.0029491861507509043 0.76105405933568226
0.011953162242150039 0.5145909160106239 0.77776716207653784
0.2919350132614833 0.7256328777354295 -0.24366260881348212
0.30885452737304214 0.070652893736861344 0.56489059141446418
0.13566610198265838 0.88216481826780502 -0.17270477277670704
-0.7450477155994939 -0.13544476442786824 0.35934233165915774
-0.26257549415932147 -0.057687809437783955 0.76594006429535177
-0.66788331152888247 -0.81747447458663913 -0.46714939782110942
0.18315520248955153 -0.17100205218503106 0.80519580210138031
0.85397110126849718 -0.4595108041791427 0.56088198400844469
0.37215422630709494 1.1079410407090764 -0.42245678860990843
-0.18623421797212369 -0.27413913526420952 0.71582322402502929
0.46708400379552972 0.65959991232441695 -0.30121734024477398
0.15110231167348437 1.0039634505831987 -0.25663767009944982
0.29050627116117189 -0.49475629799720827 0.48764749305720301
-0.76150879572912444 -0.35475449510010515 0.59667150755408827
0.082621220631335923 -0.13236638032665349 0.76243984144020782
0.52597806396405555 0.97724153342599573 -0.38198545594200561
-0.51542168737238958 -0.084462937962285878 0.75660007892213965
-0.8277308936266472 -0.98934391481816597 -0.4187196350844733
0.69676134360762987 -0.49028516852984572 0.68895720732881194
0.55505680293936543 0.9285241111807836 -0.34180173990920526
0.39277268571737289 0.0013894098875886773 -0.16531732659974296
-0.28626970866559454 -0.37881171450140805 0.63853404277869963
-0.100530269235656 0.35675602039396637 0.8149977363468075
-0.46214954560652699 -0.6866958161926302 -0.28395739269787157
-0.65225652047779192 -0.74164184172027348 -0.3505833958994371
0.41556499467630958 0.82773678689771835 -0.40645053174464052
-0.2964404954866513 -0.3192665673886097 0.71822423388482992
-0.20472725169445427 0.74504980040532143 0.6013964587843823
0.066717600003306288 0.61204627175370518 0.66747502396692937
-0.075789709836265651 0.25351613459819333 0.76326200858996351
0.39625572856308988 0.14419795415791725 -0.14876572564431578
0.30012405471498838 0.73682900702186682 -0.013032775226747617
-0.3683078891981606 -0.80449386794871813 -0.29061296960099714
0.14819256517327062 -0.045694721711745823 0.77228648089895202
-0.6223877426490434 -0.64806738315722789 -0.3035414012918789
0.12988584846921825 -0.25271502772443455 0.72873670353861897
-0.304908061159054 0.26803356645402587 0.78334347605624544
-0.56169590257563407 -0.15011173026404023 0.75598092625225988
-0.90944006672234501 -0.95970016371106226 -0.51622506019588599
-0.11938196093730219 0.57956414369680909 0.73906140608645998
0.12850374148155197 -0.094713542330990386 0.76822406805240462
0.25012238306940304 -0.42054479207618201 0.40976876496552528
0.27862047303714488 -0.33956640347039541 0.22605883071476951
-0.14878376082449352 0.51743808804230973 0.7582687866308726
-0.18176525366706553 0.62131327362098432 0.74269237742872463
-0.50629409482457621 -0.019439533093691175 0.76388025284823069
0.70468450061071364 -0.57125273414271427 0.66040460021353908
-0.5221312276279062 -0.0018502458390106113 0.68001810250393824
0.22191854121713028 1.0588452177617285 -0.37051096627551772
-0.16177345289984668 -0.28608133676179559 0.71409370921201187
0.28307893200623013 0.73610945186737009 0.21368569009541716
-0.3437251814002984 -0.13182009684782514 0.81604680145998421
0.15808204864119801 -0.22069339700951929 0.76383134058161595
-0.024051140524521841 0.16743396733197713 0.67659895781838841
-0.29030968706238625 -0.042192204543074041 0.76421356307591237
0.75499099464335373 -0.4519533182520572 0.67752411619360497
-0.44233460107506239 -0.25330086042596101 0.78053425602928872
0.57859078637301975 -0.7156625163075816 0.50895934220052963
0.10743061668893361 0.86146869469602727 0.56975256540711072
0.20404196145863374 0.39405272183072204 0.59922584195657347
0.40439784362619724 0.55894054373025881 -0.15142771150268564
-0.23340441230583142 0.078000469153742813 0.77144569032860311
0.67880121203071608 -0.36702713670745091 0.67780433319141453
-0.64627023712885823 -0.36046167344821634 0.68400599989123112
-0.50000230643829013 -0.62137185934762673 -0.26875928195073007
-0.046525842028756204 0.65600685005230641 0.60787627495570362
0.92512073235918102 -0.26410292081641984 0.57148362670545083
0.17305766126898092 0.88068221264034163 -0.2194666443731661
-0.26656317222117565 -0.085853364377651786 0.77828198600371867
-0.16031734896265171 0.4400780804154949 0.77753443980114367
-0.50095935111791623 -0.052978508968842597 0.73270504724326813
-0.38030941894615777 -0.010551598630245351 0.7670713355521146
-0.33940130169429039 -0.69086652135734861 -0.16700074483761917
0.5871248391240308 0.99286370853241879 -0.39260159008995665
-0.45757312207669898 -0.71565218898184568 -0.3031025468702957
0.66718699160668393 -0.46026413290907264 0.65655835485090819
0.67241193509558239 -0.47616680885237095 0.68593483281033052
-0.62728499293447226 -0.64144395721483916 -0.27371575256265857
-0.93426826802402729 -0.7102404661282069 -0.41970461443638563
0.35576935021886702 1.1118586732118401 -0.4252747349329084
0.31969291866473615 0.3950283412699569 0.52665970755384039
0.12057942023961066 0.83856515022179035 0.25361010080543345
0.73129569900285785 -0.19986002976680162 0.55614676752181857
-0.75135812036349003 -0.35745129074993143 0.65281228848540807
0.075086980522470093 0.41171137824691328 0.77265155835375943
-0.96789561324374418 -0.83196130366491317 -0.39570267917708524
-0.65273561849137174 -0.23924625960328516 0.73134186526532829
-0.12108386487564049 0.57896177975015561 0.73524232239378406
-0.36382859245128757 -0.07831869678619352 0.80285854219174091
0.31952485096031535 0.094034520464855137 0.4729741877320458
0.63630270755212415 -0.4493683921132412 0.67578823878225602
0.37925891538487377 1.186918742017955 -0.45543228912661782
0.077918289743804436 0.62383306948578188 0.67748294334803827
0.71328316002157255 -0.48355630798463523 0.67993779832798751
0.73601119371981127 -0.39272597813420163 0.65071080697898709
0.36998108301989607 0.63585661969703611 -0.17545201896490503
-0.37719000629327459 -0.57453190881846095 0.27234020496372269
-0.38313021265834379 -0.71737693413818704 -0.3373673553522325
-0.084610112616603672 0.55294549706019502 0.74842273533905157
0.024196615853677272 0.62216067317649548 0.68331890146099994
0.46462929006582043 1.1740319812238753 -0.41431703517287854
-0.70638038659440028 -0.074808732890820906 0.7761803342374769
-0.47742255677111167 0.20970264539795735 0.55329570173337927
0.14376349315386783 0.29425600682574782 0.71498245609361799
-0.60736532352864714 -0.94266242435939063 -0.43120133408071659
-0.67371515480732569 0.1017393988637223 0.81000475493393509
-0.077935530447823531 0.52628938582709317 0.77839460116567949
-0.87032644530543823 -0.90045683565812595 -0.44911254363094777
0.079652696153141189 0.37070244695386234 0.76543018044453603
0.65811794402949264 -0.49262127734468653 0.70071729964616836
-0.5682584393856569 -0.094454610131591121 0.68802781038320227
0.66012852303165492 -0.46281270643981065 0.65381113608018793
-0.61638883018510349 0.35578625043109291 0.39691808184112531
-0.029355669407394203 -0.11679056937430232 0.7506327971000033
-0.020558384386159645 0.20257824058552565 0.76070428535071155
-0.57954828747985676 -0.58311992906452048 0.18454137703764878
-0.67150554661760964 -0.5146062805340712 0.24477114889705121
-0.19926783432064488 0.30538649374385685 0.7769952364986068
-0.58379718458600394 0.24601810420113956 0.58353279401787361
0.72195906179155145 -0.65292741424591405 0.55424701772941187
0.72374129869437198 -0.31751063205047969 0.67649537046181463
-0.68459358000545656 -0.68893844351349198 -0.41295686411163146
0.043881529330334956 0.66308159395938215 0.57096873377407675
-0.44102628648946141 0.20768790227371348 0.59897773804398646
0.77510651729777402 -0.40809691817175942 0.68522188618947855
0.32275372959392712 0.071615171623684137 0.54050454799513403
0.35849276141561148 0.99757703943298282 -0.42003997954666872
0.75922051188629025 -0.31988519450637654 0.69696949053702628
0.11496496285159807 -0.096011796411586303 0.76487571277186106
0.3434302208027189 -0.39623929509812639 0.48239945625764946
-0.88193603937749465 -0.33084129402894469 -0.32751911230548991
-0.40393777519823226 -0.77783438075694811 -0.29719622939022017
-0.60773236450484092 -0.36524090529324704 0.67076620028498057
-0.12143436209819405 0.9394584998210731 -0.24363118694677238
-0.2241861181155187 0.4774967405140309 0.76594101341585485
0.13546984895847825 0.25089752385272845 0.72617945347990798
-0.22063469518260614 -0.34130736496677372 0.63354242873576716
0.20650421715499601 1.0132508068458472 -0.31989479638125262
-0.5645464376691578 -0.8858314221850101 -0.39356903017848577
0.38675285961412342 0.2161590008249048 -0.036689556578881621
0.24433065208688731 -0.0074630678505052117 0.77195283198041853
-0.57311433447494764 -0.053085736442044507 0.8104610461811621
-0.60456921364936633 -0.19486306158141264 0.71867408009797273
0.56890524812416743 -0.0048796515791664774 0.59920872568751093
0.52198773650391805 -0.34858063046822707 0.32622894997542295
0.35757368286428637 1.1184780868197421 -0.43299314871097394
-0.27281719282129835 -0.11426124894158107 0.78952407058547891
0.10703512232873202 -0.14364926831830016 0.80883746032713688
0.72628677038553846 -0.37380259793513204 0.67573378922768867
-0.2014202826473257 0.0016289351977780697 0.74843107109692597
0.26028983274428663 0.75345852295008153 -0.19926718739180282
-0.79953736034930856 -0.89372005373614893 -0.4502282335034673
-0.62730472576527241 -0.28658833390244887 0.69763476379819878
-0.68222051829177488 -0.97217900822912884 -0.45025610574076236
0.13556718844420157 0.42566817987989802 0.71608019389276301
-0.35051105791728454 -0.2811657708546822 0.78485703382026528
-0.40807355990652994 0.01070421645182229 0.77529263962797268
0.095546584433936488 -0.17701169778374748 0.80475097729151734
-0.91913547722437694 -0.17619275333555573 -0.35020727329974966
-0.15413459424702491 0.56027963448910612 0.73790439198556435
-0.61689870603617969 -0.64517813595781615 -0.28228722320352784
-0.19995132887145495 -0.23291853465210055 0.73766197089196672
-0.6557753296832729 -0.96210062307747291 -0.43315516265933507
0.21996301330209603 -0.34052640023436631 -0.060538463665634201
0.21349483578982476 -0.38182940709583812 0.65039193360366987
0.17891763842673303 0.32880326793949699 0.62517534853597923
0.0874486991388288 -0.14563307038363149 0.77176813389985455
-0.1074988565924917 0.38086348000727632 0.81616587860514933
-0.69836885591288045 0.15633505507297585 0.77977388122690883
-0.013210379731605215 0.17254204356714808 0.75939856396221561
-0.54214934003424098 -0.16222492255795373 0.75024597880914712
-0.7526195267814062 -0.1515584769546412 0.67514772250691013
0.33869882660781719 0.43035885897372583 0.27576038753608934
-0.42013292475763259 -0.74918924372924933 -0.28281561208528627
0.1454412188793146 0.74591706674452984 0.61069522032640444
-0.22573582847236118 -0.36058990850941575 0.68261255419877553
-0.90908282192508327 0.26795761598341938 -0.17693149509327188
-0.17869509329804778 0.31736792916718137 0.77137604164710627
-0.36816647801353963 -0.38964233882058252 0.66154250002739667
0.28402136469292549 1.1253061340816646 -0.43313851324269681
0.19232778165375858 -0.36963775167959051 0.047757177823904484
0.32967548143983194 0.96745458283565711 -0.38118481583070718
0.74060838811119645 -0.41429862120432226 0.65723693190044363
0.14820666619841205 -0.2037210468507773 0.80072746440351261
0.76111442621194403 -0.34995231817621142 0.6852934462827478
-0.2901706712098715 -0.14538605652277514 0.79845821727580324
0.92114153789775355 -0.1994572819778706 0.5845621806237089
0.42636483841251283 1.1730519876512844 -0.43024902489237021
0.0078311911658275335 0.27288634556855484 0.76009766800959877
0.36133713963460712 1.2691077167704721 -0.52013123028454089
0.15853431404031149 0.3351045089841751 0.70092171671024417
-0.5178699643829745 0.0074300560226321366 0.77589266761735942
0.12894617234695804 1.0752531001467656 -0.29214723557385419
0.12384038302847444 0.44047096102584427 0.72324423687653372
0.24417678896032058 -0.0062602203394170886 0.78928694631952157
0.096820333134871817 -0.10408475858495603 0.75563547303861966
0.11325159271587304 0.97810196572083807 -0.33102423617703014
-0.53160296752851366 -0.82895552737427725 -0.36637955381212173
0.12704012029360001 -0.21265446628178442 0.76376528147644507
0.71880785227162014 -0.48393566138888433 0.68563903855062946
0.092138670239434006 -0.31030823735128976 0.51473574053967397
-0.62925852475146105 -0.11334232012793777 0.76845661466132142
-0.82108795882436425 -0.69934970177337519 -0.3252590974444014
0.18836484681628907 -0.099681116033045747 0.82215035349586429
-0.60428639170583853 -0.087806763697260592 0.76490162321226052
-0.63304127784210884 -0.65187025743301596 -0.29686103373763029
0.29812907453484883 -0.2562397489322521 0.75565056340487047
-0.63023140995522198 0.038892011006524729 0.70629925266576166
-0.75609121787489908 -0.92949161262890545 -0.45992470837913846
0.21414648190871155 -0.32444808150989246 0.69957484578448259
-0.51574238261079586 -0.61176811191084468 0.051611302815521398
0.33519432701508467 0.72796274234412528 -0.27629455511594125
0.12862763553305606 0.9245044134251581 -0.23462404475569032
0.29543915240943175 1.1778690748671821 -0.4411782996197644
0.67605935739739254 -0.29129231328969163 0.73176945274523764
-0.27283210965645033 0.087753804640794186 0.78176386587024638
0.21430163965406379 0.07926547500829173 0.72173403057658003
0.044237512663464429 0.39861056579602305 0.80424049454876823
0.22063984640767842 0.78701441267968164 -0.24481445204191488
0.066786296583192239 0.58113196795014055 0.69032059000728552
-0.3751820576742233 -0.63356668050155918 -0.0020464064591152464
-0.27637473133641599 -0.40811635734905494 0.59703006543320036
-0.51313334400902733 -0.077709925066292485 0.75995389835050453
0.68324171837970482 -0.43520954214685226 0.70872044242594789
-0.52733701753417961 -0.34001436215311109 0.67894040600765559
-0.5726400646799803 -0.26809084368230174 0.70837638290978688
-0.76648305059779887 -0.87340604471635386 -0.43224044131570061
0.0099785673831050969 -0.43923406040393509 0.0074684396581755907
-0.66873508519754665 -0.90003078799548497 -0.4278895512445775
0.72100235457434181 -0.28556436373169092 0.71028565582559278
-0.024835753750476641 0.35733072175398117 0.82185625144366714
0.22569918778446449 0.21961657335019447 -0.57913235134302932
0.2455244592869601 -0.0069627275785002496 0.77979492057488264
-0.27275682617692421 -0.22774135305015619 0.78084876609816056
-0.58172225812269396 -0.62917892706532941 -0.26485696225569244
-0.25487192595191388 -0.013324026317771853 0.74930693406581894
-0.2602660525073297 0.3929254777104827 0.7631912904421192
-0.61847114963697614 -0.022045181173995232 0.75288555127053058
0.49824520882084755 0.017001005828984006 0.55832189907604146
-0.53673351154409232 -0.32892051688325896 0.67762413170330593
-0.9615407363992432 0.037504646212402903 -0.25623847119171117
-0.60430410261742651 -0.58093683418106146 -0.38432430641655557
-0.19572953028536322 0.31968274166225541 0.77699795506830505
-0.083570408090026582 0.2497503987635703 0.76429099993804606
0.30587973390156264 0.71508544684936481 0.099099363969671117
0.15444247812995471 0.65927566162353823 0.63206290747546046
-0.67436986206411653 -0.24595115342534868 0.7359576726056396
-0.9259831003218606 -0.81502500382583021 -0.39494527618369624
-0.23963732744414301 0.55842133394937576 0.76863001286110944
0.1337957732181474 0.37774261818849109 0.71917851601728433
-0.49198006007602224 -0.36916567681749202 0.67556408703119786
0.14577106538468243 -0.035115427825625822 0.77648550610862799
-0.44729366922267566 0.11636451614843146 0.70238830953952913
0.14152594509028971 0.40672543994609889 0.71531771945310751
-0.74340769138757956 -0.67231640615905963 -0.30916929945677118
0.14280949207169868 0.36784998112084466 0.72202818617113174
-0.52706637108557253 -0.038828181155865948 0.75700131743753296
0.20285414889744136 0.0012444092111003613 0.79795896222306739
-0.39417118931717354 0.20901205299696812 0.61700396799360746
-0.7424675392477269 -0.53096754029968452 -0.046986172306511698
0.22439727528031872 0.0014798531197843801 0.77800877598986906
0.11340659805636122 0.43205890229869925 0.72669684604765195
-0.45653885975576003 -0.61875076906190429 -0.21741759449114006
0.1497505483347803 0.17349485356690053 0.73735130927969728
0.59819537017503066 -0.32473164331399751 0.66053668100025043
0.19668758125731944 0.83095522490954865 -0.010543287596048501
-0.46149902819444333 -0.36436615586302079 0.67637377892593153
0.021179080629020436 0.56637710235050165 -0.60959384340516576
-0.88832372691946571 -0.68172039808887508 -0.41266532737948403
0.25980419346705652 1.3060868301072013 -0.44824365046067882
0.22993624351905595 -0.033555106843583538 0.81631007419650103
-0.54994851283896473 -0.30813084104887167 0.65144247183728154
-0.21132683395052254 -0.10037035036136999 0.75636139591814811
-0.98662924289929776 -0.91408263470602158 -0.44600037435640161
0.69549566522640394 -0.68295257340980964 0.53942408523389496
-0.57217199374616889 -0.10163383656657832 0.74157435432182517
0.29659223172487215 -0.19514458725096251 0.74654358244146124
-0.56731160061392671 -0.10284026187715067 0.72514677402842231
-0.29634604152147848 0.30390331764571599 0.7939265083747209
-0.56986129360362803 -0.1084287650428073 0.70101498612896762
0.43278988318362543 -0.083882667923864229 0.72289639119821969
0.3049735554312587 0.72380797325716673 -0.26325308248365209
0.20392023253848635 0.49306508355237399 0.58126892829532495
0.28416199196232883 0.10372956838921665 0.52322949655342066
-0.063211839796456726 0.5616615402784193 0.73713037535188874
-0.59821312898789891 -0.36382005905450221 0.66697843057324291
-0.55864078420593799 -0.17130983840385561 0.74484222217064255
-0.55399387488768248 -0.075481925630477509 0.72407805532504277
0.19706744426535705 0.33813207367897746 0.68568742754574608
-0.74278551770866841 -0.95112019879774756 -0.44832413165837925
-0.033641210668413635 0.23739470210296965 0.73175606591041209
-0.25588772465587484 -0.29264187033120392 0.72391230058272493
0.29338069431877045 0.36736004391186494 0.5792213488196154
-0.25393392466295728 0.50293655279801364 0.6530900066373917
0.30471849564560216 1.3149627171035121 -0.46213640000573264
0.39858066899246963 0.076692591801370891 -0.031685893117002095
-0.34701593849870704 -0.25861170872020667 0.79544209659460752
-0.07781462580220122 0.59985729698314394 0.71866033411847319
-0.29516748176385121 0.5767591000412704 0.78106247327425216
-0.3617928967654862 0.43089969508401893 0.62569838171348202
-0.40295088480302321 -0.77863942455789825 -0.30484323735377128
0.8229751653120857 -0.38303121808181562 0.42787292554928547
-0.33888076865812483 -0.43993468506035083 -0.50028812784824894
-0.71262817205314455 -0.23322807300735615 0.44037230047806952
-0.58459192576586005 -0.70441187104059821 -0.33227006839534656
-0.68046204756993234 -0.99670793351408093 -0.40409627560379402
-0.10168354553412318 0.51532432495182068 0.78158677280077704
-0.020853044964795231 0.20411503621815363 0.68216588011023305
-0.4429791821200359 -0.73661219537509692 -0.30613292344704535
0.30931003922781741 0.082582726287860453 0.5017172966500496
0.73101409466319733 -0.47161890044287347 0.68395300961069649
0.030671840722072297 0.92315752512251459 0.0050337699934761559
-0.48793034407729535 -0.61883474475829536 -0.25949310245482105
0.70472333742319648 -0.41059233190178546 0.65526092725170981
0.20211693046309875 0.92954138062766245 -0.26237455824485956
0.022217891501508547 0.56457637006128092 0.72949158284933802
-0.22563296032116531 0.28509329016895535 0.78523369349642946
0.19642229632430563 0.0097037424065533617 0.77089183945835416
-0.39625426907105776 0.32532313990870954 0.59856908556902866
0.72258850182725887 -0.47434807886508423 0.68881728747648552
0.22461453535100873 -0.041318424537378995 0.81627777828461845
0.14401725545284452 0.5350761350618598 -0.55271420541874317
-0.33006299344636703 0.18510345804431338 0.79942996141011946
-0.79169802507970477 -0.41599752681279867 -0.35655193101391092
-0.56934031833960663 -0.71969128251905845 -0.33687794280907823
-0.44100375319486673 -0.66599235857058492 -0.2812081503303534
0.3928814456524603 0.81427199737191813 -0.32774642125292175
0.30694241550103385 0.50342902237702702 0.47396732488796545
-0.38899904548647335 -0.07216484342978724 0.79759814253964967
0.046134071379665853 0.72030514985713268 0.65626766212848864
-0.77432548120415023 0.12959943646353411 0.33015047915184259
0.13675673322739446 0.52941729513394975 0.67447840002366277
0.26562940803532187 -0.44481592326330599 0.4138715803551169
-0.57065037690477993 0.10766961539470898 0.61404962073234159
-0.45715753043557017 -0.36306665987480513 0.6747535245738423
0.50430634579157374 1.0732322269022605 -0.41718508344595007
0.27740817327029532 0.48290558853820098 0.60690770861257448
-0.42493579285837768 -0.64064406264990836 -0.23156319469463682
0.38425254641222695 -0.15224692303484844 0.032632698377922598
0.27858969148255674 -0.085958928898348219 0.77373582535906316
0.27042302440045063 0.86440225457694808 -0.31751716592641621
0.027309920387226683 0.87494318404538718 0.49460678869760866
-0.5973531813234807 -0.64127540765310265 -0.29113817158046107
-0.36269662231668498 0.43534552447856711 0.60033435587662609
-0.081328112103025596 0.24192929511969652 0.77341556010435397
0.15947580706746933 -0.039850916786994262 0.79137427134569194
0.30388441053915471 0.60621849452057397 0.32934091674604105
0.29945382952035288 1.2198876904508049 -0.41299071440610197
-0.34596525891545493 -0.27876867404458838 0.78069974594966796
0.29669984322122644 0.99314178790394614 -0.36664768376308388
-0.33978514713227437 -0.38113275705387384 0.66049257941661921
-0.48497890639841224 -0.19571654491122281 0.78725187334466906
-0.52139901513151443 -0.62532574680053088 0.0056029966976725021
0.73840123250111267 -0.4652519801227859 0.68034393552390826
-0.20299002424415136 0.19191579017014604 0.77841330634997075
-0.71543455598221328 -0.46236305435757785 0.26330517847475443
-0.74781918409760983 -0.35738290594897165 0.64748003779046481
0.7226403266284791 -0.35757367718145261 0.65274754171008276
0.39355211780687638 0.083152597018909091 0.11909156562770651
0.13964413966909284 0.79845256276575793 0.59312176008983708
-0.5081220714948147 -0.049650644257235754 0.7464746429485416
0.15700016562278307 -0.026190490352050233 0.7997826304460911
-0.18249867404105746 0.56554319624363547 0.74389477969437934
-0.61075501805065002 -0.59289321550583907 -0.20253505425088658
-0.45875843583317666 -0.60965930124241163 -0.19955334182696727
-0.51357280383611581 -0.033132804077263156 0.75047168819190446
-0.35160907107260009 0.24911051883532309 0.78230784935491116
0.065968774236723204 0.69413502041595176 0.66222541503031884
-0.85486327318203692 -0.99704497043238538 -0.41835804359083717
-0.14633222885072081 0.50249157132785194 0.7635489452488553
-0.6635908307927858 -0.00079280211943366652 0.79317778772246506
-0.40142947947512386 -0.35482201751629638 0.69842398932613037
-0.67270230467064884 -0.77560045891122442 -0.35507634174057956
-0.28328472304841118 -0.65032006600248793 -0.15095706111753468
0.19000507946707135 1.08413160811571 -0.32904009510673582
0.37839063915901927 0.5908545548765719 -0.034804487968500164
0.29328411588015779 0.88674407429524837 -0.33510545023077043
0.15553748285303981 -0.076034113603019593 0.78845204309854822
0.17298291744987893 0.015059205159005717 0.77418578237223845
-0.43351413453430965 0.39657235676068225 0.67339644118511366
0.62489815680459238 -0.69424150909697224 0.5924553202455165
0.82964765427878318 -0.33132388465635554 0.67150561608378601
0.27832370460663514 0.0019036932128608797 0.73118075614024303
0.75736034731366697 -0.58549833592151179 0.59825723323939184
0.39369545127365457 0.66940414164096196 -0.21844985570615627
-0.57416805783544778 -0.6253484477165383 -0.26999067985207414
-0.29669032191061362 0.35074951943857968 0.68460764203157964
-0.072431031382860667 0.81066615267090802 0.32645599980705153
0.78180994494272582 -0.54733495208664351 0.4874690412535827
-0.31440231633966764 0.092305977435728437 0.78862599543873912
-0.18255755609071755 0.40272194545082307 0.77332546256850776
-0.81054555534777339 -0.9566353581359559 -0.44811029796767343
-0.51806034350728059 0.014101108555469644 0.77273122530331584
0.69031273734220733 -0.074241126334236185 0.52752557159852742
-0.86310033493265248 -0.98987868126372147 -0.49264938888950738
-0.10968003257056935 0.26001227266095128 0.77208459988581524
-0.015198777343837122 0.31402536102676359 0.79389485017950268
0.27776797763118538 0.0013737400388045273 0.73106680482405551
-0.72738604066402957 -0.97117323793239674 -0.46120556175805882
0.33020926707458464 1.064349632992716 -0.4029636428169141
0.55682560585064989 -0.51961018255699365 0.37488437255253215
0.24043851480827527 -0.25763294269213333 0.73618658234546075
-0.059195378831956802 0.38272115220599634 0.82543700235636575
-0.57946578915558078 -0.6497558629140272 -0.31930070970333801
0.8747869579212062 -0.37752903953074513 0.61524615014444262
-0.24179555418794818 -0.44330530442370031 0.62635440487953797
-0.09256816611366403 0.6346942851014914 0.64259224229542866
-0.16708842353064668 0.94027936561664416 0.029751499986421237
-0.01601398036002788 0.26461182890238444 0.76875894467125061
-0.33582327354377961 -0.34009815938048016 0.70829837977558263
-0.2222083037704472 -0.0082058291157807162 0.75736479420299396
0.47026135722687457 -0.53902234287366468 0.68780788901037937
0.15967792419578331 -0.22117475694073008 0.76119393675567437
-0.80304841983304165 -0.66323267960977539 -0.28389614349919512
0.72647784881448718 -0.44103894360380269 0.39887266497814977
-0.72976015174147424 -0.66596896039377285 -0.30500831544698692
0.78220391568142134 -0.088753659772144999 0.56792797050596278
-0.145806993035559 0.27875028828066295 0.74720146229906703
0.3971609167030179 0.6556213177784409 -0.28838059988552089
-0.25364971085120658 -0.060316420455144737 0.75848421827755719
0.48233239664088867 1.2449346383198494 -0.49733776236735316
0.38683794723319487 0.44030911278407814 -0.22090003842810813
-0.26226991394811483 -0.28530962129003723 0.72582980335263669
0.81210313048189287 -0.40435609725985389 0.66539645231562305
-0.23687201034413619 0.4446136057078327 0.7727563951030163
0.39125157362871832 0.10191048160888982 0.28429248652966521
-0.22749532448388177 -0.00015347915311991756 0.66413777892542225
-0.18687349899057626 0.25342920991294138 0.76939811004050329
0.33452155027347175 -0.25262681651813423 0.75495319720701914
-0.04972708783961366 0.5292542449956068 0.77350638332690558
-0.49111836778313833 -0.19152973468817169 0.78522405177786925
-0.28781212976278375 -0.70917118104338139 -0.16556875569326646
-0.093847984578055765 0.2583498920193712 0.76122989254710127
0.1967918739043828 0.83829653788421032 -0.18964473747933219
0.29482602976311645 0.64777859436683727 -0.38930004913690341
-0.29836663285650156 -0.51030312452371807 0.57919592518204721
-0.27072731036209774 0.33662549176101564 0.78013290617096587
-0.27291635930186331 -0.050188869253048551 0.76609368617902529
-0.87762247165906615 -0.8821442661895933 -0.42341122335454773
-0.39264658258272078 -0.69665614602339687 -0.23949800075214189
0.72120807816142829 -0.31235339589752087 0.69841045399126145
-0.68427641939951167 -0.34767275598481673 0.69875019980960928
-0.63757791192564106 -0.41247861876707947 0.66249014580051391
-0.042687524599639204 0.23371399654099889 0.76366532445097235
-0.73234954020597565 -0.50279750896503517 0.5813145094593466
-0.97680844729530003 0.046720736010005481 -0.066178218734068039
-0.44622202957146229 0.1774330307454477 0.71583410651563462
-0.22253424652992848 0.41934641086305824 0.77137279059334318
-0.44189636619880535 -0.18774017981838487 0.80718444524279764
0.4818673805483869 1.2460121936592377 -0.49524740776379478
-0.61376829930947174 -0.15372479462464539 0.71594357179815127
-0.26324453468423609 0.70612811502840156 0.71093220491518672
0.0044260564186231477 -0.11278497481635341 0.77045831436554835
-0.47844262561240569 -0.8221547018005424 -0.28834030452927895
-0.93771291153428304 -0.85201108596802144 -0.4018621628928587
0.67545142579890438 -0.48905406580460919 0.70535552472347618
0.061641353615137007 0.38618668438898962 0.7836458912620019
-0.55476217742829292 -0.17474440699465887 0.73217892008171859
0.013980942061464496 0.63460241536657302 0.67430534225193606
-0.43944852162997528 -0.6856622823196119 -0.26301904417281285
0.63251761607423473 -0.35349219057351178 0.35955455356080712
-0.743850117580096 -0.052481240939141527 0.36940961037228115
-0.34477135210141807 -0.0084410874694682558 0.76116659906374107
0.1466074345673718 -0.064064125486853973 0.79858774918662334
0.82611477018955881 -0.089005552977852176 0.54201713791260531
-0.64174010640572021 -0.82640177410197424 -0.39775500756957882
-0.1098579122416794 0.31301149579975629 0.78952721372978196
-0.51813987135140849 -0.86144902742933027 -0.34920087981422654
0.78163360170656304 -0.41538010303597162 0.68245680682869203
-0.70333382111506637 -0.6387805004182745 -0.26299591449815241
0.017965892842146669 0.64948646501093954 0.67852954596897774
0.40161440932314774 0.73174992523316051 -0.29187493780957752
-0.63898775212078096 -0.66385487634358675 -0.31128527139756557
-0.49674536106264355 0.52911038361584595 0.75321983509037338
0.063766784057933457 0.61494283372085334 0.67866791893494849
-0.50558003718606859 0.42273486083695688 -0.66547996723637259
0.69019733824695084 -0.57952039007581213 0.66247084693228409
-0.30635234451868509 0.12564638290628238 0.78493228598131237
0.41312780507069119 0.72481622631057552 -0.29296353306961354
-0.065122466790295874 -0.20858878616798382 0.74538273401655375
-0.50733970013137508 -0.31608513054527521 0.69608346993272063
0.40670412141484003 1.2096926025364683 -0.52258229273980183
-0.4859844677408951 -0.65676094569495902 -0.29900908029167494
-0.53396211494896306 -0.39377626712902081 0.66702799037999627
-0.14596931257489087 0.28264536324572465 0.75502630342428834
-0.44350967503853234 -0.27604096240805909 0.76729703218821887
0.69086165073903061 -0.040912244598750647 0.61383210584651238
-0.57301342413351808 -0.017734127249577902 0.79618632526475608
0.10061052576053697 -0.12439871215767795 0.77932544664807324
-0.12060247866666174 0.36131865424759901 0.80819380027685028
-0.10811626099823268 0.27491169219570466 0.76044404024266932
0.5287872303368184 -0.13307470964814883 0.1549344230993821
0.17797937814654574 0.44470323682710378 0.65709495585154265
0.012284349328890443 0.18140262875620117 0.64615317283409013
0.14897770877908079 1.0039347857285215 -0.25746306597579194
0.76404376652911443 -0.30827931969456657 0.70431013467978509
-0.32106813200107154 0.9195726881251074 -0.16390448327878893
0.14238996660875056 1.0038239085892604 -0.25438783669057269
-0.54929243246050419 -0.052324660875164852 0.78831159428655972
0.16586763287508632 0.83944646716984739 -0.3766080912806542
0.1060808664774946 -0.28003452060364609 0.67045780178444225
0.22154296546254049 -0.00022657111577117917 0.78430517136561395
0.0775526327559799 0.44060901260048535 0.77531666467214411
-0.20762548759380284 -0.18843633051631969 0.75234346403020291
-0.36855675852650149 -0.45918130929966239 0.64095184324730248
-0.77264046496119754 -0.57626597292351645 -0.32306187978852829
0.59966663312474289 -0.054296805626036893 0.41354450511742602
0.19498017904709819 0.83069977044904419 -0.14626877799438898
0.37894808814138253 0.6689999778658382 -0.21727078320397092
-0.61200872741774681 -0.93072965274944153 -0.41929889038864143
-0.42938510188028545 -0.045616582382779214 0.78490020725195997
-0.91664655916260163 -0.29474552446986024 -0.24813467643432396
-0.36922099972665734 0.89793644106254289 -0.082595252140762909
-0.32168463657562185 0.86568356197785246 0.10696476827252255
0.070063762677675001 0.6374656808557333 0.67726629453137832
-0.37509892072267093 -0.027189089251344001 0.77437622922809624
-0.11926339935197361 0.27316998048476027 0.76151143760820972
-0.23587957989128938 0.47750555671057526 0.73467394097961147
0.94800401532696199 -0.17464440303246676 0.5041659862304968
-0.12657988912397317 -0.51346446270375545 -0.11594547701579662
-0.229083991117772 -0.01194525688597281 0.74875955057056276
0.46543880240933255 1.2267741707402848 -0.51733343996109404
0.17016864576442359 -0.10424584915345214 0.79983411678763972
-0.62614048438300074 -0.98444336217925432 -0.42280614050202914
0.0022321721828353347 0.27312307497737542 0.75914908938724057
-0.55399158200847665 -0.10029713907608695 0.74391697829837788
-0.30243784673243201 -0.25964624682493542 0.77553468259420311
-0.041730876865829103 0.2472323634343816 0.75347069408264211
0.41267791954219413 0.71024174901536219 -0.26484650414475708
0.26534737521385843 0.84097071390121592 -0.30105778447867237
-0.63796535687984246 -0.35838054981222633 0.67842565480870043
0.20400919612560031 -0.0046957601928205861 0.80722253926894183
0.55426948393382425 -0.22295576046820775 0.33834761492103516
-0.1016859034699813 0.51326688896120487 0.78450446235805416
0.24952071422751843 -0.051237639517540443 0.81215217447620147
0.36367575178334022 0.6257757820445391 -0.13919570363776823
0.69920920891778193 -0.48952690282685196 0.69626627080718606
-0.50572088563382245 -0.38439915235385413 0.59520752641382768
0.19850663549616332 0.84166065299667703 -0.20070436540254111
-0.37404542321724321 -0.70987409598257756 -0.27098536156614372
-0.19186998439780467 -0.095252715438018498 0.73565114868754655
-0.6622752663954472 -0.88246305596960184 -0.46905969968864714
-0.57251984109195608 -0.078483497677917624 0.74729331807032828
-0.71507350845594431 -0.85102231771860914 -0.49865531438087185
0.72924136392592587 -0.31765140509324397 0.68054013253555112
-0.044116005524251989 -0.11790377004099284 0.76576279057220376
0.13033241451651939 0.43016225615688475 0.71433243563098969
-0.79637281112544756 -0.8217562036737025 -0.41424691549553661
-0.63608132475875312 -0.1348715402855678 0.7468670799104995
0.25826430304726378 1.1410122401046556 -0.41820200888678094
0.10365420673966241 -0.13568624180748046 0.81340379579669375
-0.10446979189434114 0.17769068819385581 0.75611498357691487
-0.503203127561342 -0.60508367857505618 0.096666832536130176
-0.0065146459308099702 -0.36118957676818164 0.43193505690252287
0.1079747676476599 -0.35771028617482842 0.37448729162787298
-0.12217882035615224 0.43840609764345828 0.81385742687295348
-0.55189615489542376 -0.8516175228341023 -0.37602391790464296
0.0026405943959701972 -0.12574982428360926 0.7721291723131678
0.79082424774462501 -0.35785076183735587 0.68945015870611615
-0.37947710851817362 0.22976841655376035 0.69742724920410382
0.017221271930761617 -0.29947105154615616 0.57841827962268155
-0.21670257293672285 0.5344362704462442 -0.67292717205590724
0.67200016466809842 -0.10582882942559735 0.65266965699366608
-0.2703209985825783 -0.061528334582479971 0.7606433703919433
-0.21498559987945587 0.55997360547678676 0.75158545322362524
-0.85768402041219549 -1.0287031487170162 -0.49782298318047752
-0.33894978575013496 0.0033909959880047413 0.75800863045430678
0.30694175334679641 0.0083246470754911317 -0.22860008640551355
0.11267112679851765 -0.1435899689889093 0.81063507927983025
-0.031682689176648182 0.2148410596403334 0.74787491306221376
-0.35413927567586989 0.82884826986578508 -0.40716288808871315
-0.28256027187772048 0.37026190158155536 0.73982944242702686
-0.64065989952353797 0.36983359478661082 -0.60479446255560887
0.033300338061732049 -0.27779395120677819 0.6141390449122488
-0.039634215632887049 0.19622478919415265 0.75463705442886386
-0.35235499934488135 0.51471025660198677 0.80055105102918578
0.2403574032308704 0.8587057830015663 -0.26771651165730503
-0.60883349291317579 -0.36652329269026218 0.67292135014949217
-0.17823120636507728 0.42995443381916409 0.76259476956507299
-0.96935288505948125 -0.80975399035553286 -0.48101226415732068
0.48280118104970637 1.2424222231096724 -0.49830984323019806
0.19126120015966031 0.00025871628786688916 0.77447221848593117
-0.043702755589611897 0.22686584071689175 0.75827408769000826
-0.19514379790220993 -0.32082582803068282 0.69710508868329857
-0.38906073024970667 0.20706224873515566 0.69756507960774172
-0.43338484629643759 -0.67399046364199044 -0.31332635489088556
-0.20104616214555016 0.63095313504555106 0.74903830074305056
-0.3763112294519031 -0.4724626948194901 0.63240527453156048
0.44808564995615735 0.62973213965277108 -0.15776506737326823
0.92135400382609156 -0.19967879624839277 0.58367249261519971
-0.094796486874945352 0.39169043316329422 0.81955893046252193
-0.36287392226016957 -0.010856714187140071 0.76597100919638539
-0.2569311528344187 -0.0638652369542001 0.76278807816788685
-0.86176002495544424 -0.69218027459844578 -0.31353079820148455
-0.47829222294993201 -0.92093838970519215 -0.40278514165015178
-0.30338116051436126 -0.23171452278400095 0.79417670782951066
0.49989387860346174 0.76753155661412531 -0.23433826607394154
0.46001468216437047 -0.60939210658762732 0.6042582623237438
0.7714821245964032 -0.39854996371810358 0.68911032512304526
-0.25274825962810965 0.85234203993505364 0.15221895632089399
-0.52851156210235661 -0.046342679232354023 0.73766384522510364
0.67957827739620491 -0.6388242866562841 0.62902101297575719
0.51628643621415193 -0.65574447370877387 0.44807916028010286
-0.85310460871394334 -1.0406772294321367 -0.46112539056558788
-0.70446634369938366 -0.039398948069894857 0.77592286891743356
-0.44080264080983295 0.25420000756745109 -0.75236688929354234
0.71694559615197762 -0.48319776270786557 0.68851759160060588
-0.21738005964748197 -0.13118661691556355 0.75835018262886855
0.026998487707210472 0.17401220761184533 0.75351361623814883
0.28499626998681382 0.73128932244345823 -0.23717031759266627
0.64405071033097538 -0.60942817482454625 0.65871655376346894
0.45671033776096692 0.022968024535956033 0.45826257822629657
0.16051575705395749 -0.19887277611236343 0.80856773040279961
0.16305102450343867 -0.030299029553238821 0.80811987789713813
-0.45701818583487031 -0.47409289882978101 0.63310486382449649
-0.41939812268416254 0.009470365580027007 0.77564573038710449
0.1223757948562563 1.0542332756526029 -0.2823608199120457
-0.095022992738326373 0.63875512485048525 0.70565050508444038
-0.41728936407734452 -0.61428952538049941 -0.16326730148883772
-0.57334796951493594 -0.21129505475834698 0.72024134219939384
-0.328961246439194 -0.052317903815202627 0.76657989958767647
0.73472833539057092 -0.62422023061422038 0.511335731041898
0.61073036206652986 -0.67047415851839887 0.42090380898732072
-0.46900741420008535 -0.52779420806598654 -0.44096766972785867
0.2997348129307964 0.25652294528518382 0.50078244445664355
-0.75675697431200051 0.30553876822498416 -0.51329771762746557
0.33502189810526106 0.77481898886542133 -0.31982324018630059
0.39615668657047109 1.2023797881924079 -0.42899186777425413
0.73871094520333713 -0.45003286882979943 0.67046258230241129
0.059867158037393509 0.65145056912791022 0.64240675310656403
0.75729992566288296 -0.44929607580417574 0.67332730774958449
0.62079494844141436 -0.67100160549903798 0.6158365724587519
-0.37509536244039937 -0.33406234774032151 0.72047156621090613
0.29038806278860108 0.19920835022466399 0.49670658624652475
0.05035332761560718 0.28369503463952483 0.75579883305340623
0.36508400103738792 0.75659793552332211 -0.30844713764293791
0.39038170418283658 0.55709800376339524 -0.072226007465323372
0.087211511115061313 -0.15212004454461592 0.79939298454898733
-0.56575962081722508 -0.23854100786909882 0.68911364903715722
-0.39232220508837967 -0.086701923517847668 0.81242447604588763
-0.087698416575591631 0.62827207374610783 0.65527413686115699
-0.14000649987732461 0.53442701052505104 0.75270656315016904
0.17395788482743102 -0.3859478699386667 0.45250669660783416
-0.52085741599330948 -0.063169138233234889 0.75734400445675476
0.32299610943037105 0.7750152566613302 -0.31460951221341737
-0.51228441915145062 -0.63370159460480302 -0.32420244345689753
0.078249590814110093 -0.14773327968308703 0.78459136702065635
-0.23271962220224074 0.30237658816132207 0.67299837849874422
-0.063796022861822621 0.052764159693371226 0.74404368255398445
-0.06798945814765478 0.26437979083701624 0.75552769232744943
-0.65679489357352061 0.092829148331485811 0.81068130502960045
0.22931504006977654 -0.066162507373976887 0.82123789499600264
-0.27711629762690748 -0.18327169910994301 0.79975733153901474
-0.092277307862356106 0.21373202989204423 -0.75484205175312991
0.12172078011687759 -0.16734142876995506 0.81704598234804759
0.34516737992425206 0.28725780049159155 0.24185402319771754
0.45515496862506666 -0.33470410309669774 0.73813889063136529
-0.44094318949485789 -0.82378069705325352 -0.25759725864082661
-0.85001055340971021 -0.9689337148559849 -0.43313698912429466
-0.14143325877272339 0.59597341130875137 0.73097560027569486
-0.61309140023398712 0.18977461669359741 0.7214039372638883
-0.10512370091973722 0.95853414331631615 -0.081286242791600988
0.43639104398901374 0.69638598591022394 -0.24665494793896414
-0.1861789053981262 0.37984877262159955 0.76653483752754425
0.1245236119753419 0.37310704444596943 0.72600676875503645
0.21432519796670357 0.34914593099307645 -0.55940373098838747
0.22200503062982491 0.7631658702553481 0.3047621350084686
0.20546933326610173 -0.18676784404318525 0.7977535774349036
-0.29058999526036899 -0.051088425046717845 0.7689148370287211
-0.055921720940943942 0.22781721495981166 0.76520467260083436
-0.23718490676515458 0.41867060802197997 0.74366566297524272
-0.50593796843127592 0.20987013480572436 0.56607224239751908
0.12167250780111338 0.36448889778755067 0.73015020055669133
-0.43943126563558366 -0.6801333376027614 -0.26533730637321895
-0.52675522547147846 -0.083328022847663163 0.74634887708554842
0.064394733795569037 0.54701091352368181 0.70993106927513239
-0.66656417631763287 0.17432044182575845 0.75611378630869019
-0.78350561275145658 -0.98440017199036234 -0.44911643152581959
-0.039929006659442656 0.83762496567147693 0.64962862398926013
0.47744317820820337 -0.29933749404916199 0.32079827169110531
0.72375386949943987 -0.49593271881686718 0.6940431600274698
-0.36141028504149553 -0.036511123128899925 0.77320686779405712
0.062399545345037666 0.00054384523982164978 0.75028230580306321
-0.97144614273741903 -0.1029967437355257 -0.099655190632560897
0.22920430556130977 0.31128340039812485 0.66526934758904588
-0.068259647704644877 0.88039421293343523 0.18977509100542436
0.75446933883489464 -0.056644823245079579 0.57395026125598037
-0.60759089047841286 -0.89460609082529619 -0.41346504935964212
-0.44662078664911986 -0.022228909791765616 0.77036383911440076
0.71684833494931999 -0.48247097124628802 0.68712555574684653
0.69133130568999945 -0.39095330735790412 0.67497463972781624
0.2211686104473074 1.1299586733124869 -0.46856563260548256
0.38777300884461374 0.76445114248139523 -0.31549843520924048
0.09552846219599509 -0.23929291772937589 0.7085560083508895
-0.60405417828718644 -0.66478404866727381 -0.29966175588962418
0.13036375457114158 0.41508637552852878 0.72103814245643782
-0.2415155932703783 -0.080238129478967579 0.76457296275574116
-0.51856823094957871 -0.058241416429749115 0.76292638051083728
0.079372390063090048 0.48211035965847948 0.74608071821272048
-0.26132056045642149 0.71048595809238257 0.7111376198025452
-0.77119462798229543 0.4451756412262301 -0.38395521925783926
0.025239538527539906 0.3889234184914685 0.81129909772566577
0.28084519174768019 0.51770607682894187 0.59296801835037627
0.34305410983883911 0.72600961553392018 -0.27342361501425216
0.16642590210877284 0.88414825509006789 -0.30473909147525902
0.87381092927172532 -0.35944703109848869 0.46018993549139381
0.1979792370134561 -0.0040584894713875386 0.78858770368124587
-0.56286138344402903 -0.70103285043707864 -0.33833171279696472
0.31594218692288223 0.36681566879839345 0.47657543759871146
0.40864263816059321 0.068608296833886584 0.50937784286566767
0.31078741507079144 0.14043992352090351 0.46247826217853572
0.76573210575106287 -0.37749296062373361 0.68519658281365903
-0.28439842337061094 0.52050004856060461 0.7217794299880893
-0.022535185176437267 0.22727890699202646 0.73299076576175182
0.28954777025780309 0.3085762242265444 -0.45205959820396147
0.13761607520730151 0.44538643016526036 0.70065203099845164
-0.40538595912760478 0.20393446450557917 0.74383707614630623
0.13216498122525167 -0.18031970954475085 0.80839651537388013
-0.14076254511748187 0.30248381459361751 0.77403300457143365
-0.73869185734028164 0.05157269006478149 0.77339174946542499
-0.11591775419042172 0.8085685068778572 0.60597032533439688
0.77695393991420558 -0.3813291617871597 0.68702882257319786
-0.4163121231093676 0.33629311998860345 0.55073535825189879
0.028615369254230805 0.7540745023097033 0.67094966875165962
-0.50921746024299885 0.032518895695885064 0.78165033308053289
0.074777853623797297 0.6106748570183651 0.65216448825142415
-0.3200431956511558 0.29917312295178888 0.81460789880222251
-0.31561529490059659 -0.01601992786902251 0.7706717914174197
-0.13961745200076603 0.29764824571469162 0.76430577418200496
0.31824712496831964 0.69809935328903272 -0.029100191498670824
0.31815678424111837 -0.50246750403132978 0.45040958605409198
0.61334314448544092 -0.53378888199827657 0.69936501362554804
0.43233988517551092 -0.22155448961183044 0.74327394186195761
0.42434046096776323 -0.21067150206044083 0.26794600227179366
-0.55083750751582272 -0.88224790229101835 -0.37617483406631536
0.072706901614879804 0.61731000055573748 0.66554318465290763
-0.46136772317620967 -0.92469413074920759 -0.31849263761811208
-0.15988880819235662 0.51272143536368842 0.75363241189455143
0.89174890484911695 -0.36970115204256487 0.57727488335453869
0.14370209040123338 0.50989654226871739 0.67996670725388242
0.91495801312148473 -0.33472792091356851 0.52885344588480265
0.20541861783598669 1.1228549407348964 -0.37630317538842917
-0.7610315724517065 -0.95040492682652333 -0.4480886814486551
-0.15541219929073469 0.43847326690215915 0.78353719881590678
-0.52088560137345685 -0.35180359396982297 0.67652136222110815
-0.51616026856362041 -0.3539777661131156 0.67571256983836481
0.19066324151282998 -0.42258551171208047 0.48715833231816053
0.12119137683622938 0.28471601198255314 0.7185614975572987
-0.13792939986663111 0.31294468943278986 0.77809043358756824
-0.40478455309862349 -0.76291645036726163 -0.35862071004146978
0.0200265831108557 0.65113224105756995 0.68064035082884544
0.49004406198436223 0.64395444391016898 -0.17630178322353363
-0.53504063564647231 -0.34111392955919806 0.68034964734767978
-0.1337438914054756 0.39279836394670919 0.80814008012607541
-0.28728226239046428 0.11939605488520399 0.78418455099850126
-0.44535552448420646 -0.87040430056179652 -0.27475711149271476
-0.25279032803408275 -0.61645197230622273 -0.14526892096758812
-0.040467826612903934 -0.22392988599835739 0.73895855625171336
-0.21747478251454488 0.32892160547018179 0.77338267160787666
0.17221247464131295 -0.011700953354193189 0.80479485033862197
0.0108966955464318 -0.13013504925903163 0.75806617901390538
