# XYZ point cloud file
-0.69106024662108712 -0.38206814618996998 0.67449525408886657
0.51682249919946632 0.011851486724976046 0.47747333595227315
-0.12628301733428826 -0.25053929735202729 0.71402778268515776
0.89210060828111293 -0.29758699563227942 0.47013068331275365
-0.28898750844173426 -0.12928198660038936 0.79456754115267436
0.13909748692467139 0.43975139261637508 0.70930357075561479
0.073911709692716654 -0.13396165133136706 0.78030254093382712
-0.55055281338569428 -0.38517493285613275 0.64506317820253023
0.75709128672541015 -0.40611693560133388 0.66895278243795531
-0.40350125319664576 -0.28326554543855542 0.76694981464545275
0.7671424377792867 -0.16976607591565324 0.39822272858038105
-0.39256136696804855 -0.028283243097444899 0.77363546732033184
0.15539310991981359 -0.14088358949960925 0.79214098559101542
0.55501788511395467 1.0376643079641281 -0.44714875459574155
-0.027661846070932139 0.25841139691987891 0.76541757373019759
-0.12245156222697262 0.26873644998437329 0.76435920674562952
0.11703942875058804 -0.14448673444257354 0.78933901766309145
-0.42739183344241249 -0.79831750798717493 -0.27761495325163832
-0.27535978273950434 -0.34870167581317341 0.67412285410540118
-0.35165997153030443 -0.4395700168590565 0.64080810915905406
0.30385112138327486 -0.36232123670178851 0.72011999098797386
-0.17818754872612486 0.3192792707678076 0.76366533703232031
-0.2374933131523993 0.27637612664604205 0.77403469459357166
-0.51490442274008275 -0.62381544193517291 -0.28959914852238811
-0.73944403473318521 -0.96265466579868808 -0.44032943445928785
-0.54784855568251967 -0.044812739547665792 0.76229125178658785
0.41897922992813852 0.9816620212025744 -0.40850463983436058
0.20601928947199377 0.9734899942687566 -0.32419558823688055
-0.61707159604611173 -1.006482130360473 -0.42822316326104604
-0.37225350525569567 -0.66265599184526414 -0.24922873629079167
-0.81393921577142625 -0.62939185479932525 -0.29027327360281263
0.064208777609641388 0.29541107223202534 0.74650934737996721
-0.039162124954998712 -0.297115000490079 0.64375096167746682
0.45908051115078896 1.2025796796821986 -0.4583635495700763
-0.073144844202310599 0.58647409933114192 0.72149123794062597
0.20556968312124718 -0.0012232896935172599 0.75996959158838229
-0.62043673409588029 0.67955473248183573 0.13131026899044215
-0.19064535609434841 0.28032488745128858 0.76724745049793253
-0.50737721164183236 -0.33860904927024038 0.68411012358898726
0.11187731451331562 -0.15491583215825355 0.77671814432646347
0.76172490059294651 -0.41013870714966333 0.67395996866199237
0.63566292785307621 -0.37933266768019336 0.72849227857420207
-0.22172278422991926 -0.54759630961174843 0.14685783555767432
0.27670343629094862 0.37457474719385075 0.40412054010681597
0.63356563594833859 -0.35654184993638316 0.72719585897640049
-0.7771560438807058 -0.88306492088636057 -0.43423824264412791
-0.63120543525109873 0.04587968953431959 0.80218726850910216
0.19308385251231919 1.1769369691249436 -0.4029030559210387
0.1113787475225525 0.63618636670609119 0.6595346990289952
0.33450368595694435 0.12744919185505665 0.51099533755001403
0.22622373197412848 0.75842268137007363 0.49587445642972017
-0.73671194302852661 -0.43795410528767731 0.46493702693058453
-0.51489503821459737 -0.064962426139423712 0.75629910004218659
-0.69500951585824922 -0.67313217343215626 -0.32140813230427379
-0.70688084570897625 -0.39740012779669792 0.66496103197284018
0.53610568684776516 0.87490735060086633 -0.36456275983378378
0.64373637219476132 -0.60001352571889277 0.51893223238569863
0.15898211355873859 -0.038184562409136008 0.78373581637907197
0.15999988514047991 -0.0054898715088581573 0.78013049955990965
-0.44897739819437366 -0.76553490120207024 -0.30186701746590106
-0.26673917623261434 -0.032303600284464995 0.74793771189746183
-0.53989010469627619 -0.83905275171140059 -0.36411604839466705
0.74036215166586472 -0.38336113044894038 0.67424556484177733
0.38307774533003386 0.9648754120293751 -0.39322171241659482
0.49374393360978414 0.94043681605784768 -0.38504687461841058
0.034515495139272545 0.42884713347079995 0.79778174426803827
-0.23122500910879173 -0.093941103992790875 0.75328862063682001
0.341655636825835 0.08210671639514544 0.50886173438437154
0.14253426951607023 0.44380137092245664 0.69840141936438105
0.32821475165456349 0.7727669465420367 -0.31005329252678959
0.12706905160747806 0.53883399263095355 0.67201718672779598
0.16708429986954521 -0.33498167772554233 0.62679393299217789
-0.85321661703897078 0.36496327802306694 0.04698233710039821
0.28332255303910509 1.2470808761157568 -0.43196976807192966
0.22692126718170302 -0.037702418527342241 0.78450463398390324
0.69621215373810008 -0.39430375326033773 0.67827804768085631
0.30068577880870073 0.33155855852458771 0.51832513893610788
0.79600510397623148 -0.26379131082359342 0.66100435207638142
-0.7459946015952672 -0.35311931865079638 0.52156114463834702
-0.28208393474071847 -0.029484221568731844 0.74530653446496986
0.15040769546514665 1.1045451775632193 -0.3593147946785531
-0.24723638824573957 0.94872395096728757 -0.16016609964574213
-0.85293864152016452 -0.91604868469843792 -0.45238705924437839
-0.39349513455427276 0.54795530430583339 0.60338979443867569
-0.54186818823037086 -0.91671987755746098 -0.38039084710339854
-0.12381245423882881 0.57598215049683232 0.73375674852721673
-0.10007603968600486 0.91620840050222629 -0.34160738906300964
0.30104047733237049 0.81121799044400977 -0.32096468535662598
0.101820454246623 0.58767699349312141 0.67139831379718284
-0.15475616679566739 -0.067335400065525075 0.74425329365868664
-0.55849223786366342 -0.82708496954478705 -0.36757675756493535
-0.19411942599223092 0.52287953913692953 0.74626216897131492
0.750363095413078 -0.38360139578070873 0.67851927338303408
-0.038327526748300755 0.24402336880796316 0.75870105121630083
0.5576757134074023 -0.39026450269653323 0.7313249313149619
0.15801647546306619 -0.090563704207706763 0.79228128790963503
-0.83616106163483106 -0.73410712930313904 -0.39704318544131345
-0.29418722197165792 0.42548764662269223 0.69158125318663721
-0.39978551046972077 -0.73044871986223225 -0.26272762928812288
-0.73947187755522226 -0.5115084010007438 0.038313925830440354
-0.30968656307181375 -0.27403823398920019 0.76168787783229486
0.3913010730436377 0.94780778206161942 -0.3765143471426935
0.34211852518075681 0.19627769706671572 0.35930784348321687
0.44407880489815188 -0.054111533148556989 0.69067012335768396
-0.53418948778829745 0.78246541433286398 -0.29420118507368065
0.93209353831705966 -0.20516755782119553 0.54511716882275951
0.24746979214348488 -0.18854222493290632 -0.38261046849968461
0.10103361172100089 0.36473163808348341 0.74866839847509126
0.11480832143132047 0.69573376510110774 0.6167715618905858
-0.40758608504457994 -0.27822721338116746 0.77205530467221439
-0.80174125597073331 -0.21466498089434882 0.24686678907587578
-0.50743385625206183 -0.046854754456028935 0.76123026417384043
0.40377513278403399 -0.015114698355792155 -0.063904428064478935
0.090852243086834511 -0.39441048378185095 0.19179895071554381
-0.38318811180169993 -0.65321342302648278 -0.20981953002407394
-0.84970960977681032 -0.96494969919596074 -0.45006127196127355
-0.56164944279296902 -0.1723261255031614 0.72956702820964692
-0.00051460629491439924 0.60063219943427137 0.70961766634728418
0.2721056333914853 0.82516282577443734 -0.28904856424267145
0.27734973197264967 0.32695491306100344 0.54178214635990862
0.097081941196335869 -0.26537639633853094 -0.48805409018152118
-0.67794856436368234 -0.88803332066296758 -0.42851470916822443
0.077656955238257594 0.67791371194808425 0.63710435000906074
-0.655871843663558 -0.65396574948037656 -0.3130408327596077
-0.56301733198170978 -0.37346173421322337 0.63789660439890239
-0.43545176051402806 -0.042088815919944622 0.77764193600090903
0.7476025296663813 -0.40341791376712921 0.69560305489824081
-0.16593339736138946 0.3425704641225128 0.7682036716312538
-0.094931345052833738 0.59289482070890065 0.73458640170804923
-0.41039734252529625 0.030786765881102962 0.76818891401607603
0.48906647891002103 0.86843681142551321 -0.352197258098011
0.28563159551075845 -0.11063691259320896 0.76844344027325895
0.65293200516895988 -0.68099268409767388 0.57607951137762425
-0.50203666917026357 -0.73646484873384965 -0.31134137543781892
0.7293635823932999 -0.52008333026873188 0.67006790217750267
0.023142305370102645 0.44390095189405299 0.79581745221997924
0.3204174375358928 0.73619448598373571 -0.28345805828558368
0.25571870215754877 1.1491406179819283 -0.42668263326551209
-0.38877015183802854 -0.77470454569450775 -0.28413973227829814
0.84644011085763304 -0.31130277653708505 0.66824200817013057
-0.35932065434621724 -0.66476595052431398 -0.19187312033583295
0.10938691541970114 0.52636824473718713 0.68511096284327877
0.63084193518806009 -0.63986926633882912 0.63632013505020824
-0.27434761290936371 -0.085709683582829044 0.77251960827530142
-0.27868550176057016 0.032065083582217824 0.77361549763467541
0.32136630365786545 0.73479582919235986 -0.27845838172186421
-0.40632551766860203 0.10506539764149747 0.76255118538820055
-0.35599759074575821 -0.036448871990523379 0.77403028871245672
-0.36728458687100196 0.86071859375961091 0.087834356536759417
-0.64587149534762545 -0.67663530159909258 -0.33346950993691005
-0.57792373793711638 -0.21563341953247139 0.71383067484979645
0.47710102295662571 -0.31552834706212884 0.74371632500111673
0.24796845737827078 1.207823300596309 -0.42918459800219999
0.64875686879169825 -0.607415801615523 0.65206470305915598
-0.021645881918437929 -0.26383239246184631 0.69577979803958367
-0.26095584117594783 0.15876783592384691 0.77915803880707957
-0.43379722274530064 0.36781223656614703 0.54476165940192356
-0.84174013456562102 -0.32970632120940835 -0.38376248180368577
0.23057504526491357 -0.23999026971254711 0.75351615766120528
0.06044164804746921 0.54179739786147074 0.71666309349208679
0.29922861849685489 1.110761074527858 -0.41690360994247611
-0.41875073249134731 -0.02195625273500923 0.7770814564172297
0.082117149473178497 0.24106518674206934 0.68223711898028383
0.74698270046007531 -0.35186898396614952 0.69419397062061972
-0.085082804304957627 0.53901417064184631 0.76850026386661729
-0.842837319902763 -0.92065258016965168 -0.44610543428274008
-0.2687731380345586 -0.028332572545410439 0.75024757568093237
0.68364300997044225 -0.48456270162545156 0.68901499177093462
0.37511546094261217 0.25966222046142562 -0.11693571853456886
0.26178994986651444 0.84653384490749262 -0.30838114887586587
0.70443346486781544 -0.47517157057218185 0.6826478110922638
0.34827519040437338 1.1592565366446057 -0.45461391793028683
-0.29570614793170136 -0.29942022116304035 0.73457975675374576
0.12903946482855339 0.94719461295415841 -0.26530855278296989
-0.49734930941201916 -0.36061744743265334 0.67112059344876718
-0.51441397625214347 -0.062638340554093119 0.75730076413420488
-0.85973867929616921 -0.21000362003662687 0.15778791827165684
-0.6448553552718419 -0.70580650795128441 -0.34160553599239035
-0.046193905811747982 0.4988952068609338 0.78196419350102009
-0.032952892534283462 0.18605479162793315 0.72012712464604878
-0.51285438088619451 0.13330200623118779 0.67992558089017652
0.15455384290506258 -0.082144360556676954 0.7892540762277066
0.40482766758440647 -0.59530101108755851 0.54811055027047306
0.17226582809056712 -0.10285323170762384 0.8006560561784053
0.10848200227774418 0.89522165262413955 -0.071360853818872139
0.38381626228151133 0.59300323816186262 -0.09670756279271836
-0.16007243691895034 0.37422994367227314 0.79475064009164242
0.72278879714556532 -0.34548773016675294 0.68402974189437726
0.46596904509230885 0.019065479167309718 0.52554661667384117
0.12130210555195645 0.42747188086323329 0.72034072107948521
0.3433274433975515 0.69200540712524194 -0.22827784507334314
0.19528135264774926 0.067198655849563818 -0.60504800796310931
0.1485140152474389 0.49193944800007994 0.68941862346722571
-0.057725211937540211 0.60102307141711142 0.7020506272093916
-0.61879666539874023 0.14635505203752475 0.7412115842282283
0.021304154531497532 0.28729830405416978 0.77301206612224904
-0.14773980943440623 0.75460977182017408 0.71153928155165946
0.35438963977363347 -0.50572453289075503 0.42576220326337255
-0.01530651776402997 0.77694261365096828 0.67542720070193329
0.12921521981591066 -0.10641619752064346 0.79154774674087713
-0.011148857679172064 0.51947730223869204 0.76016774804883203
0.20754871923259754 -0.0015591380081946271 0.77188211290157993
0.88932418593756435 -0.25055785611190129 0.61335250775812167
0.32655461427347626 0.7414909330576237 -0.28155145805832771
-0.48935574869695653 -0.3597114859778151 0.67371483018711076
0.90522349606729557 -0.31453971036315487 0.57712465266994251
-0.73743953806454843 0.0050243708533483922 0.62662893176148304
-0.027544746503677775 0.25537151102448119 0.76523828904443958
-0.21841235830366645 0.4805446085739592 0.76057511310296988
-0.38877965828998517 -0.77051763548934527 -0.26862762768522863
0.28982683039384849 -0.066075394477136451 0.76525916378063652
-0.19398222770776646 0.4791532555652136 0.77878636236589571
-0.96571255044423832 -0.82817801391438017 -0.41460775603063715
0.53107685032982199 0.89285624633896687 -0.36600548833595026
-0.33684348105798634 -0.28918661187033223 0.75791439621225376
0.89234162500817926 -0.33366738253154743 0.47510832795459557
-0.31795015993095532 0.58092357920671756 0.46491631195141625
-0.26811149695130754 -0.073165328575255817 0.76778471063216491
-0.13381988067892214 0.75033592485700229 0.71424027160461456
0.29636352858489357 0.56226711995541656 0.52197330602703218
-0.12186250485460937 0.43882958150884299 0.80232317066384395
-0.52956442845632434 -0.82842982356519235 -0.33712121930292627
-0.11333934733259965 0.49053832698975142 0.78938709590981082
-0.53466067722586308 -0.047948987836583336 0.74437354849857329
-0.43395341046107683 -0.68223911548577609 -0.26240997260839105
-0.52625463033072695 -0.90052713179199229 -0.37458956500973672
-0.64440424277303521 0.16309799763791855 0.74536992008236291
-0.68436775708322539 0.11689998563664616 0.70522406142324989
0.33064432712414016 -0.043412206080942761 0.72779255416055566
0.30771931730629726 1.1318785705520118 -0.44091034300009019
0.18410792556489586 -0.18642564290960673 0.7785162380961923
-0.24002694330940547 0.13787704307734971 0.77352712453887429
0.26771694817389413 -0.087675895409942306 0.77821506237307392
-0.59852006146410874 -0.57281341483231607 0.44485420486829697
0.88176560855931685 -0.28092294725572198 0.62829620359107186
0.26052854692185612 0.59552038518566253 -0.4386256327996052
0.12729492811335519 -0.15593849183256792 0.79447870993316094
0.4967870442792679 -0.050135194648397441 0.35547373982545416
-0.02623603949778297 0.50434691641940699 0.77345283317989322
0.69816107506718994 -0.51883171827466512 0.68112679094285355
-0.014289184029417062 0.33529669403377316 0.80613134449842816
0.038776764548171125 -0.41508877819367668 -0.23632430259183895
0.086667909547522237 0.9155661282679598 -0.14782169230856862
-0.80372339415584027 -0.99176117114523732 -0.45559701993609525
0.50248279015985542 -0.45485690724605377 0.71560446043112425
-0.27416791370192595 -0.044264845569128575 0.75587209049036663
-0.5284671398901335 -0.99463601869675133 -0.40687694181553313
0.30778366465821216 0.46538558155445386 0.56504603506664353
0.32289687694667091 1.0289318723002667 -0.40222113395618875
-0.025385081294470258 -0.049009154556576728 0.75151962434326625
0.47175576244407069 0.77618853336515647 -0.29934888048307828
0.41962026211023673 0.054874910887996009 0.0086337383641046372
0.45159873014865382 1.1193555443682364 -0.44718168227321897
0.3221911208182982 0.21577487081202751 0.43503483694813738
0.36175419999724101 1.1847012320459844 -0.45940560146032711
0.13131482927800819 0.83937136840509585 0.20464078060731639
0.18246972145382401 -0.36344774687363668 0.62199515924418458
0.71857392529932995 -0.064657666991305013 0.46542910126057246
0.28129081288240387 0.08672310046506948 0.58987861885193693
0.72919861068731917 -0.34858385782986923 0.68066825563667033
0.47926158575667982 0.69795352013125977 -0.20867526472029424
-0.41042237832758266 0.40295735768185714 0.77353024755709487
0.064553635907164564 0.63263225451215988 0.67395626410249898
-0.46028225448631127 -0.060706876918801722 0.77559467290284967
0.16397514304809968 1.1469920171988741 -0.37981140325259499
-0.49608853715309137 -0.6417995170255153 -0.28274668666130776
0.55037878728528611 -0.19882013194109271 0.73747599344783443
-0.27190838073926749 -0.0647335423551616 0.76360397563428561
-0.65899186627150619 -0.61300797319113887 -0.23660969301076396
-0.0096196650529207783 0.12647012300477367 0.72500011071519932
0.58283749208465441 -0.036566825395615538 0.63611810622544773
-0.56734978075034892 0.035775293396488106 0.75859875800167731
0.58726688026392448 -0.4981388543064722 0.69186102150876216
0.00057868095887791959 0.77922243466664876 0.6724162519743544
0.61719435761219188 -0.64796627425274878 0.56206586384281376
0.39190899164610027 0.72440527236233987 -0.27196037828635672
0.26058193471706703 0.99572320598528552 -0.3572177307264055
0.34681183403131188 1.282088877888484 -0.48419908726077154
-0.77149022842807713 -0.68645666883975209 -0.32993356518317363
0.62413701171962455 -0.66642472409252484 0.60867233213345129
-0.91042541624927398 0.016331602716881027 -0.37800301227242783
-0.25805090333339337 -0.33798301538001607 0.68226744259217975
-0.33847343573038624 -0.64357154221966884 -0.076008070743131428
-0.004439387745276413 0.64866648948556815 0.67895638857451224
0.20020893021443165 -0.0099122583981573475 0.78122560007006436
0.69469265783779754 -0.48678959755801499 0.68932715954681589
-0.60562838800020546 -0.2041262437844002 -0.61649050399270167
0.23201020162874675 -0.019849739019542734 0.79451760179420194
-0.62092865781120299 -0.63485714016204176 -0.27477581949126795
-0.070042864110009928 0.28007370590306113 0.7782800200798865
0.43983606596955171 0.020989771782078392 0.38976072613764323
-0.11362332259278607 0.77967010330622899 0.46003585069709718
0.239126209693729 0.016935379446998688 0.74493116896119704
-0.59134976111358384 -0.74861008659383255 -0.34890338979754798
0.14284426046571053 -0.18029601620921998 0.75943319884172489
0.14820533638513522 0.46442896981385706 0.68546135538643149
-0.28060401901116472 0.13462579408349318 0.7848802065515712
-0.28812855547933403 0.8981585525494804 0.0032717427963846468
-0.4647264567830775 0.86023505654636556 -0.19479327244096653
0.10736199737697372 -0.13172428449596252 0.7851507420407895
0.25978776735184539 0.78991080805160818 -0.38416862582559563
-0.36445298366615508 -0.67068358255292448 -0.17771020988360364
0.0083241482668339195 0.8391550272172057 0.63724657437865662
0.33728043263031515 -0.42447062077541542 0.69863463181410435
-0.028385295297732809 0.066340642720477044 -0.74074034188546389
-0.7581643991009841 -0.0062404175972936571 0.74752433108782412
-0.25664087695161486 -0.087203828989322663 0.75638878312188795
0.68172869682133097 -0.31340494545355524 0.71792533840268924
-0.082022057521039082 0.42330954475515492 0.81295117681432894
0.13748547403425926 0.45734518022785425 0.70031777442780518
0.061281918601907369 0.91219144540206321 -0.0072096360942651479
-0.25856564904159218 0.52387955489749605 0.75265364343311347
0.068164643190859575 0.3408026503112459 0.75611397290256988
0.31161371813529265 1.1554715158957598 -0.43924072511908419
0.29853911524880616 0.75426644612154314 -0.27495093005727472
0.014508801424294449 0.63139542214513644 0.67419710278901368
-0.32078080745930082 -0.012040135051051948 0.7625240031334477
0.18096418729652353 -0.064480360748098597 0.84249183390736082
-0.20139766528051828 -0.079026745859261727 0.74855529702360457
-0.014033915057510837 0.2448652112846903 0.75161800344525176
-0.2269116019454902 -0.096304832501175497 0.75095105598908596
0.76224414274521624 -0.17602769877384927 0.39333482132142461
-0.30675353150508078 -0.14267834551382697 0.80282285156858846
0.83998273401741619 -0.42364829085300038 0.46299067182839004
0.15419129295381406 0.88024488985429505 -0.28145383396334633
0.0092523272056901362 -0.28733886503386041 0.66240655959496841
0.4581054512293376 1.2013643981264148 -0.4608348822456525
0.092958432276944114 -0.21707779589217424 0.74160642791227227
0.69120099855343131 -0.63416031558075026 0.45990509001832364
0.20600591605070129 -0.0087976741903293965 0.77499118484849117
-0.53151364396604439 -0.050094286904222129 0.75174502473033233
-0.8412874820917412 -0.98645603914483804 -0.45163130482958413
0.71143416014298966 -0.33227563137994154 0.70753275017122608
-0.91742616677998579 -0.051364460364217393 -0.37178317596114807
0.54757902157003902 0.88812200746895742 -0.37521173820213716
0.15567995463671114 -0.11263278225678119 0.7951510933567878
0.42175950065267376 0.74878416388580993 -0.31315832065294702
0.83283093272095243 -0.1674535162836826 0.42443142813019841
0.72476578678535986 -0.56360552267519526 0.62471675229070933
0.4089296936988065 0.53289437603642931 -0.25916596688251559
0.65860920961583158 -0.63664136645421276 0.44666707982113352
-0.13308733052842792 0.28853670716040702 0.76762296932899299
-0.28367375771576375 0.6630612519072332 0.57581616564807681
-0.69751322089021706 0.14332432541994122 0.70327779336740104
-0.0086365666712159839 0.31442647098738652 0.7882100380361744
0.26845661058128023 0.74729315034027777 -0.096182034525928273
0.30259489957603147 0.83030131412408403 -0.32590318402114193
0.43576565126492905 0.78964287662083099 -0.32075641237683178
-0.71976435673835815 -0.51039938925464934 0.55544751777330048
0.10970907779373495 0.54068220247458376 0.69308480421685503
0.21540417755015895 -0.038064540054259216 0.77951463764598028
0.6455214300666674 -0.29808548117513511 0.72802479242766616
-0.66592194235683144 -0.89833998985600916 -0.43449899792135316
-0.27447720298357736 -0.030485291460181863 0.75116834459981063
-0.20215444685064643 0.21537685664480438 0.7788844115813176
-0.24760045215874649 -0.02874546180866222 0.74027526558572565
0.2121661657813608 -0.017986384027062707 -0.56469391646874789
-0.13092504009160155 -0.45042117324014763 -0.34900684303414881
-0.38577254171746489 -0.79195922884244885 -0.28119825619436289
0.44547410446524222 1.1820872918216849 -0.45083994646994979
0.26179532061583277 0.99345238898481569 -0.35728600466000637
0.76058105591293679 -0.40385988945123352 0.66850904469412509
-0.11759240313452346 0.26351780947076109 0.76452330899729004
0.91839835339232234 -0.21995270495797439 0.5840947768946434
-0.062638595529111218 0.80948373215776193 0.63876213445701979
0.38175709334168229 -0.13237539011875288 0.73870856917875782
-0.27049767173343797 0.42844414858801128 0.72927307174932388
0.23723992137498229 -0.016715996445933134 0.77497454108410391
-0.21586738282563533 -0.29521820182768854 0.7013441131537963
-0.10361025980459126 0.27986987384167739 0.7716349257434062
-0.72174486248346437 -0.45958312206997026 0.2551838000633318
-0.48358310157166073 0.090248145947905867 0.69930277348603975
-0.43775169418601501 0.59380689976347323 0.71781084342052104
-0.13734178500656302 -0.44152676593218543 0.53305945592985793
0.29443998410034555 0.70326263733731231 0.18671791858100129
0.21046400814046806 0.014768810116151498 0.75706096275522583
0.81764783313329636 -0.15682038198349857 0.43041027606577664
-0.62643401235397245 0.62297131694601737 -0.40560945768078904
0.69540221502623101 -0.51759667368209228 0.68380322535199989
-0.33641926443813785 -0.043045617947978787 0.76475935406950191
0.67579324162904864 -0.39675131352334425 0.68776410523810627
0.73540742225466649 -0.36428760731536713 0.67712660407170677
-0.79256322496151976 -0.79103760520102728 -0.41076943863463278
0.15395676751799492 0.86726997266950101 -0.14121450357545173
0.15108131494728494 0.50166324505670778 0.67492072756090249
-0.21772530331337059 0.11393928426220612 0.77354859375260832
0.29546014251969721 0.63165488341446796 0.38594931861286064
0.49084239821796594 0.0050563010051334345 0.57187970314550096
-0.60795591119360015 -0.69488718046797571 -0.33605998159085915
-0.43207914710388429 -0.016554750292554488 0.77442562032365836
0.22984603223736932 -0.0040952227645593142 0.77155177604722891
-0.27179132676284534 -0.03531047346511107 0.75432299589351537
0.19893903502460297 0.068973747707419042 0.74529951481807433
-0.53768122152732578 -0.9656405527032319 -0.40414117339474265
0.68219116125282075 -0.44803269575145221 0.68745739286220919
-0.3698950609369368 0.90074965643773508 -0.16924180203394951
0.19625752944182262 0.80271560408074949 0.45986602163410628
0.69714425453027484 -0.15144498114247007 0.66563858149505339
0.66354883565723943 -0.16446212670003035 0.38752057388663275
-0.41470694874116937 -0.39476874630966247 0.66112557868259314
0.20948981757089874 1.001642925517088 -0.32735936095815454
0.24279699560655027 -0.36178896228386653 0.30340429595659402
-0.20962089607501769 0.48778290255411938 0.74193884518011544
0.33625659591829815 0.73775821885604387 -0.30846216195445608
-0.12786878255726486 0.54169177281050818 0.74749299137054237
-0.80678675183016801 -0.92462692035009941 -0.44174825518925798
-0.52771848328917437 -0.35869086274668394 0.66034974928371337
-0.09357402768497769 0.33220525833657666 0.80712612195015654
-0.29211718921288121 -0.14429452044577173 0.80011126130036647
-0.70605350384553445 -0.63488006796461005 -0.31070441456541642
-0.7487194264837661 -0.8938809350103778 -0.4343536392002032
0.25134832699418763 0.026206594472993339 0.70673053003108466
-0.2636016334656115 -0.064184119114792715 0.75689901993030995
-0.32747241785964248 -0.25025509793412193 0.78405816162973307
-0.42236092172895146 -0.27318169772535594 0.77218044154082244
-0.33414704063413625 -0.035988337676024829 0.76668008023794831
-0.18370827475939766 0.37318495412039754 0.77738610510364836
0.67552955038646822 -0.47696258514979206 0.69005756635730131
0.047556864946952437 0.55715690839603305 0.71259276873149591
-0.64858782473179621 -0.63032647174757295 -0.26392860733436674
-0.21513019336131745 -0.14098575200697105 0.76266334585317641
-0.52045331558754104 -0.63177232100692304 -0.30034052696927693
-0.55329669238751267 -0.59595033733956182 -0.13094584207774451
0.08387637999999864 0.32888932979019225 0.74425126273248243
-0.53399344375526869 -0.093440976811541843 0.75766002781064579
-0.74986746921682557 -0.96985337031919094 -0.45342307588895947
-0.58671723409591114 -0.58847541413100612 0.12199121830387005
0.40746568959964646 0.010174812425695068 0.52375410945162804
-0.22034956147887635 -0.28103059588631174 0.72226368764402205
-0.89880564899276749 -0.68630396740737076 -0.35191446811346494
-0.064733448354469481 0.24732524927389887 0.7599290596049384
0.77987810302198146 -0.33797480526968737 0.69174348252864981
-0.60938154788308196 -0.63018527650100464 -0.27220639800540869
-0.46928164919118398 -0.74732622766752876 -0.30467226644125622
-0.7195128044104353 -0.5266220314084642 -0.29644477097101479
-0.35860652331527887 -0.42634998902130067 0.64554592983546966
-0.65180712220563297 0.018309993583568884 0.70000633369439313
-0.12888924921699729 0.5650200912583021 0.73657820941246466
0.15278028737826177 1.1277871695902371 -0.38331564174322974
0.13269087672378865 0.342356731211374 0.70391525232542929
-0.52515232431344083 -0.04820072399557418 0.75757977941925592
-0.24503976850752063 0.24144824055399794 0.7835391977387538
-0.13221026945869241 0.54443454882654818 0.74948584590561773
-0.71425428140161262 -0.20024594725431022 0.50553598648937115
-0.1902829299155564 0.32353132718204858 0.75963089843904519
-0.18915883140032502 0.46451075162610789 0.75381035849269828
-0.19910243990404286 0.44596281193102749 0.76828207554615702
-0.52661112217655504 -0.034363405863131913 0.77179340512737515
0.40052969454439102 1.2203028882509974 -0.48482759137529691
-0.026714711883702336 0.23685461886942472 0.75276612350808381
-0.36225651607602605 -0.27975259361679705 0.77128696548001641
-0.78145798991868665 -0.76159962433190531 -0.3998513960256026
0.035856427335664631 0.36707743476657129 0.79848268321209426
0.056226027415860358 0.70554896004926604 0.63782794154660216
0.36177672913707193 1.2198477200509172 -0.46253393199891174
0.62418932085507439 -0.40782693772053058 0.70610341692863532
0.68731395361648795 -0.29723629713005018 0.72206718357376865
-0.091407988589455313 0.26260553971553602 0.76442395383826101
-0.078914245351442591 -0.45560304772096344 -0.26569834038964563
-0.17324170941147266 -0.27977001267887336 0.68740331741478089
0.2685961097630889 -0.43855213760156131 0.4514970591355687
-0.48739418160385406 -0.18544319243156604 0.78160605610844536
0.6586499269081254 -0.19379789308517648 0.38404033640533936
0.69695047024353107 -0.48891343117496644 0.68603250949446215
-0.15861853775430124 0.377457114612328 0.786594095585055
0.3349192224111387 0.18556469955494426 -0.37600436124343473
0.79616222286478777 -0.31571392995347236 0.69594929047051679
-0.12915903375307214 0.26678662986144031 0.76085109043415922
0.6658568552594325 -0.57591558306660584 0.66201274143653466
-0.83358421502599722 -0.17211429803721387 -0.4642461162744882
0.28092162268577747 -0.31572341825655514 0.14002651132607519
0.70142568317670528 -0.49004333957947227 0.68148669663097572
-0.088596842708329682 0.49828658551905436 0.79158613511690756
-0.47649604054167316 -0.67396574501857764 -0.29349440237525082
-0.16324159152491857 0.38479209802349978 0.75538030101678189
0.23361221522396658 -0.023352598236137445 0.78320633699599451
0.46710140825806445 0.84726291279928123 -0.33803404535841652
-0.6717189235978489 -0.63824697450158974 -0.28014138257797327
-0.55956307505219793 -0.24691438406091581 0.70747788050535521
0.18146204433836788 -0.038768249383715592 0.78361042743418508
-0.14022319447569709 -0.079971895417889183 0.74518515478773906
-0.72774674164878117 -0.97473002573010881 -0.44072589904537818
0.27636878731422865 0.78209441761614795 -0.26842553247670864
0.57793734964487253 -0.66296332301546812 0.49699800624390189
0.20687408979158484 -0.02518468626985651 0.78453782101084735
0.62274000208713776 -0.69668959961649479 0.55656886077274526
0.090505176901885032 0.84607641290923019 0.25157277027746461
-0.31723901133792831 -0.45002074943333192 0.61474182229160523
-0.43571097965051198 -0.28049576900431783 0.76215764853619328
-0.30220642342289439 -0.15838817665882665 0.80177173207774255
-0.5251326816880153 -0.35758924508038265 0.65821419135946579
0.11900154768029347 0.43047039105177487 0.71187592504803332
0.50441139583073635 0.82197304560967044 -0.31690352576287856
0.89608128137172494 -0.1600551510512645 0.4630366847899326
-0.34274828002029611 0.10253335860456714 0.78397673475023799
-0.36250478228752148 -0.017112481910565691 0.76403553826972059
-0.699288829682428 -0.37006733782651263 0.67577217013613788
-0.51498264984329345 -0.81210461983233495 -0.32840574088335517
0.16950788334627787 0.80680628690209144 0.38403073839628032
-0.037157345969222266 0.53129020222383616 0.76390388100929241
-0.47789245134880615 0.51993999219497056 0.75060160208802174
0.89845468798641481 -0.16382679759308738 0.45783540559775049
0.15864664463190126 -0.085108919122179216 0.79429113472023793
-0.30230964367188751 -0.28232806241608499 0.75439425734513588
-0.24332013537733155 -0.042675814481698104 0.74216526498486446
0.43547000816410719 0.76778521420553014 -0.3225390717665193
-0.14670745563489573 0.27533016038599589 0.76413774862070794
0.11059717143575665 -0.16587529352453911 0.78782008938048076
0.32050907436352016 0.76966951358852653 -0.28638662673321269
-0.31772279767491535 -0.31787004078585696 0.72311305449368324
0.14058163858774719 0.42931901716620857 0.69903810539129974
0.3948162362144545 0.088308829471622607 0.20924739001470771
0.41604134185596575 1.2361289763219101 -0.48171777241067343
-0.53571582681419216 -0.36499687255322982 0.65025075676787136
-0.24779754081979544 -0.04163628343828929 0.74403757055358422
0.88309731435036043 -0.15919398317234934 0.44446439944935889
-0.51748512490649756 -0.20951965079159773 0.75965534074821872
-0.013122444557231105 0.25030844149120401 0.76051038772041135
-0.35588110604123635 0.31066784929234292 0.72743532258823684
0.1185181104970332 -0.18509431279627098 0.79300785212737956
-0.40643971270619106 -0.36603696443535444 0.68183253327702698
-0.61414213298740439 0.16656275309173774 0.72139511460232564
0.17896494462205195 0.86903367813351551 -0.33613723120307953
-0.88491228126389965 -0.68867847673406168 -0.35997870483520633
-0.25156769088117459 0.63767294488143667 0.76096563548645157
-0.43598417585305727 -0.27468665916148244 0.76106384812981775
0.59025268295425093 -0.43766330531678665 0.36352784818181494
-0.18022880275026681 0.58013131100343662 0.72293992215615877
0.42441072531745405 0.60726144032020901 -0.28925590479409702
-0.70475305511300523 -0.64312864687975724 -0.29833464367016971
0.20669417846371552 -0.20103277732208813 0.77235076488982468
0.4857784659386013 0.005361733141835856 0.57243115293267
-0.5241432604095968 -0.21724013746444326 0.7435609724358303
-0.054211554543039497 0.7285557495259456 0.68469057138812073
0.30189328727024178 0.54437869625257918 0.5131376897909643
0.14296115677404986 -0.12961562848827857 0.79822130453935902
0.37867119457493637 0.15970086538639272 0.021706147021607447
0.62465190172182616 -0.038852553556618652 0.63227680860008295
0.68651385949336152 -0.047732012831099624 0.60114803998862021
0.74796649054615783 -0.33604683983322658 0.69263378439408729
0.41567161314040457 1.1411392908844076 -0.45412443029334293
0.5188926240720998 0.80617479737814901 -0.28614037538800979
-0.35459128289375197 -0.45316640128578856 0.63828840383954466
0.44687010280586403 1.1989150494029333 -0.46384001451234724
0.73512287094402362 -0.40569724636333016 0.67172860364210152
-0.5680034594433282 0.17736097876213508 0.75152296815649766
-0.35878176642935533 0.48289989490827323 0.80789688989016861
-0.46687881139239706 0.15739831827234482 0.59422346593032938
0.10741419487411474 -0.11233574145153358 0.7873462457791558
-0.74100124303755366 -0.26730039336157541 0.57039133878458637
0.23552080109358497 -0.056166498776961005 0.79445120730476626
-0.13192430365285479 0.52210055304278635 0.76371216871194925
-0.12297488396178569 0.545285824051569 0.75507768911767936
0.75469189811815163 -0.3791655769239104 0.68139398099347215
-0.40948278119429649 -0.274314998094014 0.77481654005844591
0.62611122823469878 -0.68469487057344081 0.57996008396074084
0.83326753076658711 -0.3620050456967272 0.67031771988043642
-0.64478197293975048 -0.33452422664229731 0.68528926398074752
0.22493598222253344 -0.030838894668135275 0.76576463494823732
-0.83952332158571497 -0.98930644670114565 -0.4534444455586788
0.71078240898795897 -0.48389354734387446 0.67065318511490601
0.75598815030311994 -0.076098259711796068 0.51352539347549531
-0.48929035988557912 0.65620621543700031 0.29358759363480802
-0.41684936118622673 -0.71447141853824669 -0.28091202750839439
-0.49991762971603565 -0.63413018342807348 -0.29473850801503243
0.24307226153919781 0.99633417200958241 -0.35090711901497923
0.27821351603214206 1.1127016227756199 -0.40869049491515064
-0.20714843991244858 0.69841300552111485 0.4427615356447504
-0.86640672072596148 -0.84873233959557259 -0.42094960513913326
0.16168515064748368 1.1010558514722173 -0.36868040769992505
-0.1323279125477326 0.64001704074570309 0.6036614274711436
0.34426402974763626 0.73841186222256938 -0.28955212783586071
-0.2196001782661372 0.048151853214416701 0.75587523883916408
-0.4126077377173436 0.19928725576713702 0.62273812865786926
-0.1007421680138646 0.37149275081032318 0.81172834564677221
0.25743749245621728 0.6748111403396706 0.54046556933759682
0.032963196018360064 -0.32521801057752364 0.48824447854380848
0.13226813233272727 -0.16218748853831688 0.77204685316432042
0.12959230405152228 0.96143736566785765 -0.26113383199254386
0.19749322094178834 -0.29239032063882764 0.71809005415009075
-0.25598021935874193 -0.02568756622612467 0.74286945688156747
0.14900355156122669 -0.088630033977304401 0.78960367644137808
-0.32587863436725772 0.26400697483455227 0.79402055635521607
-0.50875552395903301 -0.63200057869205484 -0.2923459287205134
-0.50549136693609587 -0.73437264283614789 -0.30902989494882571
-0.028441819199731544 0.6133327003023501 0.7062826906870292
-0.26756088064699046 -0.045351891119910004 0.75947838215432095
-0.56174292938636916 -0.22551998010151264 0.71789396681283768
0.46038333254079983 1.2003596217274966 -0.45565396216616483
0.71458646139118498 -0.25062823080271635 0.68315621951012639
-0.91898608066395893 -0.7894278915579358 -0.40338612873058932
0.70751077206204305 -0.44446302196326948 0.67199172304689059
0.39049494925161188 -0.53434046998331297 0.66023263594821913
0.45081732522409268 1.1266694299799258 -0.4472423221947136
0.48138654321695573 0.68619942286503832 -0.19921969470046663
0.12617906662288569 -0.099732607799507766 0.78788335101861207
0.073597236101845875 0.65518311969151855 0.64818982430422278
0.44702705399976106 1.1402502549268296 -0.44880531497770637
-0.43834987157704025 -0.36823773591319914 0.67538659132915013
0.21634884357557294 -0.0083057324185538683 0.77763499221236998
-0.24001469382964175 0.61840132597922515 0.76308833410298949
-0.64770349209606648 -0.33259061554902014 -0.5340222346851522
0.65364060158843396 -0.087600365187606499 0.66295618581012761
-0.42589246984330192 -0.013310985093485606 0.77485046887344877
0.30484249127770113 0.55303541954953594 0.32835331433076576
-0.10168049672491364 -0.11619235294771624 0.75435684691098237
0.021145526592466157 0.30394128772651741 0.76788387736373209
0.13013469971075731 -0.15299932542098471 0.76490374182866994
-0.16102795357801036 0.36064591915617616 0.77653602691438617
0.54608021331735257 1.0184391683270719 -0.44224301113359787
-0.32093267994347296 -0.43175808524544712 0.62883037881548098
0.32300625205118316 0.73488936818436112 -0.28961382592826013
-0.023300084220403861 0.84313884022722241 0.59581782266716632
-0.020120025480752535 0.16442904733361152 0.72589145276051159
0.22819614826920898 -0.030987393777826278 0.78301243882159732
-0.82401824457015416 -0.95533355004369092 -0.44796705737545861
-0.043006774618043364 0.82897691842353005 0.64736341908505546
-0.45823004794918898 0.53077456954087898 0.68439646825277212
0.86059701431155267 -0.15820810400182078 0.44251868009725914
0.48363681291218708 -0.050173562256088711 0.68541724369040757
-0.70051794391152722 -0.20549315075408447 0.60722710229866095
-0.20235271822841749 -0.094512283965193511 0.74854612574791657
0.23762063713008463 0.88870880281284292 -0.30025891081945977
0.18666861294147585 -0.0047655444644146561 0.78789120737861529
0.37943675839750729 0.58373307345498182 -0.0042412225671138795
-0.043520388529549869 0.54525431229144861 0.75898887813404581
0.63074363437734693 -0.068501637559425177 0.65732871098054169
-0.24846549953943597 -0.078946888249177505 0.75582098039089263
0.6568408179939631 -0.6902838375631497 0.5568782541353039
-0.67368133824346577 -0.96780905903388259 -0.43802818583456204
-0.51916044095132907 0.098598788679162386 0.72677983933124812
0.53426064875479573 0.91455054572233896 -0.37870440802697081
-0.48702180107367243 -0.62479975216744843 -0.25891650609607475
-0.66595860310337063 -0.62044174581601785 -0.26049048469357494
0.13044038313285083 0.42802546441219924 0.7179355080100549
0.21919618413611308 0.98179969621446228 -0.32657031388124635
-0.46908050450583016 -0.69416983368985896 -0.29917037587006812
0.59191132649338085 -0.26795458290865604 0.730634480367506
-0.46960669544463896 -0.65192717779293341 -0.2798336477991607
-0.51256027591987541 -0.0003593567259132513 0.76917056278075446
0.50921882176766875 -0.016493647239705922 0.49615050995307985
0.057619970416284749 0.79744902568405474 0.63211768195433959
-0.7386600418015834 -0.68317496391904697 -0.34896743391163743
0.1035239713250484 -0.15635755866858414 0.78479728328804832
0.23573620262220774 0.85828158409908706 -0.26145384919475811
0.76638944736603476 -0.31752556947773147 0.6880217990734051
-0.60762392764618856 0.039633314893549265 0.56623850654046137
0.055097964006627309 0.41547384031924217 0.79069592888564844
-0.21703531357954664 -0.34474706472766048 0.65419326468302419
-0.067678638275881275 0.6253523566766368 0.67535148506475107
0.1636777782286937 -0.19508416441877086 0.77740364070954016
0.73844071072509299 -0.43551539874487899 0.65938621522789376
-0.50460253417613754 -0.053022273879112625 0.76347457064734248
-0.74736964694123453 0.073682904656618309 0.67199425675947166
0.23558588097292776 -0.00049764943011432194 0.76039129695094276
0.13139102698444693 0.38665468119834423 0.72265406080448646
0.24275190729645124 -0.012224699819525175 0.77364978140291085
-0.00019538328259804949 0.51144139980862247 0.77878474837392841
0.30658607731191045 0.73640135836887299 -0.26204624217168504
0.3065946439818652 0.080779944780006829 0.53687535670190512
0.13472866214090717 0.89419955189821099 -0.17465928562707328
-0.75222791436369563 -0.14108976061646006 0.3510307114784072
-0.26764427124356271 -0.047669546942469943 0.75061789237073007
-0.71110574447213859 -0.8129641559869627 -0.42459189105510053
0.14952279038897798 -0.17292171539575829 0.78669483009140517
0.84984847333540614 -0.45945451865658971 0.54492491530009035
0.39008179504236784 1.109913909915297 -0.43669741850181865
-0.19909930841274148 -0.28154749674456059 0.71247424666084802
0.43799966133330592 0.68868415001625094 -0.28674190765770646
0.13230853152497973 0.99094349330436837 -0.27129007120651438
0.29316132616738466 -0.46612020822737366 0.46763230107273479
-0.75451058386725833 -0.32784734485475392 0.58319081139693552
0.10020595203707261 -0.13210092741681234 0.78169362257854313
0.48635520960778716 0.9551244902337126 -0.39255879190621179
-0.51815246588237385 -0.073653565611448535 0.75571149145943894
-0.8318016701659614 -0.97655784089824982 -0.44429055226320768
0.69221873197620576 -0.50186878533825707 0.67222971409650456
0.53681842798172796 0.93580343357699269 -0.37701826782072023
0.39928455172891208 -0.0050340760885998481 -0.14968569551323441
-0.26642843945412376 -0.39477495959591313 0.63753642168651448
-0.096026183994489145 0.36357592874140909 0.8131691259229179
-0.46617967526851034 -0.68692706895596034 -0.29281765740456134
-0.63976564939144454 -0.74786820702790879 -0.35015747153869992
0.4388287259134549 0.89503832453321064 -0.37496471614437832
-0.2787680444562608 -0.3425690098820362 0.68902959728727664
-0.18247876465758611 0.72431260997984181 0.5875706134589378
0.035320721328425897 0.61130042215960323 0.68457328974090514
-0.068757298697784242 0.25451342269509336 0.76207127403125963
0.3966540041406077 0.14554948769470766 -0.12317207259795615
0.29976376961022755 0.74162755949774706 -0.021516849255560189
-0.40164386166520138 -0.78583142486630564 -0.28834754608336532
0.15363051685745382 -0.048849924725043604 0.78706902900109821
-0.58778288889370423 -0.6374495789599175 -0.3098369320548835
0.15259438628638491 -0.23626183984429661 0.75373002059400651
-0.30739569495055896 0.2585716254014927 0.76564973860833963
-0.52948403383698484 -0.15218081804805617 0.74790171046125165
-0.84821666434702492 -0.9651683646497411 -0.45840261616079359
-0.11787260929097299 0.55880758860704638 0.74873245072582861
0.14099656923597889 -0.086713510695939133 0.78849715171514756
0.27312040002012949 -0.41185627617445508 0.37973576424750344
0.29433212253366359 -0.33637917201579159 0.23013300421328137
-0.13994893219183346 0.52032585940334419 0.76466754529758507
-0.1612657786464905 0.60543997851021569 0.72774643979941089
-0.51375086071466058 -0.032657664240338669 0.76073497000479395
0.6819041066960887 -0.51668151567409537 0.67375172461841837
-0.5103322452421315 -0.02290139316014389 0.72024710798213243
0.21487907689061547 1.0407984523617335 -0.36097287331326555
-0.20093551218117633 -0.28735485575920006 0.70906471966018625
0.29047274959559366 0.71590885924787351 0.21502228242239418
-0.30718858700067869 -0.12710493884855589 0.8003360849158867
0.14963422336975096 -0.21563363012787207 0.76911644522035605
-0.030721746845033593 0.15454279416881977 0.71571043064986783
-0.2656486393622407 -0.057636722939439666 0.76230503703566188
0.74112109782491187 -0.44727821108567289 0.67947844206380825
-0.43470814299029159 -0.24744341767571487 0.78110213926656047
0.6086619723023956 -0.71325981953612094 0.51547247548309771
0.085334062689397749 0.85933813586437635 0.56944391416985551
0.20576124669342644 0.39725308984763785 0.60907808649470985
0.41320396773524326 0.5960628742071723 -0.16187013326230071
-0.25620441716193776 0.097545901307252825 0.77334097476721408
0.72111264701590194 -0.36925967249482822 0.67236577445380286
-0.64796900157044601 -0.35874703681468922 0.6827152282005462
-0.49125768014692484 -0.616935459489238 -0.25258500181574206
-0.04920880413683526 0.63582033798647519 0.66263816027745603
0.90075680572743444 -0.26941254292282757 0.59947518995472038
0.16002440889479019 0.88943600021469205 -0.24235926928691096
-0.2700568145668869 -0.097260000065632068 0.77395104263754244
-0.17660190290330591 0.46144140000193745 0.77046549410904763
-0.51094333498534805 -0.018964740821289183 0.75119772150408004
-0.39053792114922836 -0.027759139839854452 0.77975678777079016
-0.33173972803781532 -0.67371150688813219 -0.16975902729812603
0.55230040716000139 1.0181657769407413 -0.43977277291461969
-0.44018658117174314 -0.73755284776863939 -0.30416265449710878
0.69739345988804113 -0.45878567714385232 0.68333630782975607
0.68889172207536153 -0.46940582855126045 0.69020156507953778
-0.6038663600118892 -0.63794703712710021 -0.29812437441339878
-0.91494576717357678 -0.71481875393782301 -0.40632509679752715
0.35885567242082211 1.1559898055582685 -0.450946525449827
0.31305776862051937 0.36761369450160708 0.50981347285264866
0.083521911255061143 0.84527253757985266 0.273435810338784
0.68663562635374653 -0.2357100241932959 0.57026891456862328
-0.72298447254303289 -0.37368799726682195 0.65349213360257052
0.073546943979177382 0.41039817202825724 0.7668864801708003
-0.94911130700097968 -0.84629780460833315 -0.4168959506837826
-0.60528112707758996 -0.22707996719223952 0.69935337347625381
-0.12825981529401043 0.57973808597204601 0.73215681847394343
-0.35223750405775078 -0.047814788358215843 0.77574684348205247
0.31199489399957159 0.11279246256530936 0.47953822199427604
0.67147237754338629 -0.44563983997181045 0.68809469857127015
0.39627205496994777 1.1654185883015036 -0.45500879581453413
0.06144258444350692 0.64970581487184387 0.65927906716017459
0.71387392832748175 -0.46727748045598494 0.67619938593866991
0.74003713234249013 -0.39617942942526141 0.67266156629414775
0.41143966894279349 0.65147276022095313 -0.18271325849583486
-0.37750169518378635 -0.57426366453531574 0.27215038681475934
-0.4139263780048637 -0.71302950494046735 -0.2947253490896582
-0.10225273175571914 0.55635974491892715 0.74644963532969411
-0.003681451065611574 0.60810644176482231 0.70312047870184946
0.45602272220379264 1.1882997918676248 -0.44954730211094951
-0.68973314648456885 -0.069013769842452222 0.76979305388553643
-0.46519892195044221 0.20582927963570621 0.57831481562774467
0.11779824599051758 0.29505102949838324 0.72110023111550237
-0.62470986931691264 -0.94828089169670093 -0.4331003345169524
-0.67461585528844914 0.09994477187060441 0.79969406661032705
-0.059735496905544361 0.52102776301460496 0.7735411609459879
-0.86447118217265562 -0.90082327582261446 -0.44244747548522811
0.065081319760540213 0.34512403133697145 0.76881511834503469
0.69038650596834383 -0.47949399734219178 0.67909864949550647
-0.55782004104579075 -0.11257952753261335 0.71764914603698804
0.68238822827449597 -0.47295742594047363 0.68416614925007502
-0.60324597341793229 0.34706644953731747 0.40365844442413712
-0.021032942185625014 -0.13893088391600106 0.7616327034357222
-0.0083346641133266175 0.23364791401166826 0.74252783590592997
-0.59589581812189674 -0.58501293213216965 0.12682340944797815
-0.68906664213058022 -0.50061988328227525 0.23245190675171964
-0.18921690995593599 0.29647467888726753 0.76816344014583171
-0.56228237878768805 0.22882598109198626 0.61466615244001677
0.69465432446686082 -0.66965794964544134 0.54834348943005606
0.74054505620240796 -0.33434862144664529 0.68717631264932744
-0.66604047498658703 -0.71630605025808902 -0.34995822637557539
0.067910467940351271 0.70446096608269126 0.62276265847041867
-0.41170928239777238 0.22813180755765239 0.63465842233174552
