# XYZ point cloud file
0.31078386503651129 0.9462895450380312 -0.3745474096988104
0.26966093914403166 -0.17034287320212677 0.61469001654880828
-0.2384973453209388 0.12071029406360261 0.73869446863994082
0.16084990411159406 0.0066980919614473972 0.70351845034932614
-0.51973698162232029 -0.396507041345038 0.52784909761615395
0.73550765336391166 -0.40315062589534112 0.60591758064305978
0.28222530629738307 0.64355863094477583 -0.26670907319151649
-0.046529846746168627 -0.079293339781689065 0.72872927888691164
0.4341614149964978 -0.080727769060219862 0.35708841642932648
-0.05468816100462813 0.4441263291463422 0.71194612672415269
0.69823274020069337 -0.40331851271973784 0.5965624626001349
-0.069658652025538906 0.3505761459500657 0.72920466674704976
-0.25657503813760019 -0.53043809708510781 -0.27123757397195791
0.18048705960999706 0.83538346541508657 -0.16908112193547781
-0.6387040812780661 -0.76303431956615231 -0.34180537518054849
0.45037562816950311 -0.26963044484401133 0.58585067008843084
-0.20826646822939038 -0.063873592533205403 0.73123614560504935
-0.63383267603601001 -0.75527413417056288 -0.33428315356700083
0.17288167870065316 0.43302128051385613 0.55357057899389872
0.30968505430422938 0.92762480610193476 -0.34119276193304959
-0.098816667166177555 -0.031401651580088299 0.7351197947622764
0.33484898720848855 0.85383175982782311 -0.32747528726802366
0.40374812756948075 0.065740639874030227 0.10095750547887028
0.32885606725345046 0.94632970021028728 -0.34652820235489457
0.22815902041826608 0.2064872831990906 0.58701406167807013
0.30183789249990384 0.97328377758339546 -0.35203746812901332
0.038355579020608634 0.78999186078990324 0.29248894830034
0.24370284990890545 -0.17170257770709582 0.63156676747900098
0.5362684121330441 -0.24805195279574324 0.5835997714575224
0.13680959785218136 0.10353197949426157 0.69952547742416704
0.64685221262683734 -0.36376660782978504 0.58431087592877096
0.33192618537034119 0.782091168111542 -0.28359428428276745
-0.23609459943930258 0.19749232872761505 0.73441867398489913
-0.033654709188991168 0.51907395144916291 0.70187388169708409
-0.39863558684662131 -0.093463087390673799 0.71914722219589766
0.29806295621401357 0.94582418262573331 -0.34202647952087922
-0.60703882157768407 -0.66920599861686214 -0.28743247673951872
0.41937206932116539 -0.23928815150186664 0.5944579252121901
-0.26540135004865389 -0.071300948949600707 0.72793250584972802
-0.64641763500738836 -0.63219403810821073 -0.31226018670607103
-0.014073392061781445 0.1005451772638386 0.73316414578654288
0.42975477714420868 -0.22132056743262182 0.58640774928780737
-0.3883122280758674 -0.030211814321228728 0.72398088147531237
0.55279545202776825 -0.31494481503170851 0.58083373173334008
-0.023447381806289573 0.61174324393764401 0.66975164047747904
0.56458415157137898 -0.33210512415454269 0.58115677892902751
0.30641881928669956 0.8350991122000464 -0.31628162762242729
0.30417233081145573 0.92078035051763552 -0.33702846456690616
0.30531412258056961 0.97085589393229643 -0.35415911337908662
-0.65239715451873803 -0.70736122574321669 -0.32620795600270008
0.70980952366949657 -0.40696581811876487 0.5971548942723004
-0.90687210415994901 0.052316985015965531 -0.25025597117582793
-0.21830900271526338 -0.18548205674871132 0.70960006849825807
-0.59406265361467459 -0.62523678295529683 -0.23903694392749272
-0.035832167990558543 0.55707979437314903 0.69143802547777189
0.20307698805164764 -0.088680482749086548 0.67881122514127457
0.70952630378877934 -0.40445832848478935 0.59663491074096464
-0.70715451099790727 -0.25924496473556979 -0.40592318762347529
0.27043679017891425 -0.15378674068942969 0.64500035824523383
-0.62941584814745277 -0.70022200736879991 -0.31981418142258666
-0.082483161506208047 0.28360696703034349 0.73531293450211854
0.34617321747537649 0.074858025366940417 0.48822287127236064
-0.0851548656433576 0.73592517449510542 0.4484456367725066
0.26181156778837184 -0.073349733379126481 0.66078176776875674
-0.62866452352918556 -0.72515355944639359 -0.32573786268757599
0.26745848066751454 -0.18203014586342925 0.63644236502602991
2.3161806715521482e-05 0.41092816376617147 0.69930940752669968
-0.23910069641704657 0.11099283217628469 0.742045796557258
-0.097162442869949725 0.8421557693934244 0.11244508750779164
-0.38552849083462176 0.83165616603652814 -0.20919844149179587
0.23956271015167974 -0.15879627272760333 0.63033478056575065
0.27682239523269037 0.835633997004812 -0.31299818109976407
-0.59879186790807915 -0.65192818621008541 -0.2620223312653977
-0.011177261949650623 0.65274451212976436 0.60081053491337477
0.41185545822604197 -0.24348345928019294 0.58938162527752824
-0.047559346673220919 0.15491435943036605 -0.69236231373811719
-0.49397167979549628 -0.11590492932490351 0.69906403021191066
-0.19081351599105406 -0.07344233241279742 0.72791382397049587
0.66221852151342364 -0.36041152590304659 0.58079574847241611
-0.064836276552823133 0.40129092096338659 0.72128764714589799
-0.029393073096130054 0.42990634071495482 0.71244273066010777
0.12233342688921965 0.7930470092450167 0.059806466310904693
-0.14327255626797802 0.34061834999286561 0.73452709235778757
-0.0028707558749731937 0.20224824350088744 0.73289597172754517
0.31361136503071751 1.0006372372815449 -0.35151605029122568
0.29537621089752919 0.88727834919154636 -0.33450253242441552
-0.032979545392235465 0.55328502916696798 0.68002333747771981
-0.29784041989984839 0.024844293284153704 0.73557079827725191
0.2446788388162561 -0.15103404586293009 0.64808281736141171
-0.16536986903608336 -0.062769245172331456 0.73074613501673391
-0.050703645830744298 0.16688863507060422 0.73873467527507275
-0.17533758003742889 -0.064219919130453593 0.72943993583369204
0.6622218640734916 -0.24714869059477682 0.49250048550581432
-0.24163679070072766 -0.090763315145647713 0.72844081478655631
0.75637853562593715 -0.40720700984470126 0.55837162385063266
0.29231671276402399 0.92039282223434127 -0.32871926993014444
0.044568293513053081 -0.18086426577774831 0.67279628556550175
0.32621536482683694 0.96278275331390994 -0.35801316268983652
-0.023431776192460008 -0.14449627197181417 0.71252868275676862
0.642456431500671 -0.36851738569339476 0.53116611489571741
0.15449619039206444 -0.088983017664089878 0.69540052494415916
-0.43026634136830988 -0.080944938130324745 0.71670095432834513
-0.64988131065430532 -0.7604168255895436 -0.34467572119935186
0.58791824879657084 -0.33586470702226545 0.58666853106109007
-0.87947508254314399 -0.071513341028747984 -0.33314317035441349
0.35595540559901362 0.91085682258382272 -0.34220148199226386
-0.015270378964675022 -0.066185663198171402 0.72791043307560299
0.31382060568843678 0.85664965399832027 -0.31307672158333927
0.65890661050900889 -0.30445256263868736 0.57133022083873164
0.67010219366127743 -0.38243864931085997 0.5879705126537329
0.32299162912417667 0.61023400028182151 -0.19191643934506422
0.66739605913771138 -0.39601810267497156 0.59463986987725526
-0.091631704515194812 0.27867955327052146 0.7382626015996282
-0.10899398804800502 0.53460920762497788 0.69272595031366579
-0.50045066665610505 -0.068585833132998306 0.69740334727518538
-0.068571100510028543 0.32432049510024413 0.73565084346147758
0.20910236778357355 0.78402479816490167 -0.10050342647271859
0.30445713631433058 0.89729825988740974 -0.32900504050747775
0.31160766191316569 0.89446698938911295 -0.32941839860801264
-0.60005819514308678 -0.30443239527120941 0.60981383332610262
-0.031879040965633446 0.48285848296514339 0.71093134874842745
0.20869681916938895 -0.11435032909030045 0.66440413958857936
0.56623138126464556 -0.31263354630863871 0.58528460740347932
-0.6397656191417771 -0.7343048944368864 -0.33512393179688726
-0.22712386473957255 -0.056256862781386162 0.73321130872127738
-0.18763975084895027 0.15868864212220449 0.74058762927353494
-0.2579475818402483 -0.054214847521962879 0.73363784679526312
0.20116405774140994 0.021946817467054874 -0.50596489276423351
-0.34234395641239029 -0.51847408326588196 -0.32112988737652826
-0.61755317582926395 -0.69973412196258333 -0.31270669259162581
0.32258869716399613 0.96891239593799661 -0.35625713123595765
0.30037523356995077 0.93498505007448118 -0.33919732580213957
0.67879206456923435 -0.37955960186294901 0.58667964711094656
-0.11173713950028524 0.18108260796938103 0.74221089773862992
0.68012580131628697 -0.34219310622996468 0.57123168428707638
-0.059959461256787305 0.66180986437725586 0.57849553026049727
0.29185115641161014 -0.17423812525409965 0.62800790926209016
-0.20223098747584389 0.25838594038306129 0.73673480776736255
0.07092394278235753 0.041359724454494581 0.72422879923198114
-0.17060387074735908 -0.19274444804142074 0.70688168697805998
-0.085363479913921431 0.27543833403294815 0.73632040597775095
-0.67920558739297643 -0.42131501403133376 0.24065042436838652
-0.333591070435376 0.035511500520343006 0.73109877450849392
-0.16830592340625952 0.41706352080161774 0.71856061423205331
-0.21061137766498031 -0.2858636323337711 0.62955044708592189
0.22815195335270727 0.68192886518960871 0.15861365310139525
0.049683675209490422 0.069106370408651502 0.72860691971796976
0.60570771920545519 -0.30164267172066206 0.55441226425526757
-0.62704034872032588 0.55311969165206776 -0.35762850557693737
0.69435394246496285 -0.40123614209169306 0.59382230102678357
-0.31670705654477088 -0.0002600293973349932 0.73202468766272988
0.68501466153124324 -0.39537719027075713 0.60043917221696008
0.65192984751967542 -0.3670046863003778 0.58417844143957021
-0.64087760182399156 -0.73623898454277159 -0.33535336802168564
0.16310889501025741 0.84223356119604587 -0.15015244425647811
-0.021160746911852504 0.46124976510151106 0.70898128518861192
-0.22393616217608789 0.10729077938689892 0.74186387040800983
0.20533579183515915 0.59410145043083129 0.35144545152342471
0.34419764289666249 -0.1248863774444578 0.62235662604198072
-0.62678028683856302 -0.72583130155820774 -0.3248674967694733
-0.38220441358069707 -0.07008709844427051 0.72259487180921855
0.081591356748032043 -0.0020707048490493374 0.72466320066960366
-0.23334739982148725 -0.05858947351609347 0.73182381326990997
0.063512930248063079 0.099899811506294955 0.72241623288933876
-0.63167867577269909 -0.74936785456480037 -0.32938623004378254
0.70126166032972603 -0.4003754926454543 0.59698553248601205
-0.19795982641587989 0.86645659635986216 -0.19830064655123811
0.011855144729067332 0.69298532567332294 0.51155929479406237
0.57481311195115337 -0.3094429350139567 0.58325581747043331
0.50125185293097108 -0.21023369498106917 0.52305307177484395
-0.44184689165816388 -0.23307209808811946 0.68452642894970206
0.29371781236698519 0.94139720407707084 -0.34373593903961158
0.3526189994684793 -0.28785374753361082 0.44787744448752431
-0.12170290386699149 0.38394666751918161 0.72696605025834071
0.29932771280491194 0.83901900504077365 -0.32001755810767335
-0.074543402578676365 0.44200888685876094 0.71433017524004649
-0.64182616725000841 -0.75022649428055854 -0.34014619689129133
-0.46280445896562894 -0.21263727090282208 0.68331932721666377
-0.072528210710904512 0.34479329616779408 0.73072750617577553
-0.30028245057582997 -0.10228442179294667 0.72238999021402295
-0.63334275248507288 -0.72294804050456807 -0.3275507736392077
-0.64362108314951116 -0.74602231316533241 -0.33611343377460079
0.11154600785082461 0.088821226578990192 0.71482601253074751
-0.19448776605060214 -0.07183570407425599 0.72897955728446417
-0.35594495443650892 -0.11817972702696819 0.71744599066382164
-0.41836113448863183 -0.16862427243769054 0.70509087763411626
-0.32402015996034533 -0.0090353047107539081 0.73275085316316657
-0.1691298090173341 0.27075470993751816 0.73741920190498533
0.70358171759556842 -0.39876553834559098 0.59473762573869948
-0.044472114700857823 0.47244181869578589 0.70691934370990261
-0.64172881565376672 -0.66374493844425508 -0.31908745683558548
-0.18981532004450327 -0.08279123936801111 0.73063834488811008
-0.60234135889275819 -0.66799908216370052 -0.28556213252549761
-0.61462617807613518 -0.59236628600224073 -0.25000830787751044
0.008620605350772817 0.19287055161573524 0.73221740074889341
-0.44718076239259019 -0.1148180522878155 0.70771296204770284
-0.63829710908308501 -0.76091899009045494 -0.34190147243138014
-0.56906379304233023 -0.55962587919315798 -0.14498738247535703
0.26049825672920102 -0.044254570856434403 0.653063329044687
-0.13459805177574086 -0.14549226800941131 0.71902764314526368
-0.70141298425011323 -0.67264230596218921 -0.35037383443405057
-0.091887646348317281 0.17138237526253233 0.73756420016781177
0.68111196135503338 -0.36634853670571033 0.59599765454407194
-0.63409237991379575 -0.634996710558977 -0.31015308545879816
-0.62216985209197051 -0.72116885241144191 -0.31954090939862229
-0.61969962050419047 -0.61257842777100957 -0.25959862462151168
-0.41792838340582034 -0.22342267229836721 0.6861452568297709
-0.42425415771687058 -0.05866516838552914 0.71730406216906795
-0.071183079443233613 0.46431357283548619 0.71125308602207937
0.27938001848965754 0.94893728830604118 -0.34128276519421064
0.027781021449521159 0.22239945751870446 0.72220176792530677
-0.42587754427961938 -0.090945881000018616 0.71406860610252909
-0.2054802479761163 0.18031302329348656 0.73984921974911522
-0.078118730588262492 0.4421409353842457 0.71591046451719298
-0.56024582877233364 -0.15750808708476244 0.66266200392286034
-0.17778667846557791 0.24241986503665097 0.73800127484216727
-0.098842057512439699 0.4050015255851756 0.72658761902257607
-0.1301309178041461 0.34788324208826482 0.7342730113288316
-0.4177195920738947 -0.060899273640599105 0.71870033538993205
0.32022330146854561 0.98554693980366825 -0.36637425233828119
-0.077909168326037503 0.13372246120083947 0.74120494575214724
-0.38577384553877064 -0.14909916788109107 0.71079512843494441
-0.64004092038301197 -0.72987933853668774 -0.33493783066946364
-0.057525265836896586 0.37100855265674687 0.7273707677896023
-0.010938923194527902 0.61776306992139318 0.61833726333785211
0.31446091280842403 0.96652985669053437 -0.35262485290762169
0.52963019139806422 -0.29196847571221324 0.57021047251679802
0.63086180948945936 -0.35270399571847372 0.58960138306622756
-0.088420240772034614 0.24401007748046383 0.73626999854669439
-0.29241429257427132 -0.52293601970272763 -0.29223465786766661
-0.11364778118668573 -0.18884832951951133 0.69553779931903137
0.34170856375814468 -0.21718058162269924 0.60361071207242079
-0.43515192328555136 -0.12031093838406784 0.70574954917505217
0.51346370019458543 -0.17275287785338042 0.46312048421302587
0.7115675922712833 -0.40382377524225149 0.5950817441244306
-0.13737429274189641 0.31013983702017023 0.73727198285769491
0.31972973633343033 0.11631506154438409 -0.31764678211224195
0.69933890142534538 -0.38203346970781393 0.58920476864152693
-0.10728208767192091 0.20149755846116094 0.7406896910309293
0.6967358189602787 -0.40454385749424587 0.59433861495277462
-0.80441864683545239 -0.27312935094426871 -0.29770102205679805
0.40027454261793116 -0.2364311826611343 0.26834256280384305
0.70668374668927147 -0.40689591232041944 0.59772983311574612
-0.0603548118172159 0.43499065710066398 0.71537177143609088
-0.62147532540638939 -0.70460413300885039 -0.31222193287403049
-0.14985743447266051 0.30242832288767263 0.73509346363055939
0.096567150336465388 0.00047347120529738634 0.71713844241502755
0.31865874691652479 0.91468040446674159 -0.33235723913716236
-0.64730567355286139 -0.67120289658036425 -0.33657047631589992
-0.47352918153986001 -0.15377783344343926 0.69464719046386481
0.09090066850154066 -0.09635437135685726 0.70722790345557096
-0.13986546304178782 -0.04293985536667929 0.73538840867086519
-0.6471261616955184 -0.75466348802554717 -0.341333463423935
0.3003643299553998 0.88410006203996017 -0.33038865026101549
0.55692174752632395 -0.32806480646437036 0.57906838348028877
0.14765705201271567 -0.0091756540785283974 0.69850520830220098
0.67850889433749728 -0.40087463062972567 0.59294235235261317
0.078294998729311602 0.739197922375181 0.34397883686914721
-0.3999188781410466 -0.22815988870901807 0.68903845201230451
-0.42148370169059807 -0.16760327657906951 0.70278528268973084
-0.24433001090261799 -0.094701368141921746 0.72601475184662112
-0.48032812699444583 -0.23859680763337215 0.67186070036774304
0.008421052926783773 0.30533804651471136 0.72198665235053339
0.3280206944595021 0.91296153214493214 -0.32427631426020065
0.68694175632828325 -0.33297901369623967 0.57645869708145836
-0.27935492531377598 0.098218753747092005 0.73660063871729409
-0.34230358872079925 -0.013972014702856899 0.71973530708807321
-0.55695904494277471 -0.22413753926633151 0.64558938590294002
-0.62400412472165412 -0.72557350485505334 -0.32431613680858301
0.053906457336130191 0.70942048551675718 0.4440315935532268
-0.05247817149104729 0.45671475235198511 0.71194530573243964
-0.17444608444628865 0.39400638494209589 0.71831792231846991
0.72422023398231616 -0.36865403317361983 0.53852858181303997
0.0030996086265585483 -0.041695955043849819 0.73130807738716597
-0.31269653915487539 -0.14151761031206955 0.71932350738613493
-0.27574627868331519 -0.06208890073992291 0.7322588435316395
0.31867768797430052 0.84425837249957081 -0.33669394154550392
-0.13687162831125307 0.16002352495645791 0.74219452448537093
0.19937251139327306 -0.14811759384169274 0.66517302762487529
0.29831347982140555 0.89004634571975294 -0.32642792794429071
-0.351627585045656 -0.19799312146266984 0.70775390244132452
-0.016586063333762308 0.44456904142887266 0.69567392363968539
0.41761627067901963 0.009146679464918147 0.18139980349605142
0.30885286414234381 0.97867713888125329 -0.36193405314721272
-0.46997565636647404 -0.21238482552821744 0.68215624987375856
-0.26512668636001202 -0.056033998520133056 0.73260636621757391
0.66463173115990504 -0.33210307598448713 0.56103711887686469
-0.45324612126899994 -0.13830438562525049 0.70424556601342569
-0.060627470428927369 0.19699018614124678 0.73821049513326908
-0.24727586667656049 0.16768698601297063 0.73621347877050103
0.0097223033840707074 -0.15342756287344061 0.6944190703355384
-0.44231299658389156 -0.22624692741443153 0.68630704092463835
-0.35276341628005753 0.050141812424005686 0.72939206550329483
0.28996108467453685 0.90363955892967818 -0.373684144566167
-0.67952666500543579 -0.69175868022425324 -0.3384132544271532
-0.089706041213517912 0.50099147575666814 0.69747712713275445
-0.41484759049263042 -0.15242805263597628 0.70187111687782955
0.51730048594284628 -0.30029512917869822 0.57973950786984008
-0.076320079820426712 0.49806900416485933 0.70237383360771799
0.31854514250919236 0.68094601406500754 -0.25737578925051219
-0.64310321811639604 -0.70577527151706132 -0.32626690574874173
0.29036849918141172 -0.17610582573718445 0.6068731955444
0.33401026383388543 -0.1141709710733535 0.63496374179152948
-0.45807080477686823 -0.13529611548996828 0.6968367915189434
-0.035956590085368098 0.59991420339508927 0.64750893154396016
0.1861820121796362 0.50582507510094277 0.48296308322004311
-0.0016344815001979318 -0.088135323783175262 0.72213975126594776
0.35159624260219313 0.29859384273745998 0.13497215073224778
0.46579213194356456 -0.24517813006312528 0.60543702327295679
0.49208320871973676 -0.26544168539949831 0.609221934356308
0.63936970960473438 -0.35080923517259022 0.57768927578545515
0.31752786452929516 0.94758991367408019 -0.35064308959104179
0.321897719243598 0.88521417818840664 -0.33034965623861295
-0.40981775815960109 -0.23297700229810159 0.68755594748304394
0.3250465979891668 0.97299251743837589 -0.36000681236386178
0.68845196334159231 -0.39091262476181393 0.60010223441797383
-0.35794839887492708 0.078585724392441797 0.72616827385256033
-0.19358465917769146 0.29881885082298493 0.73528982227411932
-0.32738715341832492 0.087798499054233065 0.73218433655936488
-0.024534602471998259 -0.052723163311612364 0.72630558604343842
-0.56281145449639691 -0.20689349139988061 0.65426863404385494
0.18607074054664294 -0.11444483627421211 0.67589450705380005
-0.082007794428874334 0.41819280604204079 0.71783119393182726
-0.066954719565620588 0.44898016855648792 0.71298454207959727
0.66106839717846055 -0.37773124917021739 0.59230668638601658
-0.40952096722070752 -0.16097515818804231 0.70794130752037587
0.68563855839095478 -0.40077274640790084 0.595577970879685
0.68616414680365756 -0.35340120193820079 0.57171100702831168
-0.53800144904167091 -0.19877297192668078 0.66927690114422878
0.21978420728475043 -0.12514799582038488 0.66407085235562047
-0.65252033544730381 -0.75854813723358205 -0.34618267132775771
0.68408258079300599 -0.39010606968849199 0.58947844922908665
0.49917083579129751 -0.25672814505941594 0.57824337763752587
-0.41633983872086772 0.59953294931274737 0.38537822790294923
-0.59390459282672947 -0.70120416714849809 -0.31963222978812722
-0.59450759345807591 -0.71687828974690071 -0.30022463559585671
0.30923883955341819 0.93557071263438829 -0.33959564096571293
0.29908492710374479 0.94789056072849309 -0.34267009242292429
-0.078275938825675628 0.64032893728790974 0.5842825477833562
-0.65303915837401183 -0.73952009133693886 -0.33810688043628734
0.27698276613275902 0.95138207326852131 -0.34001541906060889
-0.070882109026303583 0.55999485177455677 0.67926944491250374
0.31247476098019428 0.86428886396607463 -0.31632536163992286
-0.24156407647268022 0.07554148040111501 0.73929283837712911
-0.30839608027212956 0.096112449157883126 0.73323013100551293
-0.0716868114005067 0.37027926094019781 0.72880629423414989
0.073280317362303629 0.6357421496781781 0.55978424135973315
0.22170039280169146 -0.18139438391088769 0.60252204618986083
0.041712511924474102 -0.13459709711920359 0.70766893774930661
0.26652699051188489 0.90176673133311391 -0.32478400790319251
0.32981559577729974 -0.20548400576293124 0.61599349233352063
-0.24114566585535199 -0.049732014672466691 0.73432092169184071
0.02844905192127662 -0.07454423766900721 0.71984382346925557
-0.23304682151790398 0.19226749543586485 0.73777663878784328
-0.63109175577044063 -0.63928806769015889 -0.31954944911936001
-0.62534296903043696 -0.72298505187530626 -0.32112601411693259
-0.040842065178035715 0.50870172889250109 0.70430077337674191
-0.26058906916866359 -0.065334944956563931 0.73423275766331564
-0.4839107787225182 -0.15594636945300172 0.69704472266661044
0.33137577261809809 0.96646574753715841 -0.36482587477531503
0.56655832613494472 -0.28787288280136247 0.58332032485614871
-0.67137454985745093 -0.71900132713293963 -0.34696385187565537
0.6660160393988569 -0.3763769760964652 0.5884774358722723
0.44288445357737066 -0.26817916301203792 0.5915149317285443
0.33623218152188561 0.9481286171102048 -0.34940249658819006
0.33123929347516357 0.73859651668102155 -0.32625125247170106
-0.016502596465402312 -0.046054883176990968 0.72737289643996939
-0.016256558715247619 0.57061912679202986 0.64933910912570691
0.35281174945238181 0.94963436671050572 -0.3540147406559323
-0.44666361375634167 -0.22798149032821052 0.68558480750435102
0.20101623096728585 -0.064209336264277994 0.68486403130503215
-0.089111620779506726 0.49355706205929917 0.70322690625121076
-0.6603446207701833 -0.53502417990665718 -0.32032109801409842
0.51823019124730429 -0.28094772785845845 0.59746373227371485
-0.34572998210317513 0.00047920506619233971 0.73039008881123135
0.22725577860412122 0.53868052718599491 0.33996880112115913
-0.11690748621521127 -0.043933505022131981 0.73424213279988104
-0.019576618662543982 0.183258761268251 0.73484838540986752
0.26027190311445114 -0.17007508641888591 0.62821576665640855
-0.14582016547801324 0.29076561541829238 0.73874434945017076
0.32925985653488626 0.94459389049307518 -0.35148409547850357
-0.40936229297519422 -0.22516961562833357 0.68686160188339362
0.28248642663155471 0.89038825783913755 -0.34356173741660989
-0.0024286967505946118 0.64480578497399554 0.57909439820668196
-0.016074726208436585 0.11191344947636631 0.73396588004450725
0.10833921464864156 0.020807984864665549 0.71444189625612597
-0.6439954413909138 -0.75102365212814925 -0.3407236118728888
-0.012470725515061693 0.66343021422425474 0.57280706249488156
-0.18108763048861215 0.38383254075557816 0.71863434258111603
0.62293026612832769 -0.29879435378750308 0.58521756247494272
0.37823800694750059 -0.20051302491928105 0.59589732412186536
-0.56157048186605629 -0.19284859760356438 0.6621749742999159
-0.16104315691302223 -0.057746172591367335 0.73126812111999373
0.29884701897190291 0.90802189489398577 -0.32241059760118668
0.17114183000962052 -0.095792926671090323 0.67959555262204108
0.27950071532107401 0.67395564902674199 -0.047429882739052687
-0.051255136062771808 0.46369115631493774 0.71196976062346196
0.49348981846699558 -0.26329575484955431 0.60551476650173008
-0.18517420027273945 -0.074907505919133172 0.72784732933977936
0.70354959029137931 -0.4117458015208777 0.59463147204887057
-0.63320906048953063 -0.76622580967655374 -0.33316110802110199
-0.35511940599510494 0.018370573940164794 0.72675413935745758
0.3406597888594583 0.91109495427182496 -0.34947207054025675
-0.62235143289802819 -0.56042443362331573 -0.26046898906481469
-0.6397510910332479 -0.68559027663299998 -0.33289219424010752
-0.015923810472098232 0.40364367659509626 0.71586018621283198
0.30397557101465833 0.9364503525306237 -0.33943697660107397
-0.60143033850504457 -0.6738977332969347 -0.29260942098351994
0.48755265643589585 -0.27654766894076427 0.58730715423063318
-0.61468148985263649 -0.70098100832716437 -0.32355818783732559
-0.38464501237776832 -0.025913775095091296 0.72614039318337931
0.37560959677468453 -0.074342375808811922 0.58839044691712261
-0.00068952141702107242 0.65063997218395564 0.58324711458029432
-0.63812675970046484 -0.72974656115124137 -0.33263458855868727
-0.061526296702387316 -0.075715370239435809 0.7295002824611585
0.27722754277285827 0.89172746260043578 -0.31358531475303364
0.63303167457143472 -0.32997976141814267 0.59442676195187727
-0.54705387430823482 0.027806927017273803 0.628513425882959
-0.048758575294808482 0.40417400922054142 0.71941017308202448
-0.17295511829068103 -0.20487066096255313 0.70034629581684882
-0.046303295701619784 0.54214639760146399 0.6908197961944913
0.27172372306348763 -0.17534964794434729 0.63356368829379506
0.64719396647947436 -0.36674662607378372 0.59123596720729921
-0.41178511234954135 -0.097693377137860721 0.71455997604592347
-0.51661956115787644 -0.079518705451869329 0.68387635724901863
0.080919951209954294 0.065832637641572489 0.72260209112296492
-0.015621093743556982 0.31024272906213385 0.72214693587982848
0.081699465035561039 0.030539276559690312 0.72488140609917173
-0.052428823786194734 0.45639192128149914 0.71017767297649947
0.29082965515770798 0.8798479732972786 -0.29237156170543732
0.17235272735124801 0.1325747300034171 0.65864291229682137
0.16900231029517992 0.84840805188999979 -0.17998682943808214
-0.70617482098700923 -0.33995315110877528 0.38979068569807618
-0.2024548076561877 -0.055035707256872839 0.73290519141788724
-0.64348188926655137 -0.73526345964378714 -0.33248354659446883
0.2448277998136926 -0.16439814552418708 0.62454454190397135
0.72912113862832306 -0.39574286923534863 0.55796345788467661
0.30095040483915364 0.96596120030689825 -0.349665558325712
-0.24026436510897242 -0.1831850855380362 0.70679943063625728
0.31322207584761652 0.79661415826002413 -0.29690024508477536
0.2423890297800653 0.9200955389518124 -0.30650075201268928
0.39250842131191743 -0.23469278013839542 0.59822266835563009
-0.57294135371152366 -0.22884026032342142 0.64456565269309429
0.051935196079144534 -0.09898922064948458 0.719893337259088
0.32558889841100397 0.93949551831370681 -0.36193618358293311
-0.42463108693907137 -0.10516169420762769 0.71134897802990915
-0.65503820921266531 -0.75242419944698802 -0.34388156675691933
0.71637564508490104 -0.40538592530674378 0.59465087840913078
0.35185829589297335 0.92442119555231894 -0.34322314051734998
0.36904073198661946 -7.9421562156123393e-05 -0.13917219680385584
-0.22419690463440178 -0.22020333940585876 0.69893193327139536
-0.070940302839525862 0.36652690783728936 0.72849987747931033
-0.6001820100708084 -0.67904516651636049 -0.29264866223476577
-0.64029864836438866 -0.72153100192689612 -0.32789483963729704
0.31232586381378125 0.93444170605324817 -0.34079789516101788
-0.27330586572815718 -0.20043624192426229 0.70141388193550447
-0.068303671979254868 0.60794472281010081 0.64785549247543095
-0.038235062120445786 0.50408432484569932 0.70391179706733586
-0.088385290032593489 0.21146074467873091 0.73708481226413836
0.37512460827928762 0.26450242738380286 0.05464905084871674
0.24871656456947466 0.75476164384679656 -0.047475722067871595
-0.61935479379368319 -0.70789357263724506 -0.31572482147649789
0.059562477361707368 -0.086671814119025664 0.71450561849963534
-0.62337703668370115 -0.7235473532510508 -0.3206743899828074
0.28618157285051438 -0.18163559288237804 0.61388988961072377
-0.23512885573053013 0.19509376600504838 0.73763896946092544
-0.4566891144225349 -0.12853544374124368 0.70454969893809727
-0.65109038817079834 -0.76087529214528349 -0.3464987758562269
-0.064811396627657114 0.47012720410075826 0.7204628449809467
0.22801617988645043 -0.1594955884720714 0.65275657797100095
0.34812112237274423 -0.24817118260211762 0.61151102804436086
0.49378666386091868 -0.25383735135449786 0.39226257624056876
-0.086349489306382088 0.42359674386927582 0.7224700149102139
-0.072100513913874578 0.52864432523335225 0.6961940063347305
-0.40411735820042549 -0.076378578437166042 0.71811254493742238
0.7023736477077166 -0.40561120790123656 0.59381565903758449
-0.41099068695756896 -0.050346955326854348 0.71996988276425544
0.29094151932099499 0.94504353696195731 -0.33912951216714055
-0.16933376145736734 -0.17678658486564824 0.71181651233929977
0.22091586200830754 0.6843451141845367 0.17890800544788549
-0.2375701099842728 -0.086694195962097903 0.73050719226790295
0.26129081617527122 -0.17880683296531824 0.63913355610232825
-0.038657944381372475 0.10601378054038796 0.73583631642586411
-0.27156086744815056 -0.070079063220506485 0.73295547653065352
0.71812378832536827 -0.40036608059428291 0.59494165836550694
-0.4081270142613681 -0.13716066031313484 0.71209494094334402
0.54608428836059708 -0.35203747369075528 0.58029111384040355
0.00087269871077799016 0.66104424847452159 0.57105559289261598
0.079459908207949959 0.3698068901140481 0.68774558432755539
0.30115114686967925 0.63554550922873765 -0.10953057855752901
-0.25269415237892867 0.096126210069073889 0.73769650167986023
0.66682820002864684 -0.35315213038685045 0.58217781413657699
-0.54670499264159378 -0.20609074003044733 0.66268866365986856
-0.63526425691599353 -0.6296513448886385 -0.27428039994152054
-0.041645417734352749 0.53867939808494236 0.68065374926182598
0.67127628126402672 -0.34888636349416646 0.57560553353118715
0.22509065934365746 0.84897034775460967 -0.28106098314121464
-0.29661934649831173 -0.087462552645532918 0.72592429474231501
-0.11186873062502359 0.38155327613998646 0.73119222821767471
-0.39187996746292469 -0.039798760903989858 0.72298864006969421
-0.36316959417889116 -0.051971200215273433 0.7262354736948613
-0.54994693323258093 -0.65297036289262744 -0.2833505836056075
0.33671280185293628 0.94365606127884161 -0.3440146312503774
-0.62355870251705425 -0.69640806732451654 -0.31495849028929701
0.70451086145002173 -0.39851210443143475 0.5958041493470223
0.70252271470028127 -0.40079736085562767 0.59662855504728773
-0.61684763185660252 -0.69244463485356156 -0.31693746786332644
-0.67672549548980632 -0.70926762092315854 -0.35395623400841042
0.31594582292899909 0.96819607826103193 -0.37106143401603686
0.18280697187117481 0.35775582926702409 0.58959538411125234
0.047921312201320621 0.74428950107602154 0.3043732496948629
0.60253331743837557 -0.30670514729997661 0.59035043965938361
-0.57616499964451207 -0.2518427530841485 0.63411350871552319
-0.04078202437257638 0.39814279895421906 0.7199230145962483
-0.67037408889555639 -0.73253360713539661 -0.34182714425002786
-0.49472820257054889 -0.15892673014491993 0.6929277013506302
-0.064937073758502536 0.49110957460286719 0.71274921638230238
-0.33367826101004699 -0.026391787691905075 0.73297056648523184
0.37851759971255244 0.15812623592634556 0.39521931415425632
0.69604614736536874 -0.3972496171935308 0.5979806744733116
0.32362079430038554 0.95611835208835749 -0.35033273756528954
-0.0070751230501431145 0.57624150431872412 0.65391722577390476
0.70170326391898119 -0.39949811676450364 0.59900653983560215
0.64331204509359619 -0.36843767743489086 0.5870635927392589
0.28536777773920696 0.75663200276933795 -0.21411698026208653
-0.54636036394793919 -0.48630019912858446 0.13502910046686928
-0.60335139736943544 -0.65308962948290505 -0.28650559595197789
-0.061494589971884214 0.45823435393691536 0.70485667508505623
-0.041425665852113477 0.50122200268263262 0.70657253812380905
0.33021832574046184 0.97035032939685784 -0.35388717652195578
-0.48531261707881129 -0.12728035562403228 0.69713431184201868
-0.33084196973407765 0.12152805709417457 0.72729881946823105
0.006855125571777379 0.19277065881730776 0.72571142097735242
-0.6400468630875682 -0.73899125117093956 -0.33633079508389552
-0.40343850848580354 -0.031830934004867514 0.72170843798651685
-0.055829696101511402 0.45607946982797987 0.72145289581706251
-0.64918270916141729 -0.74823771888609869 -0.33883395562846252
-0.048128331908439931 0.32051050579994872 0.72909604296627228
0.71112547330996823 -0.40351967636297692 0.59650123754066386
-0.46843727735292562 -0.12305314009894965 0.70286411025498219
0.69967288650172865 -0.40100082184421193 0.59822351026170728
-0.3709068941178375 0.19500963421425987 0.70339262004057423
-0.09539765276841039 -0.062548936333472194 0.72919903233969685
-0.0044306649531245246 0.1391081633504756 0.73550485714032598
-0.6239998305285428 -0.4981970854914089 -0.12386392020111539
-0.67330846450353066 -0.45957125988944092 0.041424063397428101
-0.1839305505798523 0.21966028066283966 0.7401739432147314
-0.38409528010900745 0.055085708676460204 0.72365069883893463
0.68501322451665336 -0.40071190374115734 0.59164170421019069
0.65944890297151049 -0.36372342794385953 0.55261301988534206
-0.63689091657711194 -0.72543758921695933 -0.33032561952920025
0.0008706678717310401 0.60493532933525396 0.60180944649569057
-0.28182896930418166 0.12032641695912788 0.73930852908646238
0.6885698713505779 -0.3841032680312142 0.59201434253502616
0.17419828365526865 0.064409787616048403 0.6790724646655506
0.30666972424922545 0.92507274716588817 -0.33939213940857194
0.53683842475065147 -0.29977486751852261 0.57676712481063053
0.23273856401520726 -0.16211662202380059 0.64945678386978867
0.37001013743593814 -0.22144127664053204 0.60224550754757067
-0.73880345914511725 -0.4165326809120396 -0.23809623412550704
-0.62071989122658899 -0.71376178968678794 -0.31740505065729741
-0.53772858353553632 -0.21726626748139152 0.6457452694668141
-0.10345470655364543 0.85264986620237981 -0.27534399669933962
-0.13609629903210257 0.34172017115649955 0.73467497638132695
0.033852547135958019 0.18617587599710522 0.72167674666112525
-0.20435074418791718 -0.20166109966473908 0.6983334539275674
0.30155493441952674 0.93996345573910201 -0.3372218576544127
-0.63706600399921476 -0.73863327442033833 -0.3322293570948428
0.35890104797050548 0.059164454077525089 -0.031434629669641612
0.21008653940427788 -0.11685281456682664 0.6622736995402827
-0.42096523203172909 -0.079593586006879921 0.71673195059101125
-0.4815181607710291 -0.13982296548532758 0.69881759794834897
0.36871085255230951 -0.16039190488944186 0.62477768720667415
0.47872869712460003 -0.27788337365324017 0.57153679059224893
0.30745117928286825 0.94087075772954254 -0.34304419586675916
-0.29804346385568742 -0.087221250715080217 0.72506862891548096
-0.033875199884843048 -0.086144183922307271 0.72286210801955175
0.67359287367969856 -0.38403115741621502 0.59395320930679985
-0.26046823270526287 0.051263045186219686 0.73633847167825783
0.21735252186429901 0.83219490843121779 -0.23066381683300213
-0.64106330441652215 -0.75857042825386922 -0.33712940902061805
-0.50956706117239869 -0.17767589568652126 0.68563163257570525
-0.6459199095781486 -0.74906043936725208 -0.33756579114627677
-0.014715701048305385 0.43206590851654975 0.70413159347907972
-0.39142685553054946 -0.15582540560466929 0.70950022717461125
-0.34847918222755542 -0.024010416253219355 0.72779743348294457
0.06484832317182862 -0.14789861671859167 0.69285736333545289
-0.86137602589531859 -0.20393140364087803 -0.29166801263106901
-0.077733359191697438 0.44262608272712217 0.71481392478770767
-0.63511376187026858 -0.68974019933915975 -0.31401770927592487
-0.23015795324342475 -0.10749945143214228 0.72568287150863731
-0.64596220965143469 -0.73849610423527101 -0.34103118125428233
0.0079740414329267928 -0.39346634369237504 -0.25217756203120278
0.21043388577199534 -0.20427202412301135 0.63767593127678446
0.054674333500664835 0.26651638483993734 0.7011460363539247
0.23892834407293539 -0.15945238303898934 0.63098033367345419
-0.072215122117741143 0.38105988531675045 0.72858034528299831
-0.3916780900399634 -0.013556137880705518 0.72338278136071799
-0.0015593537036247829 0.12947507955201415 0.73489165382942379
-0.45967487744280583 -0.12952088321420513 0.70386269538387825
-0.52840186623354668 -0.15759811413940417 0.6843667683553365
0.29315626122909616 0.41055015417267005 0.2782053614014664
-0.6148028890526841 -0.71907239076197449 -0.32288243779098219
0.010909725590815392 0.60959251057759867 0.6162522783035993
-0.2649826661014334 -0.19560338102948727 0.70064436212280934
-0.92587174160892904 0.088175089126119752 -0.19845627623601933
-0.16714941344808859 0.24996777893499794 0.73999147664464993
-0.43401081145378662 -0.23434746634702464 0.68441934824593054
0.31629605752993656 0.94830450024109769 -0.34736476706077296
0.31077137873446825 -0.22710300352471549 0.085452477468031474
0.30809326760165273 0.92120928053171369 -0.33711636069389711
0.63444843820419383 -0.3657740380887945 0.58759867640562846
0.18066037133290519 -0.1541817179693894 0.66806299624648569
0.6835178965620472 -0.36885287151121476 0.57335934728925819
-0.22012841402717442 -0.089711128252654496 0.72787614971810433
0.66415548092007681 -0.3493545042089814 0.56076663553094896
0.32783057715978026 0.95937075359151791 -0.36348896546060638
-0.025603680368814677 0.17396520233548096 0.73575617220257028
0.31939283216404468 0.98991331144180617 -0.36794701759400877
0.034511754028574398 0.21728456778363087 0.72258053978153414
-0.39427592901702063 -0.039423306043269879 0.7240652929215089
0.26759031524792404 0.95973957270178323 -0.3437683342174277
-0.005325991371580574 0.39097525862338084 0.71538390851032463
0.20537343105426081 -0.1186695627111691 0.66107372924405827
-5.8260748122618625e-06 -0.066055513807543084 0.72261582078619302
0.24553473904780573 0.98141791554099889 -0.33121829954674353
-0.63218916595454255 -0.71859282461595608 -0.32124806403281941
0.079036757768091395 -0.14608708698150913 0.68828839030860933
0.70795336416764443 -0.40863691570283589 0.60167085929819242
0.28879449563125714 -0.1999804856080869 0.6111910003719031
-0.47940761397151022 -0.12652875095140842 0.70094001808655149
-0.65300591057570867 -0.71990742886678816 -0.33889429585662478
0.12375939703941496 -0.13321306853432971 0.69311936657410811
-0.4633662151819069 -0.10989776330859211 0.70641289203815671
-0.63485507999396695 -0.66199501864841503 -0.31886924630432995
0.35128050095167751 -0.2025270394536115 0.59066761605881901
-0.41584143761642461 -0.067493739577366207 0.72078841170339936
-0.63712664988386514 -0.7671403506545339 -0.33591786196958795
0.33918886421601746 -0.2097012362206197 0.61154840389078391
-0.6106598849821494 -0.57857503141633571 -0.19305381990910886
0.29361764478894831 0.88346811448777707 -0.31304656358280525
0.23562345659659656 0.88639516471972923 -0.27365686781703452
0.3079554994567722 0.94125795798980905 -0.34369705928959476
0.59622999133394528 -0.33001356968930401 0.57943625881443939
-0.26890575766665814 0.078090980413024091 0.73585030818959496
0.062112078923674569 0.089261889794976415 0.72396154769831123
-0.05288281288755365 0.38218014962424041 0.72370113101150013
0.29877229530849397 0.89227827953023686 -0.33308202416568566
-0.041303231147788028 0.48540121607680486 0.70760148324887306
-0.61032905938686921 -0.5749992223333571 -0.17082486689553103
-0.27508214899940076 -0.21592096590773252 0.69926628625320886
-0.43152643212472513 -0.1073228450151311 0.71246638800052453
0.55297465350950414 -0.32594081130836644 0.58727592748724466
-0.45589577363152695 -0.17706540398808229 0.69696455676104108
-0.47669966048898033 -0.15392485033274794 0.69557556473467463
-0.63682238413630587 -0.7524600116963085 -0.34001273475176153
-0.15282125549303427 -0.5088928426935897 -0.11978846912714708
-0.64567850354030709 -0.73330033678266693 -0.33854039579704176
0.60582418507220814 -0.33766207830035322 0.5815776975427287
-0.065170026716523874 0.3786383649780235 0.71991431507302406
0.17644545253570804 0.1034502953759612 -0.55913793199365969
0.089718292511215492 0.01758037759820346 0.72327626838841419
-0.33068036467917106 -0.11216626525383538 0.72358594514460572
-0.63696526342067972 -0.67803507498491833 -0.30202720556462781
-0.25741892014712681 -0.056088479739728934 0.73363564782970747
-0.19647760926922975 0.23947753192452154 0.73779240071724139
-0.43704507292051809 -0.091310787583994871 0.71532655571402814
0.32279698647330929 -0.10030920117237951 0.64337828883031345
-0.47763594580975854 -0.17212440174918781 0.69364885284952915
-0.90510615218526114 -0.11717684849784266 -0.19940197789785843
-0.62213646885013629 -0.62179826597949683 -0.27795336662276382
-0.17925737389862534 0.23040208857528399 0.73952478461470184
-0.094323826711647463 0.18878388498338217 0.7388110879774753
0.22761102890338103 0.65813429981213645 0.12704313342055018
0.054612724984918912 0.61279950309405917 0.61660087730124791
-0.50416692594174273 -0.16735796534818609 0.68830949267565844
-0.66240691621741987 -0.73454395526210736 -0.33785195448061334
-0.10868650110740717 0.42497834592902772 0.72190573617000542
-0.016579504235989542 0.30903490085513208 0.72404040903275169
-0.43758300265027195 -0.2185524177842072 0.69152834907271676
0.044139756105264341 -0.072214758519971389 0.72003656969255192
-0.35013046075759624 0.031438349894456402 0.72862932662359992
-0.039477203228516694 0.39529706252738556 0.71189459850155068
-0.64686560015638883 -0.70844048242038338 -0.3311146387905835
-0.019700505208094826 0.30824240740271774 0.71809590740082996
-0.41612352019954257 -0.093183595004810618 0.7160658178608883
0.056175948689051305 0.042317283756507965 0.72500048655804616
-0.32456950282963365 0.088292208997103189 0.72939238655043348
-0.64056748850955114 -0.55590920956265577 -0.20982449100333558
0.13025829267137518 -0.019639692329290193 0.71351988943862565
-0.0096057723970697784 0.37577172108025519 0.71852177967553255
-0.63849165201448688 -0.62288462798881661 -0.29578023673365672
0.045041752785087624 0.14430683037539047 0.72186213875355654
0.64228963907285641 -0.33959362729890319 0.56396112315606861
0.20124819017549009 0.81509491616495178 -0.15152472793954685
-0.45053269377417882 -0.21825890790399483 0.68838058408517233
-0.14613452287401213 0.65310920000130768 -0.48505819014204427
-0.73877142407542717 -0.65607209744848094 -0.36555020651982928
0.2990321986739044 0.95960968583584827 -0.34849502694714568
0.038460034964072361 -0.052600699621228153 0.72993852869570586
-0.48553170911525256 -0.16038761805197926 0.68706183211040806
-0.16787160955958164 -0.067676084296300731 0.73106863000949773
-0.66790576837558691 -0.7336395683610385 -0.33998047689914673
0.68996008387651397 -0.40472716655335328 0.59275351547420385
-0.4487524773785484 -0.11996634925112649 0.70719178606493749
0.33297699339217185 -0.1983590749242293 0.61312788761979609
-0.45380708396910274 -0.12303409011719418 0.70684587924011577
-0.22583179033826881 0.15601037257381389 0.73828539653457459
-0.46512040535308369 -0.12541477761967862 0.70405366182095963
0.33039420935277602 -0.17441885971077578 0.61219591263060258
0.26384021920617817 0.84716203598595174 -0.2797411642490264
0.10281463040903353 0.52586679337149433 0.61121030332801241
0.31818892687361339 0.14233942043367051 0.54112396814679142
-0.05146939315700183 0.49592294728705422 0.7094425394698638
-0.52990863647319641 -0.20638633126288891 0.67018533387767631
-0.45613580866960102 -0.13239254545097448 0.7064019826952721
-0.45877669758351519 -0.10634681684935343 0.70693226303637502
0.051054193996025704 0.20719983333970482 0.72222924530489974
-0.63217104975644189 -0.77246667424120763 -0.33425674909807435
-0.041612402887964722 0.13577339380492062 0.73715488870984269
-0.19550513728456723 -0.16103574890794473 0.71350960333964952
0.15725230513440147 0.35822579581095387 0.60766915266564425
-0.10679147671371376 0.42883906328188831 0.72262563127878576
0.30908447959204988 0.95510472026163673 -0.34733844271926639
0.39253504092497432 0.084244782951307717 0.10507687571017355
-0.3625512516412443 -0.12581107135013672 0.71687762031390945
-0.044109916141107132 0.50451947080334181 0.7016713459248628
-0.12528825974064939 0.40073851406662431 0.72651216175825006
-0.21565602590119198 0.23426252244127443 0.73762966933608887
-0.62067067135894827 -0.71520918447306125 -0.31782483972661651
0.72848705054948171 -0.39057764060810785 0.55026573680590762
-0.54259579397919555 -0.60866529592393459 -0.3316126836027653
-0.58482516957143194 -0.21616562763111868 0.64120382638393658
-0.64168161703304738 -0.67348799122073943 -0.31628768112763783
-0.64290711099469122 -0.75165852092410912 -0.34017934952579176
-0.068406657505940119 0.43498884546346711 0.71009731436188528
-0.056101992287605741 0.12008939817274578 0.73658149273581819
-0.62645424700797803 -0.73312515780836074 -0.32427446523003622
0.3275964081839573 0.012979283380923912 0.40806130473182584
0.71274954069449525 -0.40652316305372693 0.59821935288156325
0.12914780039640386 0.81222160587198255 -0.0036012116382777293
-0.61245841989478844 -0.68526061752255374 -0.32611486790243288
0.6864851764037545 -0.39142052757224532 0.59937455206620971
0.27538837733849669 0.89820753978682477 -0.32955497952294088
-0.048095334152884445 0.47065050874420172 0.71271626189491788
-0.19054250368043185 0.20703546726127242 0.73940385932059771
0.13191683275974081 -0.080819701132980884 0.70362555449754904
-0.25341333988761061 0.17367429697271894 0.73750496218584471
0.62567322644730938 -0.35424254856338894 0.58065549335217026
0.043898593616562627 -0.070339928341436361 0.72460834619352188
0.13265944042060418 0.48709917802819508 -0.52062271746184374
-0.2626920817031756 0.11813105921010396 0.73709830994886549
-0.64655133648719865 -0.56846615798903677 -0.25169242045402673
-0.63320465028809547 -0.71955767421099925 -0.3234534140206734
-0.61427745749290974 -0.66956862657440575 -0.29276717966479804
0.3131395773005029 0.89058363529885654 -0.32386927182337205
0.19228270654264118 0.48143578463883913 0.48933285165973017
-0.35271519769725745 -0.037637142468696247 0.72727338523259744
-0.016258818204513737 0.58171248033653977 0.65486929907993696
-0.76994776175390101 0.012869455476825109 0.31368978551056698
-0.035128104667246071 0.45704860445837792 0.71313834561851674
0.38131339457499952 -0.23816999695449781 0.59454111901278495
-0.38430020372100404 0.0006078793788130421 0.7249844437714652
-0.44743544852752665 -0.2342866442994459 0.6829522703739016
0.32960319347349293 0.93804156604165778 -0.3456014267829316
0.16732325385742805 0.4417706813531963 0.54045535632504937
-0.59976156304587891 -0.6449491931515503 -0.27627831106733625
0.42526173181664567 -0.05301187160323112 0.23747709033554409
0.16544775648568988 -0.012211471369013571 0.7011471115957405
0.30004962499779941 0.91178223512186507 -0.32397230789907383
-0.033110320759539763 0.70868690089500486 0.48923493550696795
-0.62212203939828448 -0.72059590315583311 -0.31844422482719242
-0.2316841061591331 0.30637614072520325 0.72747133148975152
-0.095971608428641456 0.15600220953907692 0.74057118926676391
0.032304086249477788 -0.055973593911087458 0.72476590564580834
0.29135569589232413 0.53388404022101732 0.16626499040261766
0.28595528191776243 0.97474784894881006 -0.36601029005254315
-0.3743262758174643 -0.13789273654985784 0.71400974701761777
0.3070175071285563 0.92246325778670579 -0.34015531571394469
-0.29508908076119178 -0.21399802496438258 0.70638977698319416
