# XYZ point cloud file
-0.40415165828320632 -0.29412823485280803 0.76094430289681103
0.77369031172452529 -0.11616341031122263 0.42142159744951707
-0.36044414755266452 0.010204584333530331 0.72559379923336742
0.18426988940826483 -0.18005369505603541 0.80162256632596218
0.58503714250841599 1.0635290654561991 -0.43474616801303867
-0.014068096669252128 0.2519028172040656 0.76237401123080772
-0.13699331579882568 0.27793532273700983 0.75106906938988161
0.10439218937833061 -0.13361975552721717 0.78923361352103782
-0.43735758384787005 -0.83396456714598299 -0.2565210875033781
-0.29746542366618245 -0.36786647956059548 0.66131029942369945
-0.33699273068110053 -0.44807859723494659 0.64745941350562841
0.35677328523219387 -0.36021398494693813 0.72704265855700001
-0.19908316369300039 0.35192052520588568 0.76902434286775012
-0.27076197003633951 0.33917238279247747 0.78992544903154249
-0.50733939199156275 -0.62571046210484127 -0.30246373147003958
-0.75539361955003415 -0.96014740732582382 -0.44446616280408957
-0.59500847432012893 -0.03494633358518584 0.75784599046202317
0.44854210000247641 0.99802566438705886 -0.41636861740225345
0.21681064069647249 1.0104324475531001 -0.36429072005246077
-0.62817617055411823 -1.0369430770115204 -0.43432203517701895
-0.30588810891577722 -0.65159111643753764 -0.31014520485171104
-0.83901346749460348 -0.62876031415296341 -0.26952475272111287
0.076307603117609979 0.26949742891753914 0.73767301049002931
-0.042078753853806994 -0.31410635166937206 0.64071968390793632
0.48690065288006529 1.2147440458217349 -0.42997709761051761
-0.096184771362486821 0.57679525664201936 0.73567617339659286
0.20506770419450682 0.015104824633788927 0.75752978949005589
-0.628797480458686 0.67835436488822398 0.12130697737349555
-0.1885513081403567 0.2759171850854365 0.77161658675186828
-0.53142550985479176 -0.3373816787242756 0.67825795916183851
0.11219339135665418 -0.16234416494207515 0.80498001806207675
0.77418621239014263 -0.41654640150103006 0.68592587124042326
0.62959082521027954 -0.39406100845381475 0.73001344529487389
-0.22142142081269833 -0.54769060968428862 0.14629448220061292
0.2911151802358134 0.39434843483797621 0.39853983582605679
0.665894402832794 -0.35518247069059772 0.72340406205901808
-0.80841737600407626 -0.87044873527843514 -0.43595726791446587
-0.62925817976235909 0.040287995762377848 0.8165878850248518
0.16767793701977851 1.1822826079569921 -0.4241174217355006
0.15616325067325842 0.65824747633644787 0.63731680033133253
0.35830306089931696 0.13232725902883757 0.512185275011106
0.20477223296143343 0.80717261685671104 0.47647121162915518
-0.73792683436814244 -0.43528764899500061 0.46312951587677548
-0.53996784433288481 -0.077892954784392288 0.75514978086954654
-0.67881411112821155 -0.68548962706904781 -0.29205575595962596
-0.71309264799895555 -0.39998983429391505 0.67700615799769859
0.57776490533409519 0.86586803060058282 -0.39295826816775059
0.63817151703861708 -0.59740152905090582 0.55305463460084192
0.13494945318583751 -0.031603423926067631 0.75686171187730977
0.15903016257814961 0.018019509258818872 0.76459599927228261
-0.41542697703415143 -0.760682384829928 -0.35574840975276789
-0.25395728646005722 -0.047718667408925164 0.75971614132895127
-0.54427949221375016 -0.81536566906724417 -0.35339744531265893
0.7214753966778602 -0.37576074794850101 0.65285900199784663
0.37879151267542926 0.96062515037343965 -0.37699230452996702
0.51114840050737154 0.92840799000256302 -0.39095890054945592
0.039154536311784227 0.428304851903345 0.80258647270128858
-0.24855258150829229 -0.11312180656770199 0.76540733843230058
0.35107454023034279 0.07696689596561701 0.49251407923534885
0.14763797561585745 0.44129170626499903 0.70395249970678186
0.33107675200253706 0.77762278687176067 -0.32020427038562871
0.14692725551327079 0.53527742716434901 0.66917329521133606
0.15466821895345717 -0.34086191365546625 0.6047425886722575
-0.85345528481906607 0.3644153137186793 0.047648261654462662
0.29599167591583525 1.2788999719163285 -0.41089938417031802
0.22689696326038866 -0.070055138639964487 0.81786759939337261
0.70085007131897248 -0.41546056934629705 0.64725688327584141
0.30962941003839717 0.31603718662870151 0.49521559003775906
0.80742875749909926 -0.24317671855206413 0.67641079584216879
-0.74594166345269919 -0.34793975241589442 0.52701489009681879
-0.27559283733507955 0.0032332971997592885 0.70078649893625311
0.12523740809055184 1.1300354162877539 -0.37925157611994464
-0.24491694905818306 0.94600094956361969 -0.16394295622679156
-0.84252556328230455 -0.92065911122431499 -0.46089318067937191
-0.38576708928705195 0.55522031854668796 0.60100601219192029
-0.5310802731216171 -0.9363761271230131 -0.34429792627145783
-0.10329777581755195 0.58161754223532369 0.73589586547317509
-0.092722620123200941 0.92057941600275639 -0.33420847991355268
0.3163613766499519 0.83531688432902695 -0.39533545596161845
0.093914248663471867 0.58043217340701592 0.68003691810586187
-0.14608743106089861 -0.0727704982571451 0.73433846842084094
-0.56823520541447081 -0.77248049150654197 -0.35195143429584697
-0.19695134826067928 0.50960138201839733 0.74606077543079818
0.77003628888540732 -0.40481133004705327 0.67819143132515514
-0.028340504098505193 0.2279532032471856 0.74950987489607002
0.55912013821259166 -0.35354344417310557 0.73727917384535857
0.13794255707681558 -0.085187044903032305 0.77949880096890745
-0.80257352555750128 -0.73956124953277769 -0.38628431534022845
-0.27876638426386791 0.43197212942831165 0.6371414177334529
-0.38028668785778841 -0.76389428444973984 -0.29889938025007035
-0.73735207134757985 -0.51408025837571003 0.050737065964563288
-0.29809224587649652 -0.25800359683481133 0.77218337302462992
0.42069840200432207 0.9346072370731946 -0.38112728934051887
0.35873354055083695 0.18238917298632273 0.32614255408385873
0.46878872001546412 -0.019910413409246708 0.66857029358720788
-0.53373255878912029 0.78332669535094901 -0.29431815563363534
0.94638843479334445 -0.21149950957846966 0.54050056529736812
0.24713808882278618 -0.18689144490694384 -0.38572555785615648
0.11994201352101896 0.36767670697253862 0.7314652101187864
0.11930031558127041 0.72611782776924549 0.59328839151754753
-0.40853037200085485 -0.29479348903059943 0.76364330280303783
-0.7995301849451053 -0.21781675223731156 0.24779096801432243
-0.50966491565619076 -0.057110164401745322 0.76413519818428233
0.40392581165633956 -0.021905458012652312 -0.058394364663548026
0.085812225491759181 -0.39633172792426929 0.18756450379561565
-0.3974865683290858 -0.62892673096178697 -0.22122745021592302
-0.86807766107788353 -0.92944459708402416 -0.43265485644777524
-0.56851140117245791 -0.19818030316868773 0.73441692510147405
-0.026855768388792001 0.59967863130442134 0.70004925163736953
0.29144868965813853 0.87815002436261125 -0.32286505271552102
0.28197608253994133 0.3289514459406675 0.55848324020332996
0.09699345576138059 -0.26541098492497561 -0.48808974687924245
-0.68830028696054057 -0.87470861022744817 -0.4256399355981797
0.096404280244752005 0.67255820161632407 0.64719828302739035
-0.62718956888311439 -0.68025060061756104 -0.32593592635515267
-0.53995755030811399 -0.36036642007033803 0.59560370056696288
-0.41834113427318137 -0.071727422887048142 0.79205249564343805
0.77330974271010033 -0.41731238662437953 0.68655674166632608
-0.18060480930535339 0.36164948509603745 0.77443718483843593
-0.10218590206286571 0.59031261320220407 0.73467320849461792
-0.44348944615906438 -0.015283959086932697 0.76573945948046429
0.4692207003114936 0.8815774613646119 -0.36746302252084928
0.29106154605445989 -0.13542950188345282 0.75889794042175729
0.65975896469272222 -0.68913518603092461 0.58354462718072342
-0.49081172223380065 -0.7772489527417622 -0.3184092140695205
0.72213949025666579 -0.49087222710424006 0.69073159456206001
-0.0020003728982569413 0.46496137355327161 0.80199005830468728
0.31399621820487145 0.7288326443183728 -0.28520874574726185
0.25443313503522175 1.158755440192264 -0.41032767536003634
-0.41389126383158015 -0.75600328606145517 -0.28178309621002917
0.84827849627996343 -0.31670882288751745 0.67216230322517934
-0.33867082733687348 -0.68483148833988794 -0.16762793143831367
0.1034866795087126 0.54179802130506971 0.68064256212954
0.6163670568574755 -0.64303337830248242 0.64083129161775998
-0.28801379949526762 -0.10190509202627451 0.78520135504721367
-0.24222611173585884 0.012981969175520192 0.76557544753788775
0.30952892473412702 0.72621436891458524 -0.28053237175598134
-0.43842934866345118 0.076769254007995613 0.7491864866961464
-0.32765956022151865 -0.02128105602572683 0.75851709530265143
-0.40208062160149982 0.85836209885633163 0.072872188837322049
-0.63574843732805419 -0.70074290548632967 -0.33635666098052308
-0.55589449072165964 -0.21565792781730053 0.70985777766778924
0.48137753798445004 -0.27316193160584845 0.74446759184846201
0.19888324710380623 1.2441207201920044 -0.42912158421873947
0.60046435203377935 -0.59621019540206055 0.67082841514075398
-0.014917595727677035 -0.24881386543010797 0.70558603983136825
-0.24693692479899987 0.18607416896439233 0.78450837957513819
-0.44749315814323865 0.39681911362805522 0.51352575246552234
-0.83932477587955479 -0.32115274384121406 -0.39795800120709579
0.234968703455948 -0.21994012301172461 0.75592610021685758
0.062170035891782049 0.54120709820701229 0.71215447116198138
0.3100250199999568 1.1189307224349747 -0.44540345687398641
-0.41134750684077082 0.013613871705004721 0.77670059643247202
0.10361389267609855 0.24190046192767944 0.6567762763674132
0.73863580047346744 -0.34111879428778735 0.70840708988288448
-0.087641262070501824 0.52669468255663165 0.78142174981145018
-0.84602532642097472 -0.93069713976515667 -0.41861007603489675
-0.27715270967021155 -0.037432330478670783 0.76211637755544004
0.66323220303912578 -0.49794789519122751 0.70594682396437092
0.37539879833310641 0.27072270868409731 -0.17933482219785724
0.24575359823615406 0.88033341659376063 -0.30699057849175659
0.71700338803802044 -0.47855988852660225 0.68600705754275682
0.31938523766496374 1.1810009055076591 -0.46642288279423472
-0.28111186771762497 -0.3110045691853599 0.72357951039954793
0.11732648605241103 0.91315650046992136 -0.27520440642373512
-0.48832793775203959 -0.36855078620818493 0.67762562092513745
-0.52769720798377362 -0.062132114692721174 0.75285633562822785
-0.86353961957230574 -0.20699628940059611 0.15571835363272757
-0.64308778451879789 -0.72582197002799687 -0.3362558576385366
-0.035800268333302299 0.50477365909912342 0.7825651493859942
-0.028753902254226915 0.18746342661207294 0.69570102094466435
-0.46710659211253791 0.15042563484240912 0.6673715808055426
0.1434678382813388 -0.073242935983831359 0.78082148813948749
0.40098962106108615 -0.58738131630365586 0.55503016873074529
0.14647532302737076 -0.09803610248105965 0.81325217554713558
0.14380862486648183 0.87582398210609025 -0.067082984559343473
0.3857809348535417 0.57682735296860976 -0.080692543359309532
-0.12693732679655589 0.39033982667994316 0.80826272725574655
0.72404397169259838 -0.32035483348703764 0.66880396047977708
0.49374801756038522 0.020468928086398108 0.48572385900173032
0.10878859676352359 0.43296911646009617 0.72520924746228665
0.36921458889437453 0.63341486904424471 -0.17885307460516842
0.19846514162311643 0.075923390743286467 -0.6035902711579757
0.15420965183795587 0.5219719789312669 0.66506047829029136
-0.076398123998837164 0.59292129183919773 0.716615146767559
-0.64703331090292338 0.15451107891745153 0.78045641384317221
0.034985104332108108 0.29022471471753519 0.75886749502614848
-0.1504847304243413 0.75311319060385085 0.71483265182418254
0.35837819623741929 -0.52094616195318366 0.44235718541971902
0.038197026233885545 0.7468096418939062 0.66407779228713437
0.13534248593624199 -0.097665666872250256 0.78591147877796885
0.0053079088498186877 0.53492662149316494 0.75527530331994974
0.21227518904959153 0.015729538977922175 0.75607954642492592
0.89775315443438863 -0.26554993181062692 0.6213126621497409
0.30905169408016064 0.72564035424954565 -0.27706671821591122
-0.46976665062881562 -0.36458996287251466 0.67828035613605575
0.91382971786142875 -0.32897476960397753 0.54608427443644558
-0.7270543204501736 -0.0049022101982281185 0.61989205622480981
-0.017938148978876356 0.25289970094725511 0.76318975772749731
-0.22821460698931162 0.48743438341576262 0.77046064054782093
-0.36327342454087308 -0.78912550761236133 -0.24112342050936597
0.30415265115446211 -0.068006825553343475 0.75649361298398787
-0.14279678361130888 0.46990178020836559 0.80889453568028813
-0.97504024071209994 -0.85552173363187034 -0.40581182780072034
0.51650112632754042 0.9001276357035346 -0.3471124314830627
-0.32692713982997379 -0.29917718520378989 0.75010875168973801
0.89569918948469507 -0.32631335315357823 0.46487311984118129
-0.31972220291772602 0.57739418591755243 0.46444314883818549
-0.28845262800575711 -0.047423356549951112 0.76810827701642026
-0.089301614103111326 0.75409973864632174 0.71897390861030175
0.28423913873102435 0.57538186133579927 0.54274163935579622
-0.132442288746212 0.4545480248954501 0.80392905925753322
-0.54244037067401152 -0.82161620014920356 -0.35020238913524943
-0.10278054348338728 0.48131785654796566 0.8024464163850773
-0.55570169754714538 -0.029824486355304325 0.71341953305880601
-0.41453116605433848 -0.69431584167870319 -0.24641303693298866
-0.52794088640279568 -0.89890694815743988 -0.37436312124264681
-0.6732658924303303 0.17065587180906938 0.76135554817588158
-0.65657119998508051 0.14040858082272489 0.66125533107104673
0.35383486850573043 -0.019569231429625855 0.71110315510230293
0.29148716274296188 1.0920718083783094 -0.48682741571535165
0.20786476132675347 -0.17177948859102443 0.79313475983484949
-0.21068632774766449 0.1191954316418915 0.77258930048310326
0.28060225403011385 -0.12405039822575503 0.77090454174962897
-0.59576169949462809 -0.57607172979946197 0.44876172870594133
0.87197350770082238 -0.26713340773948158 0.64414153465509871
0.24020997461531257 0.58305411990026634 -0.45645584282438545
0.12181590644048157 -0.15204466618506096 0.81699810784373739
0.51256162436408381 -0.056188838262421825 0.37057298680714723
-0.013971796396806013 0.5168554123218625 0.77179109924157352
0.71577072648060458 -0.55976564593429856 0.66695603387534663
-0.019157499575442216 0.32485519677779484 0.80950972088970197
0.065451394554907907 -0.4045145760271987 -0.23541316938795201
0.068300636192363651 0.91542119871224259 -0.1340547388464981
-0.79164361737811539 -0.98695243623013695 -0.50215115526329246
0.48759847740579687 -0.43909693539926309 0.72340972332087361
-0.26502187281444378 -0.046736911565909978 0.74481248542992873
-0.55350434380974889 -1.0126134077117328 -0.41538757974234031
0.30992524989279957 0.46392441797823025 0.57310301934214181
0.35241070651898099 1.0304526308681332 -0.44299686619333301
-0.023776954862015032 -0.053339273149758171 0.74242779585146401
0.46590044231559613 0.81392175131493349 -0.31913566339663668
0.423532037148459 0.038282800855608201 0.030282549302894313
0.48643828078670559 1.1107224962205748 -0.44534231364502208
0.32143649215856129 0.20274077381756683 0.39900164544376082
0.37866464504588393 1.1761772195458757 -0.45844276965343056
0.15855097363207649 0.83668115916729902 0.16478366768827968
0.17349023101458427 -0.3430802594196809 0.64611714609432092
0.69550085154029051 -0.062273073232731679 0.45757739645884937
0.26856180572274635 0.087687270587176513 0.60122019740754951
0.72020745253144725 -0.32592878917453305 0.66259671831052191
0.46156258654199694 0.71156725575838309 -0.19440739909336635
-0.44903019361540686 0.39786793272761667 0.75628556620734155
0.082678140969200342 0.62770143282731006 0.63084896744787144
-0.47709767832423688 -0.11861528276056532 0.79380212100178227
0.13878040455963259 1.1653472397663478 -0.39961298290314318
-0.48211690057789447 -0.64951869784255045 -0.29453226476387506
0.5492434498113532 -0.18154013900617993 0.73360983169212535
-0.28682305901369887 -0.07530528495614508 0.76987740752957734
-0.6592943932689117 -0.58751672981076197 -0.20272416188061815
-0.00079202744385309387 0.088529679879091105 0.7436490509814444
0.56742522906409043 -0.046685465701997053 0.66527936508245888
-0.53393743738787447 0.023142467865418237 0.76899707313474153
0.62101005941476828 -0.51916491181937197 0.7098586960064921
0.027747290400548685 0.76054703534464618 0.67262934499150973
0.60694739900963413 -0.64436059612692986 0.572027670289879
0.40770606864334891 0.716992579966508 -0.26737613773075442
0.27354708286277507 1.0227262099847536 -0.37753678586471651
0.38444283039288862 1.2956516475882829 -0.49458143794287324
-0.8014438779105495 -0.66506524136401279 -0.28500066681871139
0.58781851249056327 -0.66104534995462494 0.62444045032280826
-0.89439596165682511 -8.5850515674223971e-07 -0.4091543746160804
-0.22384508017224469 -0.32138642699106512 0.68259515464276888
-0.33912577720106185 -0.62759436666207691 -0.061859989346165142
0.0066148869610347383 0.65932731883902029 0.68218745540011305
0.18760368995343235 0.0094150802057957339 0.77140680812658347
0.7113559299589296 -0.48880441241936623 0.68907894492769728
-0.59194743361523905 -0.1922888318677049 -0.62874316409254916
0.23453450752704796 -0.04088604841050042 0.81814161789115269
-0.62499646766584682 -0.64079243970902411 -0.27398911265209547
-0.088227904530537415 0.28378110983617777 0.78440438734144724
0.43873763040041425 0.01386904095948438 0.34748816156243834
-0.11130794984666004 0.77643225781842795 0.46087974706981072
0.27549072124837615 0.010798436408414602 0.72489580624041228
-0.60426516603429548 -0.76682959640195492 -0.36413458126934195
0.17019586453712776 -0.16379719936012549 0.75173463028137633
0.14810420694727888 0.45287609732487899 0.6765527263078841
-0.31153000809992637 0.10834895483946738 0.78614543839532525
-0.3093912938909078 0.91121023067531115 -0.026403155905567743
-0.46489813437385241 0.86051507245072933 -0.19456615653204226
0.087920945586436261 -0.12741949425596033 0.772267184805564
0.22256094863815612 0.807207123122891 -0.38650307958982211
-0.33882365016681604 -0.66722540768839522 -0.15330492503534332
0.035508165257458035 0.83693401418499214 0.64413248469933748
0.34860009880434184 -0.43953014682268332 0.69497192601217961
-0.028372617764337797 0.066342801785884087 -0.74081469818406176
-0.76016985089981759 -0.011070433406844771 0.73992291485232542
-0.23578486638476193 -0.076974333679878271 0.70380429795860877
0.66395034308774825 -0.29687837993299482 0.72796792974607172
-0.079702268341415916 0.41303879633194818 0.82052811590844676
0.14932891713298646 0.48102146362047815 0.68843992962639078
0.081736358934840769 0.90726954115855452 -0.047221643049924156
-0.25681098534399638 0.51980357498425533 0.7549055711131416
0.075752948171912138 0.3171885908608445 0.74705610208120365
0.29081589551456627 1.1647095741547984 -0.44606628105941259
0.28483125299919498 0.76623764637873393 -0.2907897815524052
0.016722668301609733 0.65097334570601362 0.67860491607463658
-0.33382702587307511 -0.026395678350921159 0.76757118494841903
0.17627057345169028 -0.061459501765786628 0.88401573004419731
-0.18625887885293935 -0.070654960729974903 0.70226259265459201
-0.022086865274019374 0.2479099166278278 0.75885262917718954
-0.20745669616508167 -0.09169337692238555 0.72290309397129082
0.73762173665497688 -0.19873539662807033 0.38122559929314315
-0.33993916537308877 -0.137254183441744 0.8206564788810482
0.83324025056541728 -0.45706464693866167 0.46944234178766209
0.10692976679841593 0.87834482186778473 -0.30482609666111671
0.023305295016283978 -0.26695725093745354 0.66678751434256789
0.48315747834057632 1.2130720956336773 -0.42690827134567755
0.1168168081861265 -0.22093323006157206 0.75951691093263962
0.7101215051827644 -0.64956233021758014 0.4738267095570769
0.19324889157160374 0.011850227661876822 0.76329457460466066
-0.52749798253958979 -0.043850291907650885 0.75630543441100784
-0.84098323933205954 -0.99589714262447515 -0.42146330432488099
0.7178286453603917 -0.2935066369616024 0.71283417959024264
-0.93801540011178375 -0.050431929475195703 -0.33764337714855014
0.55872101202833058 0.87881222070988585 -0.42170025801505573
0.18250553027011307 -0.11946828084951244 0.81462416613689204
0.43041012735443829 0.73766208070868799 -0.31504891141871205
0.83398451029256027 -0.21806499757110021 0.40132150390358712
0.70498728706735303 -0.56080410922804758 0.66366937796280623
0.41031871371426876 0.54263431130179196 -0.28606840924743793
0.62970028399359101 -0.5899052151166444 0.40392625259036308
-0.14060636877872312 0.28956864882527 0.76123060819686295
-0.25566250680578184 0.69920263479705902 0.58772750041653588
-0.70647726925851906 0.16207990016778528 0.71357361462077407
-0.0017888853771914626 0.33416471596922115 0.80014898297677384
0.26596134329184729 0.74899289951606729 -0.095760757037016697
0.30856436091527506 0.83910598736086683 -0.32497932396393026
0.46672665343815245 0.81295788964019555 -0.31424228455490777
-0.70247987501130704 -0.53613962345921773 0.52048081050134853
0.12461927151148555 0.55096166217980702 0.67699041057204878
0.22357242139751854 -0.039616534174963469 0.78466583846562177
0.63618958089114741 -0.33080602206464171 0.73277278845692173
-0.63374005844814008 -0.86478438245409706 -0.40707787372656412
-0.27182701730884418 -0.048351768273027451 0.76632512285501164
-0.16295001584091295 0.20244230772269312 0.76879155622263351
-0.24372124726553324 -0.0094349514886737929 0.74948085270805009
0.20875556209989751 -0.024705259807534866 -0.56691148211156284
-0.14374957250051162 -0.44922255985132498 -0.36746645015958851
-0.34012504593866488 -0.83052684287770173 -0.28098660720471869
0.42542509086099378 1.1733318037250977 -0.43023483900136239
0.26386437010096708 1.0340717567351092 -0.38235471243985941
0.74868821799211815 -0.41222012797831731 0.64743305723153322
-0.12748654392096626 0.2746812335543396 0.75931832490018181
0.89379082497640028 -0.20353528770145779 0.61509083839990408
-0.06559300128447898 0.82895850845972152 0.62572822281498741
0.35874566355926962 -0.13110091387812517 0.74299721859554246
-0.23519295401671059 0.44095526940333107 0.68105462970777708
0.23219213707986008 0.016529085836101132 0.76071293288446884
-0.2137227384889453 -0.30362805013190375 0.70763881962676933
-0.11204910922658584 0.28449423382258843 0.76451153776943315
-0.75230273611223919 -0.43173860341721781 0.23319854096401743
-0.49139514175244692 0.052066163911496766 0.63864579702248925
-0.46352360152111216 0.60103799351194098 0.73009193651439475
-0.13733029922021422 -0.44191242429571231 0.53362990073495431
0.29478517866639464 0.71537661264397201 0.18588499587423257
0.22438216662715693 0.041916136028902429 0.73588166009776146
0.80701697717342391 -0.17308714924109525 0.39893108827024459
-0.62883971372725922 0.62038073496665724 -0.40620441645722499
0.72869390432758063 -0.47927328144358228 0.68551354989869395
-0.34251154066890521 -0.036432087897447119 0.76271078746495213
0.65647617869955255 -0.40374002701368639 0.68622833546229067
0.72287188299373994 -0.34589659545627427 0.65585370917022612
-0.81171765025117537 -0.80454520897865578 -0.41684230660971977
0.18773354964619759 0.84037632819757846 -0.15048738872345258
0.1569345150634156 0.53920224973786723 0.67122558066909921
-0.18675072553686434 0.11274086250604576 0.76619766395832389
0.29112032072814742 0.64339553657877602 0.38615088083111004
0.5327748694702592 0.0009904093113597412 0.58060377126432172
-0.62519033614907116 -0.7159554621458134 -0.34749157758703397
-0.44195634523478278 -0.0022658625211899874 0.76972531986710102
0.23066571606830077 0.0016864113465659969 0.76680422551723826
-0.28041984989428315 -0.041665768431493611 0.75747180126834657
0.19586572047911499 0.094176688946106424 0.73316698752196174
-0.52018696118105368 -0.97150215853400645 -0.418601175964465
0.64307372065707868 -0.46942866636912228 0.69747189180920088
-0.37353353317599675 0.89886299334989139 -0.21872713135721383
0.19818878166314613 0.80166409777602343 0.42191276464538596
0.68546471189823421 -0.15054109405206795 0.68384680326715142
0.64254635108301805 -0.1584210937255186 0.37443528060435582
-0.40267156288547412 -0.35935017310802131 0.68665686596955133
0.20892968701761028 1.0059051645238668 -0.31956845784367527
0.20798515938326462 -0.3631550678616578 0.31538277946462634
-0.21608357510417164 0.5244597844994523 0.68791015115008314
0.3084997741300195 0.76049355714447042 -0.32213542785749993
-0.14239203671629319 0.55905609981391713 0.7382641605592557
-0.81344173199627612 -0.88741019791957143 -0.44048362540199371
-0.53253294092164305 -0.34099229065574521 0.67898843862825409
-0.099825911209133977 0.32834296684357067 0.80432745738530187
-0.2968834022947604 -0.13343293654940247 0.80177959823401679
-0.69147020556589922 -0.65516445202386997 -0.31116835795455089
-0.78354294906771216 -0.88680110155986647 -0.44546312280700029
0.27926681520829733 0.031137108973869232 0.70620721014828547
-0.24831038256570537 -0.052648827710455315 0.71601234922447432
-0.35524867908012281 -0.23621957609125488 0.80784882919612055
-0.42498990316327934 -0.26382291622205933 0.78189082004531785
-0.30438611259690962 -0.035345296827988371 0.76054744965387533
-0.21017727696857946 0.40435676318583003 0.76643047702371625
0.63511487856683857 -0.47661364990490895 0.68022704159149061
0.065213523707152277 0.55659759298201905 0.70432271453383244
-0.66773887393706133 -0.60658258506822449 -0.22784208351855195
-0.23629385448108309 -0.14268710499372972 0.76786097363255124
-0.51553091233360782 -0.63293656244648133 -0.32034484569387445
-0.54552716749400787 -0.59673976478190482 -0.12944168363343556
0.091539624219846516 0.31221043695730089 0.73420890252250626
-0.57259625306326001 -0.092027392096246885 0.76276241913038945
-0.75236959011942162 -0.95748983926136866 -0.43656128930811189
-0.6078106964929173 -0.58472459883588412 0.10395860221256846
0.40423896900740219 -0.035104007657887237 0.51348513162527176
-0.24122930668629272 -0.28971483806560894 0.72755257072602308
-0.93598961134466485 -0.70113951296997357 -0.34324927048333165
-0.074964999451502479 0.23264028622824995 0.7587825951416276
0.80315924046554033 -0.3464850470504563 0.69040271176125434
-0.58954278479424582 -0.62900509090033307 -0.26281794126527425
-0.44323698602965678 -0.74449731774802075 -0.3175418912018923
-0.7268019838813089 -0.53102737827203583 -0.30439898130311871
-0.36983695337623423 -0.44112105742271301 0.64869262736990452
-0.6509442205940239 0.065500840599046928 0.67752514289107779
-0.13455533965199162 0.57427858837965218 0.73593582722703665
0.13190585703328561 1.1583544822412115 -0.40961710470922341
0.1396773679514749 0.32585141163558262 0.70904469788915137
-0.53158672354546321 -0.053085938587477344 0.75732598345492441
-0.23845343387336304 0.22505023197752294 0.78443846773057757
-0.14821480306136614 0.55053126025662813 0.74515903150414697
-0.7130363884446318 -0.18441937268789665 0.51954218002249064
-0.20294217945470017 0.28221058171095414 0.77642664814418927
-0.21861160133268598 0.46381663987417809 0.76754370331471766
-0.21053036579360906 0.46676762790459847 0.75984766603711762
-0.50526064413624705 -0.054368737896727026 0.76751252101219869
0.39807181448701595 1.1635471569150084 -0.51737080382562051
-0.015547578129309958 0.23992303773629686 0.76185042467069497
-0.35086912695087352 -0.28242975416008331 0.7826209316611985
-0.7851781886677216 -0.75607011462735585 -0.3993169248052002
0.040439731698214132 0.38668077820539715 0.80795395579942308
0.056513903263932574 0.7233193754744951 0.65826272713710487
0.38878514453293178 1.204542273683785 -0.43540137230700005
0.59089641474410115 -0.38549809307941274 0.72783458977603122
0.67386125534937324 -0.25904476855231895 0.72756544311636873
-0.10719494881950098 0.26842585007029029 0.7657093047172161
-0.079563445347665046 -0.45613848528918483 -0.26489717377415922
-0.18277512036916566 -0.28901198318316945 0.6417427252513983
0.24784928067369116 -0.43508478869382117 0.45180062569972534
-0.49722331616645582 -0.19091326642786299 0.78271304634639738
0.673752153807051 -0.22278005693273428 0.37485492971174905
0.71383435029056974 -0.48438775582128901 0.69074494959078514
-0.131544672132617 0.40214923793979906 0.80867124069689089
0.33498116576967174 0.18621086798520192 -0.37540071281993814
0.77366842065763031 -0.30707630285433618 0.70520016679332898
-0.13550623333340539 0.27670127976148251 0.75314737873817972
0.68919288344431973 -0.58632935630742555 0.65655613593083206
-0.83277092277151388 -0.17023520408137971 -0.46628609075215799
0.30003898289719966 -0.3023500971998121 0.11850742150081217
0.7151727821346181 -0.48723032192625126 0.68593992252635738
-0.081746399395505875 0.48032284244653578 0.80347619729941755
-0.45509507140490513 -0.70723278198100226 -0.31658851075506322
-0.18579974626065621 0.38401949463273244 0.75779011490069825
0.24192219331392534 -0.0037565386694922154 0.78654658100033237
0.46698137205535595 0.84506632765289158 -0.34084822093987444
-0.70907778727283954 -0.64910591162891595 -0.27166860785980163
-0.50945489149036582 -0.27347297045463392 0.71854091851807844
0.1611101031106088 -0.025116593579056268 0.79321167827872952
-0.13464159109487639 -0.089394699513430709 0.7479419394549891
-0.73404939678276016 -1.00480560908575 -0.40999076454514416
0.24753875920970714 0.78774850749245218 -0.24510683130722732
0.56782967975010479 -0.64502078756433434 0.49995454602426886
0.21798996352554045 -0.029017937854664666 0.81689738217237373
0.64368652577538832 -0.72275881388420515 0.52300619223437028
0.068449284698538615 0.85015267660651128 0.2696839990418971
-0.33901291944994361 -0.48048493289955269 0.62141810485322768
-0.45299546444443983 -0.27257493090972673 0.77114625553895899
-0.32885863441725149 -0.14062649148748285 0.82010338223470569
-0.53878282760430674 -0.33724178417412776 0.67948925294782381
0.1176103251371754 0.42556247931707603 0.71456413665845453
0.56341755194493437 0.80045856855430308 -0.35679463149133045
0.87136728579452871 -0.12170153173210602 0.49740100062570697
-0.34503846964548224 0.083920429276396646 0.78963110674536097
-0.3953637772530989 0.018469548494344679 0.71876121981350227
-0.69794323998395447 -0.34910778964390521 0.70305603111106008
-0.48248169644320882 -0.81801404244771092 -0.27644688693378605
0.13813575779079956 0.82607536571123541 0.35733374279794905
-0.019567925614492054 0.54210518121541451 0.75835540147917602
-0.47690432850204711 0.47978432667211202 0.7674859691822018
0.91724405218487837 -0.16261995373593408 0.4634667862185573
0.15256935668941551 -0.080450625567615175 0.78536236451334496
-0.31198098892254755 -0.28955398021842704 0.75327869285015581
-0.23734649392085316 -0.0079704118522205825 0.75246388072940107
0.45886225025552552 0.7314780682468438 -0.36156979955770652
-0.179612920277334 0.26630508537727149 0.77166852922036888
0.10700153327805406 -0.15484964193543149 0.80865370602213815
0.2918211219784812 0.77524804654849788 -0.30266422145259764
-0.30766290527666085 -0.31974770105844197 0.71507948767513263
0.14283218077115833 0.40575256044295926 0.71000768548656445
0.3950231170808346 0.083101180593790125 0.21331656615532668
0.45714105117018811 1.27324616850699 -0.48594844488009414
-0.53651779597387383 -0.35285674753659224 0.67953364987304377
-0.23885424508310038 -0.024531663602805232 0.74431854567483313
0.8909943900501931 -0.18292936474213195 0.42348803511837119
-0.49171546105716823 -0.23560638344993734 0.7624206368723998
-0.0071194543933330579 0.24209434387075213 0.76263533158259023
-0.37643052512837727 0.28668704792954713 0.73327593377682021
0.14318999142352773 -0.19916943362738948 0.81168261324072066
-0.40692223092652036 -0.36894798933347239 0.68189447997383468
-0.57238557717811567 0.18207013316115095 0.73496601504543158
0.13628343919218083 0.87279971847709337 -0.35057995499299177
-0.91108764331726988 -0.66829052020040969 -0.33917414047731476
-0.29237576939700993 0.66032390516654482 0.76623604402530487
-0.43251598295516835 -0.27645529901227306 0.76758489353740589
0.59464576322400853 -0.43926370298182249 0.36370073475549658
-0.16404892825602246 0.5831557622397221 0.68099334462305716
0.4335968511770063 0.61611798679375607 -0.30221924271980072
-0.71796167982632753 -0.67199141905351212 -0.30258801980909222
0.21508921394664071 -0.1808812062447771 0.78245369330754855
0.52451961111914613 0.0091711087615848896 0.57297868274336139
-0.4912839504865022 -0.23621343668636108 0.75824174549167278
-0.035675115714330463 0.71698282355360377 0.68849999944474938
0.29771519063694996 0.54852080012494397 0.51794409450633339
0.1239601909286101 -0.13099965661522894 0.81348534508261405
0.378277448131493 0.16744095493690381 -0.041244403902474858
0.64181221185299364 -0.024505903167455045 0.59975059738426495
0.69894278248870023 -0.050039470704071221 0.62323584460567361
0.74380113458914465 -0.32613540975892619 0.70232563930663439
0.38806135199685166 1.1105116716059982 -0.50450005923311814
0.53971939113446254 0.8178973087906829 -0.26893685276777368
-0.34024892251105143 -0.45229282285298555 0.63648354949504915
0.46521389840812433 1.1739185893065047 -0.41410019992504266
0.73002242621336499 -0.40912048917028443 0.64379452040551977
-0.54417139473907628 0.18134024415486216 0.75599352034865408
-0.33935504272249162 0.43120216996552596 0.80517601470787525
-0.48510396174074799 0.16357527415836692 0.57272072901630366
0.079137040901155586 -0.10340101291433967 0.74673027132672765
-0.74840718043487731 -0.30283054938492793 0.57269653782458985
0.23471130826068887 -0.070683160435279113 0.81337888847981521
-0.13014523602555705 0.51672335734507602 0.76236931893144444
-0.09404496534599005 0.54134853185569609 0.75926844817311689
0.77130349271850562 -0.39572393903964809 0.68188281670185624
-0.4074455028275743 -0.29240264877616529 0.76609850027101078
0.61253330819477192 -0.71555540175897647 0.52956476429742771
0.84172835540903357 -0.34396078633881189 0.66802171454090686
-0.66174063390246385 -0.3389177913487853 0.69850858001761473
0.22774117513172332 -0.011221035594144446 0.75450044245873871
-0.83179989245323505 -1.0001454639898544 -0.42536293003954917
0.71034936771617363 -0.50301114701104455 0.69140032086927961
0.79074057186341662 -0.081500737521733591 0.50733201508847259
-0.49388502618428376 0.66026491904294859 0.28700085765488437
-0.41378513363159675 -0.73694914614184803 -0.2877273957569606
-0.5005159118172422 -0.63519629996896576 -0.30717084066181499
0.24279278302120422 0.98665430527796971 -0.35267638126575318
0.32407603803110518 1.123541797701705 -0.39582100141827326
-0.20868669582689847 0.69400299569763035 0.42563758409178831
-0.89106017255176617 -0.82161405138016175 -0.40349672493526967
0.14466126754897851 1.1232143243803705 -0.39990976308531589
-0.14057972286221188 0.64271141361290107 0.6013858332203309
0.34034615139932001 0.72638601702179639 -0.27420607141104114
-0.19277011039082481 0.048896010516846999 0.76154392709744445
-0.40442909606857746 0.19636599930661092 0.58097424221037275
-0.099204697482182524 0.35637899978950749 0.81444347996612265
0.26329475201770691 0.67671407137520401 0.53760783782442356
0.011242015529963956 -0.31779461981924317 0.48969162836552282
0.16738646428866666 -0.21666302699226447 0.77097193273355202
0.1221049931049567 0.96185693367928471 -0.24088153513314303
0.1990516739827477 -0.30530570346632491 0.70421236437140067
-0.24785606549593808 -0.02483264307316535 0.75205294705762604
0.10175415638764029 -0.082607530751212188 0.75605469057028074
-0.32605443214954732 0.25485928188900053 0.81459819544104928
-0.50925733863918032 -0.6250017322239656 -0.28130654248582998
-0.47519985470716897 -0.73458789423729609 -0.37087232316213514
-0.0156580681780909 0.62304365622442326 0.69291212278855441
-0.2999058013482454 -0.040794324057816134 0.76529852296815193
-0.55500448292998361 -0.22883167433386475 0.70918241364005841
0.4868664170438064 1.214692603093686 -0.42984960561935748
0.70321534633641392 -0.22589966007767259 0.70700553617812822
-0.88734549891416137 -0.79650081660567196 -0.3987285958928326
0.7432159217243417 -0.43832684584201509 0.66165999261953612
0.40389819790789261 -0.54023618584104582 0.67232811428163863
0.45519062973675517 1.12945659432323 -0.46334165878183597
0.51938460722064361 0.69114384406612217 -0.20249395919758317
0.10593374191854465 -0.09116895308480899 0.76229619731622122
0.069334543356153411 0.62587492577646575 0.67351727286531649
0.4476130783489296 1.1208040536655748 -0.45628979456674124
-0.44493849888149495 -0.36170737501022465 0.68394059177818001
0.21559492759843479 0.014066935066928465 0.75614459609307216
-0.19134179232912096 0.62155840673572715 0.74748601763398348
-0.6499672236197227 -0.32851885866273489 -0.53508362654779673
0.65305198904415818 -0.080109297819426217 0.65783028909236663
-0.43816748541286143 0.038849340781974107 0.77826315046078953
0.31781030651752928 0.53830775335399039 0.3164028614289407
-0.10325159001251905 -0.10524314883377972 0.75850289124632309
0.02776930241638631 0.27940744981788868 0.7578085252713791
0.13039480579315921 -0.13396166358938189 0.7566969053810304
-0.1589204260351178 0.38770283161327601 0.7909108879676584
0.55095567661205402 1.0270769463139471 -0.47791698263272764
-0.32191012850827416 -0.42396992408485223 0.58469511318799228
0.31562477807871714 0.7381537929124562 -0.30698620610249616
-0.034585544119864142 0.85553460205886578 0.55347188211500153
-0.01951450473148153 0.12655741833570033 0.74430137876310631
0.23123937606047429 -0.01523162705740333 0.78299721853020721
-0.81211544525479518 -0.95002154890824375 -0.48400536206751177
-0.039515424640827086 0.81772571278626671 0.67692043168887572
-0.45905571267167211 0.50697171684432085 0.67100674863151077
0.85034746068363232 -0.13775292058994593 0.43295386765532129
0.50464501933992345 -0.048825776379090247 0.68866217609486746
-0.74815403006567305 -0.24777145119060812 0.58951843279753502
-0.18821065635449941 -0.086539036086175081 0.74816768845915238
0.26274371044249278 0.9398949189244945 -0.33996560405347154
0.20093884669271311 0.0086431525314392132 0.79903460321761166
0.36923837605836884 0.58430269090372633 0.071458937372915199
-0.027159716763966557 0.55484404809291954 0.75349893858253569
0.62962453096622539 -0.051054555334136609 0.64692590397834238
-0.23220059710834562 -0.060161802542377352 0.6936582358940111
0.67752809313629214 -0.69466824007816308 0.55799778951544798
-0.67766602551961341 -0.97350017016622203 -0.45361933570073099
-0.50231318472605579 0.095871570103410519 0.79898380756777243
0.52240080835005287 0.90776219241264755 -0.34366692423456513
-0.47610361933361744 -0.61521220803162358 -0.2412109082760292
-0.6665842072038739 -0.60313749469479916 -0.22195079607211765
0.11822365910228094 0.45033834747333579 0.7218509917208582
0.24471929077924975 0.98316014093884396 -0.35238853174465179
-0.45111008134984765 -0.71657412611536309 -0.30564507458308388
0.57204369930133225 -0.2375309190008299 0.73327824287834531
-0.50311610873641799 -0.63303142152775549 -0.29794826782204131
-0.52457077339312042 0.054145042739956462 0.78430322575651523
0.52063993268830444 -0.019605788641889887 0.45896707490941679
0.038669884766671991 0.83776670657420516 0.63899600777630683
-0.75422325939077695 -0.68050671255627715 -0.32633755939080755
0.1031016376755538 -0.15653923936157188 0.80551318086651158
0.2286986663684285 0.85804481442665881 -0.25279879030274799
0.76794094613330088 -0.27067658022848917 0.71033523391930009
-0.60598026393883586 0.03272456115291078 0.56088886814958627
0.06528550186085269 0.42414206680416378 0.78828507074345566
-0.23409636742984663 -0.31819952243433836 0.67480264848352078
-0.095038930645683806 0.63864826061346758 0.71227520668319144
0.14564186074162411 -0.23108600376231436 0.74818421827091797
0.74556446028257517 -0.43529045719140846 0.66051634215054023
-0.49942466437312127 -0.07882825658752779 0.76768166712062635
-0.75634281505956213 0.080278509208241866 0.66733265154558552
0.24268270627062272 0.03463771539272642 0.72483594390509687
0.13448423182995839 0.37704063319119641 0.71943459885615391
0.25448209654979548 -0.0023119365221155874 0.76215495966430835
0.012927126006577083 0.51720767310297422 0.77656616594095329
0.2909301855539424 0.72570252379432365 -0.24127218989521848
0.30890813019624441 0.070385589668591209 0.56579224367898462
0.13561746634733368 0.88213878518474154 -0.17299349729945668
-0.74495194810366527 -0.13543396659105511 0.35930531762744378
-0.24954299222164877 -0.065613120527935553 0.76699907831420511
-0.66812081506286347 -0.81796163180557357 -0.46836848522723251
0.18206384073898008 -0.16893900526722305 0.80659211752012894
0.85391189153916613 -0.45954625242858071 0.56095996422272165
0.36937431732851955 1.1097724521113221 -0.42338130241649718
-0.19019014036394477 -0.27261488095387598 0.71677435038466997
0.46792132792009067 0.65951899051883345 -0.3016749997451269
0.15743515635046812 1.0037567371357605 -0.25802622141167442
0.29029530285991711 -0.49517109974673446 0.48661215959478454
-0.76132828604348513 -0.35489660559715297 0.59660824112471644
0.083371586007070952 -0.14143024994431164 0.76216666751581741
0.52695813877587794 0.98093963236936066 -0.38055382031623364
-0.51629048800519861 -0.087647531600328676 0.75422422868875483
-0.82877351991033699 -0.96047190314981545 -0.42097912746591959
0.70564331438959016 -0.49000147969671831 0.68772323834466498
0.55392531910928255 0.92882981521308405 -0.34187515393683343
0.39256932468765571 0.0014989432303624262 -0.1652346115016318
-0.29183748582372093 -0.37422435846729485 0.65078688260318529
-0.097144099843168519 0.35269718964374697 0.81493295382075015
-0.45240163705633307 -0.69623400905137167 -0.29373955373487703
-0.64759291273949415 -0.74367126647580761 -0.34970818969975159
0.41517899187275553 0.82752841901431307 -0.40685806013645864
-0.29446928813442064 -0.31847222802005781 0.71891556889064212
-0.20526972773538976 0.7446198931955853 0.60138208210871902
0.075742719329259245 0.60602702785695861 0.66270289872405286
-0.074995576294906385 0.25640094814010972 0.76355664186027905
0.39629286053627966 0.14437947507881965 -0.14806704582479391
0.29889315887541912 0.73830751650852733 -0.014513798294807145
-0.360115241256727 -0.80748215251064348 -0.29191567015148412
0.14746639563988784 -0.043875448142823459 0.7711841451514676
-0.62770425409214958 -0.64938839863803421 -0.30767789054974415
0.12742488876873459 -0.2566153247151064 0.72236491641770328
-0.30709129588552742 0.27025141630776367 0.78000223905848465
-0.5656561664039792 -0.15871265129739953 0.7540073649439627
-0.90847770976841957 -0.95312707712864642 -0.52073904592156728
-0.11032066175804545 0.58822011863704837 0.73481847618962171
0.12965830158313807 -0.093639965410272197 0.77137940324655219
0.24558119384115074 -0.41691788087788595 0.40841253900637398
0.27839814592799694 -0.33976527469929418 0.22605423241082345
-0.1480392390062697 0.5113123627155769 0.75871168359242347
-0.18146535162486543 0.62180409570894568 0.74267913521616169
-0.50075736467622622 -0.0073086573484406614 0.76554027442060057
0.70069307760179367 -0.57321640214044545 0.66156054138908083
-0.5246917931271895 -0.00087845333267244641 0.67219609821500015
0.22789100312602883 1.0520253876415069 -0.36876016969249648
-0.15643455812784701 -0.28790964812604303 0.71139109564118641
0.28044407861704457 0.7433161213118531 0.21406809323879372
-0.34532187734120612 -0.13407325777257562 0.81736845293420046
0.16116701577827541 -0.22403708661609301 0.7605822278911738
-0.023418434166344149 0.16113054337625954 0.67488762566219052
-0.29379471879296659 -0.039657262569510188 0.7651498712340512
0.75623157849244826 -0.45904361374142555 0.68057238862600755
-0.44046740018279884 -0.25510822697189184 0.78105920925350958
0.57787856215310729 -0.71517432929729452 0.50789221084771807
0.1076161304766643 0.86184758250880966 0.56985510025226205
0.20456957171213297 0.39597004913992723 0.59903407101731077
0.40397698439780827 0.55921803858663566 -0.15084229680153882
-0.22565370392600692 0.081153632637654738 0.77082732774231744
0.67896644791870742 -0.36663568640020971 0.67775615769812658
-0.64367426011183726 -0.36174953081759786 0.68254596082714691
-0.50671786715433953 -0.62357779871161867 -0.276720366235363
-0.046400051254520847 0.65698346398620444 0.60771101293282825
0.92938695126396453 -0.26219024170040228 0.56071299713695311
0.17377728723743671 0.88040449896999606 -0.21863166200591388
-0.26484743093242713 -0.077617346566319911 0.77579146187407488
-0.15927180226748128 0.44256187036236261 0.77977394746219897
-0.49571808809799345 -0.055204625481062308 0.73126218164292389
-0.3804832076468907 -0.0072498511399550214 0.76357032093676391
-0.33914826126279685 -0.68861666436809144 -0.16711883247618337
0.58717847099201192 0.99288060389250943 -0.39264052814319977
-0.46134142796843847 -0.71041970439792879 -0.29601682986721656
0.66531655011198154 -0.45896252028422424 0.6558941109777976
0.65858656013023076 -0.48272762772655753 0.69106557860194506
-0.62616151200021619 -0.64107692854241538 -0.27340061858596165
-0.93445023754756562 -0.71059010384202459 -0.41977784555711306
0.35128558636143736 1.1173420357764947 -0.42779593484012968
0.3199289194642434 0.39790873942466598 0.52862185442954635
0.12057343265463061 0.83854590520445482 0.25362772006790024
0.72432286738719487 -0.18573797369298717 0.56052594744489359
-0.75136200767266981 -0.35744317969678369 0.6529269676912266
0.078072879494598624 0.42629593263447418 0.76904490285562144
-0.96824767249941868 -0.81955666889172729 -0.39273234521179745
-0.65200071075268262 -0.24034817536514419 0.7294844846916213
-0.11744155476115337 0.57639496133101709 0.73544186606039652
-0.36034425704419881 -0.078964257590144804 0.80365775314007948
0.32033138272790446 0.093562782399575842 0.47270680807243648
0.63086865720269891 -0.44535191794308204 0.67874916497102333
0.37908159864823787 1.1887611311200139 -0.45830377343336259
0.079142700594673432 0.6224338186125804 0.67897411779781347
0.69344000379176807 -0.49668796785704217 0.68849473079430545
0.73609377149486122 -0.38994604810481981 0.6493822040807492
0.36880047546452932 0.63730737372414448 -0.17747611360888993
-0.37718482824033905 -0.5745396756595984 0.27235352951827946
-0.38077366836571969 -0.71823052603366122 -0.34142110642059387
-0.084845991173657209 0.55195460727988355 0.75041994488715957
0.031299184526657697 0.61968524077571185 0.68050328752266154
0.46532649657664771 1.173908668796666 -0.4138802415813243
-0.70498780728062727 -0.07461691816252447 0.7749142446636732
-0.45517795719645626 0.21320738352252988 0.54649950648246914
0.1449441794875822 0.29382658406389339 0.7143094237899219
-0.60168646968506323 -0.93622206312307377 -0.42650532532466912
-0.6757455424130252 0.10174056602127557 0.81025949385820928
-0.069454070081558683 0.52969165622328607 0.77590745620227253
-0.86551147038573184 -0.90317332052101684 -0.44986794490384702
0.079495395194072671 0.37183756281385261 0.76588987479637716
0.6617233209143305 -0.49795005004173531 0.70414176793024819
-0.56624910974224374 -0.091307800819346668 0.69112681794547548
0.66389728899302602 -0.46030350000307174 0.64842566725544226
-0.61704274053772146 0.35614211300786991 0.39680996051777306
-0.022958589044506539 -0.11241008838509448 0.75553778423214268
-0.026414768613502559 0.18889467525201198 0.75951355493380746
-0.57952362123417789 -0.5831148792268287 0.18469482390192921
-0.66993154269057698 -0.51746096552294674 0.24576659351366659
-0.207978067195425 0.31667578556043563 0.77792213614545647
-0.58366548882044 0.24604909810777009 0.58516306636713367
0.7228359571921974 -0.65255625850561039 0.55417940056920267
0.7210497530739981 -0.31671826964850774 0.67377110634328907
-0.68688596094464671 -0.6887883656255589 -0.41253026968734297
0.042973719488383466 0.66258676495535918 0.57004296062212312
-0.44163987460278609 0.20567748618890391 0.59489459487865837
0.77405707230407839 -0.41271022483886521 0.68553078962715652
0.32387800356056307 0.071271950666085715 0.5378515598733653
0.36108470392771252 0.98710269481982493 -0.43202528238440863
0.75317943104422369 -0.333333837539735 0.68973560790754984
0.11824852701287725 -0.095007420828546074 0.76770219452366462
0.34333362513920651 -0.3910415299133847 0.48388588177180836
-0.88155737095354247 -0.3312238007617907 -0.32718291149511458
-0.37611071518301564 -0.78509271044410589 -0.32670144542149515
-0.60228077142796854 -0.36547015393258175 0.66956161764098598
-0.12141868456443565 0.93946033811302609 -0.24363372913297834
