# XYZ point cloud file
0.30545321173259676 0.7975805015722558 -0.25677468858163316
-0.34128547686071709 -0.52549578510578121 0.56596565525600795
0.21718567341689088 -0.27557595217776054 0.73537418888683259
0.13048309747925113 0.70667291532916876 0.61898350250788514
0.061636898272213525 -0.16730293796272644 0.77173729487483622
0.32784677622783143 0.13558715771726426 0.50336844140139814
-0.26285136427849215 -0.037492922690685493 0.75002990483341003
0.21333120634041336 1.2579631129643598 -0.43513527787967421
0.26598185960024917 -0.25078070589512574 -0.22277664635417735
0.061375154826554312 0.56283618939842706 0.71125052170298086
0.090739482721652887 0.50945360194178502 0.72163488134190557
-0.57075497524057284 -0.29593627271882883 0.68080683786035201
-0.3792461047582385 -0.69995895717566547 -0.2375522327643611
0.67811537136870692 -0.4675722148927125 0.68804696377159691
-0.065092671735328844 0.26559539900211693 0.76440242238316147
0.13895548293112675 0.46909100200212261 0.69710062578369902
-0.038388434429320606 0.25221064003822558 0.76236536245688047
-0.31169365429752416 -0.43346865594721273 0.623236808805267
0.20341121622399827 -0.036642981929038199 0.78454728451406908
-0.031309175587506122 0.20599515753354947 0.73378352642020017
0.038670198939071698 0.38308040453758796 0.79863061008218805
-0.80707786039719354 -0.99021302846293291 -0.45384615169826881
0.65457794883779119 -0.44172100154450167 0.6930629865277913
-0.57006701988333819 -0.30145946393850842 0.67104990511551632
-0.68622484048273624 -0.18618114311784845 0.61678078796508928
-0.17313536977788435 0.32747946684049956 0.76826841396495826
-0.076772353514868108 -0.26956355964368139 0.68793601449430142
-0.56608889388570638 -0.21817317523709878 0.72115879597795951
-0.39543152226877382 -0.69125217403430184 -0.24903334982059072
-0.16536921019551065 0.35905343141019974 0.78622398455331211
0.043669898569722865 -0.26409510234498734 0.66124579611858314
0.18452145542323728 -0.070881235641034546 0.79281432959277187
-0.69110408929075029 -0.38210622899065333 0.66951566279026875
0.51337585652228701 0.0097299349772462795 0.47370020184017436
-0.12685008486105992 -0.25234474833824261 0.71252340838538952
0.89850240752592092 -0.27474588592417803 0.48625898266455714
-0.28320190267749118 -0.12468235923380533 0.78823140928132507
0.13871282370535329 0.43980552911564608 0.70866792150666968
0.077655831729466579 -0.13960891530852426 0.77959738402822265
-0.55097986014534428 -0.37807976402588001 0.64873500110441773
0.75078373479512095 -0.40231714333594515 0.67228844210569783
-0.40127354572193347 -0.28363846345874849 0.76508908770120621
0.76704105365719311 -0.16835472090456696 0.39967933794484756
-0.39375792413250621 -0.028721876967603865 0.77473600073062387
0.15939505693844902 -0.13677480898580407 0.78986690875257304
0.55308333245555785 1.0383744297638726 -0.4468366122066505
-0.033342201969127294 0.26042746865427491 0.76605648527182724
-0.11359553681983092 0.26953488381582091 0.76598962965230522
0.1179662411746023 -0.1465586733888864 0.78563404864630737
-0.42855870084597281 -0.79228559530983311 -0.28609911385798314
-0.27277108849869092 -0.35186585198306386 0.67046042747661638
-0.34988235115214467 -0.43617550631256335 0.64119902750433466
0.30191908965148606 -0.36267758574298981 0.72184962135928021
-0.17759223266866808 0.32184693791901919 0.7667055253298154
-0.23437125999658814 0.27858776109273536 0.77557887440870799
-0.52094262089077314 -0.62531851984873921 -0.28572060781595487
-0.7417729569634941 -0.96380292436527282 -0.44131042385191133
-0.54835005175671014 -0.050677729418365569 0.76389268809306188
0.42565521320284394 0.98198414812657886 -0.40823984455737555
0.20541900113995437 0.9681538132069234 -0.32410730199867377
-0.61797714314259777 -0.99711554630354204 -0.42959483227288375
-0.38638610762524883 -0.66743108706021692 -0.24614558695460784
-0.81100183065687659 -0.62954194862117108 -0.29252066530622001
0.063502686059207281 0.29936239045935598 0.74656519441553237
-0.042795089102907191 -0.29219126016995034 0.64886072469945177
0.45244567655006873 1.1994779949634873 -0.46225078150890536
-0.067304884901541184 0.58571140015892009 0.71988311855986198
0.20342232575873298 -0.0066527390271641229 0.76069717190563191
-0.61806335161233772 0.67983278738971908 0.13410781150539278
-0.19334404720817411 0.28390249267676271 0.76949086388719934
-0.5073000641976102 -0.33801511702882736 0.68478425335604887
0.11502193424798124 -0.15356103759291329 0.77515099807220866
0.76051748594011559 -0.40826722895434736 0.67275890008895478
0.65324804727124319 -0.3851757301332181 0.72116939201167507
-0.22341333268970601 -0.54790576254616941 0.14871155237139169
0.27508217207518104 0.36843911003337837 0.40306115475719384
0.64036502946513418 -0.35689753168380373 0.72341074040515552
-0.77469991702269259 -0.89000076527028393 -0.43522604360823647
-0.62957585702189656 0.04627724461941729 0.79457199023150515
0.20264434471085324 1.1724673648150923 -0.40351579478599442
0.10652228818085585 0.63947672613483597 0.66026197818659149
0.33241069242554566 0.12714334207110056 0.51028286523120414
0.22438090750241257 0.75604921386300195 0.49636066410438273
-0.72886696669180251 -0.45431693625342534 0.47044541944574358
-0.51234411759648335 -0.067480382638231085 0.75820159008172083
-0.6961717976330033 -0.67542600608939396 -0.3233187536227291
-0.70955286591855271 -0.39408756222324648 0.6575412799416549
0.53076846668917221 0.8730317614072266 -0.36054613184586309
0.63373793453839589 -0.59668509999150543 0.51689164014838829
0.1630222264205814 -0.042565557807356491 0.78470214680301353
0.16122806458465355 -0.01301866238490372 0.78196555909943899
-0.45260057527217512 -0.76606221961198373 -0.2989560023459128
-0.26925271808601109 -0.035950975882712566 0.75028034004537303
-0.53491730714237518 -0.84148176732982716 -0.36083406577992183
0.73514543585851178 -0.38337285993405334 0.67736516848062855
0.38325465940059422 0.96514918461354549 -0.3940450727613542
0.48884890659332958 0.94051163260912496 -0.3869022803307951
0.030365019543900362 0.43082433801257647 0.79625162747822309
-0.23164190641777288 -0.090622510499195563 0.75393025560110571
0.34129146789860343 0.079545928077587646 0.5144235381866773
0.14164435882365944 0.44608732188947259 0.69637528442566565
0.32767274812802727 0.77486593237232648 -0.31069752897023079
0.12286825258127454 0.53571274995315232 0.67437229716971081
0.16273202557930944 -0.33449917427607812 0.62353691018686241
-0.85323090845517469 0.36504365702284958 0.046456948667266365
0.28032616096964352 1.2390603075851376 -0.4376204823814015
0.22254342953626349 -0.034838526673302672 0.78233187457735165
0.69620344147768254 -0.39452780863605763 0.68208502856217246
0.29768328124999766 0.33186013991358543 0.52289013207721524
0.78933009236897989 -0.27215514276255215 0.65830477954490374
-0.74441373155369861 -0.36134143557243664 0.51162112862767106
-0.28237357500727089 -0.033160198238531891 0.74851664916734506
0.1599533720315412 1.101037220815162 -0.36086241876053071
-0.24639725034307336 0.94893045689497679 -0.15471362371477326
-0.85705390149340488 -0.91895444177490937 -0.45051032069383967
-0.39364430231812175 0.54300786163564252 0.60747139133539907
-0.54471949880952231 -0.91274901237373229 -0.38186523144877116
-0.12522397076915104 0.57280730238391298 0.73392351054413107
-0.10140079900025242 0.91492689190289767 -0.34171938877919084
0.30162341689705463 0.80708367846498641 -0.31668274680759601
0.10207563738728287 0.59264221661552852 0.66986670115563629
-0.16064261057800439 -0.065941614981995578 0.74500522221226584
-0.55310954501254539 -0.83144522390633613 -0.36321431318639136
-0.18933901304852138 0.52377748619452646 0.74484318241389902
0.74536704660489583 -0.38180190865328711 0.68102987101411205
-0.043203083760376959 0.24891784359746394 0.75997978091956886
0.55632189330159987 -0.39551845517703255 0.73081028829541417
0.16703242619187708 -0.090530843482155232 0.79113313481648873
-0.84877691586032789 -0.73073769003802447 -0.39442852282066454
-0.31300133419888398 0.42678629768597265 0.71176253875595341
-0.40072800894804095 -0.7307755451008735 -0.26691719483815401
-0.7347036266958733 -0.51435302162349483 0.033568360124283436
-0.31202988034783985 -0.27271586482652443 0.76253365396656814
0.39726996019480865 0.94738621931524269 -0.37870248112281135
0.34038638714166591 0.19914731180783996 0.36215851181255498
0.44012495553733499 -0.054903029794634239 0.69180118395201529
-0.53400567201336258 0.78243311635814228 -0.29368888252676567
0.92429517866765465 -0.20061142257477232 0.53522135119406911
0.24482141796302453 -0.18781866489724258 -0.3877283074826684
0.098131812417674213 0.36340879492891887 0.74991145555760363
0.11244334117598376 0.69879954504371744 0.61542915934512399
-0.40397099501157924 -0.27806614058456891 0.77034894360068207
-0.80759001073578318 -0.21206481206420147 0.23905374145023339
-0.50611208865812563 -0.048413495908374848 0.761814510569082
0.40301095649993446 -0.0019118183481361406 -0.069156669038539231
0.092407391677540973 -0.393020582189195 0.19812641023617797
-0.38370006256331524 -0.66061538230004224 -0.21292147272297801
-0.84695931195595553 -0.95978783233184706 -0.44994390226327119
-0.55577183378438066 -0.16798647549831225 0.73136346054033385
-0.0013545501969620677 0.60138826256333955 0.7105504841811654
0.26932373616985572 0.82203817268739365 -0.28823334777117537
0.27497547484832552 0.32164684386154185 0.53923431533911348
0.096238951272702739 -0.2668459476476413 -0.48712571095771345
-0.68066406180224093 -0.89304282389931222 -0.43061725447438026
0.078170147553009273 0.68192759259134395 0.63816478985034686
-0.6567372673096652 -0.65303399541220775 -0.30947943488327945
-0.56691790071164627 -0.36962508139707662 0.64478391196776708
-0.43866835814176719 -0.042070562740379902 0.77610798918735091
0.73530426925231029 -0.40132286573870979 0.70217274355081205
-0.1635508437799309 0.34480256438456497 0.76994772323192717
-0.091627543420474744 0.59272682828135781 0.73537975489986074
-0.4105572381288114 0.030397417602499921 0.76893539882216588
0.49179579327229567 0.87058748598618629 -0.35305145494198975
0.27899979655447849 -0.094783390917133281 0.77182403178200754
0.65232650417683324 -0.67954567953332279 0.57336562754481979
-0.5038099584311011 -0.7306097946462573 -0.30966945320302752
0.72968522278695513 -0.51391812911408608 0.67029009191514644
0.017282675933516845 0.44342736138744132 0.79495775882224851
0.324958121185702 0.73911575367347382 -0.28290438601445633
0.24446578973843708 1.1541596514271906 -0.42335274398444561
-0.39188048535950493 -0.77214075413893357 -0.28357321768772331
0.84058189533707106 -0.31778169483850771 0.66759053339103791
-0.36203334731901959 -0.6673349488810516 -0.20136325057334162
0.10834490480862558 0.52085735965746749 0.68746498651510168
0.6424459881017941 -0.63889552284497475 0.63035511539026023
-0.27431456840925617 -0.084127206442904168 0.77097530744770004
-0.28131078084963868 0.034145513375746894 0.77302365665857542
0.32343990613698037 0.73555743909204385 -0.27888178036244543
-0.4063637727426781 0.10448909160224984 0.76220963690772559
-0.35559269631036394 -0.037640151375565756 0.77392295040396353
-0.36207937750790431 0.86024816498867396 0.091253268751296801
-0.64575137634610746 -0.67300672525779337 -0.32896361034763777
-0.5748240269270033 -0.21456875379421625 0.71296176929811073
0.48069607622965771 -0.31863472607653165 0.74119370450285693
0.24696014771589536 1.2040907118677815 -0.42747761449670096
0.65491898109583446 -0.60650763848283096 0.64823077098518089
-0.021117163267146938 -0.26739272606248699 0.69558602058703789
-0.26214347563421803 0.15721293250782131 0.77744949403219232
-0.43031092736528631 0.36282660915506804 0.55086352563843421
-0.84339541817041286 -0.33046711227671471 -0.37939806116044977
0.23046289959149613 -0.24406660708044514 0.75206030625026177
0.056010317495756912 0.54194046364708726 0.71810950657653838
0.29707502919053419 1.1071217761581282 -0.41560587132692905
-0.42299708175586548 -0.025430808874657984 0.77645575624287488
0.075195238093668459 0.24137408669975391 0.69814473737246874
0.75027749377588249 -0.35607850935281604 0.69146509343630136
-0.081213306022826171 0.53862509888087029 0.76678107294391562
-0.83733976636671859 -0.92251924157997001 -0.44565836338973908
-0.27131887514438957 -0.032008093870067089 0.75288323334829443
0.68712981170585308 -0.48010805780707244 0.68859691442686843
0.37453874929109698 0.25847019713075792 -0.10422138800572966
0.25785468194741634 0.84500468110451776 -0.30659649624543572
0.70321776351639964 -0.47192594887964678 0.68360984094833777
0.35200150306790823 1.1622924873761036 -0.45401050003371102
-0.2975113481011436 -0.2967783064831841 0.73696535616617043
0.13072538790581228 0.94884486524480971 -0.26729864874652776
-0.49335465590419669 -0.36164240930194724 0.67120922192956101
-0.51164654405908894 -0.063428023565319513 0.75844696213061802
-0.85848618948744182 -0.21087985528118836 0.15904969010591463
-0.64222000590997075 -0.70376095727730414 -0.33988225853926202
-0.045895447198974537 0.49841411967451421 0.78036232793814519
-0.036216121644844446 0.18672966624564746 0.72633586816297013
-0.51729207148526957 0.13046785110371184 0.68004278180603794
0.15875207131489816 -0.084905126396680686 0.78990383228301497
0.40768325355486912 -0.59238857935464573 0.54388630712973685
0.17696467928369009 -0.1027142250366333 0.79662620338218471
0.099413906215269021 0.89900751830497272 -0.068766367871634926
0.38483216544495746 0.59771716439723577 -0.094730514548235001
-0.16450422239638884 0.3714470709746116 0.79219332179639057
0.71887619169395145 -0.35177547162655931 0.68728621144284663
0.46030922089627069 0.019252436567390063 0.53485041802665734
0.12195265913793774 0.43186937944541842 0.71804682944851184
0.3370871869746126 0.70104094224355418 -0.23252742350545574
0.19407941263507442 0.060336787021777791 -0.60468408938693952
0.14497456503628614 0.48446938018755581 0.69267003001277017
-0.051777139113917681 0.59946188680519796 0.70090673970508954
-0.61907821235420757 0.13495669859153137 0.73651436899911682
0.014939056570895726 0.28533364633707459 0.77379129676385838
-0.14697040005649531 0.75125006853365905 0.70231551155459326
0.35568082345304841 -0.51088267416901267 0.42404606916305543
-0.021312802318773388 0.77360483949301917 0.67288553896588921
0.13545136008093178 -0.11064333815169269 0.7901692442768018
-0.014558258213556607 0.51878422486798037 0.75951923208049366
0.20726104490718456 -0.0050663275479065906 0.77083747609746833
0.88527483241547622 -0.25249494956091412 0.6139299237314304
0.33049872136415193 0.74414357328826986 -0.28234270618180679
-0.486986114472308 -0.35981933545413752 0.67371140953861175
0.90362981676261001 -0.31011716573481252 0.57466396567370093
-0.73837649080850043 0.013428221217515302 0.63071658946230014
-0.034377043805835727 0.25738142909802919 0.76583479167919011
-0.21244688838797537 0.47888190057264746 0.75701641427717536
-0.39350873636377592 -0.76654600036499021 -0.27295108923374561
0.28628219781529829 -0.059838777592762571 0.76369888293068744
-0.19453064213416199 0.47935664709842007 0.77546785686576092
-0.96372308016276398 -0.82665685595438232 -0.41491416408990989
0.52601398675130251 0.88801966132264964 -0.36443217045646492
-0.33797200742126399 -0.28744076545660657 0.757473481317812
0.89551301931643001 -0.32842762979055462 0.48376098515630783
-0.3182909560656666 0.58109125959327246 0.46417351316992878
-0.2661217083010412 -0.072446130677527476 0.76575294510876968
-0.1391256143014683 0.74661492089102566 0.70400736704772848
0.29422748134087673 0.56178515705457954 0.52161178242252149
-0.12562584981427494 0.44001923254943326 0.79828914616287794
-0.52858405003218745 -0.8254305074465309 -0.33813376156895592
-0.11221275446657386 0.49131826701402281 0.78718552594026348
-0.53419154746922315 -0.046960273774372285 0.74586381576723637
-0.4382584698011856 -0.68050921683236676 -0.26569825092211941
-0.52789430243001934 -0.89472283257582674 -0.37249886676686383
-0.64336287445230722 0.15424718279419869 0.74149356534795896
-0.68674452159132393 0.11003061160868199 0.71769769597958577
0.32410829075506387 -0.048095869718672524 0.7317518169347359
0.31458671268013055 1.1317150786489492 -0.44086053454629365
0.18227065545181764 -0.18612514539136304 0.77530117894043649
-0.24673300158979106 0.14050838127317156 0.77402317681143673
0.2560254546357108 -0.073799252136765525 0.77852965996083501
-0.58645318931864776 -0.5730536162582891 0.45175891899396525
0.87740281101041595 -0.28922599112992786 0.62786672560241241
0.27185929431096767 0.59807407695977921 -0.4241429734657638
0.1297765257988901 -0.15753052476060914 0.78987784761893653
0.49645554103064149 -0.051050874610306884 0.35293622327429652
-0.027953675797744326 0.50398608572843617 0.77211994003809559
0.697524429750638 -0.51473908955340275 0.67986551990616551
-0.020711710725721422 0.33430437155285508 0.80407115911792337
0.0035302271093639037 -0.42805992448182217 -0.24158421356622728
0.10266091814119582 0.91119614872682941 -0.15525001561015617
-0.80055026490808201 -0.98913902848372737 -0.45356895683393295
0.5027605874999781 -0.45866083571190708 0.71352591679068134
-0.27692845630354262 -0.045781300600849395 0.75663535045269448
-0.52959954552784649 -0.99273144023798654 -0.40800572380058175
0.30486318653961053 0.46746939692392253 0.56389073356191499
0.31580793807657237 1.0270927715635305 -0.39946968050299403
-0.031085549546526536 -0.05083915301293418 0.75252930767204229
0.46966323032261914 0.7701531151258445 -0.2973306020548569
0.41784872963851694 0.065212769506728163 0.0003395151677518804
0.44592165388239413 1.1174916129559715 -0.44527092596686613
0.32054739847618374 0.217996231899102 0.44384898617881952
0.36462208137941376 1.1884424002189788 -0.45991028321849048
0.11711372063811235 0.84207950300003187 0.22217404548481143
0.17876121460986827 -0.36141984489555246 0.6176645810168
0.71806706231449591 -0.063445474559386456 0.46610434087041752
0.27912913854666543 0.089747783365753953 0.5913972297032668
0.72534710466647234 -0.35365444996545214 0.6837048216018129
0.47130804460956643 0.69608857110878986 -0.21841015846540116
-0.41050465223679455 0.40099201085973274 0.76924028070899064
0.056725373177273664 0.62797930990762474 0.67888708742742021
-0.46387220126324236 -0.058838211263320783 0.7737243205404587
0.17366823019674316 1.1425493727954663 -0.38101008919516266
-0.50012043002065154 -0.64251865090096261 -0.28065250444234613
0.54976809046267539 -0.20562992260826898 0.7385312859454406
-0.2726018220390366 -0.06586803565649646 0.76376807191807927
-0.66019088725231723 -0.61935124261536245 -0.25209497980927109
-0.0069920279194144452 0.12794891131841557 0.72766852716711161
0.57962471395879867 -0.039208489036190342 0.63795603605017082
-0.57154980854563986 0.032440183847438409 0.75279627297600316
0.58322648932591703 -0.49991948840675615 0.68805735936673695
-0.0084696565452487826 0.7776568359128011 0.67236814405684742
0.62412040402944413 -0.63696037240592673 0.55692927626039079
0.39063907699834788 0.7302866614781186 -0.26500215165443536
0.26154669051743212 0.99186046592853061 -0.35687408968878742
0.34440202515015206 1.2726090493066222 -0.47738347241974244
-0.76680669155986991 -0.68977661381138555 -0.33472580537705454
0.6350488799352827 -0.66636516429189963 0.60008507677420519
-0.92245784707579903 0.022245731088052945 -0.34926392318621979
-0.2592481118152099 -0.3403620192468626 0.68024236482344236
-0.34471201631097209 -0.64859586402804492 -0.086303500093239505
-0.0032758066501565875 0.6490305900684481 0.67959879664477296
0.19957154435138302 -0.016513866218823513 0.78084651033533348
0.6961624798973175 -0.48685803595900723 0.68740187151401921
-0.61651085345181211 -0.21509079976301443 -0.60617257114749512
0.23184134346941254 -0.020670583206876092 0.79186620859025947
-0.61944193340324394 -0.63374878527604528 -0.279033697454107
-0.072530421378044607 0.28082477735955536 0.77728836869357709
0.4383828349092278 0.024254130260331408 0.3953910237856948
-0.12081750537076053 0.77417036537939732 0.45765263588030036
0.23453637758751267 0.014351749470233844 0.74922189717780774
-0.58795098980102711 -0.74513828536317761 -0.34648719158042257
0.14370930463549714 -0.17837639795171745 0.75897689297257731
0.1472494224763583 0.4580828629680519 0.68804231601823229
-0.27586477119531105 0.13657886173779255 0.78307561052925223
-0.27312171890122716 0.90134373500998022 0.0076399006544685122
-0.46317560414513231 0.8605617990496055 -0.19548157368399977
0.1109670820866393 -0.13300719504601766 0.7826054299964742
0.27194762912554804 0.78278098338829394 -0.37008550638317073
-0.3684543914034154 -0.67556843635443364 -0.18807632664565022
0.0044360779636301584 0.83721847000437022 0.63650024600835664
0.33597985551375187 -0.42357333099537908 0.69834897282760622
-0.028723211316491522 0.066863852272114346 -0.74080202316546195
-0.75793533022073323 -0.0090063678273017977 0.73756339018993811
-0.26071332912223433 -0.085396385791006946 0.75740832071608566
0.68686636816892843 -0.3215482512056016 0.71745180825230093
-0.07657029719686026 0.42305412287662314 0.81033542210641207
0.13453627389966283 0.45298617573836386 0.70321453217487573
0.078766455201113167 0.90424149183993974 -0.011404931637103405
-0.2573888691741667 0.52020329515629349 0.7528700492343825
0.066389056024253157 0.34385007581789007 0.75557236509310766
0.32266039383228118 1.160821285270319 -0.44001253394460405
0.29930272737064789 0.75510259016748948 -0.27494764036749009
0.011335377173862682 0.63125669353917302 0.6763681733847251
-0.31206458239873425 -0.012174456921121068 0.7625656664342263
0.18131851349446837 -0.073951562832888396 0.83677576607920479
-0.20690933641582765 -0.078186976595977065 0.75009187857599802
-0.020392519306784651 0.24743932327091178 0.75306075746329637
-0.23007941244036098 -0.093363443228379417 0.75136264792831786
0.76414092894697327 -0.1727819698721143 0.39521724922000429
-0.29785767244983152 -0.13768570667995661 0.79479716322265137
0.84754780940738028 -0.41027772629651249 0.4673507022441773
0.16087134765699751 0.88172943635327783 -0.28574237154547522
0.010012517646068142 -0.28855210684389232 0.65762243983937863
0.4551663800247831 1.1973030647256993 -0.46309215170743845
0.094035036670898409 -0.21507433899537354 0.74223039838525406
0.69149476687194145 -0.63093769712518766 0.46155267013233842
0.2049931826331427 -0.014044033391725996 0.7733891787920506
-0.53305135426784522 -0.050103125717340741 0.75204296877500099
-0.8382212386043949 -0.97793674442868261 -0.45111712097173773
0.71139583240378346 -0.34136729435276791 0.70803671707706695
-0.91396310158839922 -0.052990635340841308 -0.37604654075373251
0.54257676547074563 0.88730531136899971 -0.37173918906420267
0.15716812173519484 -0.11719256436323033 0.79201553943604219
0.42221526627487904 0.74933024328669873 -0.30541903218658595
0.83648909869203281 -0.16106696950607502 0.43290250546283837
0.71995773466276047 -0.55596978364934357 0.62284656582505327
0.40436620579184535 0.53612347075541589 -0.24239100700712246
0.66020611147981612 -0.64989151190716665 0.46422754277327893
-0.12636826905531595 0.2871851851538092 0.76865154204141006
-0.28689257881624375 0.64182683632251436 0.56801269163472146
-0.69592148182109348 0.12993111529216339 0.71862022347112164
-0.014032322991975266 0.31150511182806317 0.78504671458952546
0.27082004082139322 0.74584526455820588 -0.091906713827901498
0.29760686428838889 0.83070636555235677 -0.32383510421048856
0.43242160310652145 0.78612806757456155 -0.31647345844447788
-0.72263484618119911 -0.50510550706107527 0.5589248540449856
0.10354693217834604 0.53808672941723401 0.6982998443011359
0.21355949687898734 -0.037553132500966258 0.77773569995575365
0.64572010741753316 -0.29753950623678604 0.72652932297426531
-0.66555462765304585 -0.89899202744842377 -0.43335068437023594
-0.27684332720392824 -0.033457841374241681 0.75325132042771714
-0.20784511057329103 0.22244523574935793 0.77876610398799562
-0.25156240720926737 -0.034696117477559074 0.74517152490338701
0.21381115008349372 -0.011329188992094313 -0.56438254339217064
-0.13111948406246482 -0.45062261112916596 -0.34846936728887096
-0.39075885816591827 -0.78766722237567566 -0.28431897993687094
0.44035375401952997 1.1852350544627674 -0.45767601774356476
0.26426825450784186 0.98853848745655959 -0.35639925250120363
0.7531270572422093 -0.39992669480116549 0.67266612279116345
-0.1086063493523739 0.26453993489666949 0.76552390658381997
0.91888434995281432 -0.22318994604154033 0.58007714879875594
-0.066790634554111161 0.80273968349912406 0.63934685467280716
0.38140180934735701 -0.13002805175251353 0.73770276491357922
-0.28378841195514104 0.42887738567055345 0.73871278756971348
0.23545739647203923 -0.022868673332310629 0.77482375146653426
-0.21929017710807019 -0.29565757195567643 0.70299515394918144
-0.096679401259825604 0.28006286693650284 0.77261760656407397
-0.71668134874020073 -0.46319817840826671 0.26035030358607036
-0.4884213181616941 0.090469987306541988 0.70444002218960033
-0.43606912731036163 0.58429367882013461 0.71188405264407573
-0.13768279915514586 -0.44145377328410546 0.53320587106772721
0.2898509655667052 0.70553187783030857 0.19356906647946026
0.20832721764464424 0.011880003242243531 0.75898297419976368
0.82289318620016028 -0.15362804442031908 0.43959652902904933
-0.62312411786519539 0.62674474973214345 -0.40497316435581637
0.69600571850987814 -0.515780738280049 0.68250552720390112
-0.32957059173428216 -0.042632564998545508 0.76453231965458368
0.67584745107785649 -0.39812672148168016 0.69149338108481095
0.73064623184780964 -0.36693972806017872 0.68016657468034314
-0.78000437719206617 -0.79627272398014659 -0.41242527206801965
0.14557469059386607 0.87312575987960761 -0.1423818302505655
0.14954689225905093 0.49633795528020797 0.67791379613428338
-0.22769146266934803 0.11907433763866399 0.77423787171229175
0.29244884579919317 0.63220492288268382 0.39148271391003675
0.48746946389579549 0.0058947459751319542 0.57376300566881344
-0.60254437321664645 -0.69273680708934737 -0.3336631979264692
-0.43634100306394918 -0.020008661690600338 0.77466266620441782
0.22834146710809594 -0.0092971505694638967 0.77287045015886657
-0.27329181065033087 -0.039141273789769837 0.75594650958746035
0.19789331817454792 0.067133512272348761 0.746714868970489
-0.53976625993597827 -0.96220613569124458 -0.40201496516649216
0.68418251639295591 -0.44410556390964118 0.68774439709507751
-0.36993950947299187 0.90070802127341298 -0.16167796183544075
0.18441324518288715 0.80338656674524245 0.46962347386797815
0.70221694687138747 -0.15679532286789577 0.66361006961594882
0.67271926110813451 -0.15491190382147346 0.39584426967468023
-0.41587447398714217 -0.3940618617071886 0.66021206095913954
0.20922362594267818 1.0005658901743264 -0.329955826297749
0.24310728402185733 -0.35893447074469581 0.29196853094897662
-0.20349470713928983 0.48353538517183758 0.74815159618187765
0.33870626179811913 0.73570958340456905 -0.30859500189378375
-0.13159250025011549 0.53600348684972443 0.74903050970136298
-0.80310832104507757 -0.93081252610453502 -0.44221900208466081
-0.52807081211109475 -0.35865069272818861 0.66134790222405926
-0.084998808098751877 0.33144828251221359 0.80560670599515749
-0.28616540127157619 -0.13947640945573703 0.79337541204281259
-0.70892810247864002 -0.63436183267342061 -0.30915370630126726
-0.74478959977790116 -0.90141149638160822 -0.43578590510087278
0.24207340365754582 0.032520986800145424 0.70975242351212087
-0.26742986036885252 -0.06537736597975341 0.75829711452383819
-0.32776153885816611 -0.24838050479092239 0.78202058817221964
-0.42166379200055631 -0.27591898062198733 0.76807468264877454
-0.33115735447089945 -0.03737964243773173 0.76713356697743418
-0.18543121267620988 0.37243406016222491 0.7768458874487647
0.68022380619434331 -0.47383297850675765 0.69000609868822771
0.041957805512646384 0.55605007403475692 0.71479639657167782
-0.65057818713043658 -0.63274657697640135 -0.27112950801982383
-0.21273323240678677 -0.13670609074275397 0.76168060803373316
-0.52300103491746375 -0.63386475715119661 -0.29277475172274037
-0.5584287226409077 -0.59551406209444213 -0.13201669079837597
0.082509707748163297 0.33272342292562251 0.74483916772012504
-0.53450538628324362 -0.093647663902670097 0.75815011804152888
-0.7526627674544405 -0.97149414832935976 -0.45230251151828171
-0.57324941744941005 -0.59202526757301255 0.1192615849769984
0.40259681404706971 0.01450250640829831 0.52323564537569012
-0.22212536344669093 -0.2804355870481956 0.7228549891327587
-0.88686018687381218 -0.68633467946513138 -0.35048970583460892
-0.066431052727732309 0.25187648506017046 0.76067939567314058
0.77496908817579324 -0.3397887288434141 0.69087478819590686
-0.60150887038624679 -0.62648911864554957 -0.27922688057117934
-0.47020925193113472 -0.74785014362462143 -0.30210636888527431
-0.70109819910825277 -0.53679016070853036 -0.28638611602847908
-0.35826156180203911 -0.42296500735445863 0.64723485383322021
-0.65304295906354692 0.013943550031597862 0.71018989984535574
-0.13029420439111783 0.56083392971243284 0.73838408083664342
0.16286186193436003 1.122981630225431 -0.38199664733079786
0.13177808924179701 0.34498170409099255 0.70301339247246997
-0.52504318313592169 -0.047175273977793086 0.75879693611088106
-0.24901444135927364 0.24245554854902196 0.78190074842554813
-0.13642295959876327 0.539951686654629 0.75053799259081577
-0.71150236964476399 -0.20019905638460678 0.50432552896079219
-0.18795026819797922 0.33181939757659701 0.76274449102612096
-0.18385441361572968 0.46742942572896684 0.752500185194525
-0.19584817094654772 0.44503371460850338 0.76585729002927971
-0.52996851441977055 -0.034806156902652319 0.76862066946647967
0.396683002709802 1.219316633174607 -0.47641173422136734
-0.030367296452640913 0.23687026740946504 0.7501880629572083
-0.36195980710333064 -0.27813105317109332 0.76938397848659912
-0.76871506529337019 -0.76039942013932915 -0.39820962317197561
0.037067697569129643 0.36438363964996379 0.79366200665500475
0.055273560445279091 0.70485308531407387 0.635565016690115
0.3615221851813985 1.2202637269655181 -0.46214265427962353
0.63333445138295463 -0.40774242346007039 0.70041804257226126
0.69372291123795327 -0.30625154681249578 0.71867257312460708
-0.090046469171023213 0.26526777250891742 0.76486660755272939
-0.075867418322428617 -0.45330985108631527 -0.27002394575434352
-0.16959460787326541 -0.2791922774194916 0.68708572159858772
0.27173641650074964 -0.43798328520443286 0.45192237339439956
-0.49835458265944987 -0.17436796128536036 0.7738166406045599
0.65534223696755145 -0.19647454284762622 0.38518633024841709
0.69826644677893723 -0.48834114904956555 0.6859776124009912
-0.16088749461537133 0.37509181561222138 0.78411794377451161
0.33464547195601391 0.18640729157368896 -0.37663060881804178
0.79796348170226339 -0.32144366382639555 0.69589518718725574
-0.119062833607404 0.26799566599056335 0.76233407365177563
0.66688676966567251 -0.57472631518569828 0.65853153582386215
-0.83664473130425598 -0.17619228839307977 -0.45860482147039006
0.26601102384927233 -0.32191838153605457 0.14118604895073711
0.70065810819515373 -0.4892104546211461 0.68052413303375403
-0.085274736354171043 0.49783226878139164 0.78989426136739338
-0.47730601721664634 -0.6752027250306063 -0.29080084118303717
-0.16315312055520836 0.38631451754250756 0.75724601112470191
0.23477657674943631 -0.028429938574204949 0.78164138268129979
0.47136095918721721 0.8484763377891168 -0.33578555931033849
-0.6704830772317909 -0.63561416838456974 -0.28224856767531081
-0.56001379338648571 -0.25093074334144672 0.70593934573243411
0.1862615397755143 -0.041855151090682607 0.7816928309052884
-0.14490312492381241 -0.077433828608565403 0.74546283805682589
-0.73383578091815393 -0.96829714805917433 -0.44064396314334608
0.27718164928133682 0.78622460691155527 -0.27001108461935996
0.58454775554215122 -0.65518036543499036 0.4920145529503257
0.20598090283676229 -0.02785190313895794 0.78172385751602791
0.62404927181867043 -0.69169109690870201 0.55451761741756422
0.10035642863062602 0.84357416889818082 0.24300139775653251
-0.31865797205874125 -0.44908928213648458 0.61786770350646492
-0.43553557076085492 -0.28289965581445331 0.75808710034120597
-0.29451458830515209 -0.15468254968650053 0.79456712039663324
-0.52605922586312093 -0.35690841212736069 0.65890017774142795
0.1183239921559267 0.43408272336008413 0.70954874014707014
0.50309134062799643 0.82299578639525728 -0.31569767969718177
0.89415476083163603 -0.16537476704020132 0.46615128285680618
-0.3446689871766131 0.099175531576819687 0.78080485540378763
-0.36399033126880465 -0.019227429097344206 0.76675014495422
-0.69882775680512654 -0.36394707791431952 0.66681592190152972
-0.51508041190753695 -0.80630845134859941 -0.3304692825256963
0.17743905338163468 0.80057631995170198 0.38294199491703118
-0.038326336127156857 0.52999884890647397 0.76308912835937481
-0.47508969644152987 0.52012131181898358 0.75293258969319043
0.89527517127925682 -0.16935421311648644 0.45780726613177691
0.16651285362230697 -0.087314574597470607 0.79278551367071382
-0.30464490258834376 -0.27994787661393827 0.75660390781198117
-0.24712673249765832 -0.046318934146688306 0.74619722961702717
0.43859013688768611 0.76471438969808192 -0.31409011688995592
-0.13791183206888968 0.27565042677072349 0.76612213483719316
0.11041592246384205 -0.16670584380540987 0.78533351202629564
0.32054017891995557 0.76958586116779548 -0.28358659509857875
-0.31980063472912118 -0.31816259912288392 0.7229517773565981
0.14043650606015445 0.43205878614367699 0.69740103436363543
0.3953340589701928 0.085736782532206957 0.21225786539264058
0.40676882573045009 1.2290661917027046 -0.47302698469316495
-0.53657540186272956 -0.36333783069171099 0.65263639554635589
-0.25150055328197662 -0.045735600878293869 0.74779951259833921
0.88069274209382986 -0.15967755637451159 0.44473276243473059
-0.52509372200091775 -0.20600782594810774 0.75500524348736131
-0.019660010676066264 0.25304895970186458 0.76182441565962078
-0.3624837624748678 0.31302789977707857 0.72982899022154535
0.11532333511970894 -0.18130911612279799 0.79169343262615222
-0.41074401474038258 -0.36843477773843042 0.67861995281833742
-0.61418466547456951 0.16431246836539981 0.71427699015638035
0.19085154321283967 0.87858217308193165 -0.32255417165289568
-0.87696025741185557 -0.69090206789000852 -0.35945693509710419
-0.24612817637053364 0.62956556893661464 0.75657764354621238
-0.43467028002053437 -0.27520352636808421 0.75879680154978435
0.59215795700596408 -0.4388004573586084 0.36439718092717843
-0.17635053128819017 0.58062329405132274 0.72723476371601015
0.41804748186797847 0.61366602490536493 -0.27083184280562889
-0.70134539391285777 -0.63905380756695163 -0.29865657831089487
0.20619049519303134 -0.20298882910698435 0.76927487359301505
0.48290571650148451 0.0051921244599757443 0.5756091179366245
-0.53119139265030535 -0.21425011503463587 0.74024594650895292
-0.052461529746236191 0.72344384758327429 0.67541186885113569
0.29966511193015544 0.54566684652267483 0.51504531799523257
0.14691896073184729 -0.12948896192145298 0.79411869934513668
0.38014217648499582 0.15729858317633383 0.031498923869751394
0.62154489816009129 -0.046666302923899394 0.63832026382272478
0.68544083506359144 -0.051120524931824285 0.60340066839744932
0.74955162036586964 -0.34181023284313827 0.69132251954152224
0.41619452937998558 1.1393575959311442 -0.4500027020277364
0.50934810408641684 0.80261716520174575 -0.28929679696001748
-0.35378736924117604 -0.44736542459431949 0.6396309161110163
0.43918762085035207 1.1986569662446729 -0.46655862453711111
0.72732562971149217 -0.40203044485487838 0.67729434666873711
-0.58803502044006506 0.17154419497344175 0.75008692894336715
-0.36260176808342665 0.49281828755628132 0.80629142661844067
-0.46244706030864391 0.15697228069647351 0.60095231280305894
0.11210850597614297 -0.11360334105190351 0.78888678484032115
-0.73939199436085656 -0.26579754993814397 0.57071381689452627
0.22897617174370355 -0.053556077489983839 0.79085707019798623
-0.13755198665942792 0.5164470900133058 0.76366197241215883
-0.12462838951803423 0.5430772084486708 0.75473002882632079
0.75051432160476095 -0.37836850583864834 0.68330672021199046
-0.40526241018484388 -0.27352025085902598 0.77393021850082022
0.63072320860602826 -0.68251738327157607 0.5827727757615907
0.8378023949542337 -0.3627565648414528 0.66508371076330641
-0.64122656326519734 -0.33570212141670347 0.67767164878591735
0.2196734428428509 -0.030749340869792752 0.76812215946292783
-0.83683706140528646 -0.98012409748050788 -0.45280896858088504
0.7138865387318174 -0.482194607523243 0.66645154185301658
0.74936836927353634 -0.075249390854200904 0.5168900211646168
-0.48756412011835693 0.65496052785295844 0.29616969334539622
-0.41750707587764296 -0.70804309233330631 -0.27667271942038257
-0.50046953117490278 -0.63549067135688331 -0.29233684853526853
0.24561141957073709 0.99318324580608208 -0.34885929938986282
0.27446186187691962 1.1102488046616892 -0.40645741165657379
-0.2064764730645603 0.70195759442518146 0.46525903085958453
-0.86267436434493461 -0.85415071873022463 -0.42346771226411839
0.1725517889890904 1.095972424979625 -0.36868272859742945
-0.13302684005671928 0.63746642695814448 0.61112818176476369
0.34607692050078143 0.73978422448950876 -0.28929504666836015
-0.23174112040718509 0.047924547384556315 0.75858940037886669
-0.41760963489019454 0.19808742411655289 0.62813913472800276
-0.094859396470562296 0.36980336687800586 0.80987354437377157
0.25066446894518513 0.67951423199547478 0.54153937009670128
0.040986855859914462 -0.32773602747100294 0.4846368885954031
0.13471280217975351 -0.15735544617756958 0.77137360822745771
0.130940486868099 0.95988958158728943 -0.26300598701111688
0.19783054170259448 -0.28444131907768821 0.72222211875041076
-0.25928466772130043 -0.031725949911652673 0.7470931907047319
0.15646416869499225 -0.089941852868648642 0.78985368433759229
-0.32347576574851278 0.26392468254024026 0.78540033917741869
-0.51649482767427668 -0.6264677285462783 -0.2993252277819391
-0.50844971597157196 -0.73444639110045662 -0.30436817150828954
-0.029663406930359848 0.6109874472276946 0.70647117839159068
-0.26784084890470056 -0.04676656760914133 0.75965206842410493
-0.56267264294884656 -0.22505735076053646 0.71804561327240735
0.45466872364973104 1.1974700018850593 -0.46054147306443938
0.71459508746865641 -0.26007339287099462 0.68174392899695491
-0.91876151418926222 -0.78075664843694348 -0.4044907520845491
0.69975911156214199 -0.43828763065836679 0.67657564607827547
0.3928379197418419 -0.53077159641448901 0.65915682215576066
0.4476278534065703 1.1302346757295205 -0.44648393685356935
0.47237566571028422 0.68760265456293812 -0.21086267002118986
0.13050319796611415 -0.10154175386228914 0.78900144922325655
0.069354085670835008 0.65800697918959594 0.64798209298186127
0.44733959735339646 1.1472231030322282 -0.44993784282397992
-0.43978051936392459 -0.37072377487875918 0.67258711655830883
0.21490617444166848 -0.014540740816367678 0.77720759241580395
-0.23767474441975445 0.61474307895045521 0.7581541265384093
-0.64494746521464474 -0.33791189347559097 -0.53248183241831637
0.65527352184310672 -0.095725243876594313 0.66520644493956071
-0.42881092916155772 -0.018321856390692393 0.77448681445573331
0.30212861210959341 0.55374922079537292 0.33547270746153579
-0.099725497960051118 -0.11562728625211571 0.75420217720522309
0.018116764031715731 0.30485203348461942 0.76677084586288635
0.13211950935338712 -0.15384826428949294 0.76390408741353877
-0.16026598224686284 0.36041380807373435 0.77612282534669019
0.54088155234751356 1.0155935101891052 -0.43804679452904532
-0.32493800219153723 -0.43019204627672791 0.63223087599592409
0.32100252370634808 0.73726865932566854 -0.29145645653166219
-0.010365651904476136 0.83531634643003683 0.60252610692232222
-0.019605054148770007 0.1660262806777637 0.72824660271421737
0.22593664152298754 -0.035156752137335934 0.78164515489627462
-0.81814438251600763 -0.95545584943350581 -0.44682893631317577
-0.040201002481864312 0.82577975873513698 0.64666213090149172
-0.45465481194853785 0.53045261872660698 0.69233985212166482
0.85788761315652395 -0.15552336974581743 0.44766417351455834
0.48106142017973053 -0.054060337178103102 0.68585723481176153
-0.70833635754116742 -0.20601659642314196 0.60884400462988997
-0.20361731538201461 -0.093886742579443627 0.74902852434319267
0.23385814612872291 0.88366169544694784 -0.29968453993193922
0.1831493474277528 -0.013477941199784904 0.78684212672263643
0.38327899200704257 0.5830536014468114 -0.029360176752978289
-0.044077651358699343 0.54373144746553503 0.75816242591789973
0.6320231324817156 -0.076083724056085877 0.66082323790410147
-0.25299554051150575 -0.08010922944858434 0.75803500660087197
0.65113169862646836 -0.68594521619486581 0.55933471883389507
-0.67515186558770646 -0.96620018605099744 -0.43769388940199894
-0.52163534004647394 0.093007300492718215 0.71644746778016888
0.52977899833195274 0.91605176908856567 -0.38146500846443931
-0.49149751972993616 -0.62671270007120183 -0.26312860529569204
-0.66725214325682902 -0.61977583998858554 -0.26847751584950497
0.13111787294976734 0.4303209925097804 0.71604672488318
0.21038865587104222 0.97101872750935636 -0.31962853338393055
-0.46918585916583733 -0.6944271120559522 -0.29249486390851398
0.59407179302486735 -0.27016644575238935 0.72927791341547987
-0.4645800523026366 -0.65790728504578322 -0.2810613644239055
-0.51194294606141399 -0.0092839241808153616 0.76621612923818749
0.50600980275895147 -0.014058239227654923 0.50125757029854645
0.05147747797373281 0.79800656709694451 0.62838953451483348
-0.7416626848883221 -0.68647255917616934 -0.34957625648401924
0.10457425040571977 -0.15980175103329608 0.78143708464635719
0.23689549751279892 0.85167442837760365 -0.26391324361456725
0.76466378614417829 -0.32492764576401134 0.68516123912069626
-0.60857421573082293 0.040426727805521256 0.56683113275889552
0.059048370681946183 0.41350363062067474 0.78664554463655334
-0.21982264068400048 -0.34865433366057674 0.65415235319882159
-0.061904947088686768 0.62398862536958899 0.67851027831423893
0.16600901578966273 -0.18191718548351798 0.77664411766497476
0.73057787267663099 -0.43055172194576841 0.66095442272888505
-0.5035554760339751 -0.053253297410477796 0.76354947859779332
-0.7418577280884795 0.065248358474282009 0.68333933128523239
0.23115053097002347 -0.0030408148684833991 0.76339999500584099
0.12607170170127624 0.38732720126345865 0.72680153108921597
0.23945254907739577 -0.016994584977228722 0.77467589482006294
-0.0056306178826909248 0.51207840230739676 0.77764645918078368
0.30956413402106808 0.7395200358288947 -0.26414736498861657
0.30699613922994962 0.082330802102043105 0.5339003016545234
0.13199156007481105 0.89681246264549175 -0.17018420235346152
-0.75836385385433247 -0.15542952754446926 0.33690013211414022
-0.26979300374039772 -0.048535691033753547 0.75145537789216776
-0.71485419154137375 -0.81947566812823247 -0.42083895820535677
0.14626096208750194 -0.17063140483479744 0.78320500473019106
0.84877786095218344 -0.45364453678811856 0.53593678336662898
0.39252965192620792 1.1143833308288542 -0.43869532448055237
-0.2023608253733975 -0.28380020516621135 0.71162843924681529
0.43886124645039803 0.69570279162415494 -0.27587169356490304
0.13331775790465253 0.98730346305132521 -0.27143607323459501
0.29794935732875927 -0.45658383559292304 0.4656294637610543
-0.74833548912998737 -0.32827970265927486 0.58952736749948231
0.10690851879176044 -0.13406467487326124 0.78143937480293912
0.48547963414138068 0.95275823721717134 -0.39295295134344654
-0.5154767083518117 -0.072121686723870759 0.75644428533547592
-0.83138045220654644 -0.96802626085417764 -0.44590647329139643
0.6934084137247587 -0.50391312217102868 0.66774344973386968
0.53468244744026983 0.93717443806268896 -0.38259637425515736
0.40097745522391115 -0.0065352935572787763 -0.13619045979496613
-0.2693628943111348 -0.39589076775486687 0.63937629628949155
-0.088814040547992801 0.3623919561926181 0.81113360287207104
-0.46849729407206953 -0.68700938230711484 -0.28731868333358263
-0.634327982664882 -0.75128329311924213 -0.34988091828232859
0.44734810381850654 0.90216872154457439 -0.3731825285971655
-0.27743911331448601 -0.34768614883142668 0.68436186001340271
-0.16390768195975924 0.7254894168874827 0.60102816339886589
0.029018679311783924 0.60837883598405451 0.68836411896517102
-0.067520185404526645 0.25816100912961137 0.76282020291543928
0.39602560384966345 0.15090729491369359 -0.11310220034566854
0.29503617046209429 0.74788872702061759 -0.017319037874868215
-0.40591054168490981 -0.78327881492204532 -0.28978834056262959
0.15755291881400291 -0.05190328045168785 0.78795847064983104
-0.57839910127074923 -0.63919856099274153 -0.30920700302268272
0.15616928419645371 -0.23557449809245101 0.7540023649236689
-0.30543701688055247 0.25945802127626583 0.75532021699568608
-0.53002369985652864 -0.1520059393581894 0.7466676795144267
-0.84332388773975953 -0.961131013870545 -0.45575663566327629
-0.11861912446283884 0.55612920678475586 0.74885782792335021
0.14748190391263877 -0.082752190335658282 0.79000106167216133
0.27715102724316143 -0.41217603172274142 0.38010359224661072
0.29512355399973789 -0.33602231032956481 0.23030496258911848
-0.1459882732423069 0.51602723087209812 0.76350833252722317
-0.15887991456859241 0.61072828646627575 0.72303587794336943
-0.51142834066041565 -0.034830935135490737 0.75998350236332812
0.68100663531524375 -0.51229494207208404 0.67376994145486035
-0.51070391839680118 -0.022596068239790545 0.72159439314391394
0.21626507339411236 1.0403909708234957 -0.36157920495009854
-0.20363982147925008 -0.28731499457567677 0.70883543759990264
0.28672244543689196 0.71590989860495746 0.22142318911813952
-0.29831774947665579 -0.12124393486861074 0.79240273766434044
0.15003777935676954 -0.2137204619477453 0.76823038137184252
-0.030710536970012914 0.15516978635614853 0.72255625385138211
-0.26493994381182584 -0.058258283113552523 0.76158161795710577
0.73475608225675637 -0.44776129439315088 0.68151240872000329
-0.42971931519522466 -0.25005392546796967 0.78060193105955555
0.61851243175909898 -0.70426186763188947 0.51261866592448735
0.067184900071114884 0.85345111647400329 0.57623217336701504
0.20353731457365276 0.3978042916163409 0.61336277169936038
0.41528536003569272 0.60124616397095565 -0.15605898626889392
-0.26120308202566855 0.1003427298951507 0.77347707411396771
0.72166496421538229 -0.36949360617797122 0.67581000640185918
-0.64577583646828385 -0.3567335136731164 0.67825287998227479
-0.49731493342836669 -0.61798661755472728 -0.25474198751784871
-0.04827214090457177 0.63251877462800921 0.66860108298474119
0.90021472849076734 -0.26973212984461892 0.59902316854777871
0.16229159761121437 0.88898455193408177 -0.24795448661410657
-0.2685095692458771 -0.093859156236602237 0.77131029677366303
-0.17620634352479747 0.4650875018246442 0.76848117817980532
-0.51570367448039178 -0.021910024851993448 0.74966871172269745
-0.39308901415816444 -0.028820570848790528 0.77912507750230564
-0.33850743822831642 -0.66896242952977292 -0.17413578803538238
0.54803910973959635 1.015628032293548 -0.43712272560327647
-0.43997591377621881 -0.73600755788713634 -0.29741360426575836
0.69846493057618741 -0.45284034374611903 0.68336053910143191
0.68990823604300877 -0.46413986315532463 0.69138105450191067
-0.59463719752882926 -0.6320225828200291 -0.30229656327618409
-0.91313276784924724 -0.73526964797917604 -0.40376178144210739
0.36245875606314681 1.1646708715562974 -0.45237235863092634
0.31169235587148458 0.36645242331172567 0.50812747647422918
0.089303439705016974 0.84477360487179465 0.26892175689790743
0.68056243594438914 -0.24218907080705421 0.57094074692877017
-0.71776238502904743 -0.37521912291420151 0.64574976641999959
0.079504174822173423 0.40860225872933409 0.76100366814456488
-0.93937885901756923 -0.84728099842312332 -0.41867923494276138
-0.59667906402535853 -0.22898080848936475 0.69700664377997645
-0.12640930149293039 0.57763224742329622 0.73227195662081868
-0.34678468329696388 -0.046488803602738216 0.77392354839941402
0.3123445962181331 0.12113026348617845 0.47914996862709702
0.67443899535751317 -0.44390190037950683 0.690243423319997
0.39727275423385688 1.1679402231242515 -0.45379866117282441
