# XYZ point cloud file
-0.59576971979486892 -0.57606964123455973 0.44876186761695142
0.87090769476626684 -0.26729482338801613 0.64498283893157815
0.24018034707384572 0.58339882368212559 -0.45606341435562592
0.1167976572959688 -0.15352464286590806 0.81563305515434337
0.51270896191746829 -0.056275843764416855 0.37065657406291308
-0.011674994743437139 0.51781067639579104 0.77145629758924983
0.72139234075798342 -0.55791387934417536 0.66754950953961401
-0.021951541493720583 0.32443747896579511 0.8092481657763031
0.065455485780821082 -0.40451289266967133 -0.23541062750288311
0.068339570037830949 0.91577107221430665 -0.13363247904956754
-0.79399186287616708 -0.98762627710822537 -0.50778957897011168
0.48864218246743718 -0.43904907127197834 0.7239643541244476
-0.25753477364020938 -0.040294103826693295 0.72229858100390487
-0.55247147077246694 -1.0128756747777246 -0.41516125217556166
0.31015138690875688 0.46392266795580284 0.57272193153038131
0.36179859155829774 1.0060719358816712 -0.44521523433627586
-0.022826450377365859 -0.053355971681972036 0.75154985598367574
0.46430532827698112 0.81395271763939103 -0.32030653169447332
0.42338178925270054 0.037707234424305014 0.030619004330126876
0.48629263708253312 1.1111396749081184 -0.44550015734653936
0.32129741339382178 0.20289212065952 0.398751679365418
0.37668121381173059 1.1748271472421834 -0.45744403142311008
0.15865501380929647 0.83663872127810723 0.16491251520418437
0.17334144250692707 -0.3431588492274571 0.64611237878242411
0.69552606936361006 -0.062291227078619338 0.45759835611189742
0.26848088451954766 0.088131668797476692 0.60115407015110511
0.72091300957239568 -0.31996962960503161 0.66629856916663344
0.46148189722192279 0.71151266965802429 -0.19438216417997989
-0.44864998482522367 0.39706714292486733 0.75740308149573909
0.074172657900243522 0.62043549956357946 0.62831797022774083
-0.47816024798804158 -0.11947635999840323 0.79417461686607638
0.14702368692574197 1.1686037999759407 -0.40962138868857778
-0.4825230033463086 -0.65191208460599981 -0.29616273915080527
0.54927800847204722 -0.18152100008479444 0.73345010909005293
-0.27974385317722295 -0.072663888471728555 0.76605724862394808
-0.65975246114757091 -0.58739049636103857 -0.20268773360124859
-0.00092841946940325215 0.086881619414548084 0.74455337269580291
0.56738372204026177 -0.046599041225148241 0.66533904431084245
-0.52571372539226724 0.032209155093788411 0.75850592086424484
0.61793064818109578 -0.51733598150151305 0.70956407580080949
0.030137935461550303 0.75813322449153198 0.67159852842799239
0.60608879857371534 -0.64413587517434223 0.57132742020915295
0.40528917282188637 0.71647436815966614 -0.2700614011116671
0.27510094895591308 1.0311407055391655 -0.38238368311373883
0.38527925327502643 1.2957943816032937 -0.49549028929889793
-0.80174697348827229 -0.66451239716286548 -0.28524321880950287
0.58768625262785434 -0.66104555779620622 0.62457877781670545
-0.89442831579493776 -5.3519425097015016e-05 -0.40914071289991938
-0.22317463474065713 -0.32196566775517965 0.68092190815421638
-0.33914116965431162 -0.62780126143966442 -0.061485161623344942
0.0060375590188348482 0.65978315731108106 0.68147834237094429
0.18869947966302725 0.009912568220297846 0.76841477847808726
0.71110542044872638 -0.48985792539734163 0.69000088773495394
-0.59194943396399824 -0.19229763984361153 -0.6287434257338772
0.23488673908977553 -0.04122066118018175 0.817945288469895
-0.62512152233576757 -0.64107277685600295 -0.27449506075391783
-0.1004521995755141 0.2887522929694093 0.78770246700797131
0.43869855997413154 0.013908014343662956 0.34702863690533903
-0.11120405166453651 0.77619652610292422 0.46096159080129961
0.27412146688852401 0.01552153441577353 0.7217583022509455
-0.60472916110648001 -0.76846542170481413 -0.3641205279831401
0.16632613900203097 -0.16603573833622853 0.74874378267088204
0.15854903949801979 0.44450791044863713 0.66986327267872348
-0.32309758866483307 0.09894171480922509 0.7858843209002595
-0.30933198033696385 0.91146326742601391 -0.026790719340922031
-0.46489205762888047 0.86051616795144836 -0.19456847596946203
0.086588796455094652 -0.12625004807302442 0.77177554286999595
0.22238961690849646 0.80738691214078095 -0.38739644562493281
-0.33752171095473926 -0.6700770563088092 -0.15564480633349714
0.034820591405269719 0.83808817818053694 0.64443067138389942
0.35036794371459834 -0.43868201903319548 0.69509006577380816
-0.028373035962444722 0.066343422618841755 -0.74081548308875134
-0.75899353405688608 -0.012085401735854262 0.74168659317937369
-0.23212286824618644 -0.072743246188332833 0.67882062417266553
0.66455479942532492 -0.29205708408647268 0.7278857446306759
-0.076381471059683292 0.41064049752204212 0.82104481521777117
0.1445733713048325 0.47635716353378921 0.69058072911177248
0.081266190217418544 0.90708867233431933 -0.04716251288434048
-0.25853095936933812 0.51766665589308758 0.75461500116089297
0.073463883258019891 0.31684750958611474 0.74751084302334903
0.2898031732489218 1.169457609139366 -0.4440185083309397
0.28926477009417617 0.77687929554669566 -0.30524910508305858
0.01360792138620992 0.6557977436281579 0.6787617966876951
-0.3381470080871658 -0.035065913469207288 0.76744638434681711
0.17768542987284963 -0.066147362198726967 0.88406918944494528
-0.185176522826076 -0.069162592287377755 0.68703913850616516
-0.022171253719141859 0.23975595440029451 0.76015064462606574
-0.20535713460743921 -0.091040395070945301 0.71953791850328486
0.73762618015145243 -0.19874116641695519 0.38122798257927448
-0.33989671762478224 -0.13741687003974068 0.82190603130645457
0.83319841208540524 -0.45704555058193108 0.46944304331778142
0.10582802407956393 0.87530151939321854 -0.30353958369834366
0.023388930358115623 -0.26660958562159132 0.66675508063556421
0.48446203439407398 1.2146435372222442 -0.42898754218464319
0.13089916628325016 -0.21857265602368736 0.76105095411796242
0.71008929846519375 -0.64961290107125591 0.47381635233505925
0.19567165456695967 0.011188805337285945 0.76349167289640008
-0.52872773389182726 -0.041875638491281286 0.75823742752090695
-0.84775859661194986 -0.98849351148395925 -0.41838247838163234
0.71684525194898896 -0.29367033989177749 0.7134973620104077
-0.93800938300911718 -0.050422792465905864 -0.33767022969923099
0.55867463773194714 0.8786548854199383 -0.42230198144908115
0.18743464451046421 -0.12498398562273394 0.82166415049997354
0.43089088816682253 0.73767531487184002 -0.31797550887372417
0.83398000743853773 -0.21807125822548784 0.40127129971359121
0.70601771097291 -0.56016353390834794 0.66371405829972852
0.40983609936775789 0.54249006062663163 -0.28574415598925995
0.63005566263669799 -0.58918687442291073 0.40239763596922362
-0.14674381142146231 0.28958737555592329 0.75899420235463744
-0.25558614157028159 0.69928661005259407 0.58781408243169375
-0.70614637017979298 0.16175924809612408 0.71464763114738616
0.0032280580711194773 0.33400765420840584 0.79938713714953735
0.26595298747804463 0.74901981996912448 -0.095773236846924625
0.30834004135053661 0.83861437737870403 -0.31875834751144971
0.46614531605063281 0.80891558519960638 -0.31130542095253499
-0.70246051080177707 -0.53614085970962888 0.52045964659867305
0.12002832479568015 0.55780890739698563 0.6786717877430597
0.22299565823818845 -0.039494092493599808 0.78314154178785245
0.63479614064400725 -0.33068570376624251 0.73295028876160639
-0.62283184774823752 -0.86364433120454187 -0.40404068436146989
-0.25805351589414727 -0.05624568560289589 0.76578341495625324
-0.16223175146106961 0.20272645600509165 0.76958267846840478
-0.23656388842269394 -0.0026230792061054942 0.75716809481885861
0.20875444551683547 -0.024705511932265653 -0.56691172484753716
-0.14374890926293835 -0.44922478467343491 -0.36746397341410542
-0.35453214865027682 -0.84498607099531764 -0.28344613222341719
0.42551228623910331 1.173219331844124 -0.43028312139548908
0.26458001162997657 1.0253280824801472 -0.38276223277277843
0.74552838548023992 -0.40304063812626723 0.64658035844803674
-0.12427491252520717 0.2713907714836985 0.75814110296160875
0.89367388395111036 -0.20357648579214258 0.61523490218569099
-0.065912533934043172 0.82941147589674946 0.62552787144523325
0.35867913752044878 -0.13100683693315496 0.74304148714907381
-0.23376188456851565 0.44145883089398996 0.68261890461614172
0.23014928102653087 0.016881241206867514 0.76077150534391547
-0.21494716271436864 -0.30299317507384771 0.7089516946370189
-0.11789158693757784 0.28591641858634986 0.76283776798352498
-0.75236567264092435 -0.43170846137390512 0.2330882900567553
-0.4897802673121634 0.046100644155840698 0.64110990255761635
-0.4638950209020446 0.60088945494146628 0.73018873661660955
-0.137333173090395 -0.44191521110748211 0.5336378366044956
0.29402092203574171 0.71487576903814443 0.18690423057093142
0.22426200980888966 0.042710033463599473 0.73497239657877089
0.80673734919721429 -0.17292717028772131 0.39889215463862637
-0.62885071655661651 0.62036964391418836 -0.40620943519348685
0.73923403775314789 -0.47054313386582169 0.68262465020320739
-0.33184830807977406 -0.039213325680696798 0.76230085349800603
0.65715989879531733 -0.40233455150916697 0.68680254931309825
0.72258511067763997 -0.33762867722519196 0.65926840190366232
-0.81681255484076942 -0.80552539056760963 -0.42016495410483579
0.18474679532446814 0.84319367202520867 -0.15131993999903059
0.15701869357348874 0.5418095873515496 0.67268841308533922
-0.19130904135352367 0.11161825368767886 0.7660569356843947
0.29086376019542826 0.64330549638103207 0.38635952033200738
0.53265473124862694 0.00016816471845260139 0.58190392254903855
-0.62502592003271573 -0.71682575528326709 -0.3482204395274382
-0.44173891372041574 0.00080367229589040079 0.77216964074619376
0.23705682611685464 -0.0011165505705212908 0.76911352592280657
-0.26983263785279377 -0.037350360561335449 0.7537540697779832
0.19591573137488316 0.093578554321922525 0.73292554935883425
-0.52349376182829133 -0.97224300438673228 -0.4200518821516841
0.63272776885054371 -0.46832292438961076 0.70147115336821564
-0.37352295292309162 0.89887257724967196 -0.21873134269245326
0.19840363317885301 0.80134870768389144 0.42210541530303836
0.68533598560486553 -0.15087035073304556 0.68453136774649437
0.6424514645746715 -0.15835947820425478 0.37435900429679236
-0.40277827526017729 -0.35866378289551637 0.68732151960625032
0.21158000001864141 1.0022900209824535 -0.32204953513359347
0.20797474161848267 -0.36316210212542849 0.31539806885603805
-0.21622234110587968 0.5249789713396531 0.68786616688838365
0.30376083065175141 0.76512802850486672 -0.32261413442581155
-0.14190294365740641 0.55937989963913459 0.73841710822217621
-0.81336314872897009 -0.88772734550571286 -0.44557960001101493
-0.53374974477061077 -0.33808518332772353 0.67900985677368686
-0.099028804320548502 0.3244280562953854 0.80384016892539378
-0.2969992030357318 -0.1294736641707086 0.80050049847267957
-0.69062095369391763 -0.65714752262903797 -0.31080313669247328
-0.78547320515622943 -0.89061948546896375 -0.4468150688272754
0.27898011375592624 0.030873395192088537 0.70672410632544924
-0.24383470526048256 -0.047191876699145929 0.67230803181164589
-0.35523189068403549 -0.2346610256611843 0.80886618027558654
-0.4261399925669469 -0.26217401858861145 0.78282571441228566
-0.30908542088076629 -0.035147419306932548 0.75994251596393059
-0.21296689281437153 0.40596032597090037 0.76665124318498812
0.63534859406388122 -0.47613401782233744 0.67892913702115099
0.064605113907681755 0.55393892361781649 0.71263904609788398
-0.66859876360522819 -0.60898490198002619 -0.22990537260795141
-0.23745494886585305 -0.14141523011034174 0.7670887032516589
-0.51410429892274401 -0.6394946389120566 -0.32475622605804766
-0.54550730497150113 -0.59682040182653395 -0.12940215743145589
0.090367813290022525 0.31122504423817787 0.73510234246356898
-0.5733889404372956 -0.091434618357567832 0.76187375942618751
-0.75695146218639175 -0.95247235307850353 -0.44069560506632655
-0.60781726223916033 -0.5847221637997706 0.10396041978726182
0.40415014915957936 -0.03809124719033008 0.51271260138307673
-0.24252248932719944 -0.29083668882025071 0.7271858749438227
-0.93625395945116097 -0.70124621259051167 -0.34332024020049534
-0.084058469709280104 0.24484407845789491 0.75786886075680115
0.8021946593283853 -0.35061896691774302 0.6904326220720769
-0.58730545407015367 -0.62888730620691735 -0.2631832961016991
-0.45580439353162028 -0.75309452263000409 -0.31498902096235959
-0.72473256601455915 -0.53025157496644404 -0.30585834111581134
-0.37332424699825406 -0.44912887974556459 0.64434392261586715
-0.65108453209361983 0.065729414573424627 0.67788271650998411
-0.14018978017858341 0.57109760129837639 0.73786579432842192
0.13183214248542185 1.1627905924233684 -0.40413707418372757
0.13872636666955618 0.32892085994620857 0.70948798927289358
-0.52774523593253164 -0.044913224547080688 0.75784112619945887
-0.23960795483984842 0.22501435593799002 0.78472972601755409
-0.14716819530770664 0.54646566560356113 0.74864718749704018
-0.71299585469578641 -0.18441047147826595 0.51960192900014945
-0.21086335850994686 0.28579886620839368 0.77693897153851932
-0.21681635588282333 0.47050663678244575 0.76638676218574098
-0.20898697291070789 0.47134922632846354 0.75935453581821832
-0.5069538043603008 -0.056174180676897834 0.76605634436299397
0.39806295772864958 1.1635139281174451 -0.51737480387788182
-0.014549913367204126 0.23093810627876277 0.76106863255944557
-0.3508448102528301 -0.28304743836081769 0.78270888198795951
-0.78321689348953782 -0.75700512687429367 -0.40007389724948617
0.045499614608971228 0.3889092176044322 0.80594536141780537
0.055136708243251009 0.72589458306475585 0.6579366773895412
0.38905892065960579 1.2025321823442301 -0.43498213396227747
0.58900068598269684 -0.38317073464581242 0.72921769872921871
0.67397503836265571 -0.26050807145277233 0.72765863685804533
-0.12122414892085942 0.27702131871526259 0.76822101779303509
-0.079565096825505277 -0.45614011823645856 -0.26489484623761023
-0.18293554736785289 -0.28926195407968081 0.64165566941899499
0.24780628955804751 -0.43538752289003035 0.45167551133585815
-0.49699550889933208 -0.19099697931965842 0.78246065986540536
0.67355551109683842 -0.2232143157901767 0.37452563233219038
0.71672317752492543 -0.48424523967526767 0.68997571871799579
-0.12827394178315998 0.40067032519240353 0.81117765854437351
0.33498212282499384 0.18621236108064343 -0.37539528520876342
0.76855779979996086 -0.3066241506513836 0.70676233215284334
-0.13394669288288874 0.27434967200262594 0.75066689575818168
0.69157138329999945 -0.58767032031231814 0.65459124163173055
-0.83279308417402031 -0.17025904312305862 -0.46632151289832002
0.30024020466575518 -0.30225636754969398 0.11848146171169521
0.71724567090187419 -0.48799611306321378 0.68599634441123891
-0.081242281487632795 0.47972011017516891 0.80312087614340655
-0.45386507814099275 -0.70724268558516101 -0.31585309617356994
-0.18664662452044745 0.39181049855939243 0.75860548419167273
0.24295179361189678 -0.0033286367170823894 0.78362557134701294
0.46652850872465645 0.84573440915481157 -0.34106460779455983
-0.70838951816875984 -0.64913113185184468 -0.27193259416849846
-0.50915273363250657 -0.27499149761960062 0.71675855550655365
0.16111783007031022 -0.021443556200043457 0.79116739710482165
-0.13553128601571984 -0.088651894390914698 0.75160441168339531
-0.73398726906592759 -1.004752368329326 -0.41036343065711123
0.24536027006124073 0.78975949588776473 -0.24637630975556934
0.5692910466318466 -0.64345442391050511 0.49862423871009653
0.22052673695166891 -0.031645039044878587 0.81728146019434611
0.64599693030629091 -0.7223966106399331 0.52225576837823784
0.068729823281968389 0.85019721628019207 0.26968612820973314
-0.33878931005930291 -0.48073528256391451 0.62125404595985678
-0.4503313936692841 -0.27396074887323962 0.77089654948669861
-0.32793457392263292 -0.13876198417976493 0.81969683685063899
-0.53841936954313296 -0.33552860982387656 0.67918347794983625
0.11692837637288811 0.42459638106053177 0.71425594379851454
0.5634110737421939 0.80046623548244134 -0.35682262050723512
0.87135701549263678 -0.12168360301152142 0.4973781417166106
-0.34355582245929828 0.083447884061206068 0.78933153373103071
-0.39848234376223957 0.018912053182233435 0.71815942258371912
-0.69810900329976677 -0.34923120737482094 0.7029958976773687
-0.48435241326180289 -0.81421803588225394 -0.27370563968960271
0.13806147873176178 0.82624375377234505 0.3576810707310365
-0.018082669625041348 0.5423733974147984 0.75716908535027017
-0.47701361384370022 0.4798987975046991 0.76782070464301455
0.91731455057974287 -0.16266487202969593 0.46346926487478823
0.15315929596468436 -0.081182114982899733 0.78684145157010477
-0.31157195529790016 -0.28920228209620902 0.75342092292011564
-0.23767071938344486 0.0041022730227151527 0.755095191611872
0.45891065892242278 0.73165711149732005 -0.36163712136191251
-0.17916766479883339 0.26747138303444684 0.77161619416699301
0.10440698970056239 -0.16448621739743174 0.8058635596159931
0.28434936302205038 0.76446551253971506 -0.28533925002400906
-0.31236902554405699 -0.32134333661137338 0.71290094279517591
0.15022616335024175 0.39724260542537948 0.70879164337629152
0.39501301633343755 0.08311301358779366 0.21331007906275268
0.45662139592011641 1.2730267305305212 -0.48529729474558714
-0.53821310496590424 -0.35111057884982572 0.67981479293470737
-0.23550509619717985 -0.014370304158266123 0.76199694999221634
0.89108094731420806 -0.18299827962715054 0.4234790304137066
-0.49159502367249308 -0.23586735943565529 0.76257400697268984
-0.0071508639386372863 0.2370668419738422 0.76280737342936078
-0.3764737355711496 0.28730432552409868 0.73192241498072264
0.14402629418812385 -0.19833119474956185 0.81206186674378156
-0.40606006256540739 -0.36743918398144437 0.6834283476420584
-0.5666936662141081 0.1825767548524827 0.75095274654977828
0.13628182536280972 0.87280995959889129 -0.35056941764403959
-0.91083043173370015 -0.66812642693230018 -0.33906069274436401
-0.29227471788757242 0.66040194000720742 0.76620347240962516
-0.42532260613770845 -0.28177798311508262 0.76515463720390864
0.59469127372205222 -0.43919625157967523 0.36367513018592712
-0.16345218348656587 0.58354393407999616 0.68059134941751953
0.43255771994156667 0.6163452146493551 -0.30021979493747963
-0.72193251637929023 -0.67320799633983341 -0.30555688194018504
0.20822509729239513 -0.1748920874909814 0.78935693298542375
0.5250173231732731 0.0089497530002731196 0.5733270025135937
-0.49167670213141079 -0.23546843818930974 0.75888166802997148
-0.035501899201219267 0.7167439401974196 0.68856564252724972
0.29802671426479321 0.54879709590964154 0.51734778759697519
0.1243437855736218 -0.12717519392700716 0.81272124065083418
0.37854381075251453 0.16753443895465026 -0.041479136690584895
0.6416501501285552 -0.024072702363725718 0.59906203849416073
0.69876915342042878 -0.05025747250160606 0.62351429181693874
0.74608618565046569 -0.32639453515324846 0.7043123176974051
0.38826914223827025 1.1100405666404143 -0.50487706137780464
0.53972288448968542 0.81790362008957396 -0.26893376459720619
-0.33950929661197904 -0.45317946185629865 0.63592340229597033
0.46529845107452872 1.1739190129640551 -0.4139978770373115
0.72814981815509583 -0.40692452463168571 0.64384209090620148
-0.51946299761775516 0.18271289459253204 0.74220005873674033
-0.33933133406396188 0.43108650724366271 0.80528718650948639
-0.48411535647471826 0.16316893076021444 0.57398212868099563
0.072611137699643891 -0.10782605986510774 0.74800313949395658
-0.74874831195320835 -0.30255869498727073 0.5726877994921109
0.23651438474239406 -0.069539600256547374 0.81357728547601482
-0.12969980306300144 0.51832686733596134 0.76143500860285585
-0.093621801656084358 0.54565531671674439 0.75544846295872059
0.77116121715796027 -0.39637400638782694 0.68322912752898302
-0.40636355825068193 -0.29142779823326226 0.76791224976743733
0.60723130271821901 -0.71719421304509723 0.5301831728948434
0.84242866359705815 -0.34422649673835792 0.66768559109168724
-0.66101303310511916 -0.33864928321316468 0.69912040678936371
0.22994240093141904 -0.014835424014966403 0.75403656100606065
-0.84294956403770627 -0.99059269011031148 -0.42254886441766892
0.71130396654774719 -0.50630013173244492 0.69147680353110141
0.79063229696168591 -0.081793376137601292 0.50747336746513128
-0.49382460358127966 0.66026940941516044 0.28698781467256218
-0.4120382795756129 -0.73246107500902558 -0.2903181431515629
-0.49894615365129891 -0.63643692423629084 -0.30824805968028457
0.24409324411586678 0.98434188195728622 -0.35232576984704389
0.32516494116027417 1.123864656702338 -0.39093429968641047
-0.20871812509604304 0.69401634079151453 0.42559517177069717
-0.88877238578386009 -0.82106911120141923 -0.4027433533042718
0.1456253814867372 1.1243885828928253 -0.39693961592348814
-0.14051773428160835 0.64273568606727904 0.60144986386714683
0.34088198867311092 0.72717682941867245 -0.27511093319372026
-0.19371976911061672 0.049009188929916903 0.76134563628727925
-0.40073598127849053 0.19468893673890797 0.58290721701753867
-0.098028964454021761 0.35212072466887712 0.81398349020470384
0.26255995234936513 0.67629591071104667 0.53744337966092504
0.011229273170472842 -0.31773366372455847 0.4897814612210043
0.18500895700922726 -0.20973601023218413 0.77714409496709358
0.12214610154032268 0.9567873849106725 -0.23905690031567683
0.19753342574905108 -0.30731548482907023 0.70377497669404221
-0.23805653892908651 -0.023274685631246683 0.76559597271236157
0.099033063772871799 -0.087669104594016556 0.75626151992255508
-0.32596231950821597 0.25083929217032619 0.8128145033028602
-0.50617118959030827 -0.62309429600952426 -0.27521031353744685
-0.47395169858198205 -0.73380622081102009 -0.37277141624577403
-0.016980678220020806 0.62541435570823189 0.69329035867004052
-0.29301389280923473 -0.043708867611869984 0.76382270397749608
-0.55343198592210896 -0.22760554927977239 0.71078192039136923
0.48673975618845655 1.2145051279912573 -0.42963054630526742
0.70308524280924445 -0.22581731397794158 0.7073263982094371
-0.88718113676475419 -0.79635979967088399 -0.39880002638431722
0.74443893798396188 -0.43086136796526781 0.65813452585804633
0.40458849878435643 -0.54019066538044314 0.67267252799061339
0.45667687779100419 1.1308944495693964 -0.46448459330238112
0.5194050593187387 0.69115120923052942 -0.20249953224782047
0.10047841894709109 -0.092327639174232146 0.76025543574252907
0.072188666082126485 0.61601283469363555 0.6819838227603654
0.44569598247286368 1.1189482753607809 -0.45546847488269293
-0.44458172910460647 -0.36191734237540274 0.68463958676587655
0.21592940108907932 0.013991920952205916 0.75594826293318684
-0.1897349704674447 0.62219904237277657 0.74616556808387413
-0.64997068591871854 -0.32851698247324213 -0.53508168849432969
0.65281935012922077 -0.080152541631516527 0.65774804309216961
-0.4359139599321864 0.039150641282046816 0.77845505703563767
0.3173636685061112 0.53806345818608747 0.31648737787055836
-0.10268405512525192 -0.10613910127374671 0.75997708346471882
0.022357173673535513 0.27781660000253439 0.75729083161365018
0.12626803690198329 -0.13321157953271978 0.75618131409617106
-0.15369045351756938 0.39229502286717444 0.79410298802432422
0.55095420432705144 1.0270691789485229 -0.47791046468237752
-0.3227255483509448 -0.42448640627512102 0.58400332610170613
0.31982013505182527 0.74174735258525715 -0.31191281481148891
-0.034701307032758866 0.85550324577476022 0.55335046578865388
-0.020650033457572547 0.12435898327461459 0.7452853856821573
0.23113236765064848 -0.016284265248415863 0.78349982023982445
-0.8107399484924116 -0.95712978207790567 -0.49324599736129526
-0.039583806431334967 0.8177992351266008 0.67688205622615971
-0.45869331036061034 0.50646531407051043 0.67013962052612897
0.85033949458795544 -0.1377377498718475 0.43295682970576577
0.50457746351440846 -0.048800543055393275 0.68876692482413782
-0.7481536716273185 -0.24781031761473049 0.58944913974716806
-0.18405619247169369 -0.089185508111279344 0.74651735150241905
0.26041993622268045 0.94086479989971394 -0.33808097581022345
0.20318201589396523 0.0068798825014955156 0.80129613052281456
0.36924156543796971 0.58433313032127077 0.07157331036883241
-0.025906525934152214 0.554999403057157 0.75168573474717704
0.62995716847464678 -0.050559572971209832 0.64604063082203567
-0.22952931449915326 -0.057287881680231578 0.64538690259931286
0.67742998777141095 -0.69456953754812445 0.55846215312614955
-0.67822274369591895 -0.97326208111107348 -0.4534004693051541
-0.50252583474255452 0.096429748371370749 0.79992938681095183
0.51921550249617354 0.90189617208849882 -0.34525494620185881
-0.47568548895365481 -0.61504415431162762 -0.24035107919906107
-0.66318716406239275 -0.59769996571716177 -0.21521243777856025
0.12005688689210281 0.45737247231824441 0.72051270783664467
0.24397848586964666 0.98485125757600323 -0.35289626090465775
-0.44672653422571784 -0.72906669176097605 -0.31573925071948139
0.5699005370098007 -0.22989359062376025 0.73324380090730656
-0.49884265656947241 -0.63695306087697756 -0.3033326344973104
-0.52905614039511395 0.056914656902779193 0.78384689980390654
0.52088424081134121 -0.019600551532207078 0.45789756166413298
0.037740573253443266 0.83749761077816487 0.63656707354580888
-0.76199748449819493 -0.68338526355754503 -0.33442780439073339
0.10439840210158735 -0.16034001829837496 0.80869724875128668
0.22903931774296105 0.85865751206779539 -0.25280860474982703
0.77100614988771587 -0.27035430164726648 0.70930722905934296
-0.60594518567446176 0.03270945411956383 0.56089441264243689
0.067779136681203056 0.42892272498180972 0.78565807745132332
-0.23431935442158114 -0.31642231314735447 0.67789720286341293
-0.095624301427664093 0.63983137778801735 0.71254455546410789
0.14394835536496386 -0.23608607468895793 0.74062445287077949
0.74622313350767211 -0.43220278957559444 0.6599314016511002
-0.49305257611819631 -0.080743748100935875 0.77011348335097196
-0.75617898203014966 0.080296206150733518 0.66707246041659474
0.24177261966751828 0.035157167223331953 0.72501777555536906
0.13346260867696103 0.376671161641708 0.71966906296197308
0.25323060767242067 -0.0026979454383209145 0.76331751869636733
0.016085770755058348 0.52257454419923022 0.77249801818143027
0.29071767706061319 0.7260811204363179 -0.24152381161236536
0.30894144263335477 0.07027828418785198 0.56547286059923874
0.13566485393163555 0.88220694669174948 -0.17300462709797149
-0.74491748330502361 -0.13542167226292001 0.35929091343299058
-0.24208481173694452 -0.071770494252062278 0.76489401808006363
-0.66695940110650298 -0.81843960674077465 -0.46861304517138969
0.17372081792796124 -0.17149510373780252 0.80882311363129844
0.85392200525059891 -0.45957008076927153 0.56098247470933771
0.36054111393244348 1.1110275363856754 -0.42343458202983886
-0.19044853451855404 -0.27194685323413248 0.71722221725247448
0.46768097539843856 0.6574798087711109 -0.30244810514370712
0.15722538274721734 1.0038066677441067 -0.25782916713425186
0.2902362564872476 -0.49487671671693789 0.48650391564499529
-0.76104698914495916 -0.35508105916502164 0.59655516127287189
0.083578118597211093 -0.14405129159120689 0.76206254034326548
0.5272480423457333 0.98202371376022957 -0.38012839020660233
-0.5003580399770069 -0.098370207932951814 0.75543728987316783
-0.84080153196888574 -0.92533017906048531 -0.43033149736154197
0.70687255903067481 -0.48998574867818079 0.68901713764417183
0.55200879204875442 0.92941621919947681 -0.34203242996210381
0.39256540176697841 0.0015264283432444015 -0.16513404818223221
-0.29325934268397935 -0.37145328337024708 0.65611179278095477
-0.095559195161236232 0.34832561214321167 0.81476276503781264
-0.44349822577898479 -0.70696089658998496 -0.30959317731544367
-0.64702741924484997 -0.74454979562843704 -0.34899473284508709
0.41483095363484335 0.82696216751509599 -0.4070224000920124
-0.29097540808041877 -0.3177507845301788 0.72015408956236016
-0.20535862022391219 0.74454109877577679 0.60148483735145808
0.07323775117783704 0.60036865729053979 0.67661254510878166
-0.079111595121336364 0.26797350333051106 0.76008146093053952
0.39640034265236235 0.14458879077010067 -0.14779908733739333
0.29975839885124955 0.7392435760961078 -0.015973772804706243
-0.37483184192561758 -0.82174027392995841 -0.29352954306596146
0.14770673579533522 -0.040895934784221932 0.77130515387973908
-0.6255470725842418 -0.64718377150716755 -0.31069071847976293
0.13039529151836859 -0.25795721264108096 0.72150461073842109
-0.30836016039471481 0.27281679273874104 0.77798683853261963
-0.56605672585109623 -0.1611511347671013 0.75385370481153302
-0.90596016721885064 -0.95214113143884216 -0.52100974687486357
-0.10781614643457083 0.59112417507378501 0.73327095441605827
0.11917421329159605 -0.095741699689172011 0.76811126869677793
0.24536847587498301 -0.41668347830094632 0.40850147806839665
0.27831954075120491 -0.33979924207320938 0.22605499197844048
-0.14709698846616881 0.50683142162273676 0.76055617518789642
-0.18188349769904488 0.62245399660884004 0.74292831320754615
-0.50035891794879017 -0.001518855740570757 0.76942210403259459
0.69904896135154559 -0.57622502321496971 0.66067179627076644
-0.52947315458093236 0.00098094520285041398 0.66641260830410332
0.22807427028343596 1.0534639026377306 -0.36698150205635116
-0.15617900881453739 -0.28816685684267718 0.71125546277488283
0.27983166402647441 0.74311670610551417 0.21485354678165436
-0.34554681474182303 -0.13631915637895453 0.81903418925986671
0.16191700000229403 -0.22658745410106818 0.75673396903804857
-0.022059170889357382 0.15749264077779657 0.67785045949871936
-0.29192251371802769 -0.039382927338648344 0.76434621155242866
0.75611800044391231 -0.46022902034694724 0.68102118156875591
-0.44181313069934802 -0.25721516651418153 0.77945418581054027
0.57594137484570762 -0.71424891356284981 0.50365053747775279
0.10772636923665146 0.86240356583344369 0.56968569520000578
0.20427540361272278 0.39549946196227481 0.59892810110141514
0.40424266764709293 0.5594552157106456 -0.15138590105750893
-0.22380842442386495 0.082154637306370404 0.77110748179814514
0.67897214080192647 -0.36670099045393023 0.67745272520197997
-0.64381906479819184 -0.36203593521573296 0.6820921201563328
-0.51066461457523005 -0.62467582759612394 -0.28233425313612859
-0.047259258956955819 0.65849304734713066 0.60696811461324529
0.92944899205804532 -0.26218272327208325 0.56068673643746081
0.17358906029291543 0.88008250397930843 -0.21878830090960744
-0.26881874580923437 -0.070054077064866549 0.77853174425460026
-0.15383687372050403 0.4448187606285865 0.78595990254410475
-0.49693906990173753 -0.056613488041653781 0.7272956198561964
-0.37966816161667083 -0.0044869344461564431 0.76134405920964987
-0.33906678067115648 -0.68791528174135552 -0.16715521072362882
0.58719373179851264 0.99288461851683341 -0.39265293955506231
-0.46299332943308968 -0.70596417803081479 -0.29158441439389193
0.66477561021596543 -0.4589964782661351 0.65469227586614265
0.6412247683197263 -0.47808899284264861 0.69132550716788277
-0.62583971131897886 -0.64137095895657348 -0.27371702262196518
-0.93446543250813718 -0.71068650510807752 -0.41973232470831157
0.3488054327631297 1.1252387120480749 -0.43227251710089126
0.31986387742873479 0.39694808849330077 0.52828311032144504
0.12101314714477951 0.838321644088587 0.25387629787210386
0.72759721030828794 -0.18397484491473648 0.55923773777899832
-0.75122899173657798 -0.35746068369111406 0.65290106218296362
0.078462839454466859 0.43456969218260966 0.76694253020725611
-0.96966533910454444 -0.81879153337606425 -0.3931111851234359
-0.64946946096943314 -0.23942205485457979 0.72841046882612126
-0.13153782884362819 0.57090780869178914 0.73449622658151981
-0.36308727515655903 -0.078111458134692668 0.80278530137300375
0.32049385929784246 0.093162169211372853 0.47309736041200257
0.63039148395775868 -0.44344589507304022 0.67778727571499964
0.37839050555570708 1.1901979201905846 -0.45875128805031729
0.079766593898435101 0.62750543368080347 0.67865510477127167
0.66369350554481699 -0.49664549339526687 0.6988806788194486
0.73639875158374046 -0.38893484088074182 0.64962947074841271
0.36839385967048888 0.63753914252150201 -0.17775288665374123
-0.37718259330042342 -0.57454287518195912 0.27235709832830485
-0.38056048070078674 -0.7183916804915853 -0.3416688951652993
-0.083723608328206023 0.55118624503656655 0.75160756028308029
0.029210702647047171 0.62024635536828487 0.68407004587063014
0.46540566926930205 1.1738882140318587 -0.41380571076786721
-0.70399198935897545 -0.075255304063315265 0.77530739732205944
-0.45020107361448503 0.21106601043003081 0.55007658802702508
0.14420915542713519 0.29399334120374832 0.71483409461457237
-0.59806939036334228 -0.93662410307160471 -0.42582965934788586
-0.676927325008152 0.10030288725340575 0.81138447020540028
-0.052184228895701068 0.5337299021057671 0.77281706195018529
-0.86332760720930324 -0.91093008121974961 -0.44942558730082993
0.079939028347720154 0.37133573697808941 0.76558843233005902
0.66218526581642712 -0.49778123354200193 0.70376271573451987
-0.56521140677918247 -0.089750792650358235 0.69348395829586806
0.66399842287936939 -0.46045917384580093 0.64838224782994736
-0.6177666399243309 0.35625791534590867 0.39706588294047496
-0.0078385655139712185 -0.11607881654186158 0.76940988284722067
-0.028754266990242527 0.18852847675246309 0.75924033789478074
-0.57951144151698886 -0.58312720765677284 0.18472137135053865
-0.66994981183469804 -0.51776676387869358 0.24615923709811338
-0.20613039913273923 0.32365157782162535 0.77795733018947644
-0.58279729689335014 0.24492148328938868 0.58601535911242308
0.72272312501759117 -0.65253905476779828 0.55426706252923919
0.7205332675991386 -0.31586800486837818 0.67522055641603451
-0.68909619092277996 -0.68848574749652514 -0.41209453860827239
0.043417365831540877 0.6627198058785746 0.57016706048652921
-0.44127544513243322 0.20552394069075675 0.59408645592836429
0.77395914308550906 -0.41357887439292718 0.68563880517710007
0.32495994762594549 0.070515689701553086 0.53752578395224004
0.3679017509002076 0.96719582653829406 -0.42512298285345906
0.7536973581377282 -0.33909474635562731 0.68497212927616413
0.1080453422504446 -0.096750134115895392 0.76480199361911616
0.34124274602198668 -0.39028676893912007 0.48670514540826204
-0.88093294358949059 -0.33081937711491349 -0.32752306863943126
-0.3696868991527662 -0.79054585883030526 -0.34235842082034473
-0.60200112638962833 -0.36542762737939749 0.66950222917170921
-0.12141477798420593 0.93946153459052062 -0.24363412806158602
-0.21904949030396637 0.48789311137854874 0.76227506606820228
0.13436355078601903 0.25116571139394495 0.72706249349661212
-0.21682210236506094 -0.33897234358760464 0.63137075720659119
0.20092183120104506 1.0181263766741626 -0.31361986246042317
-0.54846504362877369 -0.88936796229729964 -0.38572117544588735
0.38673389332617703 0.21623810072384941 -0.036966633832260953
0.24272605111737988 -0.0041071859196684102 0.76818322731566901
-0.56951533324890313 -0.048985004570633706 0.83762041740383308
-0.60504363865468136 -0.20094692008922577 0.71583571588564965
0.57054452899228636 -0.0065445025703709803 0.60069828312187212
0.52272955026233436 -0.34740012963794342 0.32784682253642738
0.37053633504850225 1.0976382151712087 -0.43392285756559446
-0.27377551939898837 -0.11273485873130773 0.78933691143856066
0.10939202286434879 -0.14086920534126612 0.81008484378826395
0.72516912869581773 -0.36977801680469824 0.68107713275372106
-0.19372315830590314 -0.002918426945534236 0.75022648225422905
0.26023903957242833 0.7536400452847426 -0.19964735512694309
-0.79811909429147931 -0.90111771802503426 -0.45234427586088621
-0.62689355038837036 -0.28614695448601957 0.69876631868657224
-0.67801260728868407 -0.97703834145727875 -0.44560457316085467
0.14051367175825824 0.41136989613147712 0.71620546121315654
-0.35132831297592437 -0.28070109082880634 0.78478815340326324
-0.39541503098256214 0.02393120723733233 0.77525886502088603
0.10232736494650219 -0.17824317172823179 0.80426662995334297
-0.91916178189621656 -0.17634769091919633 -0.35008408807611402
-0.15678897302523609 0.55635653875117796 0.73999494065208538
-0.62007331027966828 -0.64344244888187507 -0.27755359918484862
-0.18845908208980333 -0.22931546775313549 0.73758121907253127
-0.64619345739857437 -0.96005737052064877 -0.43529359533124445
0.21997708967989224 -0.34052913089110576 -0.060496568630688641
0.21389499245448018 -0.38243794732903691 0.65042690978933893
0.17931868167841891 0.33005412500799736 0.62463125464118807
0.083984643042658291 -0.14653005067652725 0.76450716118631945
-0.10126131697587937 0.37105277780191059 0.81607477374380011
-0.70214448401980933 0.15343499210313327 0.78254402270910361
-0.016151977717164812 0.16041294664605488 0.75787260368545972
-0.54508834848903476 -0.17157694410717239 0.74853260924814613
-0.75273450710351675 -0.15145691837590158 0.6752709076900274
0.33880700072536107 0.43051573670776483 0.27536102890290104
-0.42230062298111215 -0.7593905512801491 -0.27386034300676965
0.12266498163621442 0.73393191157047855 0.59927595149214596
-0.22482964121211912 -0.3615296729610562 0.68217064118359394
-0.90906439835022734 0.26798870399695174 -0.17685764096272449
-0.17325274983543348 0.32744415249327652 0.77272380429795273
-0.37021365889084201 -0.38846991047272894 0.66215233695050213
0.28478606785848726 1.1338410794230929 -0.4370835177657364
0.19196188803343012 -0.36988514726277061 0.047846588763230863
0.33154262849095417 0.95570096218543199 -0.38062776276250432
0.74084789658412831 -0.41505898118976603 0.65509245343796252
0.15276825286526829 -0.20631687466228854 0.80446540324704174
0.76149754277734827 -0.35201378967217845 0.68513195187124909
-0.29099321663300515 -0.13912785102663783 0.7950525579738752
0.92031650390319242 -0.19838049447752359 0.58567265591351947
0.42532264862524383 1.173129935583513 -0.43066884965859603
-0.0074774666594432659 0.26208319606091379 0.75876299294528415
0.36063728661605921 1.2682380271162459 -0.52070191777152464
0.15794044497446968 0.33379608274503525 0.70064734194478451
-0.51308295245831914 0.0057809958502241798 0.77930090575300826
0.13017931763254859 1.0749382786578503 -0.29154405156045615
0.12603112718782228 0.42186461315450963 0.72299067572932652
0.24280673769311001 -0.0055057824904753971 0.78860164305233305
0.080798478105593929 -0.11457946062107327 0.7533826786241864
0.11411326534245347 0.9776057743954496 -0.32920659907049599
-0.534151836391624 -0.83140928942686765 -0.3762880527262511
0.12241683943948467 -0.20962064711586592 0.76538135730127577
0.71936297007301686 -0.47917044551528987 0.68299868158778976
0.092330428010958698 -0.30975968486471928 0.51443160500338525
-0.63522142781726187 -0.11036000552131719 0.76879034622206532
-0.82354195123711094 -0.70000216507227719 -0.32571973349882022
0.200413229612872 -0.097486495085576719 0.81957567721832625
-0.61323308722689029 -0.081102442025545896 0.76373233341107749
-0.6367125973301071 -0.65790688385287788 -0.30683074924289455
0.29019279541701337 -0.24079931879599314 0.76887564341723902
-0.65588044014199376 0.043791556254185293 0.69397088872639046
-0.75191394557820956 -0.94648071816395785 -0.45929734551732421
0.21537635767791663 -0.32543007189747319 0.69985591657465918
-0.51527396155819361 -0.6115210069781476 0.052726722301860374
0.34176067814830774 0.72713694592254596 -0.27267934147579398
0.11867486594666579 0.91161690105040549 -0.24008152736278476
0.30282372971507598 1.1656497123793841 -0.45041308989908835
0.66657471631032728 -0.30091855128384193 0.73293311579496834
-0.26683635417847107 0.085285986858986362 0.78321825434628711
0.21083275444072447 0.083759397337693997 0.72036798607266439
0.050559628765242337 0.4096535105345902 0.80160304371063873
0.20411999767580014 0.78596474965653584 -0.24296479301016394
0.072350156304812785 0.57285630983089053 0.69933897803080924
-0.3759943640077239 -0.63136251351550143 -0.0042787978904978985
-0.28127172069270578 -0.40428914343703504 0.59043555503941025
-0.53051106758561151 -0.078773244925534058 0.75841072306989332
0.67983027674651453 -0.43485665386708217 0.71320024200101884
-0.51080814026209431 -0.35012871050030903 0.67672308373937029
-0.57455773370930885 -0.27016796822306022 0.70633375115087027
-0.76481933940666025 -0.87859510443150945 -0.42674253437193532
0.009982527196371771 -0.43922842216150304 0.0074829693828499522
-0.65149425927035054 -0.89182665476730527 -0.42348003131683853
0.7216892862871731 -0.28560240770622514 0.71332700593429799
-0.034646375520519967 0.35697731825667312 0.82160352710253193
0.22568895682948065 0.21962918544061258 -0.57913555698583163
0.24649871941558743 -0.0092069598729906943 0.787467155488078
-0.26876706278915918 -0.22132613947283453 0.77995615728331558
-0.58402423457188313 -0.62914530285162806 -0.26425395135739049
-0.2454795417237321 -0.0085239607508214021 0.75583189578961907
-0.25788989423843489 0.3923736185548421 0.75922382626777818
-0.6471724323976602 -0.0097927947223930278 0.72497752966528495
0.50269150116989181 0.018389996341813486 0.55715946656145832
-0.53690041898876473 -0.33031566787372846 0.67837148468006325
-0.96165556975909583 0.037642712068514328 -0.2564961744569203
-0.605246238733125 -0.58075217490118902 -0.38502588161333584
-0.20125018245459714 0.34212456070810093 0.77757597278167978
-0.088709728462925241 0.26058790132451115 0.7637792500909697
0.30612122386393992 0.7173369286752691 0.097337550412248675
0.1542696674075863 0.65525863479905233 0.6339746666764694
-0.67374563440095692 -0.24462253288735614 0.7343431703417167
-0.92395015417479365 -0.81539481485362497 -0.39378544949026428
-0.24714994003650048 0.54620825377933979 0.77201441020584838
0.13131242853108027 0.37819783080964164 0.71992742430095191
-0.4901303088288147 -0.37072832894475205 0.67542528605585517
0.14246264249792606 -0.036376870360423474 0.7750187775560935
-0.44143106383214814 0.11305127976379126 0.69975452216442768
0.13971843131618478 0.40956681628248237 0.71531503643159411
-0.74858244503380433 -0.6728330645557925 -0.30824505615325437
0.13862042631001259 0.35978031840598668 0.72526810956547827
-0.52415831111976185 -0.036742885299114292 0.75471639387559009
0.19759162137517317 0.0041360539411101627 0.79585148280172757
-0.39290433497485822 0.20846669820156905 0.61753254719189954
-0.74101039790416934 -0.5295608412587498 -0.049883396434869332
0.23590674889253094 -0.0016609225954038465 0.77629442213396826
0.11068586300830319 0.44509837683742681 0.72628082829170348
-0.45887530045324176 -0.61351928039125703 -0.21220813633859059
0.14917256885001162 0.17160720103461102 0.73829773614761418
0.60168967433186893 -0.32428199098778521 0.65789435758942538
0.19668914011668193 0.8309632214946423 -0.010464410452279083
-0.45595159034159793 -0.3635998052242807 0.67621789444978142
0.02119270271275478 0.56638928736213823 -0.60957146392428885
-0.88824460480198297 -0.68174997422107531 -0.41252088711709822
0.23992528074223252 1.3126277883882942 -0.45361450411293269
0.23305903887578161 -0.036586029215661675 0.81732129515633467
-0.54983731284773363 -0.30746608270817788 0.65235696170134183
-0.1949940150637488 -0.098322073822349587 0.75482212736221044
-0.98644521362206561 -0.91556679939240793 -0.4481051335979962
0.69708868173519356 -0.68187448352815938 0.53616974846634946
-0.57288974755950406 -0.10520505412177883 0.7459692504199007
0.29442234984316862 -0.18918362721962723 0.74783732258512359
-0.56878966933802033 -0.10647386230931311 0.72673476435013074
-0.30859044499440336 0.31762566215824473 0.80350927679353035
-0.57139440993784696 -0.11035689866428466 0.69993987890417042
0.43322423755972572 -0.083901170454069529 0.72264677069515493
0.31081363489150571 0.72344946325736936 -0.27190153550533669
0.20421967286871556 0.49398649322431121 0.58106865487812054
0.28168694702970853 0.10751841309258006 0.52497893172277765
-0.067578301949112074 0.55854932191025064 0.74309595197142464
-0.59829691271054841 -0.36311692473745527 0.66741041818245828
-0.55924841772460043 -0.17155724156426722 0.74471730693571914
-0.55383072006057787 -0.069044136797471012 0.73942248278614109
0.19806739012088137 0.33337360476985722 0.68510225868956542
-0.74821527904440899 -0.95124262003352555 -0.44602740591927903
-0.038996349974750544 0.21725116139742795 0.73282800922848779
-0.26052228850696113 -0.30015857301737836 0.72460809455069297
0.29379492392257589 0.36589245224595501 0.57883284070136654
-0.25346022184839034 0.50241388599154124 0.65167248450972259
0.30883352297879796 1.316203743811684 -0.45781070454147255
0.39857728886490085 0.0796262150878011 -0.032600908718459776
-0.34884944303836374 -0.25222894337228396 0.7982671222451998
-0.079918367648298627 0.59959487832272895 0.71974768587330473
-0.30475308405928203 0.56156067951384347 0.78475593175800817
-0.36651672762861054 0.42867258537638886 0.62960892436339932
-0.40991224113088442 -0.78809305295682686 -0.30525418552129047
0.82283487148848877 -0.38333488024366247 0.42763208882290105
-0.33887518679797668 -0.439931432300119 -0.50028807212213311
-0.71283982893669706 -0.23347882344082471 0.44019513185185666
-0.57814953604875008 -0.71393439148573501 -0.33601199938760518
-0.67999819448743892 -0.99801327143693541 -0.40342547818318852
-0.09547729822833162 0.51769004206885916 0.78193207339284143
-0.022080426941146314 0.19942135505626979 0.68228553738040532
-0.44680458625784325 -0.75735035958054631 -0.30524896355585929
0.30651821407425217 0.083034426971249076 0.50379717294953963
0.74423831905568472 -0.46072052518385798 0.68008438155263473
0.030803012705169136 0.92300091782112403 0.0050106149162569835
-0.48623184304047873 -0.61871674996927872 -0.2603022370868322
0.69806085069976831 -0.40412041848493629 0.65726746082466181
0.20232829876168612 0.92964230677541893 -0.26249563826486622
0.026965663557415809 0.56578855465401645 0.71725305551854035
-0.2274211324099209 0.28981710971286034 0.78389170673237718
0.19495588715949252 0.011524749468489692 0.76310182972595153
-0.39408834347868904 0.32339268064545035 0.59934047886668296
0.71519450258313277 -0.4752431573519651 0.68630214529854783
0.21925850400128472 -0.039028641299642786 0.81277487110565261
0.14402510114933226 0.53508928664715916 -0.55270007007936395
-0.32320435215398202 0.18074195426653805 0.80407397092780464
-0.79548864903487626 -0.41667831949949274 -0.35358722432342127
-0.5766685767370916 -0.71548798561372928 -0.33609311989179513
-0.44624711838046949 -0.65847604801038706 -0.28815760585371453
0.39254167591371436 0.81688595270922093 -0.32651011211325898
0.30739291103127186 0.50695082241281497 0.47448870151012557
-0.41083870044307069 -0.071946674696067969 0.79564456767062364
0.048112449213726372 0.71691709209409549 0.65629282883828211
-0.7743559688631938 0.12962831651078444 0.33014459517552219
0.12788605753425042 0.52806839216639823 0.67369476341438883
0.27072507490034914 -0.44488883718277528 0.4115562486332105
-0.57076481656521594 0.108438103004592 0.61290560071726219
-0.45882104440034199 -0.36305556494692448 0.67420111724209653
0.50461155881474262 1.0708553947153749 -0.41633322425910357
0.27674428986851751 0.48277553368691173 0.60820566585094582
-0.42885913968549261 -0.63570294738251398 -0.22753547207203484
0.38430901339757573 -0.15250283674910747 0.031601056784011261
0.27715945337548253 -0.085891333092881439 0.77501326997659969
0.26417173608337485 0.87544617633768596 -0.31733358147358715
0.027244652205784092 0.874781334929149 0.4946771791938338
-0.60311990202221466 -0.64033519864048571 -0.29574544357141597
-0.35782978252738129 0.43642157488966049 0.5972664716759617
-0.088074439968801599 0.24411465139302457 0.77522286502898297
0.15590399365258634 -0.041867468934587038 0.78911571318116813
0.30303403807118201 0.60379517883575762 0.33905234030981291
0.29793830237010888 1.2202579660191804 -0.41241448655489837
-0.34699700243170606 -0.27679867265120706 0.78330334398720325
0.29970713377617031 1.0013573839014427 -0.37204187489821017
-0.33747882424880804 -0.37987808563673386 0.66135299215863697
-0.48871944228766839 -0.19517874788744116 0.78559167943092689
-0.5217491271258865 -0.62328680973054773 0.006151065913933218
0.74710642143258976 -0.45475296246388597 0.67602207941139492
-0.20403240588402038 0.19164923669227818 0.77739003465364176
-0.71584006617496243 -0.4620142336442612 0.26313633050951207
-0.74837393004559671 -0.35697681170170015 0.64815915438537797
