# XYZ point cloud file
-0.64585536030842938 -0.712334248603543 -0.32631247873366354
-0.082851471627770679 0.35472125448233771 0.68704566727245897
0.19434257599450219 -0.17048830932562853 0.64961569420547594
0.2744762110307451 -0.24461173217383056 0.63496140257701172
0.45174872858526277 -0.1710621842747094 0.42085688237379804
-0.11378742566478879 0.29063094139911649 0.69546036715832071
-0.10568986546302414 0.44179718870573736 0.66382757016097826
-0.27106934974346475 0.024416582993828262 0.70342781219910433
0.62976469561883985 -0.37079277359394375 0.58888803958022962
-0.28580320441026158 0.050079368827511558 0.70505406382336666
0.26086720676445307 0.90228496806114034 -0.32498856698201173
-0.086768098862260057 -0.12697312773826933 0.68108287603772066
0.17925336827340033 0.57677537454458927 0.14413410355797429
-0.14348396698090615 -0.027280038281646685 0.69803867215554605
0.214878682402381 -0.18588772944920212 0.64404427726016256
-0.052256506289421523 0.070330571823997864 0.68993781653433073
-0.1706564745950109 -0.0076153670776769808 0.70515297169213165
0.67241538191382755 -0.37767667680343864 0.58891610864298549
-0.25442650941361905 -0.030289983938412486 0.69986498243288375
0.40157767030946701 -0.30160334776943126 0.60373332142488834
-0.00044542783172693903 0.61280141993161608 0.47594942173505778
0.10473003189854482 0.26576074168441999 0.62696453799204854
0.22680841373278532 0.58660202601298328 -0.0051661936866386621
-0.19786889844806815 0.097032836181068449 0.70556051230515493
0.52987925797823732 -0.26654367967415793 0.55326617603881068
-0.43024325937962327 -0.076446602605717048 0.68272061558489783
-0.64847574660279184 -0.57583599405040486 -0.24177135694671248
-0.055222140527345281 0.45300014796915544 0.63654175251825018
0.55369431838442762 -0.25783868345419686 0.56660715148378049
0.17797542319300838 0.8015779188238894 -0.17915716730184528
-0.18074392810916456 -0.015707890901579952 0.69755917734083017
-0.13847709300422972 0.25545293706089783 0.70226100733919472
-0.27053045338623177 0.049230857894826799 0.70626643238063214
-0.23983804174348783 0.032233217565226194 0.70635807924118366
-0.57542584835706712 -0.60874868832669926 -0.27576025578872171
0.32310322837810829 0.92135579202113327 -0.33545522047616866
-0.63481260852632215 -0.63157188961262545 -0.28586842019725128
0.61650696269970084 -0.35377212785788892 0.59456052569448636
0.6174789328146989 -0.3593373047156877 0.59444979455101898
-0.63369773837930887 -0.62274344086931976 -0.29713999409990288
-0.67556174896719812 -0.65433595262552247 -0.34414087434915885
0.29831649785801084 0.94006729135688027 -0.3729309589906934
0.20283560528950706 0.28078749817920134 0.54626406753324386
0.0558414032290716 0.66876736127846759 0.26501514842784835
0.4969293997204996 -0.1987561199532128 0.57553650335577367
-0.49328322884087844 -0.13442222967981307 0.6565971770932294
-0.051110657445353022 0.26397097891827664 0.69214068112589078
-0.67010328802645813 -0.68077694816690526 -0.32440914899040829
-0.35317476465679604 -0.025665418012047206 0.69912766330092979
-0.083472033596486708 0.38421796725518653 0.69225502257805749
-0.22492290861425035 0.039197310440209646 0.70720325419535091
0.339964126812278 0.17347960503510931 0.42215442271783421
0.59357533143941765 -0.34574550873502508 0.59858330945208493
0.30334184586063051 0.92152823768940273 -0.34070683621739717
0.0053996342740843181 0.49447685102547018 0.58443714681766368
0.59722882508100994 -0.34994675208271042 0.59617310386690714
0.48444653678500726 -0.29303845367280618 0.60016336345136601
0.22421529010773367 0.71455992279814862 -0.10937680012418154
-0.52855120505012665 -0.43936668409526253 0.051231817488309045
-0.6262450034378948 -0.59040147340936877 -0.23483903411931425
-0.080209466240547728 0.32982214209910948 0.68537600357266348
-0.047236166835786811 0.3931497142585233 0.67313740562608215
0.31575240049621423 0.94411139312300707 -0.34404082182600632
-0.34664755628555538 0.0069550347567189502 0.69620009647443237
-0.26891790096894863 0.13647827686402048 0.69971126127965055
-0.012266696506664815 0.11820425443377044 0.68318762984130033
-0.6400090686870481 -0.68440413538325828 -0.31534720017631263
-0.28338991499997868 0.058017708458174125 0.70569389488048206
-0.066476378784224729 0.32988152941670873 0.68909893968754432
-0.64817000210880971 -0.69914930864322633 -0.31890080177741703
-0.06036810661295447 0.19552885053283103 0.69108019004302856
0.66055180126144764 -0.37791988310631319 0.5916389031079482
-0.32722446630302249 0.0020093169909007197 0.70164478339155234
0.65076685084108843 -0.37470206822848029 0.59487081210514492
-0.30753345150917422 0.19438186587488937 0.66627390891603433
-0.070934714311218464 -0.032356220070497987 0.68648343436103088
-0.024117467507110357 0.090658828339760161 0.69337397634567455
-0.60495974862650148 -0.4788447715001441 -0.13383780417997621
-0.63087956949081936 -0.45476079404001646 -0.0083510750332961153
-0.17596080893796368 0.1542487837670807 0.70670273188652721
-0.29557560604782473 0.11140869688578962 0.69996384892827224
0.5523656477945621 -0.34141536898288732 0.59433389933045844
0.54380274725692679 -0.29264896324932838 0.52252225189105195
-0.63689318481077883 -0.67167378727870974 -0.30755412625579936
2.9629370164091853e-05 0.52376182777198266 0.54231613084949448
-0.23026785340434122 0.11767567836674499 0.70985192405631037
0.56445833992515526 -0.3187940812823149 0.59522789015505839
0.16133297256576409 0.055637216305017181 0.64817169458556867
0.27946680806298663 0.88280182822669095 -0.32772673575004097
0.40627579920804352 -0.23897325895849642 0.609530526106563
0.200358985838268 -0.17336068306885188 0.64860581055559108
0.29585819540415242 -0.2003699375929387 0.63176773275501963
-0.65331239631925231 -0.45930670882414515 -0.1996158180771937
-0.62727206906557764 -0.65260363921989917 -0.28657742826925897
-0.4234204537660694 -0.097386192870096644 0.65362603753828619
-0.0060690889948191162 0.79946874883659169 -0.32071134756648939
-0.15925332154224833 0.22410439367405788 0.70581903081349273
0.013709441267269307 0.11956257754935606 0.67724807302253442
-0.10527531210538128 -0.14686823842973773 0.66856314236411685
0.27586464896729368 0.90677973212023555 -0.32380056858150913
-0.63909141889005039 -0.68098840179794307 -0.30641346850732132
0.33676187668905355 0.15993203523244362 0.098323814298573065
0.17682455578526859 -0.11386696795976359 0.64162350502833054
-0.28670488743068562 0.030843298289752463 0.70400630707233036
-0.33866440847168511 -0.011427539519813748 0.7011819399924043
0.30895421965832059 -0.095069938600698678 0.62792311095721487
0.36112242322683019 -0.22814043435245718 0.60867037746914321
0.27933821920661428 0.9005771037675615 -0.33067800832942662
-0.18017412378857309 -0.014160049019181081 0.69615490060371499
-0.034655643112555576 -0.058832862054213883 0.67820683025265205
0.52786990567487613 -0.31359350804489983 0.60220825116730325
-0.19183929580856632 0.071238742077951472 0.70533445904142467
0.17662181667739893 0.80166527724299519 -0.14663823991335481
-0.63899713657110147 -0.71035231893325645 -0.31671910110015844
-0.37216639128102597 -0.046582317288893393 0.69803234593143015
-0.64412236752562613 -0.69859443426459622 -0.31502658254593707
-0.0069983973688854118 0.29719808667703596 0.66436763313058045
-0.23368924489684723 -0.053633923696720508 0.6968923081281756
-0.23788301936026701 0.047792734524136571 0.70516636734476112
0.049979319169288682 -0.14503360005200083 0.66066831093900846
-0.67573761390208897 -0.34641854801092331 -0.30247439500724366
-0.10271302220455654 0.31261447722499236 0.69127472064067841
-0.64253549352719397 -0.63359906477855499 -0.28758896688940616
-0.13548863546939063 -0.0462395262158386 0.69383759388898325
-0.64417506267964797 -0.68534281479153858 -0.3205066382613494
-0.22176256239893744 -0.4323134630710016 -0.31146795785457504
0.15655193950513979 -0.20718544964316044 0.63773820548527405
0.042101839518086895 0.17958365651148855 0.65333888094546155
0.2064985953074184 -0.16974764613732723 0.63209695380037545
-0.090314133531287907 0.24788956057671396 0.69599400936207378
-0.2782881422841561 0.067306162390512347 0.70545070472872984
-0.021880508127077994 0.084919728687745194 0.69231869495129583
-0.31371022991892467 -0.0051299274707146264 0.70085310123306988
-0.41352819824637987 -0.010112881725168055 0.68113531773661762
0.24255791315634578 0.38293186403664103 0.32486113759456986
-0.62030112225105027 -0.66672101353785929 -0.30643106163825584
0.013810066851683876 0.53146295227495077 0.52456124237864077
-0.14558482192283886 -0.12333071092962891 0.67281790038819655
-0.7700478496758717 -0.029407811015054436 -0.17731070077610528
-0.16791934306261533 0.16821941313434513 0.70748139698977053
-0.25362343072802312 -0.13344960028887204 0.68158198301845008
0.29425753765081986 0.91556083810448052 -0.33819245454458791
0.41769872951754788 -0.1827454027091093 0.19761559568363452
0.27787494556552289 0.87080388498731021 -0.32500021175578275
0.47451220308425457 -0.29051219224976133 0.60246046296658973
0.13450142019880715 -0.16242855018152907 0.65070044374679237
0.56698870326038087 -0.29420881637006391 0.55864195535582706
-0.13087297654589633 -0.032858964833207965 0.69283636045214803
0.5854593353131966 -0.30311567909885112 0.54679884566519588
0.31271660794347933 0.93311887582321174 -0.3631574938612176
-0.043216285480159045 0.10631205468155133 0.69292753248062855
0.30085156011978426 0.95934214532087303 -0.36181030335956121
0.019904774199592773 0.136992463147175 0.68139184900357275
-0.27359000951605578 0.052993232064729306 0.70625932306063921
0.23895141198554415 0.93450129632003187 -0.33729574628204145
-0.00011739650772282784 0.25705294178793764 0.67906678911631813
0.17394045830017663 -0.11771003303519252 0.64017455058201311
-0.019631684966324739 -0.045986883425967039 0.6748788723479624
0.20748054326229093 0.91526061197721176 -0.31601184550214823
-0.63714448873888752 -0.65966598408919797 -0.29632135086243711
0.056141433575356475 -0.14134220320803534 0.65936010285125446
0.66924332612919768 -0.38832279683857951 0.5980588753482774
0.22801252443586401 -0.19833070067754938 0.62676055326278801
-0.33934134407049538 0.003824487877150437 0.70008619977775066
-0.6534885672367452 -0.66665834612123021 -0.32738001768900721
0.08972052821141091 -0.13812270553527609 0.66231349129263828
-0.32304096236048152 0.016296888199994364 0.70194216172227342
-0.64352873370332242 -0.60551832637426684 -0.30867151007993704
0.28074282629321046 -0.18901130130387689 0.61703692054003245
-0.28853349845703197 0.038079042094126325 0.70738167909412186
-0.63418722649830805 -0.71994534817103095 -0.31596806059792998
0.28083339497870219 -0.20054340866384268 0.63471324357778536
-0.61544100411852287 -0.53683925442148861 -0.15265219278692901
0.2556821558512109 0.84779941281204274 -0.27804956524806251
0.20279595305574621 0.87107628772719714 -0.2509120055782198
0.27948154539334602 0.90210636300564473 -0.33107808860385118
0.44754560439818214 -0.25597658889905889 0.60702649511884643
-0.20555370891440244 0.09189670875772793 0.70522720066769728
0.02658746268589042 0.064511967998842193 0.67727871999840594
-0.066643564802116084 0.247307441077283 0.69274342165469116
0.26550856409024071 0.83628731865895301 -0.31655517581234616
-0.045682354430985263 0.36873068565074518 0.67844153310095068
-0.61452298881439937 -0.53405204617886348 -0.1400149535615999
-0.14494227666834969 -0.14464228987005059 0.67555536916640635
-0.2897291638499358 0.0031064469877842282 0.70517538568652482
0.40140025035457716 -0.25998628850862487 0.61542698520684991
-0.29528573079744813 -0.058075813455080769 0.69425875493455069
-0.32875443572228924 -0.023413107568871286 0.69631970606047111
-0.63499774245643315 -0.70209617518290057 -0.31900198421382536
-0.31999114528852418 -0.49326630926718723 -0.12308192208525433
-0.64507762829570203 -0.67948641024350798 -0.31857656986722893
0.4404553319894482 -0.2621374838317071 0.60348667524865507
-0.080873111398428649 0.24381622900471817 0.6877208307874596
0.14116253392545824 0.20446184209678031 -0.53144379560442723
0.050385264217370454 0.018701704793603904 0.67904462532700294
-0.19669029257551224 -0.026672269140938593 0.70075079599156209
-0.64967165769591217 -0.62479930664285777 -0.2748815198122227
-0.16288188962659103 0.0009853202884449741 0.70385466408598107
-0.19180299471294929 0.1703734783104372 0.70554508197633825
-0.30080912259805553 0.02661941211715238 0.70519959470814453
0.27139304256063779 -0.05179429643100586 0.63108714500416441
-0.32701582075943181 -0.050592798624560419 0.69653514795567262
-0.71911931799734696 -0.27711892377034042 -0.16073342807462562
-0.62386781181153417 -0.56510188703575459 -0.24124485150991395
-0.17470798622246059 0.15967500008462987 0.70583787283422872
-0.097000590589430807 0.11956254174664452 0.6976435012136889
0.18028966946291741 0.56542271180160919 0.13355486731548585
0.089722821228079688 0.538580777622641 0.49496274492377168
-0.36563999066233893 -0.032157902755341167 0.69680434917000744
-0.66251123636578724 -0.68261526459632293 -0.31701637729005377
-0.14486034898147276 0.29791715454270651 0.69466178347570207
-0.028391006183529299 0.19285287296698161 0.68941290122219656
-0.26329321425727997 -0.11246274593562505 0.69176327605317522
0.013436874597265829 -0.056923725199124156 0.67342703465294673
-0.25695520203086297 0.088017009305778368 0.70486985679207037
-0.045476781764220611 0.2594581838734511 0.68640535831341476
-0.65002665295693163 -0.6561969779385054 -0.3107668445175561
-0.030214011203669955 0.18945607864200309 0.68527217346906788
-0.27672537182107859 0.013935350223619858 0.70494739895153358
0.017255303666555699 0.034062293271357388 0.67637457995990791
-0.25252678883859137 0.11749363777812806 0.70266747141881458
-0.63287207617971231 -0.5198002231343023 -0.17584095856268239
0.088205720326673731 -0.015349981664136349 0.67331221655325635
-0.0065371045238231534 0.24376193905813945 0.68230715388757346
-0.64601278132676143 -0.56157091660193814 -0.26847694772472985
0.018040559280039212 0.096146736586077586 0.67594843978766894
0.51553342586493067 -0.24896840178242136 0.55851748936555257
0.18014264969572752 0.76818085594829899 -0.064799185935157724
-0.28609928524720862 -0.10970294222017449 0.6930476964131439
-0.080302031529606105 0.64141760290822181 -0.43882594426694677
-0.7356822431570601 -0.61345184487801074 -0.3612104509025782
0.26818044806828811 0.91733283803036347 -0.33518459433195313
0.012578476491276282 -0.040361072526944812 0.68626084174521296
-0.34010815556088914 -0.028666347891224589 0.68965958790991055
-0.10799822408348494 -0.02440206168571037 0.69263989314039143
-0.66755856312052364 -0.68251361311825365 -0.31985272276805193
0.56344762594447817 -0.34772806083798952 0.59340797035107418
-0.30492865031350325 0.0027178856265952928 0.70133072279725261
0.27511044896761278 -0.18639958371310852 0.63594087103828589
-0.30983024918134905 0.00068469353764318008 0.70226753844971024
-0.19432372849562876 0.12679740509202028 0.70586888935650183
-0.32222748464852052 -0.00055615506341896714 0.70212729259208262
0.28063712196889834 -0.15395766891171012 0.62565218366260511
0.20502413773799205 0.81163976104419699 -0.1922956042924206
0.13819761899363575 0.41402298570390234 0.53713468707604328
0.30673459400925401 0.14361377315667767 0.5330728883416731
-0.062751046561539112 0.39024288062618656 0.6810491683604919
-0.40156550197624724 -0.078298786931861417 0.68839022212983592
-0.31043673252456816 -0.013212541842185635 0.70428287735284156
-0.31918591448288069 0.01629124971900156 0.70261973349814644
0.035388162752990018 0.13288884408240709 0.68181268006762541
-0.62955130837899742 -0.72422130821089736 -0.31330046384583532
-0.054869720877020065 0.088496255204515775 0.69399859907988948
-0.10752700559557141 -0.1013797737373667 0.68561391884215384
0.1569513392483452 0.27805225694766084 0.49091769546292496
-0.14162028827473039 0.3064637438922071 0.68949111456318546
0.27789206194438282 0.91137482137584402 -0.33371209212910302
0.37475945180539161 0.14961583370504744 0.24616365728579684
-0.2185755437152099 -0.032156333237502208 0.69853951155150673
-0.053121792011761315 0.39681240646522065 0.66950989468732136
-0.15964873451219758 0.2768013658164975 0.69901513018022488
-0.20668442454209082 0.17286191486890626 0.70582628680426751
-0.62643449271277685 -0.65488519360681086 -0.28634445809314768
0.70822719920662836 -0.36754159345390103 0.52491036543188596
-0.5594249081404189 -0.55754301483787039 -0.35348653539002151
-0.50481010839182472 -0.084422657402726586 0.65376146727755979
-0.64927895129981483 -0.61254152230398862 -0.29480349307274256
-0.64024049531801652 -0.69937767681791918 -0.31856799990201407
-0.090944314227451195 0.29948135371251333 0.69000178290592629
-0.065330910566804248 0.078486022973506112 0.69115024970133165
-0.62886046830676035 -0.67919518549388558 -0.30491257534215133
0.31489568829399156 0.049405630303238787 0.40537695470031709
0.66695442504271085 -0.38300983809023514 0.59363097556971933
0.12994653595402145 0.75677067213513072 0.032341652304442622
-0.62014154769665786 -0.63346208141059879 -0.31710363408733655
0.56036460488714512 -0.32893339344279199 0.60377296806032266
0.21960606298467858 0.85302348267171357 -0.28350862604131288
-0.051958222127799165 0.35006381077209631 0.67983791054994946
-0.17614702359357412 0.14962294127219761 0.70745468907916231
0.090342057205438975 -0.072822494074332209 0.66315484478173914
-0.22169122868216601 0.14496429333578911 0.70640318232822119
0.46372220963033245 -0.27913677964359229 0.60111878937552954
0.015456562377029942 -0.056044149736355624 0.68000001399598875
0.10328110871105292 0.63132950704628943 -0.46357024534706742
-0.210199747813438 0.1178707429297372 0.70769702850709526
-0.63130755662858773 -0.53782017293912643 -0.21006996184321697
-0.63858097814152059 -0.66003042457051986 -0.30233110116674206
-0.62836631969606549 -0.60948324969522194 -0.25293405008544656
0.27542921210878119 0.8320978640279888 -0.30668791922886385
0.1758634908659466 0.37948412877339871 0.3754492363893035
-0.23655201852207897 0.035403732332863438 0.70249869214522387
-0.019494691821247512 0.50465030835389324 0.57955405585094566
-0.66534305183681364 0.062508562737620607 0.35700581986420588
-0.033280154554947206 0.32882115112695015 0.67997982880154939
0.29393243742446734 -0.21523162870795282 0.62058041347471016
-0.2788720634610527 0.075122894323791128 0.70534755048910047
-0.2740057160635585 -0.1307221120219389 0.6836581497534856
0.30986223645713951 0.90554557177515582 -0.33609771862398291
0.16079563678944797 0.34752798107731536 0.41927646311238048
-0.62302158836506605 -0.58328646814096563 -0.22288273606351422
0.38462740568730219 0.055976615188168467 0.31898372013210285
0.13259551052700047 -0.0028828148942958709 0.66408317729727473
0.26637373878243525 0.86342471028484469 -0.3101550655997341
-0.020723167984906782 0.65439873114463409 0.39211897252877953
-0.62828567815944103 -0.66095846958215942 -0.29053158112287847
-0.23841940308778073 0.22745405379063788 0.69598882720596655
-0.095496677093225901 0.10298716595293944 0.69956790761000276
0.0053914495864004555 -0.042071038054128013 0.67877550965502431
0.24947977638287466 0.4722767732865143 0.1033082723038273
0.26342029703325048 0.94686237652884353 -0.36651492272585956
-0.22425779701712742 -0.040958976785777285 0.69752779374025575
0.27715912256592451 0.88333063894238106 -0.32477052870798478
-0.15356717640667156 -0.13933340121967663 0.69041947879862764
-0.27334467671833024 -0.02356576388720915 0.70152626860056688
-0.61590719552446027 -0.54372298849676548 -0.17283951443476495
0.6699698608401683 -0.38385079232531838 0.59326967597724867
-0.18478283110359883 0.13282902971288249 0.70770783775023982
-0.63863082258959791 -0.4049900675429009 0.074748039334146144
-0.48063714464644447 -0.13152535120555198 0.66874514734076373
0.50280935576209007 -0.29354768640741863 0.59386458742636727
0.26272743674463683 0.24573654805965522 0.34067392928962897
0.046380277724523446 0.59513677760388672 0.42141663713458161
-0.27193016878804055 0.049997867823616871 0.70691143160959835
0.0091588443175796563 0.037677803759760264 0.684321935460796
-0.12020343294508666 0.32034252793795626 0.69249407379963046
-0.65537788907886296 -0.54741187238021793 -0.29080283109912852
-0.60742325536242603 -0.58493040126290374 -0.29623843110350845
-0.27256335286647365 0.049729983680151829 0.70631691997717749
-0.21710620028226582 0.14736994372776821 0.7075310367387635
-0.02368010226095971 0.51472908699064956 0.58581141106980816
-0.6422833473608125 -0.71118878065220981 -0.32198271697142045
-0.11795534897617645 0.27777544470948351 0.69518814671585394
-0.3137688567562093 0.030302813873892109 0.69492908576250934
-0.25338463069581446 -0.11856990137598016 0.68952367569818973
-0.64388087576077546 -0.67786954505156949 -0.30933562050437058
-0.48310769450216151 -0.57987789278176294 -0.22311256902349882
0.26654594038628576 0.90550336295140121 -0.32781581401602222
0.29195917783595549 0.57358457500134574 -0.02808218067040661
0.27733094984040318 0.86817966234171062 -0.31353405997861911
0.010870027209747321 -0.068474935024575884 0.67200331787043788
0.12001603579388057 -0.089398084283121557 0.65565700902547519
-0.21041547553146134 0.17504564277245316 0.70712414577079685
0.60837231309801776 -0.36418259536563341 0.59223586622726709
0.57474501897360708 -0.2960574126156244 0.54275584553577894
0.23546826431315387 -0.040554070621292869 0.62739570037124515
0.51284634892229286 -0.31451735095265937 0.59668797125641204
0.24873452230439885 0.75293150074220194 -0.14937368463893611
-0.62568838717962427 -0.57412167822269822 -0.23972964689812501
-0.21139240862270606 0.15988917720620133 0.7052195299200591
-0.072858946352296547 0.67371811184504482 0.40572649785191739
0.53034725495651991 -0.32606829073972116 0.603254528053495
-0.21133585560384277 0.10271602678441827 0.70700661153483801
-0.16774685739951345 0.19901028996313735 0.70481288070479364
-0.64992075338455924 -0.70649237833951817 -0.32500815198490196
-0.27531798259075163 0.04937925176074863 0.70798031560988306
0.3923714934514258 -0.13480955767639596 0.59188195476134497
-0.64708951907655321 -0.71011737009244136 -0.32514762154127863
-0.10159445324245706 0.10950060495070482 0.70174127261025232
-0.083693273872172277 0.18920739291804789 0.70141795399263274
0.10359641335775722 0.013996350605332599 0.64634310197365619
-0.63779833723193469 -0.71651719952652693 -0.3213637854437007
0.26970531930566954 0.90105475313905692 -0.32832575163724276
0.41208401771529607 -0.25932856543385907 0.60756719510045887
0.26031742766184635 -0.20149143706114164 0.64094855012255214
-0.079251922945891062 0.2544508476364355 0.68906621611841556
-0.62588955493580911 -0.57475515322638759 -0.24285932816591868
0.52663610089706747 -0.26803927779495201 0.58665780778288479
-0.15281768623070047 -0.14666676094139147 0.66213660697769883
-0.068049603571752035 0.40902231629036612 0.66283372180875155
0.040089825859092876 0.70474599698243146 0.18381896446216378
-0.082972577380068274 0.15739364523972671 0.70102962137949865
-0.18343040011020967 -0.11502068226095334 0.67571466473263608
-0.11102658404825011 -0.016068502473090517 0.6921409783750806
0.35274780878819545 -0.24050684353779112 0.62487080467176748
0.12377926955141688 -0.16629225719101282 0.65038393161235186
-0.65198526611886432 -0.66334154119946054 -0.32163063912405782
0.39179684942218818 -0.24107654950669608 0.61580815757666463
-0.64040580234835853 -0.6720383801645351 -0.30921894354350676
0.45642467186105695 -0.20929108831795876 0.59745631195019133
-0.11262263102802379 0.14669130139304989 0.70432883170062999
0.2517091522948528 0.71646112720922284 -0.21141890105020694
-0.17981854144641468 0.0025912456977916429 0.70080801765301359
0.31295903009953641 0.94693302878024643 -0.35707613082817724
0.24285908106420301 0.52092145633418374 0.030334403940215131
-0.095478534553921912 -0.092027714010558925 0.69346387305654589
0.56507604871695027 -0.29442360046879823 0.57870849026488425
-0.17471110373608345 0.1896084205185839 0.70366110697262529
0.24307331892990289 0.19404245810399071 0.43846895424418103
-0.16106734650617915 0.045477476807585931 0.70370575481138176
-0.1414989857782149 0.11987270109243431 0.70298738794204996
0.25747174378033888 -0.19641529511782707 0.6330545827525017
-0.066679334216122321 0.32732321372385342 0.68775859462386557
-0.31048216859850175 -0.014618878903089962 0.70048707806977373
-0.52775180693867396 -0.61653114900304706 -0.28965032819147096
-0.097807296537428132 0.12973591647928193 0.69809707432896806
0.16451257320684795 0.77634099055228512 -0.10599725914523889
0.22832622459072488 0.67391535390444401 -0.16611566836711039
-0.1656034473695496 -0.24952806320772461 0.54836662931540092
-0.19215900803124497 0.15606795721949818 0.70485817884235447
-0.13495913678829205 -0.0064720853952404851 0.69814288376417388
-0.65309232630480474 -0.69291944068093669 -0.32069780972143497
-0.61574444454388189 -0.62706642278629521 -0.25329349139708462
0.59923353897986309 -0.31110585808785801 0.55496776988432939
-0.45578828867603954 -0.11058700082105585 0.66926495269825659
-0.4062054130029662 -0.089866716055880591 0.69019490457358379
-0.084990786589519723 0.091802790876857429 0.70093452813768897
-0.5301141034099528 -0.19172212968025856 0.60584431312859821
-0.76964109118423352 -0.10900258705255148 0.025425555606497327
-0.24292313875991425 0.1068775893147369 0.70421080722056995
-0.18000453268377942 0.18412859320898511 0.70555617295406226
-0.29355109029951393 -0.016009589679740997 0.70093225682749816
0.3102195774236523 0.94642587543426127 -0.35433517705767531
-0.34790340896042826 -0.011636993303134016 0.6994525040603401
-0.12727536559677421 0.4820209889951767 0.63338379457336225
-0.069065691733718307 -0.0031104001753967034 0.69496536438547174
-0.62665823801388121 -0.66506576452477162 -0.29285638437452144
-0.65799778299986156 -0.68832143960268621 -0.32183431771740978
0.42958957778044154 -0.26385908029347055 0.60580356932127066
-0.061559638482393653 0.21856519589040097 0.6914805286681337
-0.3164332530244322 -0.0096885951354777691 0.70355289520106246
-0.043808078869525369 0.41231807043557384 0.6631862072646304
-0.62170353649546539 -0.6192477600716878 -0.26320247141757053
0.38459882266957868 -0.23384570847973934 0.60919590000480783
-0.63507105474016279 -0.20270075991326153 0.47514704534547381
-0.22957517484372972 0.044269721694884009 0.70671432994632744
0.025541697306365088 -0.077003817240890685 0.66948114251953306
0.45233609653199325 -0.20328646558244512 0.59852270802684582
-0.64077389401114027 -0.68374602549181718 -0.30704290566858383
-0.093182738755238942 0.20233068374621649 0.69859629498635134
-0.62990109790622251 -0.67570484891633542 -0.29990356767295845
0.48937905703491469 -0.29658877918920118 0.60611013475729736
-0.64714017993989537 -0.62857320592015897 -0.31048636083678371
-0.041292167261196028 0.46437862678577985 0.64863999195836786
0.29813095569440451 0.83116744869269521 -0.3238690096867412
-0.62925205916201565 -0.67151845732785787 -0.2966129493618434
-0.21879648174294708 0.24753384588406435 0.69666125192886119
-0.015645389235359991 0.46828052193138053 0.60085634819312883
-0.36780890960930335 0.42228513583760086 -0.5436267539878713
0.61458008401391806 -0.36524208184471063 0.5929692025249762
-0.19070376113746443 0.10981195207648953 0.70926624598024446
0.27996830609631762 0.81090874482048969 -0.3584858693544134
-0.086381580027997298 -0.050867817053575771 0.6881362610727404
-0.2993998034612298 -0.048311773345756467 0.69453392074634068
0.30667765682773007 0.95269350881136283 -0.34925561478385014
-0.63004528914289148 -0.6220145325319264 -0.2676466479655123
-0.35829315738672246 -0.1138054064777157 0.68597143841511177
-0.1167879726968227 0.17172623705230594 0.70412882347268679
-0.26112284925629253 -0.063658175584838092 0.69679040737921794
0.39183395244160785 -0.17112842693546565 0.6190301150322175
-0.28785893355517361 0.036663039051908278 0.70496628001150419
-0.044381483224273856 -0.040310350726044775 0.68445266595070764
-0.095817165587344072 0.233956950357952 0.6992253001632428
-0.097540904473246537 0.1552501400361147 0.69917095972958043
0.34150446564662401 0.086526364805841693 0.39439865555794607
0.025034651464958937 0.20882604494401483 0.67323134307384014
-0.04614233754136883 0.072054963828677751 0.6956259353996499
0.26428134129217168 0.88238636021940764 -0.31077801483646722
0.53698941744503759 -0.23809032634871397 0.57494711041740076
-0.066349794926806704 0.7540918983151611 -0.35858458538173943
0.26729455080062087 0.90390362492598242 -0.31090056242908592
-0.28710836721812588 0.031947031005572987 0.70646143408164286
0.26958522419697728 0.85454560479748332 -0.31066205741467501
0.018463057962374838 -0.16171147617959761 0.65279622961273287
0.023984124595227654 0.031968101044285435 0.67786063996571055
-0.061193809261125602 0.28648982944100332 0.68774297085287295
-0.060704870891076207 -0.07903634408452001 0.69332074861093784
-0.23643499573444302 -0.14375098055291971 0.68906251833248933
-0.65980853152086794 -0.655783203995849 -0.30003237795442778
0.39645317353500964 -0.20184599268496481 0.60822648310924321
0.15404490509509075 0.78553745766796645 -0.11312647847039858
0.2441442531833273 0.71858231579868215 -0.36370058329365662
-0.63645376290145039 -0.69337726438769454 -0.31633029642952393
-0.24785848065303617 0.022094677161673293 0.70276892084276588
-0.655904468850389 -0.46081260077306274 -0.14946081503599662
0.019951923743587285 0.75278223448772641 0.08220839090033738
0.012277785767935145 0.7132535955226984 0.18095308976720342
0.069011327634671646 0.51058526879363164 0.53929877178367458
-0.22814290253200969 0.07890394342463003 0.70742063422971446
-0.11315366353020728 0.097817798077435097 0.70385811711558999
-0.18361149303348775 0.19932977530501372 0.70606438833534524
0.52333394321288607 -0.24285947590303292 0.57508493722671539
-0.35664355822522043 -0.5387669385418683 -0.28559227572001128
-0.17075138946690935 0.0023732563907345253 0.70331345856777749
0.28449582296329401 0.93362561017483769 -0.35312075108078567
-0.023206359385952488 -0.041871952801304721 0.68447982037822319
-0.63964458425444604 -0.69169310695656527 -0.31696983069460205
-0.056366980461446836 0.11107027487834331 0.69582445022746231
-0.29435795298824968 0.0043057148809435425 0.70462214255670963
-0.20759362482215551 -0.031877341305114604 0.6997176359919296
-0.042610792996586294 0.094942713416071828 0.69591720315310712
0.29774939239230191 0.78378676216041354 -0.35415257356740593
0.25664570948244531 0.8553894450207925 -0.30800676943373334
-0.40137001933840405 -0.062359250965585922 0.69159073294954654
0.020574085845599804 -0.042679564906166402 0.68241716452750323
0.4622251255774808 -0.11781695072353041 0.47426434639911708
-0.081199384961358312 0.30749786623966302 0.686875423961533
0.21145714332247167 -0.12830128071411109 0.64696381154877514
0.1848729869655194 0.72114797847654033 -0.01089378397259641
0.64437166546985136 -0.37064512499129382 0.59031583112484487
-0.32554407459659956 -0.081480101927646181 0.68417513871746183
0.20390548553990012 0.84806234947246117 -0.21498208205305419
-0.62966429407248103 -0.57115996236324462 -0.21206614649624661
-0.10891180723471806 -0.020158095978472061 0.68927136744577666
-0.63897405590101053 -0.69452534862323656 -0.31054765886020674
-0.31785766722738418 0.021337907617968443 0.70238622794565331
-0.64453511724017187 -0.68682750541311022 -0.31752902294568575
0.49427612868836385 -0.28433684694505656 0.59309133986821694
-0.071860011044818456 -0.010706593506485902 0.69326617332376084
0.00020478053174848021 0.26384343815211658 0.67287151422432945
-0.65214678753015498 -0.67971102397614902 -0.31918614235880949
-0.35696135064102891 -0.0072902848337476345 0.6974558968778839
0.27180829305094445 0.92298766689928291 -0.38518167142951731
0.062397416154345312 -0.13600464071840712 0.66173697739244963
-0.11270528014463357 0.084741781886782899 0.70026864602659622
-0.61693609180946063 -0.52128853187965341 -0.11995779698531864
0.1066753163855938 -0.19195624341527498 0.6046528765049114
0.094418054928547823 -0.2372552445301509 0.57916540785099746
-0.1442021633144511 0.22475940718153037 0.70415264681672529
-0.63257204637776376 -0.67183691633444031 -0.29972692703793652
-0.062646788029801143 -0.0071983732870847944 0.69392157832409962
0.66551161407259307 -0.33459277488349926 0.56212783808038524
-0.23047617751885568 0.13557685200760511 0.70623342221778074
0.024629296638998634 -0.16787827745480274 0.6574218370951056
-0.19055335809480092 0.57252896700470013 -0.45125391990899733
0.44934060107662538 -0.21075096255814119 0.60083440763951845
-0.16503377967787772 -0.0060652386966294144 0.69726673357209656
-0.13018301945146565 0.30965305271399657 0.69549397185598627
-0.64262610210807147 -0.71709605390244857 -0.32585636370431065
-0.22484561034582728 0.054563119319076175 0.71024677807822589
0.32980195355471581 0.18818604282226428 0.17773607990408138
0.050327677059890795 -0.12424196340839032 0.67045217696245718
-0.0848506006238752 0.095441255460714511 0.69570378141148626
-0.084932407454333558 0.68895895898280801 -0.38921058980887402
-0.19965973693752506 0.16382140356212788 0.70552905158778656
-0.53365593246582388 0.32723271976869145 -0.51365099870777708
-0.0096580016804774411 -0.1729965298657816 0.65748403605663375
-0.031497735618920178 0.085455113538093583 0.69345456552159435
-0.14667227378231659 0.30928061809056362 0.67599360994422342
0.21752448318484788 0.84908000128161032 -0.27563539271826487
-0.41130364151678023 -0.076470926496080158 0.68717878425080936
-0.13975941565133509 0.24513400576748148 0.70321247096071937
-0.69365441757570001 -0.67958229996219743 -0.3312508580034258
0.31013362126246469 0.95234569945021363 -0.36086454488402503
0.0088247420145423916 0.045174437033107015 0.68240843835573595
-0.083736545434254267 0.092902140764972149 0.69876395428713667
-0.12019397387234272 -0.12756113744067932 0.67183477039538175
-0.23170289123839294 0.12954852432725883 0.70804916622550684
-0.62780835871955387 -0.6377155208374562 -0.281121217088172
-0.11644569031357171 0.36251920073652333 0.68570800633283746
-0.24381016083430318 -0.16117643387535877 0.68228770130529492
0.2773630570019362 0.68805617161715404 -0.36052671105021239
0.53553974406967431 -0.22724863300890186 0.58032861069741548
-0.084858372615379499 0.25490988663567449 0.69317429275729014
-0.2303909285620605 0.043026425929377762 0.70518937263917225
-0.12673513643147982 -0.0099578877476516753 0.69520489906644589
-0.697170041060451 -0.61694246814173481 -0.35628707842471746
-0.63686667712422051 -0.67194011664571784 -0.30046205669665804
-0.20634323096763035 -0.022895726015761085 0.7006866452099908
0.32033595021425942 0.85759902883050032 -0.37047181690841208
0.36671469358203002 -0.24649212523502875 0.61836690291646046
0.48108056485481226 -0.28693608845500529 0.60206283220426138
0.02860488947190748 0.69189754372091961 0.21704251378439648
-0.30020626115420601 0.033561400669937791 0.70457130304798843
0.59193570401958895 -0.35258119340593436 0.59491606953541154
0.38065766632412312 -0.27729485315768188 0.60736705677762315
-0.6416080776297215 -0.71895623787724028 -0.3271990280992918
-0.32794424156137525 0.013129348328007273 0.70013907057684321
-0.44644222621804358 0.16557344067843641 -0.57278206511941765
0.68539830478404862 -0.39377354391831693 0.59342143557489591
-0.10914194002267469 -0.029725933100911442 0.69433222497980596
-0.013965752137975157 0.087817152357499192 0.69142327274653115
0.20062752319137103 0.82074390074220505 -0.20023339422592126
0.68128996796840302 -0.39445002515185495 0.59606031037122786
0.27793495980836153 0.017070345182720367 0.56295124793719353
0.20345405910969708 -0.17696299977954139 0.63556832452458123
0.15854701623815243 -0.10698030755083748 0.65391253634661084
-0.24099041975654428 -0.15140755464092728 0.6666724542691963
-0.2373422134548282 0.078858081794232149 0.70898586781252138
0.22652718499876051 0.91825479001947208 -0.31715008358476082
-0.069733868044927774 0.42402693579488493 0.66099750639990718
-0.62371178735674671 -0.55659889482074598 -0.20440800417052296
-0.33510791630877557 -0.009458900416579305 0.70246721719376393
-0.22066094825689336 0.05830429796107664 0.70406460706742247
0.46626011717940047 -0.29294563303787557 0.60781147462938501
0.45217934071775878 -0.30720023046838552 0.60074087459433212
-0.61878425837583073 -0.55866372838149991 -0.3242649319476737
0.17030572644088854 0.13088458789917418 0.63494112489974264
-0.61778814529478765 0.36464576583072494 -0.47645401507207941
0.27740269843827786 0.85959881436919328 -0.32917291920231773
0.30472523547224728 0.92352094420668029 -0.34153254840453529
0.47442784501701307 -0.28749299591328076 0.60039057811145458
-0.032035159951503356 0.44262079100315305 0.63710117313822423
0.50238459049210593 -0.29505439071775164 0.59881067860144221
0.68046023123081412 -0.40044625354912755 0.59229980596773646
-0.26322536946413472 -0.1081312066167518 0.69576368755045881
0.16932012425834123 0.167713735847281 0.57370071918994481
-0.068618612329479578 0.17845216791282753 0.67583138910919349
0.28371648239708053 0.85540437448895834 -0.38712954626849888
0.21181168704451414 0.65821834872546314 0.040327504935241787
-0.046712568035469075 -0.054820620413291721 0.67907039922679291
-0.32582189674271711 -0.029224111032547642 0.69804287964449263
-0.23017354356370048 0.0064774585737782941 0.70398544864767265
-0.091453305892890885 0.47779567499285813 0.62694563657912405
-0.10471872366177573 0.28968415852923124 0.69073173188792525
0.26099390983323384 -0.19575446750274403 0.62285517479195951
-0.27464486257588039 0.0071665426891632036 0.70602971552735383
0.26443565609226055 0.85303702064027653 -0.31163717252830125
-0.62619711886599327 -0.57660082607396013 -0.2491736650947286
-0.05501804628367167 -0.044617554130695056 0.6859317843917716
-0.18555442523082208 0.16056723870125653 0.68491722143128575
-0.084035530016417087 -0.0014292840947387059 0.69374074573160027
-0.089609799086315098 0.15228500502773923 0.70169478162465959
-0.28132397169673873 0.060821132118944785 0.70614273547391704
0.0029154061328571929 -0.049230260254207542 0.68311851518068623
-0.15104227204171172 -0.034310166555579405 0.69112234396207428
-0.25993024014129085 0.35903004883168876 -0.60091799447391103
0.085483625942087429 -0.14679822246719598 0.65803098431797269
0.24980828779513348 0.32741839944585699 0.27693493771603594
0.29761615921147477 -0.21667375939088321 0.63145779959741366
-0.6228854283283487 -0.67005249334499639 -0.29361930332741054
-0.64494704371631739 -0.70924167223971124 -0.32408134065743682
-0.077156139423267586 0.37185493146598286 0.67935955838400286
-0.26197583650805439 0.09500744938181635 0.70562312049729214
0.031092347042210727 0.75771787773656329 0.075953009455335452
0.23853561952958716 0.69869509322299828 -0.15687599036640104
-0.17290068331857045 0.17872552025866184 0.70472361535582306
-0.042312703967595275 0.19997774791261735 0.68972852944829666
0.40517790752385896 0.4118018456408018 -0.23873312427489743
0.054121240524666769 0.70278959082976922 0.28384385526983635
0.2147188565795351 -0.17722989474749198 0.63353871586813304
-0.15039613417404363 -0.0075376717123841405 0.69558297379478029
-0.089947889818784627 0.09708496497134117 0.69791805841423504
-0.192169352995812 0.18037082431928803 0.70576826074380805
-0.29182364315820197 0.15219043302151497 0.69290213355626418
-0.015983190729277244 0.14742292571272697 0.68669245359860309
-0.62667767022390952 -0.59000097363422088 -0.26087067835207617
-0.29886891136536464 0.01112392430746327 0.70147685374865809
-0.0465289924539255 0.3483974796973146 0.67969876714060473
-0.33943231797253948 0.044361433594846428 0.67793719906405459
-0.63689577029569877 -0.71261617022162815 -0.32147650792350946
-0.018832953214795983 0.54997733152966322 0.53476293133112296
0.36770839033661157 -0.22382094493327306 0.60568262217211022
0.43677389556141921 -0.27153425410641713 0.6111511597627185
-0.22574318516167016 0.070546931954654474 0.70609310225643329
-0.02284110626236803 0.051468035877977519 0.68281841696156276
-0.74889763015814415 -0.20277074675980911 -0.076576280339590824
0.050448278605430677 0.12630442225611524 0.67880878063863559
-0.015176867258993337 0.73341434995365873 0.22021797019223657
0.41979539322741943 -0.18695192591461865 0.61014965949268751
-0.63786373426551146 -0.68298639553918572 -0.31163289507447195
-0.2519914931205286 0.02152944485162557 0.70593542448570124
0.63580784052369188 -0.36810331376297128 0.59274338838699636
0.54868977259977503 -0.32645298908005604 0.60402099240916607
0.26503989113096771 0.91488871923619064 -0.33194685052187839
0.28040879446919764 0.85721648480866131 -0.30067637729848423
0.11093658741071444 -0.163904655000738 0.64144797150924993
-0.62813306711501848 -0.66985203682912553 -0.29374921913451491
-0.022525496232307346 0.25416611656184024 0.6806794488672866
-0.11603742683640655 -0.017971196558954336 0.69445961923665467
-0.28866399900740797 0.033294636378680784 0.70464948598065402
-0.049739730843398139 0.30048704574092477 0.68194164390888479
-0.13175511250156915 0.44466839700622907 0.64159920888050681
-0.63383601592850869 0.38652645601994595 -0.42189814735887798
-0.075908027314282506 0.25761131737049253 0.68466333576398619
0.16322631620273695 0.37019883630733702 0.39697481157261238
0.26971564448417984 0.81272001323076559 -0.28884345616674273
0.26480169786964858 0.86864306333668839 -0.32024147721592655
0.64803175404177205 -0.33859982907352831 0.53161310935585016
0.15250138493722704 -0.1011673439160006 0.64745246451146687
-0.62987907866635817 -0.66748640930835546 -0.29628363110752604
0.17941077075842266 0.28124275153357653 0.4602651280959259
0.24175116195004154 0.042611417400664708 0.57689742878125982
0.18923881166811812 0.12530801804693975 0.57904306592107724
0.49475852623578537 -0.29313911424360545 0.60048505077165326
-0.17872108685610405 0.21235264501288098 0.70596427674355056
-0.074263769729194282 0.088446730448642152 0.6990978381733588
0.32720293876489615 0.48794787534226869 -0.19989927577270378
0.0097901219881014884 0.22916284257549108 0.67917959195741406
-0.22060843985308023 0.12222569282485143 0.70834691778896675
0.13419748169891257 -0.15963942494667416 0.6519280675395156
-0.12921397358593129 0.19312372407117329 0.70279241993649988
-0.38111408955312576 0.025625954978720125 0.69272341536999149
-0.062833823969521418 0.62133425292305255 0.43176268786370037
0.55105018764631375 -0.3036657224873664 0.52951449561051556
-0.25871049690626108 0.16622932882076899 0.70028612980990368
-0.00758550533169371 0.52909498926568233 0.55386282830474975
-0.25415332115831035 0.0705297660485599 0.70999086826907476
-0.029935349865627681 0.427090338301858 0.64120966130748902
-0.20211437521299983 0.14313524249360166 0.70672896636539939
-0.20752251110351902 0.071988332931984089 0.70624860897215158
-0.13930026947817242 0.17299795776120716 0.70254039525280598
0.20452609817735407 0.66020681860472119 -0.020875311806893233
0.32201657927029742 -0.23804500089405478 0.62386436029289882
0.39382329203923955 -0.25533694700307252 0.61896483317473661
0.32005040291565717 -0.20441129271569242 0.6274616793591391
0.53176040197727725 -0.15705757412037058 0.44539790369341747
-0.63499945030129401 -0.67062393768575557 -0.30080573231763924
-0.024138425052026471 0.43493374977881322 0.62401734276578003
-0.63049022767420471 -0.67621208574690239 -0.30100428123959883
-0.12179164446201783 0.29225189649672034 0.69579032185304091
0.50451035017378065 -0.25705582383304004 0.59307677380005419
-0.023045760238279173 0.34350280770711605 0.67554444001329905
0.65428834759856913 -0.33275409362767816 0.53901120816994275
0.26139718896409764 0.90657032434468743 -0.32514490475990376
-0.65076751476970207 -0.69239912192729247 -0.32714075544408727
-0.13052594224021619 0.26501890875807821 0.70029240067894283
-0.28961747488160511 -0.10228805066581206 0.68636079617740076
-0.27334641002864418 -0.11806120224403734 0.68785222778180055
0.24405906040844527 -0.21736561626753351 0.62343834544191523
-0.0074724110954462186 0.11252765335354283 0.68768337314858519
-0.10479161097741491 0.20001485350532272 0.70390353175851772
-0.62407628639493062 -0.67681274354993548 -0.30778190993651044
-0.054794973992829468 0.5220306096441566 0.59805983690089137
0.30105668193228047 0.69637917285809214 -0.24301982090380925
-0.28939887947438792 -0.0907895964750631 0.68990984672656674
-0.12128039572599023 0.24086611041155143 0.7014804944097579
-0.19709750358071429 0.10068041185376292 0.70776183623922007
-0.63249665060046867 -0.65093786362013051 -0.28505571490156112
-0.44615063502364832 -0.56759384907315624 -0.32382706559230712
-0.023288719856389962 -0.14204963269578949 0.66689230902669927
-0.179534444957588 0.15485492325602926 0.70445653229177441
0.15526612130903994 -0.12917727704034335 0.65661874148439814
-0.065369181690049058 -0.037692421890510808 0.68565783310615991
-0.081156892792449337 -0.040575053161668678 0.69042793635533395
-0.64814519384583624 -0.70637241505510617 -0.32004538554284323
0.41009142706263096 -0.25261298287910827 0.61302164690259575
0.034704489159717647 -0.06160341528466582 0.67221192294981491
-0.063567025573235569 0.36996871976408718 0.67820923570919667
-0.64179551281591718 -0.48110389185395913 -0.12828811346354083
0.36452814969283981 -0.22658380802224778 0.61188353417955932
-0.28518514936314232 -0.28773969607937638 0.52358725960641395
0.48743952701200183 -0.22412998367345938 0.59105768186281071
-0.52109850844084082 -0.11460338417622236 0.63532607925790685
-0.62691066592567557 -0.66182770671947222 -0.28997949394045203
-0.63591326574177509 -0.6954148999111337 -0.31756754629944217
-0.57427953742337201 -0.25561272027556076 0.51309087486318217
-0.14555912785871822 0.23059760814936839 0.70377592596833405
-0.63931197025750164 -0.67300140249335538 -0.30417570620538514
0.18990987308356663 0.82291052461423875 -0.20686981644631861
-0.1248791211882844 0.13520825850191182 0.70397743584337913
-0.15512574965644579 0.33492812718941944 0.6880196862417689
-0.17688603286743365 -0.017101175593340921 0.69459560728837499
-0.07931174777100905 0.26242129741466513 0.69101242196504598
0.028156124832247421 -0.065550019530390524 0.67070399644054635
-0.23736598539948689 -0.039661930582301712 0.69437566086273839
-0.21173002820832207 0.063346854106183986 0.70540837941502499
0.0074627388137114489 -0.070727254094923322 0.67121540284742942
-0.029706620899763093 0.51449606306936679 0.58795311781195803
-0.024041564213265799 0.46302615402120118 0.61852114797279989
-0.66104380390734707 -0.67060548952512833 -0.32570791663563925
-0.63062454845825122 -0.66984246080325249 -0.29790736823363778
-0.50812195914518743 -0.089962420993153713 0.64045357210149978
-0.53621410436171901 -0.18181120124424111 0.62312007144181869
-0.0857567298686229 0.090859268949821784 0.70183491994327463
-0.069001206506442911 0.61207968581829153 0.46173725121026071
-0.12267376160478716 0.38892513088271508 0.68173618432126615
0.32912142252405857 0.84911590349220611 -0.35357880308748302
0.55227485263984333 -0.31947793487945497 0.6022232311779413
-0.71014064937603938 -0.65496741829153993 -0.33962667243196876
-0.17923192870873139 0.14540440638326524 0.70671724161842553
-0.21760170015027069 0.062880101860446069 0.70697901858553069
-0.025758420404710311 -0.055383907057800399 0.68165146934579002
0.38850570601451156 -0.22644644585837739 0.61376686366004385
0.37409510341971169 -0.23913189899516102 0.6242670171360214
0.26679989634749707 0.9238111333937945 -0.33813716854896558
-0.65015460771255618 -0.70550086338306051 -0.32441353712833632
-0.17973545439117813 0.1823337662873889 0.69390866946892715
-0.64291370570107698 -0.68242183683110103 -0.31185275613780794
0.0731440639791857 0.54040137976276492 0.44636607181332
-0.076721012777994618 0.19801203189921404 0.69649969073544749
-0.33135771742853881 0.075631098913407635 0.69675422835014911
-0.74102053931054201 -0.1776397234455824 0.1181315661599604
0.51559660508069116 -0.30430737451936246 0.60479062474780854
0.65595787326649591 -0.33506849269250383 0.56076551686382281
0.27678811980664736 0.93609651032797281 -0.33818462493902357
-0.16523899283481869 0.096515036550692185 0.70361386529637437
-0.12051070349016674 -0.058048037648096615 0.6937632663966159
-0.037756304285812697 -0.058941246596785672 0.68063009083721149
