# XYZ point cloud file
-0.34442117319579513 -0.24245020001504836 0.79933664222606549
-0.419003676913559 -0.27275608204496393 0.77744628785911063
-0.32300260248729185 -0.027586051265254596 0.76523543425461948
-0.19716885349463986 0.38769577247785136 0.77165852010139702
0.65118272082575324 -0.48601308163274748 0.68650045215571931
0.056739088624915723 0.56075212302606581 0.70941671000636575
-0.65462404640156358 -0.61836516385087315 -0.24554422241795626
-0.23252389798065565 -0.14573191660426943 0.76925969346667866
-0.52530547477114142 -0.62749706368552349 -0.31400473308106314
-0.54493216450876081 -0.59660789542202686 -0.13040395200435562
0.087342756182105852 0.31014386020323403 0.73614345782182955
-0.54142622046360067 -0.080235534410180609 0.7629046694698367
-0.7474582226963733 -0.96139587393480008 -0.43944867865120507
-0.60771884997028947 -0.58539946455240399 0.0974626740598111
0.40921498276406743 -0.037732335193526811 0.52382863116867684
-0.23734111154679161 -0.28249636741558215 0.72738093235253098
-0.92828111101948885 -0.6903186607940297 -0.34154986193089343
-0.064074272566738699 0.23487804647713073 0.7580004863118841
0.8037612385825248 -0.33217594132302442 0.6908255358233395
-0.60632324313170827 -0.63446102681015559 -0.26948001046667747
-0.46095916183268848 -0.74977867592396974 -0.31978320515477954
-0.72788890969633391 -0.52800815399015022 -0.30006478505199485
-0.36322992973359935 -0.44037286753632976 0.64730154561883513
-0.65181532401561171 0.063364991328486442 0.67614406259026794
-0.13756395993478954 0.57706480876108834 0.73181565321850428
0.13835136269399717 1.1469950297878091 -0.40682760338072033
0.13756662346908666 0.33573209069911769 0.70932193114201159
-0.52879255312669926 -0.062894940373874358 0.75474726639644807
-0.23568545393273954 0.22338547736160574 0.78508691741553971
-0.1422613379313642 0.55579899520450771 0.74363777904448325
-0.71566240641832124 -0.19510690230502625 0.51903166587348615
-0.19448330993577878 0.29822374942350294 0.77602075884566712
-0.21551088252596706 0.45974538714570201 0.76056958708602451
-0.20992892017422449 0.45257295662575103 0.76449910840998569
-0.51508170103239292 -0.048290597700281435 0.77054350684171702
0.3999019046049167 1.1752888377615895 -0.51786649368872839
-0.022850468956138847 0.24014330191135569 0.76220740939626097
-0.35205334711105074 -0.2790414149901097 0.7817601320757035
-0.79125991841352139 -0.75590942934454475 -0.403466862357309
0.031899962502642598 0.37802084705563632 0.81009383642032873
0.058065453452391447 0.71907321095884091 0.65843410836395044
0.37960353646917611 1.2012546132405582 -0.44343653100868075
0.60592966986928687 -0.39586179513697672 0.71962595447846223
0.67280742132279947 -0.27115241195878004 0.72875682158298005
-0.093176037481085938 0.26344232772403409 0.76207575232068336
-0.07953415437438352 -0.45611038982804519 -0.2649363606438554
-0.1670055730479536 -0.28055819437172425 0.66330006841329947
0.24676917686780975 -0.43205366248436761 0.44555888192382742
-0.48302185489913496 -0.19287157490196272 0.78873275369098106
0.67082193944749657 -0.21124514157736485 0.37837907394729164
0.69683155131477337 -0.48858582783143634 0.69130308380320638
-0.1526298013917291 0.39379266438843175 0.79461690159357801
0.33499812353817537 0.18620799506389002 -0.37548555818157059
0.79302188693330411 -0.31814713616706003 0.69564256153179826
-0.13944584748872635 0.27580979394357286 0.75380773338467932
0.6859207253767714 -0.58174067841727395 0.66227039531248977
-0.83287733821284982 -0.17052322585715718 -0.466086257571527
0.29321856630288845 -0.30925109302485637 0.13181275456083558
0.71181781740696271 -0.4921079858232833 0.6896143752729964
-0.088967954972627439 0.48883908700713086 0.79820293617757976
-0.45805305260935292 -0.69271358812822292 -0.308069397169624
-0.18954474832783275 0.38316142164529055 0.75627025912648094
0.22662387178479548 -0.0091639178250932929 0.79662327307236724
0.46606971323282576 0.84375361565243323 -0.33961744113517189
-0.70665466566722124 -0.65282975098546725 -0.27847709921428621
-0.53842792211700274 -0.25758237254425875 0.71028266745444846
0.16631319195555871 -0.031820412275745946 0.78839079060011308
-0.13284162967725877 -0.087096476313307747 0.74434879758039951
-0.72532828490754397 -1.0003205514216338 -0.4195625214814287
0.2674059144785863 0.78258287318238473 -0.25307468087998597
0.56532754771351534 -0.66758634790503635 0.50873757522795482
0.20817378111245888 -0.023345024028121664 0.80725824260327972
0.62480686226070625 -0.72026241904607069 0.52817152537272793
0.075646281197065846 0.84840189036870595 0.26795565505717289
-0.33682378351053277 -0.44791983437377569 0.61261563269696495
-0.4376715860672471 -0.27785472016520174 0.77041125542653943
-0.32372672719229456 -0.15127713577043655 0.81807064423259424
-0.53093692638532053 -0.35231063798501583 0.67713861432284173
0.1206439084539106 0.42320339019853392 0.71447218945613322
0.56337037393377476 0.80062208515358446 -0.35632869509211307
0.87759475570063172 -0.1281763172381698 0.49025677026227243
-0.34689461175732683 0.10580537918771071 0.78545367655149612
-0.36335471816150822 0.01118421257035962 0.72858294434809823
-0.6984790023656261 -0.35960725788039971 0.69689991400035312
-0.49399015512838584 -0.82502047448601168 -0.28684356452673576
0.13896039294441298 0.82454188102402615 0.35890339349374778
-0.029161003858543921 0.53845811648784547 0.76083143100521866
-0.47917943891897785 0.49471127782826763 0.75818410736126296
0.91739714836327235 -0.16714639719656588 0.46049562084494822
0.14706553109691001 -0.077025608768291676 0.78803693216291393
-0.29375932262585924 -0.29087125668984237 0.7405308676380542
-0.2383769322617848 -0.022838861383305264 0.7460206616932441
0.45662508145118519 0.73213031646786519 -0.35931772552734298
-0.15705208382556934 0.27832443623080572 0.75904696448061415
0.10836926084061238 -0.1590511316798322 0.80840486281033286
0.30304104095499618 0.78022475174814687 -0.30105978005136369
-0.30709351628197668 -0.31594954058067926 0.72139501592281707
0.14131533671920615 0.4226067710149648 0.70533285579479799
0.39516448899538631 0.082917551475591322 0.21345382417417436
0.47144662594936548 1.252387761478456 -0.49651518502212344
-0.53351299559412424 -0.36078622396566418 0.67723814290720363
-0.24480999300669204 -0.027670910246428093 0.74679899112456549
0.88529587952232858 -0.16243654267100738 0.43728343289577287
-0.49507825997813593 -0.22352337300932135 0.77151265799406543
-0.0074288321153908043 0.24492746824482881 0.76017063471544333
-0.3690728914143655 0.28348795880850908 0.73625775614946321
0.13985341089268477 -0.20786859561503057 0.79800580956805334
-0.40011250562024148 -0.3649393408596282 0.6868120335880743
-0.59616301811807304 0.17881734388376458 0.72369746024938308
0.13355967359020582 0.87171255341449694 -0.34715575038850666
-0.91566244290171817 -0.67815105283585186 -0.34346213328481534
-0.28543986504605989 0.66034023549869492 0.76574775294638897
-0.43233853495527175 -0.2757507605362548 0.76659961780536956
0.59480369180422699 -0.44051142242143548 0.36402317135427231
-0.17475706397669821 0.58100149151186642 0.68928732178316565
0.4368347227467293 0.61949719413393201 -0.29947111190045023
-0.71891933518598705 -0.66314635395626809 -0.29290704369154374
0.21639131436434411 -0.1898414125011918 0.77869663413305013
0.51756519306271542 0.0095473926013731614 0.57008850844107961
-0.49337822773502926 -0.23941293140320674 0.75156366663588448
-0.038047696395621 0.71877603246018307 0.68924350144735946
0.29952639689430427 0.53855933103876374 0.51339408592717461
0.13227918980452014 -0.13018389670192398 0.81139661580183819
0.37432168597883475 0.17669639537528248 -0.031321349360078354
0.64425995614258191 -0.028517618543320467 0.60672011045728347
0.69968384861994792 -0.037806700905591129 0.60847002659726446
0.74304750135122077 -0.32675056712283279 0.69512677129923961
0.39000584655241877 1.1160240678188238 -0.5040342870407164
0.53930086771205776 0.81771976372188093 -0.26888129466616206
-0.34455770789549778 -0.46144788378441948 0.63481382846059908
0.45006378344832376 1.1745203898041336 -0.4221592141110263
0.73892058054985243 -0.41539690723957357 0.650344773435787
-0.54771662109635155 0.18183081585059924 0.7540673655454464
-0.34268479934619478 0.44572854136274032 0.8058864035536395
-0.48796725208045899 0.16217174318987926 0.57486157316291653
0.097013052300630065 -0.10415884217279192 0.76344075296171532
-0.74527412785880387 -0.27691819582919819 0.57688824223057544
0.23429601960530455 -0.067475223414711127 0.81365799384410753
-0.12440274155464026 0.52082210775172344 0.76721686633850206
-0.12489568481484681 0.53964462149699699 0.75593520532464509
0.76839657233972325 -0.38807020656668101 0.67781570342429753
-0.41636344543642689 -0.28758309590248565 0.76704838098898398
0.62057768625833165 -0.69905613343122397 0.54145373018125298
0.82061585661110836 -0.34595866676418296 0.68470681410078882
-0.66572039773511338 -0.34471096652291683 0.69758091712412007
0.22680975960466321 -0.013885371763590726 0.7566964613724263
-0.83285196255771532 -1.0087184105989202 -0.43365121581806354
0.70933914397290532 -0.49140754713343449 0.68897337578047269
0.7904941690296523 -0.082498211363026819 0.51664294873069672
-0.4941979280962796 0.66018412061385945 0.28687471424591759
-0.42359764918984666 -0.74362910870918242 -0.286658394772212
-0.50099115108861225 -0.63379641580486457 -0.30265572431656551
0.24071901746897101 0.99056095490943719 -0.35171537845849699
0.29499888323883372 1.1211816974403597 -0.41324985700661365
-0.20901726589526048 0.6940028139349077 0.42632823347842486
-0.8883507485603277 -0.82555312903529066 -0.40957686116401248
0.143209018532934 1.1153551288273045 -0.39634359748450132
-0.1402268679976221 0.64249608556358284 0.60020805618814821
0.34419560387759063 0.72781250458788671 -0.28127751331799167
-0.20108652663136395 0.050248953910891236 0.76317180995746847
-0.4077516047527503 0.20398331014665505 0.60301370972617363
-0.1052368463661395 0.36634110434583711 0.81374456491148095
0.26204533689574117 0.678361646411338 0.53723089414401581
0.010694089459935885 -0.3188030488109006 0.48855147558393996
0.13800802270419554 -0.19594272140360713 0.78109938877427609
0.12199005870382829 0.97409898196236533 -0.24794409564566866
0.19500524724457824 -0.30945424145981026 0.70178322225017808
-0.25705929991088006 -0.013850556227996691 0.7474548362520439
0.12110034761838051 -0.081110929910738871 0.77095664856699564
-0.32167526505875621 0.27908111292967419 0.81599746276670615
-0.50129191143042839 -0.63321237452985046 -0.29378222542013965
-0.49832568944707134 -0.72598337572450689 -0.33967038697823426
-0.020612468955904184 0.62025301220105455 0.69894755096057892
-0.2789617492806542 -0.042757452517803607 0.76193148087634799
-0.56066241482093182 -0.23178534876628198 0.70699279213104083
0.47911246879757391 1.2010910350255419 -0.42400166449611226
0.6968004978937401 -0.22436026139561349 0.69924293449363883
-0.90265906511925476 -0.80567682298894039 -0.39595250025621453
0.73576367365836393 -0.43875117439658079 0.66173195805249752
0.40094642106549827 -0.53493715728106395 0.67038867760646248
0.45254108019123862 1.128554439969613 -0.45764167855341942
0.50840377774598577 0.69298954302732385 -0.1995910906729268
0.11693153505531662 -0.092094515307701741 0.77108351603256864
0.081060808161540265 0.63544993836551056 0.6629886594131067
0.45446203931996809 1.1234198107472495 -0.45668992057332591
-0.4412175066054671 -0.3587878886640441 0.68171345198387634
0.21470749963100211 0.0087638873969204667 0.76903323895450448
-0.21719275306932317 0.63928477365212011 0.75937205546451736
-0.64993732259580272 -0.32853372771064937 -0.53508211981170795
0.65788259144601469 -0.077396511396521817 0.65490339877157133
-0.43753680897434544 0.028019384643964695 0.77046174854215099
0.31312055479912893 0.53750967584456699 0.31624614852660926
-0.10405939603096215 -0.10935371835899943 0.75573994769057506
0.034272054741159685 0.28820349500417475 0.7603037871910503
0.12604922613405378 -0.14876614612480843 0.76300248021401984
-0.174648983769365 0.37079457112458414 0.77946906699894747
0.54990855354994417 1.0278209514742929 -0.47809455024443515
-0.30750120893620203 -0.42170445195407313 0.596214959977171
0.31507803121583855 0.72682867453640454 -0.2926038694794616
-0.035354249719378616 0.85530118405643107 0.5562865206441856
-0.024702996277579103 0.14919315525203292 0.74588446772062245
0.23316071221986989 -0.016677358944448883 0.78224296910261293
-0.81785828309265352 -0.951820356866933 -0.47947431899138415
-0.038375705717895947 0.83225309728735475 0.65724773534257075
-0.4597730326025502 0.51437918768003676 0.67332354761443192
0.86421690180687127 -0.15271547106301508 0.43072243195476112
0.49250849217022719 -0.04020928861807338 0.68241937068673231
-0.74794897626431212 -0.24761183189300362 0.58883577321484015
-0.20342228460388512 -0.093013312381527768 0.75106106763935854
0.24695266523937498 0.90631405506124496 -0.31611425479815392
0.19970289168798416 0.010615796661967103 0.78912578156777613
0.36945502136983727 0.58435057382574995 0.069732046536503778
-0.03541888947078764 0.5536854967918361 0.75472030512404586
0.63276241427191948 -0.050699567802990231 0.64687859915015267
-0.23097740069850659 -0.071613962623480631 0.74912205904740148
0.66856137830562901 -0.70313510533906998 0.54823808107446348
-0.67553807340967964 -0.97499439778763275 -0.44940385098702418
-0.51127670431986338 0.093070578399476744 0.78841997245631745
0.52936851959061393 0.91300101576730697 -0.34934863485258205
-0.48426926676475779 -0.61755845940611342 -0.25230446099436632
-0.68132737749521333 -0.62408826758932889 -0.24699300631613674
0.12565835019515426 0.42742127978347533 0.72182867965402675
0.24275680943908118 0.98175733187327707 -0.34953467268388527
-0.45729998930859317 -0.69881604073932913 -0.29191395567162282
0.57382461903611759 -0.2478301682633145 0.73316034464931334
-0.49784917059773681 -0.63588388867498091 -0.2957755122788841
-0.52483149730064582 0.040624528995761577 0.78226792570324744
0.51539148609457186 -0.023244890885152358 0.46847145204134938
0.053379386245040017 0.82922542859958126 0.62522704167663079
-0.74963902978482211 -0.67468157127510953 -0.32960900447060393
0.10129087815463578 -0.14496540658833901 0.79464916871932267
0.22863650257802615 0.86151678897566653 -0.25590715798991592
0.76734374363210467 -0.2837330319299447 0.70333030001815366
-0.60625747569014621 0.033015676226459956 0.56078706549310997
0.06028111990887064 0.41702867333600868 0.7900416470950784
-0.21197495452718318 -0.32303282965798674 0.64798332822815929
-0.089118898762098553 0.62900734155766003 0.68527631981526627
0.15258256386283586 -0.22283253469217745 0.7626956599381316
0.74964596012444784 -0.43755436102565426 0.66287361035660908
-0.50063544414056382 -0.074749894814988949 0.76759960427167884
-0.75482687024988149 0.080114653915094536 0.66742174147289735
0.24756860066229058 0.018281323515083159 0.73195572147672738
0.13885077771555832 0.37884013612189893 0.71704324711939904
0.25081142722533667 -0.0045235989930123566 0.7628881551827138
0.0078203733435673328 0.51314695269045707 0.77884014979350091
0.29776819653677783 0.72684396870851753 -0.25411985579001889
0.30745941931718912 0.076023817300242769 0.55147725248426394
0.13682329210679134 0.88293048168779631 -0.17473019941032142
-0.74519654331217344 -0.1357240564365787 0.35929906216483343
-0.26969890561384702 -0.054254740967321524 0.76188890677148824
-0.67266967030157332 -0.81448700470990687 -0.46416006983588165
0.17758453003902908 -0.17421585729742084 0.80285842671671048
0.85381978293593086 -0.46001160767993987 0.55925009459249697
0.36786055323108569 1.107944229168685 -0.42176563588463267
-0.17852722704321433 -0.27583293745255388 0.71547102642498439
0.46702652463549299 0.65871787415705185 -0.30595977052592804
0.14492067902087705 1.0021053328295881 -0.25598810890936297
0.29269895769319687 -0.49338960181287916 0.48657379472565765
-0.75759542809980274 -0.33385670459401523 0.58789514925914277
0.083072614780665965 -0.12122630937208578 0.76196725023129819
0.52477884744132253 0.97293811761825721 -0.38330566130183769
-0.51349705267510526 -0.085462252849829667 0.75776429181323079
-0.83063012804867498 -0.99853331339953089 -0.41966896099858708
0.68846617950718958 -0.48765615353714376 0.68535431879365993
0.54247561661909982 0.92665124074176808 -0.35065215357572588
0.39292714763375391 0.001425739555247052 -0.16535502290279913
-0.27629910363270715 -0.37624695473291003 0.63603676880127313
-0.10384775506517752 0.36005582812701364 0.81493706793903442
-0.46323549191165903 -0.68531468226821346 -0.28329716739596478
-0.65357123944133733 -0.74068972025096969 -0.34866567845419905
0.41791010930449835 0.82782852305988885 -0.40546972292359656
-0.30213836332785249 -0.32242031749677036 0.71675069718442863
-0.20253562915844892 0.7420553497792528 0.59650164669120009
0.05527278174859962 0.61304959426736483 0.67563748630106346
-0.077287667475308464 0.25363401644816008 0.76234349682957614
0.39573520936799156 0.14521731179195019 -0.14718560091806798
0.30450591231904411 0.73290484762338615 -0.013073631185669399
-0.37880322682138612 -0.80263388384279954 -0.28901687816596677
0.14817295595800362 -0.046671048423179595 0.77751661445992326
-0.61613397489582766 -0.64303615465881148 -0.29837535336424992
0.13415832644325842 -0.24156798275032187 0.74461648428634675
-0.30505908730101439 0.27727765196360821 0.78638573752051855
-0.53540091694974723 -0.1364474102874258 0.75838045258505637
-0.90603054933337379 -0.96295125083430122 -0.5143416707967976
-0.12123653117500943 0.57260270883568598 0.74471620627003698
0.12644210327895733 -0.092929809421040677 0.77032420359078202
0.25682061413043122 -0.42484558122927751 0.40966827398194816
0.28001027060655137 -0.3400763690245947 0.23107408879236191
-0.14055698281736539 0.5226720982763291 0.76175472633515939
-0.18016369345600125 0.61920127357368493 0.74220906568277201
-0.51353632696138751 -0.026346837145218238 0.76243145883226138
0.70444430798001267 -0.56848843561353857 0.66208299220471489
-0.51500474830055709 -0.0054561272556417073 0.69677852524707617
0.20680921064477431 1.0515667651263314 -0.37102778915271095
-0.17532497072922482 -0.28808201255009536 0.71372233440305521
0.28927677791993212 0.73062406775397193 0.21298744182779927
-0.33640891692285635 -0.13117591050931132 0.81645423072655887
0.15110320000475497 -0.21851944202028051 0.77027765250448788
-0.023950175821402908 0.16544701841509024 0.67810350501313188
-0.27682277499588892 -0.049389743290088717 0.76418653054715147
0.75623195696015011 -0.44160860910276867 0.6756280967438022
-0.44007857911638393 -0.24523081073400288 0.78397147586996085
0.58488807166146772 -0.71796590741465227 0.51320089614206044
0.10712671075466984 0.86090500459958208 0.56881517385090063
0.2038455677897808 0.39558272958738072 0.59995876877342935
0.40944556298415513 0.57042391345781684 -0.15389614463338042
-0.24209962517798833 0.080359220103587425 0.77257765593534788
0.70150272629880139 -0.37737186591783078 0.65817932667099044
-0.64620925953474684 -0.35623837071173281 0.68536047750475548
-0.49070997821455231 -0.61845077064166754 -0.25943149213538907
-0.047449617324093495 0.65447810850492871 0.61413090678320437
0.91039099749836971 -0.27180808713299243 0.59591383940158948
0.16327859777290188 0.89571554210840754 -0.2248533364264016
-0.26824076166636956 -0.095474841636080221 0.77900792869598401
-0.16227536849183111 0.44289913443337614 0.77649433045915783
-0.50594652849165156 -0.047796794259406639 0.73616438477825774
-0.38306686774322607 -0.019684710170203346 0.77271500930150028
-0.33472522204992955 -0.69005040432384035 -0.1669673716899375
0.58655275084525449 0.99344690717298911 -0.39321760714433129
-0.45116827021188133 -0.73036137859350525 -0.30528559350931239
0.68282767554012835 -0.47303124259542706 0.67966326007419031
0.68049125376637321 -0.4781320273592744 0.68560405492624721
-0.61830689715050668 -0.64141769196208287 -0.2752356418056543
-0.91519250305679023 -0.69776167116201027 -0.41611381693472627
0.35675751840270287 1.1145226507952437 -0.42731644677992686
0.31811851494646426 0.38147088875374746 0.51732654835189584
0.096204120159574802 0.8431636174068633 0.26078156723871793
0.72713627249324397 -0.21619298369755846 0.55814635131392665
-0.74922676502755858 -0.35961295855759118 0.65164601555093704
0.072211755996314242 0.41181789510494715 0.77562732735095841
-0.9594223912109987 -0.83747786164587223 -0.39646692036764675
-0.64180441880146799 -0.23345659262797608 0.72938802942443459
-0.12800946025695303 0.57957133377368231 0.73204411978659589
-0.36637152377422844 -0.077629154519090804 0.80030188809275749
0.31680016374444453 0.096168917582489216 0.47504960054158307
0.64899029216093584 -0.45161348113874222 0.6737602337367431
0.38409787217527835 1.1836983903287899 -0.4515242213441697
0.074886028527554771 0.62581062619877859 0.6674028038781048
0.72719277012765993 -0.47332478160608282 0.67691850548975019
0.74151827686689309 -0.39695181746070141 0.65889453928289043
0.36736425842253212 0.63451663364104527 -0.16472615791577316
-0.37722063275177647 -0.57449216600555342 0.27229458513203253
-0.39708095004308319 -0.72147863998598716 -0.31785533799552823
-0.092638594187290479 0.55571368152030942 0.74779258249593639
0.01398683578088189 0.6159672010468773 0.69246761872389939
0.45377657892992618 1.1742399662715406 -0.4207501487615421
-0.69029345172536694 -0.081144691830232318 0.77510474325949374
-0.48041785241628876 0.20867837519629795 0.55717908666373361
0.13579179962694976 0.29707477720419284 0.71827231901927924
-0.61282631243719976 -0.95025543653973621 -0.43517066569461971
-0.67156199569817598 0.10252426044774765 0.80953705986715541
-0.078534552967417071 0.52268790033874346 0.77980863660597066
-0.87512501114994778 -0.89794413120610805 -0.44557835106905763
0.075056942355429257 0.37088075696162237 0.76948479837054107
0.66908013618257289 -0.48381048930130016 0.68338691911516114
-0.57062727594085461 -0.097359939647619687 0.69281837052565454
0.6540264514777171 -0.47460273118800533 0.67835161602196392
-0.61417079572405076 0.35456441739657762 0.39708684089827884
-0.027999707043722566 -0.12050136566059244 0.75036260458051807
-0.016192755516084567 0.21316703725117581 0.76236832135130017
-0.58436641535867329 -0.58368567310788966 0.16969687388852323
-0.68191932933006871 -0.5078166589346722 0.24031071839503304
-0.19584440979425732 0.29917003049353852 0.77805737699454802
-0.57879980501059514 0.24404214849414529 0.58792474858264043
0.71957974554362836 -0.65638016517725184 0.55231324164966633
0.73529503393120821 -0.31854551449163343 0.68565212433729217
-0.68377685165069035 -0.69254775677337088 -0.40457470820716068
0.04685289552035754 0.66407909664770015 0.57313904808767546
-0.42643915677913746 0.21512332323652394 0.61692872428408663
0.77836446947731819 -0.39853295538878042 0.68263346162057648
0.31232956654949584 0.079790369671723926 0.53827915794511672
0.35145579985044506 0.99666007948369284 -0.4135476295787619
0.76395890934021349 -0.31902236988595245 0.6913396988774474
0.11197919479623319 -0.10123683729910038 0.76619805660191531
0.34190162854371042 -0.38621834788841625 0.4894747269773454
-0.88034581626364261 -0.32903104423623297 -0.33304409794784817
-0.40530254012187594 -0.77631709346402911 -0.29298460565349771
-0.6194003974730754 -0.36750942182195406 0.67348179185931656
-0.12145729215265473 0.93944138092976759 -0.24367796979787237
-0.22323987699834191 0.47184630808861172 0.76976627155016786
0.13743451441958943 0.26351333787204467 0.72476248379623964
-0.21878823401779024 -0.34000078341402151 0.65885564399365837
0.20784769580600404 1.0128252043138017 -0.32116875142596379
-0.55797762344558421 -0.88815865225016211 -0.39431662410550627
0.39087086173204355 0.1912927217296394 -0.038567628237087703
0.24315723077116402 -0.022536929914616977 0.77879610483564043
-0.57917467018270852 -0.051661550609958695 0.79268488757065647
-0.59236667016196753 -0.18634959665099243 0.7216826387205133
0.56475861921192916 -0.0025735245021216713 0.59539689033270093
0.52050168531085772 -0.34926597032683304 0.32334891447127123
0.34875705120326161 1.1161736098233312 -0.43310083109220621
-0.26825295977801744 -0.1113921172599639 0.783943563863017
0.11023656277249883 -0.14626185868396879 0.80636023957405278
0.72810812960381099 -0.36828682001020319 0.66954606340757561
-0.20844166070161219 0.010476744303811847 0.75302651533963827
0.26092268861536883 0.75271953275235615 -0.19939284085956466
-0.79128727711423963 -0.89531276411450111 -0.44428516258347545
-0.62584838206572657 -0.28735112972339838 0.69759342753833842
-0.68208708340373381 -0.98088945702044317 -0.43817996629285894
0.13689734991873559 0.42441747634560478 0.71400958490524769
-0.35274002791190684 -0.27960823129799339 0.78435755082433711
-0.41270134879431719 -0.0004428550136206244 0.77113625502585736
0.085339870422046715 -0.17978572198987663 0.80244435073191234
-0.9190641112233997 -0.17574735340437908 -0.35036302338116831
-0.14455346645697142 0.56048788186828247 0.7367692857435757
-0.61082287742037789 -0.64626711163519479 -0.28596748524114268
-0.21174960654139818 -0.23351364380956419 0.74154390682746141
-0.66318013409535936 -0.96416806242134978 -0.43321659799554713
0.21991900192340957 -0.34051286710354989 -0.060674841558033904
0.20716071075504328 -0.37636608745988109 0.65041807490646431
0.18189736395859546 0.33261825452630589 0.62278724557746301
0.092841538148039859 -0.14056623172281624 0.78524804924152747
-0.10889349241275958 0.38556260585531898 0.81469644746328385
-0.69242132093591469 0.15815184789086167 0.78502949277928735
-0.012784454588646632 0.18522070627929832 0.76096571957336634
-0.52680732850481515 -0.15876783759602109 0.75713441293376604
-0.75242609833120522 -0.15188224099893677 0.67500508315947183
0.33828455782978273 0.4296486363340466 0.27705281251981007
-0.42544897599387066 -0.7469446941172353 -0.28778321592062106
0.14175560226599471 0.74439986725859608 0.61646385788372093
-0.22620747431530841 -0.35332308333806361 0.68184870173449896
-0.90914499622079448 0.26788543194675229 -0.17709425518948829
-0.1828360175516186 0.31620982047483004 0.77187666393077636
-0.3704606616281656 -0.3973385435007869 0.65864301472527709
0.28438850790946713 1.1214121515308424 -0.45254682728364548
0.19347036338385953 -0.36909951919788569 0.047547175838720243
0.32699267956240874 0.96256870910437264 -0.37757844213053993
0.74267304041258342 -0.41704773400632345 0.66186763708665186
0.14633486761823811 -0.19608158223664773 0.79553730047200422
0.76289757335579156 -0.34851135454249943 0.6866984537683285
-0.28792978564100657 -0.15073080752191315 0.79609974172657205
0.92292599305931466 -0.21507817483160618 0.58078889109348608
0.43889720296955398 1.1715609620577987 -0.42646123911699552
0.01401114571786799 0.2754643737639122 0.76091096947922132
0.36998878060832463 1.2799484767574478 -0.51325937810382993
0.15236818913482697 0.33731015534732478 0.7004499454118811
-0.51860806185789521 0.0064497347284460105 0.77844524366111756
0.12994858017717664 1.082127605900201 -0.29562890912286999
0.12763754193390708 0.43239056898202755 0.72063804245894847
0.24544183596750813 -0.016757531431684569 0.78680280122773638
0.10788393942673657 -0.10855994047115924 0.76828186736848991
0.11175882834658601 0.97799926748709787 -0.33003921426499483
-0.54157507943902772 -0.81961569332938744 -0.36137920259670686
0.13393259212535247 -0.2217181794555132 0.75811613848759363
0.70730227497906495 -0.48384205873852915 0.68278842807890172
0.090182177992908841 -0.31234150742384337 0.51496987985408216
-0.60986231770346633 -0.11589717759606799 0.76086006448864829
-0.82394293846914834 -0.69812045072134232 -0.32282053901014152
0.18071201249788871 -0.080732263026825096 0.82667640156213018
-0.58974881215687258 -0.089401490996664557 0.76173353344695371
-0.62664572789120188 -0.65203055172725466 -0.29747726209105441
0.30087239370397967 -0.25682210406431238 0.75330857906886983
-0.6314223302700519 0.03456942849139704 0.70239601492318826
-0.76241075941609004 -0.9238918848511295 -0.45647541027722183
0.21182312120607794 -0.32628428052160841 0.69898562741122561
-0.51190907883407455 -0.61753954679311995 0.029510780381382329
0.32679875528915214 0.72911661889970791 -0.2804384653212203
0.13027028938252699 0.92201019846491983 -0.2368394611606911
0.29834970814699391 1.1756454122703399 -0.43511417180307888
0.69279034792856642 -0.29019014007268029 0.72670287690928603
-0.28320246988541975 0.091920739598446488 0.7846132361337812
0.21960446089114027 0.066181293873732727 0.72680797984212298
0.04172650688501589 0.39451795948746848 0.80455698708839929
0.23371047769860454 0.79008038318818663 -0.24718734561972244
0.059351920901334232 0.58410696860129629 0.69400272624820758
-0.38437663419377976 -0.62937965636959703 0.0012500844594831584
-0.26650121823979767 -0.42228643483756745 0.61265223908259525
-0.51268461357453265 -0.079267709595052693 0.76153345800364036
0.6803454315470745 -0.43799938929527116 0.69981867398675135
-0.52633228620462447 -0.33705466174264931 0.67959468079573082
-0.54970225357592417 -0.26174304417143102 0.71482817145984257
-0.7620686504810692 -0.87630734063284121 -0.44065781508115975
0.0099676742892856329 -0.43925231780544222 0.0074216083896031793
-0.67912780291331387 -0.90227652981778661 -0.42896712264471404
0.72247414682122546 -0.29176963596139771 0.70268498367203414
-0.023159860886548866 0.36158069259731374 0.82250840603119713
0.22572125326550954 0.21957726116356219 -0.57912765170646507
0.23952170463611111 -0.0034535158156563384 0.77254841742957581
-0.28164631947488872 -0.23187718132235013 0.78295928535619153
-0.59561849405694378 -0.63374472785400893 -0.26987155151546638
-0.25087568085979228 -0.014109458855121382 0.74481323962909973
-0.25579883180755658 0.3784203497354568 0.7710606996009659
-0.60825126173240029 -0.025997471494271673 0.75527217718965289
0.49353549451194922 0.011891149063835371 0.55937112634481245
-0.53459221397608703 -0.33063538448643071 0.67656955744695035
-0.96132754048293823 0.03685277825599087 -0.25561303185454687
-0.60265428641412733 -0.5820595530118533 -0.3823186182843088
-0.19107743406460997 0.31111599751158536 0.77763189954706391
-0.083713368923595599 0.25070439562762026 0.76230542492646158
0.30546605481081102 0.70816237916187497 0.10449992747788173
0.15442457668161147 0.65768222044076818 0.62999123667562218
-0.67109103367887557 -0.24563371668772882 0.7320108679424564
-0.91897687174593634 -0.8133430716447454 -0.39829863836758861
-0.24922876291114093 0.56979975040082209 0.7697232490013235
0.13522050212964487 0.37855628378193007 0.71886211413698575
-0.49543857747151426 -0.36522144552462832 0.6754236246999108
0.1514009341989464 -0.038384404458246202 0.78134810773671859
-0.45404330517929559 0.11317014158576555 0.70756694343652882
0.13220212262563091 0.39963971190517888 0.71980709326440717
-0.73230963637193369 -0.66762546186549265 -0.30418362364874163
0.14206567673307013 0.37222114187604127 0.71980418386508305
-0.52196879321105893 -0.03722175512692516 0.75331486252127933
0.20824429022487093 -0.003645575338588003 0.79563921202565946
-0.40275244629371088 0.20558472134123207 0.615587866968621
-0.73975806223631846 -0.53486971226658042 -0.049584935061072866
0.22618107983297708 -0.00040063131157630494 0.77741908401888793
0.11850856925739794 0.42458929824207381 0.72634988813183465
-0.45670866616123273 -0.62218282271536296 -0.22324788289810193
0.15566500010075757 0.17872615142389314 0.73507082756431874
0.60115404093803626 -0.33219692116660493 0.64552880982177552
0.19570951651732515 0.83182553824979066 -0.011782552121355094
-0.47068350717776286 -0.36461793088734062 0.67686825572603948
0.021129131526469586 0.56635534545574662 -0.60965884182557395
-0.89325544070194618 -0.68577484568773328 -0.41457341560108363
0.26287054750230993 1.3011628130899613 -0.45083070351306631
0.21886854697110714 -0.027125466558126199 0.81160927788959114
-0.55301451805890478 -0.30692998187513432 0.64909632342306178
-0.21099631752333536 -0.10204321175328523 0.75151862703732597
-0.98504985326077632 -0.91234233925209995 -0.44261694779030059
0.69761331281136063 -0.67841531180039105 0.54392150093705105
-0.55827984901820771 -0.091979677198923193 0.74025988710752522
0.29636843010172775 -0.19062467024642937 0.74447335890867983
-0.55799034240861811 -0.095190099904922221 0.72782444128855417
-0.2891158918370047 0.26734956961564293 0.79140807820911618
-0.56466985537907877 -0.10457475089663171 0.70862493062677423
0.42886341903904857 -0.086628375314684813 0.72534739078106014
0.30660459167101384 0.72587517745321883 -0.26059610368034625
0.2054295698115558 0.49275510723434601 0.58132778253703687
0.29978214743312037 0.089215135174881 0.52666552717327741
-0.067273226528598018 0.57025890990740002 0.72547323710837297
-0.59989842109715585 -0.36747833755205406 0.66547483233664417
-0.55682319569480443 -0.17242884140797621 0.74270776433394858
-0.55645400482270646 -0.079994908620129035 0.71982317498476789
0.18557172455149384 0.33167669676689293 0.68329099942028382
-0.74065319447089095 -0.95678470715599673 -0.44547071891055534
-0.031194987167261878 0.23298796039596237 0.7302727427873652
-0.25111996463222741 -0.29521267618433478 0.7219243022859515
0.29442409403986858 0.36861814098879364 0.57536728857959218
-0.24809655192370816 0.50565685975091412 0.65978919847359663
0.30095881541283398 1.3120819082471833 -0.46777084551562531
0.3975526136458809 0.071733212858291928 -0.029175644451045812
-0.34070063567982967 -0.26178328956916541 0.79013647703978851
-0.069781727006328786 0.60790556547618335 0.7152506949041868
-0.29703095575898786 0.58666309643720993 0.77987898859766958
-0.35816884200169241 0.44182194300213595 0.63157857825818198
-0.41497825004057631 -0.77765996374234225 -0.30555334263485712
0.82637351192720798 -0.38098483690301599 0.42978558399843481
-0.3388903923483802 -0.4399314293576998 -0.50029015121559217
-0.70916221976207283 -0.21561736515974461 0.44478873049144774
-0.60096087433742795 -0.70215390670723998 -0.33282723578388218
-0.68647771256264178 -0.99561876085566148 -0.40689055607562441
-0.10898805451280921 0.51883685712096472 0.77440498291840809
-0.016543354837680546 0.2027668571361918 0.68353399079160226
-0.44520236654272127 -0.73672928858597841 -0.32394056144923122
0.3109783797612522 0.084286847515027574 0.50070431281053551
0.72839156622695445 -0.47511549887434534 0.68577888612385896
0.03221106849637323 0.92192113694402145 0.0051158588757660439
-0.48613915933653451 -0.61893598383723381 -0.25751681753100386
0.71161753849900489 -0.41378730594838231 0.65611968631554962
0.19596092575446633 0.92853573793802324 -0.25610955562459736
0.022189600008395871 0.55616823450916619 0.73713321092184536
-0.22364003552423317 0.28727126585631346 0.78901443748894717
0.2008390411703358 0.0079177054253111168 0.77787168358828218
-0.39252688700410943 0.33704849555134153 0.60979455777549063
0.7261055927966229 -0.46940286270690557 0.68612123963126059
0.21362328782549422 -0.037451750715467913 0.8146249409410693
0.14399220388838513 0.53503401629635516 -0.55275929401092216
-0.33045606321345289 0.18081933651694726 0.79909867700029835
-0.78956245516297363 -0.41674318341707917 -0.35625225684785811
-0.56994957340292363 -0.72264541951040107 -0.33685473938417587
-0.44112483441878148 -0.66213121712771361 -0.2707264920781367
0.39549420980095995 0.81622017670323999 -0.3337838565713831
0.30466928084113931 0.49870184978744447 0.47568089489131893
-0.38739226923319059 -0.075404705140189598 0.80007744409335491
0.04575717705677107 0.72425238489090515 0.65558916485435859
-0.77424250878466183 0.12951046365539287 0.33015073353312963
0.13280901947601276 0.51749054990477816 0.6826541569499609
0.25865289779946393 -0.44211080877964815 0.41837620439028245
-0.57308175897725455 0.10562777161020431 0.61356734797453427
-0.45872686653777461 -0.36292092428973044 0.67604893305041625
0.49776592410607234 1.08393828555549 -0.42510975952965246
0.28313256810500675 0.48374765523315588 0.5982383351742584
-0.40955753867892586 -0.66060464737636604 -0.23544746798625393
0.38428609325949159 -0.1522742388946714 0.033397092337621448
0.26978023461461031 -0.071522232671338948 0.77775463829345926
0.27188270807761938 0.85878990063347693 -0.31932452044415705
0.027602465511622043 0.87513353761938051 0.49445974052309261
-0.59325943323419139 -0.63724386511595821 -0.28563358178132203
-0.36457457168235274 0.43200281077399794 0.60671879829796538
-0.077412213775804872 0.2455124287854451 0.77139379719862688
0.16200243990214425 -0.04332070493401563 0.78982833718430534
0.3036801291526654 0.60746200351443846 0.32855737867665979
0.30142203385715727 1.2203403472917098 -0.4141133527449789
-0.3440390340401196 -0.27709377218720421 0.77928163322209132
0.28232923111101904 1.0024972168014457 -0.36991508566696218
-0.34372022970363192 -0.38890747932069902 0.65864279288857031
-0.4777348096410261 -0.19804316294247037 0.78906786307122134
-0.51259203208759718 -0.63105520274812399 -0.01800274676093705
0.7310419134952606 -0.46928090485176277 0.68103606669361727
-0.20982586761605648 0.19227496692225365 0.77879134436252251
-0.71652452596176897 -0.45783124109498452 0.26666960358114866
-0.75053309015344383 -0.3565893833126636 0.63374723966067525
0.73241138915822646 -0.36124606225497136 0.66271603874341078
0.39100532297973167 0.088964835382590479 0.12176526929688958
0.14238826150670247 0.79652476582878728 0.58962412047278967
-0.50718637574394831 -0.041301404618833359 0.75110137783064701
0.15102822673498384 -0.022913519653655179 0.78493868939700029
-0.18530612131429947 0.55649130185398121 0.74128056166111445
-0.63786969211426658 -0.59071831844872058 -0.20473877746102698
-0.45571398239657762 -0.61253613700500187 -0.20329903918353687
-0.52155890328889365 -0.031565548893499162 0.74988990355238982
-0.35881407166144985 0.25386682124339899 0.78145094535134163
0.060050616027400361 0.68077994910881179 0.66549699785552185
-0.85079766962106573 -1.0019208767361354 -0.42792024208828305
-0.1355933428441003 0.51066701117307822 0.7681194664650588
-0.66345260979187692 0.00042939290682619813 0.79010001304613908
-0.39763786073403051 -0.35471561978914723 0.69907512630115409
-0.67126627486091295 -0.78055425167387193 -0.35301004760872301
-0.28081398884636066 -0.64787772296791413 -0.15058411151351969
0.18669510465194783 1.0870938965690415 -0.33045855236492949
0.37949193011106708 0.58728594986724381 -0.036781238938240202
0.28684575226213571 0.89534453662386682 -0.33665484936957135
0.15319134784787947 -0.076124400359642408 0.79191455798196309
0.17637937067649823 0.012712444662507316 0.77668253060747361
-0.42859609195679305 0.40257820917926601 0.6742768438303095
0.62418886441523425 -0.67995757522984346 0.60602842626063769
0.8355303220640331 -0.32023775820493933 0.66778870097117493
0.27829477172181938 0.0051466743365735645 0.72804943866369776
0.75649349807769273 -0.58785697263883696 0.59852989351506669
0.39952921817001963 0.67313433447888782 -0.22031609499852034
-0.58032077591682274 -0.62040554284127403 -0.25878055620854168
-0.29644926387840087 0.34488861174298435 0.68963600876627851
-0.073046750181459785 0.810779668251423 0.32672116270214602
0.77934197214135637 -0.54800858594846247 0.48655522246240324
-0.31848601168869684 0.10043152183867221 0.7889963130775719
-0.17856270804076502 0.4044028208972108 0.77859993760695545
-0.82841890976772969 -0.94896390870857372 -0.44374660571968683
-0.51974857436632727 0.012382906319266973 0.77486661344169505
0.68169741215716684 -0.081166357276224232 0.53063786726489104
-0.86779976740275711 -0.99305216166271526 -0.48841233161446418
-0.10699442079628541 0.26041883136461497 0.76989819470558096
-0.016552846652015063 0.31178647108310198 0.79371308565640852
0.2668981839555773 0.0066699844773943084 0.73475578289283927
-0.74118194188377551 -0.96924329590274549 -0.45758077517171636
0.31151532073997856 1.0587956033126069 -0.40636886446544906
0.55785351772941749 -0.51517998026537626 0.37448503366183949
0.22605555937710875 -0.26373444966471382 0.73740152372179324
-0.060907120512706747 0.38507747248543822 0.82627526023134656
-0.58572608197150333 -0.63535070890211465 -0.30093942084433323
0.86841890149096446 -0.3825736721721904 0.61572330565779154
-0.24265176086884122 -0.44395366354820009 0.62488893507948262
-0.09757365046665567 0.63284053766862147 0.64537612620642992
-0.16714351887955825 0.94002008047031449 0.030386766394267184
-0.019067059547809073 0.26627146977414085 0.76942174067186642
-0.32974806426695003 -0.33782384483425743 0.70762261316880548
-0.22318599572750841 -0.0073482755620286611 0.75740014578189729
0.4647954979827702 -0.53729956212853835 0.6855998617272494
0.16097275633346086 -0.22104081625522554 0.75820315966994656
-0.80292677857807671 -0.66457573337297182 -0.28655637696030922
0.72557403814659605 -0.4401521989048538 0.40187577983154199
-0.72749164049687065 -0.66368545815583868 -0.30725974697952019
0.78481519370012265 -0.087920748897200696 0.56607404838413089
-0.14465734215407045 0.27868969942031896 0.75231963861653206
0.41367798809447454 0.64750636101680925 -0.30077115123832243
-0.25185444163430137 -0.058201538784977025 0.75135781381093825
0.47508582418916645 1.2470570640536416 -0.49818644327951056
0.38802932521230371 0.44998117007994676 -0.21246572071929792
-0.26402265640646805 -0.29008566872935315 0.7255698028642803
0.79078475736145459 -0.40409836049446712 0.67655339765505085
-0.22730653965815506 0.42573615693469335 0.77544721800090599
0.38736463652690389 0.10058299972243034 0.29076594080024132
-0.22982553521567706 -0.00011343995568280363 0.66660339248398781
-0.18187679880766972 0.26303419988053189 0.76773185662684806
0.3311528065465339 -0.2516456325103249 0.75930087112576494
-0.054022570771680378 0.53052357860840349 0.77229813470934694
-0.48844033988947766 -0.18270669530546346 0.78647455069517402
-0.29050425935279967 -0.70729313784111525 -0.16546624118053027
-0.095242990735300292 0.25780948326615771 0.75997719586644408
0.18744489309051504 0.85032347430300215 -0.18921615912592654
0.2927380828444317 0.65669605021290334 -0.38233778194815926
-0.29807418933711582 -0.51005416933312409 0.57934942651935517
-0.25915046083834881 0.31719977956743151 0.78112773200994212
-0.2765259059145464 -0.045085613470218888 0.7619300265568042
-0.86106521704833661 -0.88738329823396978 -0.42966111312146005
-0.3935887897446424 -0.69799526316295246 -0.23892317876701541
0.7276971891585351 -0.3153647910872035 0.69871760993377152
-0.68554081029780434 -0.35736006077229421 0.69402966878611316
-0.63046387713869989 -0.39864946186660788 0.66457559203828653
-0.04196133564500526 0.23989973357393879 0.7629761305682905
-0.73241766627020943 -0.50292263618934385 0.58068487809931624
-0.97677616386900423 0.046383322065556065 -0.066235229751235969
-0.45179300673515854 0.17833215106235478 0.71523653856113611
-0.21721112493672301 0.40681825540959338 0.77845573874145657
-0.44901923587221715 -0.18534519422051687 0.8045086292685355
0.47414119456114284 1.2470422110655577 -0.4969270256462136
-0.61061976106129001 -0.15871789166910277 0.71154683599120538
-0.26194874852573857 0.70611818558435857 0.70931588261659151
0.01473236907020592 -0.10698009529744379 0.76308007069023276
-0.47655618121284782 -0.82314160115149893 -0.28795516215941497
-0.92793671685442169 -0.85503426408767047 -0.40505310932891092
0.67870879473914192 -0.48568309057641912 0.69991544997915867
0.057195323969007283 0.38427881642950945 0.78683951330537649
-0.55355982550766081 -0.17437252591993868 0.73272580761975092
0.006024382375981574 0.62857113688748534 0.68434855261124206
-0.44140510366468266 -0.68552965025917256 -0.26194847105631602
0.63161916240569971 -0.35087954175312142 0.3611877139709227
-0.74380011143864266 -0.052900648342296686 0.36915893259311433
-0.3474967550556407 -0.01469108178281342 0.76344432977333909
0.14760845590926497 -0.067483131536829166 0.79600583373658473
0.8154548543516853 -0.091377510075204782 0.54424642310474525
-0.64399651500145083 -0.82335197645338809 -0.39666024142943002
-0.11022212520052577 0.31511024144576716 0.79045178435353947
-0.5194296723459928 -0.87026131716624278 -0.34876829124701025
0.77915459264147913 -0.41371047555737306 0.68164912042621584
-0.69720974421288062 -0.64086415548564091 -0.26734670420649742
0.013017033398046607 0.64963368354469586 0.67756865510341235
0.39894474543187775 0.73690506186502625 -0.29565509184611471
-0.64004702354629828 -0.66240340945176701 -0.31187822613281529
-0.49811580618785456 0.52500411950201809 0.7552872217456823
0.070167881870522031 0.61389856417428401 0.67580953883739703
-0.5054579498472429 0.42273486250991404 -0.66553798122901198
0.6904618306513417 -0.5719084991458816 0.66800075995492092
-0.30304423448629292 0.13027160069330956 0.78408335521131889
0.40351237055761963 0.73265702873533678 -0.29380905667304191
-0.071017692284204958 -0.19951977565806511 0.74780071064352871
-0.52377504094957317 -0.32346098578190929 0.68936560303987493
0.4050594397063727 1.2008724879701034 -0.52074731763778404
-0.48742784799813954 -0.65383078467431099 -0.28742488808233535
-0.54635470499447769 -0.39609013321335651 0.66372385816423685
-0.14073810541833609 0.28237003554009021 0.76338249055306484
-0.43999325561266378 -0.28028750178375006 0.76429203443031168
0.68643805596766683 -0.029187991210232411 0.59990444507741891
-0.57405015273753834 -0.017895438811764919 0.79121388081294519
0.098470129053367828 -0.12118089447982694 0.77775103527886813
-0.11783230987065973 0.36315599883692951 0.80832620795852073
-0.10947822671101104 0.27386461107661209 0.7606456535610171
0.52562456293305315 -0.11988592423715083 0.16225383956583839
0.18008612587661377 0.4461441293481414 0.65620064815004664
0.0014486150575967471 0.17940578189638678 0.65053618508305888
0.14100875506904376 1.001000392749106 -0.26072774177174329
0.76141393350749009 -0.31438865712628505 0.69956798954112109
-0.31746202059872053 0.92069005053777919 -0.1639562689379187
0.14116447068010873 0.99928101889053944 -0.25548161223813898
-0.55408698152779579 -0.052025086682563781 0.78018685856363668
0.16207361895846706 0.84390272161311941 -0.37272621841227283
0.092027682342624928 -0.27722129038010479 0.67947083617480142
0.22280940688940731 -0.0048261522570687276 0.78329759061404325
0.076322406388851238 0.44333793111440256 0.77291331588895318
-0.20076806733468944 -0.19647492905220021 0.74765102733458821
-0.35946838858689106 -0.46239547177795037 0.63729072133345266
-0.77244591594577749 -0.57584249351943262 -0.32189584567361962
0.60216127902862482 -0.054902027476788628 0.41718889206063281
0.19637226702007182 0.82957394150848662 -0.15170016727810776
0.38361270003510439 0.66893799137160359 -0.21782970819540631
-0.61783692368450494 -0.92436503807140857 -0.41933392844449169
-0.43162487369992597 -0.046834314168535229 0.78343426570474195
-0.91705017441262804 -0.29533445929284419 -0.24830221483035153
-0.36660484147952488 0.89801931535324497 -0.082301396129593307
-0.32174787016358408 0.86520989889366229 0.10910310870554518
0.073353250527113723 0.63273818798433457 0.67696464237790543
-0.37194382367972501 -0.019277191635357127 0.76565977409447861
-0.11497903572961876 0.27100954852931247 0.76312693411810351
-0.23727001656171254 0.47049648381028675 0.7436903610448482
0.9363608916535 -0.18312251341770036 0.52744570924326162
-0.12654783431868666 -0.51345284247922096 -0.11595588865795503
-0.23510333830525099 -0.016857417015776477 0.74403527168789452
0.47173970239349172 1.240233427676726 -0.50542848756627912
0.16269016885356535 -0.098727924062410821 0.79715780621400079
-0.62927192402753107 -0.98791239437050038 -0.42639762103921619
0.0075754203201334747 0.27062739984167594 0.75753138666656028
-0.54547663409753044 -0.10061830165666308 0.74133048736370633
-0.30216673040566322 -0.26255788414640568 0.77393816293575712
-0.033411815434121195 0.24656775644937934 0.75220300181751298
0.42154699247532024 0.71281681895877425 -0.26073324951834148
0.27602820933022443 0.82681358063065957 -0.30532907576811574
-0.62976021517230141 -0.35904100789972171 0.67528973238526291
0.20006325849081641 -0.0035873573131035563 0.80258396914839558
0.55525552087163244 -0.22267378507661584 0.33755503250223073
-0.1074274991255173 0.5160841517487218 0.78036019527846179
0.24902979100582456 -0.058515410180409066 0.81692843146622707
0.36709929440595523 0.63051327100146148 -0.15820492156169991
0.70280082918256426 -0.48484801373913011 0.69004628954281455
