# XYZ point cloud file
0.0060260439044101943 0.65976164286520822 0.68143891079636987
0.18868832047898021 0.0099637867406452418 0.76823093073666815
0.71114665442865022 -0.48987334982103459 0.69005005036549649
-0.5919493897332625 -0.19229800423807236 -0.628743420851549
0.23484423161171586 -0.041190690190346047 0.81794789797988354
-0.62509435172395911 -0.64108488936033758 -0.27453953354122662
-0.10077071084249667 0.2890729139960877 0.78786502428618022
0.43869672002230331 0.013913814418330617 0.34701819187326777
-0.11122860920334343 0.77616243691553055 0.46097432752239298
0.2741827831253506 0.015534389815114125 0.72169212663242366
-0.60444250131591559 -0.76829425586549149 -0.36420811774118111
0.16617449759728942 -0.16608296531618016 0.748671095464573
0.15868016053017797 0.44454455589016106 0.66981019506576445
-0.32318283492560695 0.098862090678714765 0.78589645870792157
-0.30932264474096449 0.91149259437919739 -0.026785393388119694
-0.46489191457458873 0.86051623480702744 -0.19456858204739316
0.086542366637715418 -0.12628907281300172 0.77174846973101552
0.22238291148760059 0.80737487570968236 -0.38739427685975469
-0.33736623763809348 -0.67027612110767976 -0.15594080715302108
0.034850544286017637 0.8380875203702578 0.64439288591895938
0.3504514348411476 -0.43864533932112426 0.69511605775203478
-0.028373043418196266 0.066343434872782325 -0.74081549622777931
-0.75901442260929208 -0.012110080998243511 0.74169973486765883
-0.23211329192025687 -0.072726793218173214 0.67876015333634143
0.66459852896255711 -0.29177361163130477 0.72787455065542517
-0.076339541123875421 0.41053785033918544 0.82101997798667625
0.14436037850094596 0.47694770892693295 0.69077417662661134
0.081256532494122347 0.90707897094721446 -0.04716658808545926
-0.25932519082725491 0.51647633993354347 0.75460162300513289
0.073466290356597241 0.31669325846012697 0.74748892720269744
0.28990492364443404 1.1696408349506557 -0.44404138403198096
0.28979367216915985 0.77772015088800828 -0.30640347371610588
0.013526817352558673 0.65604510777318925 0.67872388121410765
-0.33822619831860479 -0.035282438729979049 0.76741328507682383
0.17773163712324358 -0.066279850560380993 0.88413961546182662
-0.18521788568292408 -0.069129905905326083 0.68701111805161474
-0.022159189256818479 0.23959330049400407 0.76017345669196956
-0.20539606795749421 -0.091050885392843561 0.71954576413049409
0.73762632406891937 -0.1987412861234556 0.38122803242719705
-0.33992648465760311 -0.13741578240416619 0.82192176813063611
0.83319769141644606 -0.45704493972668558 0.46944265019953235
0.10583518997749408 0.87528803127732147 -0.30355237525369994
0.023397000393276635 -0.26661083947711356 0.66676378022713667
0.48448088109537224 1.2146650243859582 -0.42900694599947187
0.13121157733639066 -0.21864228298152111 0.76107014901412473
0.71008870237283606 -0.64961363665806571 0.47381601464905482
0.19579832632587557 0.0111507348896418 0.76361751828473112
-0.52869227001266594 -0.041734106720134001 0.75824970153138072
-0.84784762416505188 -0.98836933954688533 -0.41829083987408566
0.7168442866680671 -0.29371462735617548 0.71350702748792472
-0.93801029872260067 -0.050424600767296823 -0.33766844220889569
0.55867069917434353 0.87865301376588434 -0.42230933106714019
0.18744543167960614 -0.12496960582682082 0.82169267634413856
0.43090411156687924 0.73782306176966017 -0.31801704109666762
0.83398006832171045 -0.21807150237656187 0.40127049470020748
0.70599984329063226 -0.56017379441222692 0.66372643262733821
0.40983886253497293 0.54249477374922428 -0.2857522064210265
0.6299651812622109 -0.58917074901883737 0.40233922207332995
-0.14698297961118811 0.28970865720136185 0.75887047314740208
-0.2555814497560025 0.69929120227164798 0.58781267435659901
-0.70614451078247686 0.161761782279497 0.71465380879131857
0.0032411309441471303 0.33386809222434666 0.79930832775383465
0.26595325636522382 0.74902135709485096 -0.095773755759109735
0.30835140271958217 0.83871319387303345 -0.31878523625211663
0.46616220463455238 0.80885155867931291 -0.31124846710519272
-0.70246302769583091 -0.53613940757317102 0.5204613225590683
0.11971263182696601 0.55801656074090333 0.67878011942683969
0.22296981223637502 -0.039509467218223904 0.78307812784040021
0.63473754310927877 -0.33071071899378701 0.73295178393765692
-0.62231987069955608 -0.86369197860121893 -0.40387332082128058
-0.2572805314513289 -0.056748096513572044 0.7657748808895235
-0.16217753809977697 0.20272574874098481 0.76957032023633021
-0.23630567052958185 -0.0023752151144247335 0.75721813296922846
0.20875442520622595 -0.024705527975136518 -0.56691173274817919
-0.1437489009533145 -0.44922484392448053 -0.36746391502201703
-0.3556590834377058 -0.84489271984805847 -0.28285122044100319
0.42551051024614223 1.1732173217632846 -0.43027985513700095
0.26451383449312149 1.0250187756482525 -0.3826258538481202
0.74545102545211428 -0.40282018415220833 0.64654847376888736
-0.12439455797950316 0.27130923893871639 0.75795155199361997
0.89367200102323863 -0.20357717282867349 0.61523692381575756
-0.065844231441831269 0.82950377242253426 0.62549785903209631
0.35867261426914432 -0.13100309363841944 0.74302735977596246
-0.23349377341733657 0.44179793529645117 0.68252346185524715
0.23009870834332569 0.016884922835949112 0.76077318086658963
-0.21494310326739896 -0.30301473635036569 0.70892658910169359
-0.11823104935569972 0.28600642855854463 0.76285239190767484
-0.75236696377263212 -0.43170780868424957 0.2330867267873023
-0.48977138833241618 0.046064193757855421 0.64108397492311653
-0.46395419348810196 0.60082595740813538 0.73020431755973547
-0.13733324303870881 -0.44191532307915293 0.53363799855838268
0.29400885752327355 0.71485833943759758 0.18692738845044232
0.22422913989609272 0.042740004665688502 0.73494132151430258
0.80673306646035048 -0.17293239041616948 0.39889855959763487
-0.62885028621612027 0.62036892749928274 -0.4062101949801521
0.74008383183256576 -0.46992220864336243 0.68246715279046644
-0.33168107458714857 -0.039425186980903248 0.7623372707072229
0.65717323257932136 -0.40228084682838627 0.68684158515356231
0.72264473616922587 -0.33738709688379664 0.65939361497879512
-0.81701950736463402 -0.80537196134033451 -0.42032354527252558
0.18467612050766391 0.84321516166520927 -0.15133505804021929
0.15707582258152675 0.54187456128213451 0.67268679035772205
-0.19140776522298175 0.11164775221962486 0.76608795009242581
0.29086745712140072 0.64330703295668457 0.38634729939553836
0.53265842032375588 0.00014257543081441781 0.58192914597731971
-0.62467924906918526 -0.7166411609341985 -0.34830290892261861
-0.4417336310476383 0.00078755505387029245 0.77217393071829399
0.23704984669129092 -0.0010681943739405675 0.76903851994400574
-0.26951429899925472 -0.037290984948837647 0.75359298527078522
0.19592942114343126 0.093524580675740765 0.73291221489037017
-0.52358264353763673 -0.97225633957972102 -0.42008212411648493
0.63250388324958973 -0.46821190097711884 0.70184721709434417
-0.37352274766382304 0.89887278724802 -0.21873141743075014
0.19841923063846489 0.80132986807011575 0.42209572331900524
0.68533333994560053 -0.15087886574950993 0.68454364052268346
0.64245175276328048 -0.15836022571204111 0.37435642023627835
-0.40282642790748185 -0.3586290618245016 0.68732554272197088
0.211581851550525 1.0022831495171189 -0.32205831058377798
0.20797453075958339 -0.36316238439603898 0.31539841208079089
-0.21614692427330695 0.52508030040423037 0.68785123029140394
0.3037853839110829 0.76506779074487063 -0.3226733529578345
-0.14207537082865151 0.55920073679693072 0.73879373115540936
-0.81365655894655031 -0.88959610830058544 -0.44741761962052773
-0.53375206676139308 -0.33790243806979131 0.67899794015197767
-0.099111764545913417 0.32433722966727885 0.80384682920423955
-0.29708795644459229 -0.12942687619485338 0.80054364015234825
-0.69098890433664106 -0.65719327316626064 -0.31090948084868408
-0.78540276360760686 -0.89055607330739228 -0.4467616793182172
0.27899814041669524 0.030913209218226712 0.7067031768939076
-0.24374310057208959 -0.047142372696678869 0.67213956978113742
-0.35525221281057973 -0.23458469701760976 0.80889398421883207
-0.42621510246047478 -0.26206591612690922 0.78290544658005623
-0.30930269959970857 -0.035001333732896711 0.75993201600998739
-0.21322797790975656 0.40583331751081531 0.76669998780506177
0.63542473140370426 -0.47612972124219155 0.67891477470268935
0.065021618248627178 0.55414630657612474 0.71261130912945703
-0.66861411434554441 -0.60900364617276281 -0.2299542492072264
-0.23748778971721407 -0.14143920007045008 0.76713635882573072
-0.51404067886944738 -0.63963823211260618 -0.32459719901672379
-0.54543771779334804 -0.59684359908925799 -0.12944299151112104
0.090391897903472795 0.31102125213593013 0.73509189046970835
-0.57346276110020433 -0.091409162265264854 0.76181384013230258
-0.75752088107175974 -0.952059496743626 -0.44073143134846426
-0.60781733210663869 -0.58472212531869039 0.10396039477706487
0.40409156609096986 -0.038293524280627267 0.51271947573940269
-0.24240929222390306 -0.29080735567374827 0.72717947794767523
-0.93624618007028104 -0.70124275558868909 -0.34332096376782961
-0.08461344359876577 0.24539245612118243 0.75798861799888151
0.8021940138288719 -0.35062841287982965 0.69043350687780536
-0.58701075067890685 -0.62891188168447609 -0.26328954500211577
-0.4559825386259817 -0.75433209196039241 -0.31521096955480932
-0.72448501286122102 -0.53040691672495655 -0.3060113055370195
-0.37344448638072525 -0.44942282574869863 0.64417905707729806
-0.65098494673630647 0.065836938717704907 0.6778078252447699
-0.14047417778248938 0.57071687612216948 0.73788755289640928
0.13185204875008649 1.1628305758212232 -0.4039710658858926
0.13868559453514173 0.32898612783743175 0.70952207604893847
-0.5276562299871107 -0.044925128337421683 0.75784065498496211
-0.23965555282379025 0.22506877039964124 0.78475087109987385
-0.14705350063004907 0.54617842047587661 0.74885370339405366
-0.71299578101570393 -0.18441023397944889 0.51960148691262731
-0.21265140864282817 0.28639244325760593 0.77712900822950814
-0.21660197107130585 0.47100534977557906 0.76631138004570687
-0.20854364892916522 0.47196402415271699 0.75930907108853773
-0.50701342358918922 -0.056166133867419532 0.76594274034196985
0.39806284995007668 1.1635133390511561 -0.51737483711266496
-0.014381119569778722 0.23023011683293326 0.76090071316417074
-0.35083725085634287 -0.28308184802919811 0.78268635006431087
-0.78312617485405767 -0.75715440162153058 -0.40001059820674278
0.045665666318289055 0.38890402188452988 0.80585804523706983
0.054918414314301778 0.72625693924267409 0.65790145818382761
0.3890650525324304 1.202515154071806 -0.43500266939534349
0.58902038050943162 -0.38315124367812459 0.72922351069142266
0.67396630251124634 -0.26052594936561135 0.7276592203956298
-0.12177214388437818 0.27750286845748651 0.76839939431684456
-0.079565125573117096 -0.45614013943437859 -0.26489480949713967
-0.18293886278977967 -0.28926824586413202 0.64164096312046848
0.24780211962064119 -0.43540215815269434 0.45167587744813531
-0.49699093375611136 -0.1909917246935855 0.782468656361063
0.6735543991921159 -0.22321308874838053 0.3745181653206775
0.71680519029206113 -0.48423214030922868 0.6899234866284143
-0.12835747157290633 0.40012473607839416 0.81118605918685915
0.33498212676878136 0.18621243684155653 -0.37539522236137923
0.76848721457765201 -0.30660767079958795 0.70678451642978679
-0.1342146990398394 0.27439899770646736 0.75044382445869218
0.69170658535818985 -0.58755937315920814 0.65456842461497722
-0.83279060997875254 -0.17025997554395378 -0.46632223436307285
0.30024422122264305 -0.30225332478023875 0.11848124052774744
0.7172963606969609 -0.48796303440007538 0.68590030283666303
-0.081272681739394059 0.47972897030808781 0.80303879988976234
-0.45350805280500239 -0.70740843381702412 -0.31582465505106877
-0.18684605450384417 0.391953012993282 0.75865765694342713
0.24289340787710301 -0.0032780343494884789 0.78351234153339644
0.46650713995515947 0.84575193203681742 -0.3410775626217335
-0.70840774755268665 -0.64917140612493895 -0.27200592436351312
-0.50915865961231832 -0.27498884693405401 0.71676047065175785
0.16106824505737194 -0.021431526517619481 0.79099830153584261
-0.13567378525284113 -0.08857688972946054 0.75159079953547092
-0.73394159596678477 -1.0047024151790076 -0.41039107169191746
0.24535471509742379 0.78974465966380336 -0.24636457942537415
0.56926703242508836 -0.64339845976521559 0.49859578176882202
0.22078080887983786 -0.031888682268341739 0.81730247296543101
0.64587408127067292 -0.72237741282076939 0.52223181583238665
0.068733686677106165 0.85019578535336504 0.26968704507014163
-0.33878285509940564 -0.4807375797712039 0.62125265913815086
-0.44995097042168375 -0.27410089754835276 0.77090465386892659
-0.32795889705813153 -0.13875515890364731 0.81973083143694936
-0.53839365697595332 -0.33551309267031137 0.67917381596811099
0.1169624329846517 0.42446103686379999 0.71428227967469748
0.56341123267978444 0.80046599652789718 -0.35682357299571182
0.87135736693767796 -0.12168279872599636 0.49737765880081469
-0.34353720121440823 0.083517996243955395 0.78931812288394632
-0.39853733792675605 0.018913094160869282 0.7181520661376144
-0.69811117808970558 -0.34923178736087013 0.70299628753904386
-0.48432456694833448 -0.81405897649120185 -0.27365064857910548
0.13804839068006469 0.82624830893800416 0.35768125857502753
-0.018033136513926351 0.54229791296070751 0.75719225388125366
-0.47698970135961583 0.479929217594524 0.76782139831562901
0.91731526501255267 -0.16266554902926167 0.46346929342522269
0.15314194115174828 -0.081278812043786175 0.78692088002033245
-0.31154630354162904 -0.28920292371682077 0.7534298642987789
-0.23784032088398277 0.004600251404170308 0.75513896529562174
0.45890735181646392 0.73165893215095679 -0.36163681367687239
-0.17929894225738519 0.26774551865318719 0.77162766801254401
0.10461418652586385 -0.16558399159098514 0.80586708568002052
0.28422599731773079 0.76414878841548273 -0.28502287321348518
-0.31229461740953557 -0.32131267490816806 0.71292781657928528
0.15077432026204107 0.39713738387779163 0.70857582507130612
0.39501274112032814 0.083113141309833494 0.2133099903769482
0.45661587818978333 1.2730231113723907 -0.48529497600011773
-0.53825373097493534 -0.35093259600499344 0.67981955731870913
-0.23564139932518202 -0.01372033177066001 0.76203159273664056
0.89108306751909527 -0.18299675245260771 0.42347582092961078
-0.49159758095787853 -0.23585928181325322 0.7625850034315409
-0.0071134824799159446 0.23699700181425065 0.76281531697221538
-0.37634352566897533 0.28742754446891339 0.73188276963733045
0.14404114540437618 -0.19830828036264947 0.8120685393589584
-0.40591477503996276 -0.3673416342957232 0.68358392065539419
-0.56667833237372645 0.18261065415385169 0.7509660259418709
0.13628181990560453 0.87281016802256883 -0.35056922448745453
-0.91085323715691757 -0.66813538624439772 -0.33906320655049749
-0.29227079444027915 0.66040830316106724 0.76620089499474142
-0.4241718170919011 -0.28244963257486688 0.76487582785757668
0.59469199393874717 -0.43919759966580862 0.36367794882755211
-0.16311245429958099 0.58389575265246574 0.68038286332776354
0.43255310928438639 0.61632378122681963 -0.30021515542860833
-0.72189117354358601 -0.67314044702162334 -0.30551809812064423
0.20813089229592308 -0.17496867726879017 0.78936356524136286
0.52502976613011754 0.0089420091686385206 0.57333582049569998
-0.49167478133559861 -0.23547730824885704 0.75887040516684579
-0.035496894420237624 0.71673287294688848 0.68856925086304344
0.29803193791150306 0.548808068920426 0.51733244382563726
0.12437502802630385 -0.12708240996482933 0.81270312964946712
0.37854621364751928 0.16753479230288804 -0.041481675518598493
0.64165281714131339 -0.024056574179218693 0.59903471600434699
0.69876886970372709 -0.050265041961360168 0.62352059203738719
0.74610751045218748 -0.32631248827518888 0.70441075834767819
0.38827171102346014 1.1100336875191275 -0.50488578783988913
0.53972315300069806 0.8179039591249555 -0.26893375619834714
-0.33947397088111142 -0.45321131103060497 0.63590251772603645
0.46530237500997762 1.1739197069824259 -0.41399926216531091
0.72797622759583369 -0.40690011952693261 0.64382475344189194
-0.51944609161950206 0.1827316776550898 0.74220022519568829
-0.33932714906948558 0.43108894751349958 0.8052871598667144
-0.4841130360724879 0.16316882661995358 0.57395188997301361
0.072623652252978843 -0.10788022446486378 0.74800364994610824
-0.7487492391025552 -0.30255543216666081 0.57268519791359918
0.2366256530140376 -0.069508192390424384 0.81359167352684736
-0.12962591922105204 0.51825022180364866 0.76149112332994395
-0.093682551824667115 0.54582859096862535 0.75523604491225882
0.77116504094471239 -0.39631544751743419 0.68326682995975063
-0.40633562076668639 -0.29135582177484232 0.76802710607510249
0.60678741120910473 -0.71726561541496636 0.5301710142206999
0.8424445753154437 -0.34423086277691795 0.6676805919492903
-0.66100777258888144 -0.33866609510915335 0.69912538314635064
0.23001395030720673 -0.014915464936042344 0.75406673784670519
-0.84321660396576448 -0.99045264889392826 -0.42249950535383718
0.71133679807618888 -0.50626772599652314 0.69148879568927968
0.79062714963297154 -0.081803593282600673 0.5074838263109136
-0.4938237878692715 0.66027010774423633 0.28698767425849647
-0.41214985518465119 -0.73271939284537668 -0.29015347910647793
-0.49889595421478194 -0.63643404497106282 -0.30826607192538091
0.2441004019737853 0.9843313419022659 -0.35232510628832048
0.3251561000203651 1.1238470539768599 -0.39088548078207097
-0.20871946530203678 0.69401540026755693 0.42559609277067034
-0.88888346562797116 -0.82218446196367445 -0.40323967737589261
0.14562578922266933 1.1243617559992405 -0.39676805101894663
-0.14051021269248037 0.64274485318556485 0.60144893048357861
0.34087849956614491 0.72718231866220684 -0.27508245603018455
-0.1937433079971731 0.049013462910723504 0.76135822648719209
-0.40052012110863444 0.19487024163213107 0.58279504682602035
-0.097979993702907109 0.35202872671507812 0.81393813436682727
0.2625533882685005 0.67629622340080875 0.5374445785392612
0.011227949331965581 -0.31773304993363194 0.48978301139150471
0.18518737755897297 -0.20959042732327915 0.77718222368041179
0.1221198284858338 0.95667894787270136 -0.23904236798340239
0.19741945720603393 -0.30740535058050655 0.70372827766674817
-0.2377277387827661 -0.02310047475491217 0.76564932134848362
0.099093642392658055 -0.0877889616073535 0.75634655139826101
-0.32595786650720804 0.25088534459253609 0.81279158593316225
-0.50605186734468099 -0.62304410281946376 -0.27506378215035215
-0.47398626301638203 -0.73394760218162425 -0.37275567376424945
-0.017113890563773992 0.62542562743432484 0.69329065165779014
-0.29260847741526419 -0.043978416053648495 0.76378957324566699
-0.55341403392527844 -0.22759676312975152 0.71081523952354253
0.48673669844468326 1.2145005286768691 -0.42962553743387916
0.70308163336058804 -0.22581872127867086 0.70733391550591129
-0.88716029583119926 -0.79639541161172289 -0.39884430682060312
0.74452723667312737 -0.43033206142893538 0.65793507905378523
0.40465525756413712 -0.54018494912305925 0.67269392291558461
0.45668971022762861 1.130914721621096 -0.46450040778658419
0.51940533349600848 0.69115139329266029 -0.20249943759331313
0.10045014707794131 -0.092316220319561326 0.76021125733953276
0.072182655726767631 0.61582498737713021 0.68199594121910323
0.44566729086585077 1.1189213232660178 -0.45545197562469308
-0.44456546726627022 -0.3618953325478742 0.68468167407508673
0.2158615634978247 0.013978820173005779 0.75597177355004952
-0.18956823971426395 0.62250706285738744 0.7460856471442403
-0.64997093062920519 -0.32851661755487549 -0.53508164875217223
0.65281721958758965 -0.080149623279805127 0.65773799343849504
-0.43588870839521654 0.0391688506561092 0.77843846717064835
0.31736301642082054 0.53804364923372816 0.31649280866504625
-0.10269290803185527 -0.10610626261875056 0.75996881902756996
0.022182305846834893 0.27780655931049836 0.75727916765738712
0.12608400964657562 -0.13328330612874595 0.75611247690261152
-0.15374412465046383 0.39212488727700989 0.79413396577880313
0.55095403895792838 1.0270690765910304 -0.47791034751296202
-0.3227456571954046 -0.42450562002865966 0.58397943875571645
0.3199590259377274 0.74184186568995258 -0.31208725296932549
-0.03469621964516989 0.85551939459564497 0.55335049882613596
-0.020680434137966941 0.124243182252048 0.74531493819171679
0.23123422031486651 -0.016386568742451146 0.78352696447159254
-0.8103875028783083 -0.95970314957688441 -0.49642125438873652
-0.039588800289866777 0.81780499912250271 0.67687848589720545
-0.45879026615342688 0.5063484771286042 0.67015040423934913
0.85033910458177875 -0.13773582616654501 0.43295749248001636
0.5045712465384149 -0.048798450533415028 0.68875389140524035
-0.748150241640956 -0.24780657837015851 0.58944800071180936
-0.18396119665634103 -0.089267263605921521 0.74647880576248582
0.26042261332472094 0.94087108308107759 -0.33803414187593805
0.20333935867560804 0.0067479327665900257 0.8015024203102179
0.36924241101376071 0.58433397736694093 0.071574918347842686
-0.025876906391017584 0.55494481647766669 0.75169905190446329
0.629962864823149 -0.050543989992640093 0.64602586272103935
-0.22947113944884023 -0.057232931052017655 0.64526300313965379
0.67745510732781478 -0.69456135778606798 0.55842825773221683
-0.67815220559479172 -0.97324998604459267 -0.45346771976382882
-0.50266793410327892 0.096287068709429491 0.79995804427414186
0.51920406313008272 0.90187408107976808 -0.34525280087722265
-0.47566584644251009 -0.61503613713405247 -0.24030894571210926
-0.66313202893499223 -0.59755984187032141 -0.21504174878736571
0.12014567857756475 0.45753556381027138 0.72044483422791583
0.24397805423122212 0.98485490749561966 -0.35289882033378994
-0.44664597565944852 -0.72942155501396932 -0.31576915283020313
0.56990948417394272 -0.22990179233488206 0.73325694662914387
-0.49787757345899986 -0.63781801786010228 -0.30413651093409744
-0.52916109590270555 0.056946254372874705 0.783773821878885
0.52088609569626243 -0.019593325002276174 0.45788304052845064
0.037831685307864404 0.83750930721391492 0.6366054987749461
-0.76315687915813735 -0.68415455264975122 -0.33573829614974748
0.10434251683728135 -0.16024706025484292 0.8086823429362191
0.22908200476082197 0.8586957085263025 -0.252801761883795
0.77108722739340418 -0.27034862089823619 0.70927838995379333
-0.60594502489467583 0.032709058199451135 0.56089455650649045
0.067880351755647439 0.42888719777263695 0.78552310016432614
-0.23430746228698052 -0.31635803772854665 0.67806751997030545
-0.095591934959953662 0.6398792818579615 0.71255702136733134
0.14396061852064501 -0.23593559129753805 0.74064376578957436
0.74629409836056215 -0.43213993391715633 0.65993131210771239
-0.49273373806625909 -0.080740176362718685 0.7703334917759932
-0.75618464548953068 0.080290902767708339 0.66707371946457172
0.24174308938681799 0.035151357766380897 0.72501783186715674
0.13345773381047366 0.37672123736747309 0.71968026150246267
0.25318292006590282 -0.0026833799608176889 0.7633291126807269
0.016162239524007305 0.52264097455027958 0.77244835957919733
0.29070262168096683 0.72610195813953504 -0.24151291880512227
0.3089387160308501 0.070278372915590026 0.56546201932134688
0.13567011439674423 0.88220705301204383 -0.17299893666879207
-0.74491727469903424 -0.13542132445849475 0.35929060211350361
-0.24177378493147472 -0.07199284219782065 0.76485902940794404
-0.66690921588673291 -0.81845328253756122 -0.46862145562358037
0.17354494054725933 -0.17172326936622007 0.80877220889120949
0.8539219920662795 -0.45957134398279464 0.56098346329155646
0.36050799564611369 1.1110078488216715 -0.42342666544208374
-0.19045920858538024 -0.27192262846139315 0.71723815774402078
0.46767168414280968 0.65753560174901438 -0.30245415807346809
0.15722576185496723 1.0038074051047357 -0.25782908026783752
0.29024776736732782 -0.49488317208475863 0.48650471307615106
-0.76104518429104595 -0.35508499145310157 0.59655718981586214
0.083582487928920202 -0.14408426020344356 0.76206118425098168
0.52725086867067705 0.98203439161612283 -0.38012417728062309
-0.49958976518711218 -0.098550121834207971 0.75596760104336269
-0.84183296992273959 -0.92443330053896844 -0.43045147923209282
0.70692145091183711 -0.48997442488979237 0.68905923446572359
0.55200430200489925 0.92941937849594536 -0.34203232531689431
0.39256546374925017 0.0015272375575772767 -0.16513333881547981
-0.29336803036784342 -0.37122530243966523 0.65652476273435667
-0.095570078671793013 0.34823109054815404 0.81473543806552406
-0.44336176189471921 -0.70724488609597103 -0.30962370619575275
-0.64699539616156088 -0.74452924513954599 -0.3489687791881293
0.41482168114592621 0.82696357574960899 -0.40702962340546023
-0.290930399478464 -0.31774219932171111 0.72016593386627648
-0.20537422757491797 0.74452897751719282 0.60151902815405833
0.073338252665424264 0.60061532310202637 0.67657151351517797
-0.079606559127402221 0.26817817826740153 0.76021108241005031
0.39639930653203859 0.14458529943465237 -0.14779381408211734
0.29975205748263534 0.73927653552896544 -0.01598499435147005
-0.37540600377564992 -0.82226938800034377 -0.29336684276688096
0.1476844881215742 -0.04088579324359376 0.77125596738738444
-0.62524793669530787 -0.64725592245180685 -0.3108400025951048
0.13048903033460135 -0.25797066281521097 0.7215164986770688
-0.3083803502248692 0.272818817132082 0.77797404991947161
-0.56611622855935195 -0.16117495442288909 0.7538172875843081
-0.90588904719351859 -0.95196671693440482 -0.52078204675754236
-0.10794296525352998 0.5911424735226336 0.73343652653116997
0.11861044693704237 -0.095730419329368655 0.76790630476587296
0.24536569798723207 -0.41667804638892392 0.40850878916590361
0.27831792581718773 -0.33980048292305753 0.22605490790104432
-0.14698915328087736 0.50678200083264802 0.76059542397835456
-0.18201593062642019 0.622427154553165 0.74305903588697753
-0.5003935518455993 -0.001512413178383909 0.76959394776648082
0.69896353020350599 -0.57632551022942202 0.66067424338557768
-0.52960642750377074 0.00084329179540176824 0.6664878690706395
0.22807208670214152 1.0534844842809719 -0.36698110464380918
-0.15618650002564127 -0.28817703017029084 0.71125763954253074
0.27982265509053406 0.74311984270137899 0.21485472126350658
-0.34553189256166661 -0.13636574348585473 0.819030369072415
0.16208687107952002 -0.22663944960902782 0.75670494552600687
-0.022088089117866971 0.15727299901744374 0.67793517829490568
-0.29187106990625722 -0.039397299269921859 0.76433082073813097
0.75607561942148482 -0.46024478885115394 0.68100855833488705
-0.44208529284866671 -0.25766795342172522 0.77910227829492829
0.57562472490142369 -0.71409692913434064 0.5028854748069439
0.10773915804799072 0.86242468672079386 0.56970906593905823
0.20428242030283172 0.39550416331688709 0.59892899702997893
0.40424285873762034 0.55946168453187184 -0.15138870249421643
-0.22386698615607159 0.082045508703366465 0.77108944084988984
0.6789694309899108 -0.36670214927398725 0.67744910834536309
-0.64385657076786851 -0.36203543820370454 0.68209940437245109
-0.51083400588040817 -0.62469440189947401 -0.28254154144120491
-0.047274194700985817 0.6586200228417054 0.60688914705362151
0.92944586648177818 -0.26218156218521926 0.56068653812429403
0.17353059463283552 0.88004883940230572 -0.21879641936556293
-0.26920743832869931 -0.069720658995780393 0.77859152404445808
-0.15348461572016348 0.44501766539052845 0.78634039818380774
-0.49697608601897691 -0.056741807737408223 0.7270807062630098
-0.37963521156350666 -0.0044084534291122246 0.76138799053757911
-0.33906713132760657 -0.68791292443286922 -0.16715507814773534
0.5871939786331849 0.99288468611256531 -0.3926531947468701
-0.46256018337704408 -0.70564822256077386 -0.29198993231179315
0.66476738730350959 -0.45900992026078846 0.65468437406641655
0.64092067915714246 -0.47790881140194408 0.69140990502932098
-0.62584020387865369 -0.6413754866836987 -0.27377617348689398
-0.93447304634534234 -0.71068144059402605 -0.41973032723603243
0.34880094438031722 1.125275838467249 -0.43229489758098
0.31986429392116555 0.39693579460095291 0.52827884437784622
0.12104570107930845 0.83830786155850379 0.25389399023347003
0.72770256147599932 -0.18395763014393296 0.55918992515606392
-0.75122877872229554 -0.35746472421046149 0.65290245208299902
0.078188055469585294 0.43456498721846604 0.76705487437331499
-0.96974586283855757 -0.8187038619091549 -0.39304064541551398
-0.64936733441757966 -0.23943586478828038 0.72839381742251774
-0.13244047220742594 0.57044232735622913 0.73408032535670387
-0.36314049381522651 -0.078103127765508873 0.80277017146129226
0.32049118476789717 0.093141567248191684 0.47312900198102936
0.63041124302250218 -0.44342642928343601 0.6777702091090676
0.37838677852096581 1.1902222143093582 -0.45875724120659456
0.079727514661426913 0.62771862595742478 0.67867025112515655
0.66321184014433987 -0.49664642888374644 0.69930327709411699
0.73642716695778176 -0.38896040960378375 0.64967490249868742
0.36839896704059555 0.63753225972080463 -0.17774907647524008
-0.37718257321495396 -0.57454292474947388 0.27235717814277183
-0.38052968695389922 -0.71839989891459943 -0.34168033296627998
-0.083634730332535323 0.55114304457644181 0.75168698137199996
0.029095991958554279 0.620377939131455 0.68406098806545046
0.46540655633886996 1.1738873213190544 -0.41380435891659112
-0.70401367823106753 -0.07529003228655462 0.77532646724826293
-0.45035842579660113 0.210884363158371 0.55009337404258929
0.14416155448461243 0.29408116483252655 0.71486407101250693
-0.59788795636525194 -0.93671275577042312 -0.42584701990462559
-0.67693062896438772 0.10030135552329766 0.81139235611642135
-0.051331249440771387 0.533932448832104 0.77268123857055571
-0.86291594147710526 -0.91156405727253631 -0.44928555800799153
0.079944669038880534 0.37129355681876275 0.76559623465135473
0.66219682817341763 -0.4977376244580225 0.70370534213674851
-0.56520201655763103 -0.089771242116432504 0.69347743859449462
0.66399903103039093 -0.46045901848173731 0.64838377429072402
-0.61776809055385851 0.35626217741980781 0.39706715392419767
-0.00770318316913432 -0.1160788135710864 0.76944157285817028
-0.028827066262357093 0.18861586852112211 0.75924784673045131
-0.57951114782551683 -0.58312758921603103 0.18472181185586445
-0.66998423609211954 -0.51773277823007291 0.24618618502686829
-0.20581175863912371 0.3241505461462002 0.77792426353414612
-0.58283115981271472 0.24487828976625181 0.58597281463131878
0.72273769408786848 -0.65253945082867304 0.5542736045581329
0.72049000216549985 -0.31580345749406602 0.67535786649278018
-0.68922722295883965 -0.68836224452692996 -0.41237302601731507
0.043528516812163076 0.66277793853117295 0.57018128960489278
-0.4409577322237741 0.20585941951140185 0.59392199115041766
0.77395206393098936 -0.41362357543035566 0.68564021054327373
0.32498481664500645 0.070494145498158467 0.53754170076742325
0.3679151839245467 0.96716430067655068 -0.42515548104659473
0.7536812603996994 -0.33906998512865805 0.68499043110145674
0.10751410376852544 -0.096817436078819874 0.76459740548436628
0.34115637996926296 -0.39036863717677761 0.4866653720469607
-0.8809552130617897 -0.33080447387166423 -0.32751079770650726
-0.36906863236005449 -0.79086308211519762 -0.34278015162261255
-0.60199788772968565 -0.36542896368509603 0.66950096447658924
-0.12141466192372176 0.93946151415564239 -0.2436341408151097
-0.21856224809964075 0.48844871461036732 0.76212492177712221
0.13432575342606246 0.25136667833492865 0.72712210327059168
-0.21682808152404931 -0.33896111675418794 0.63139545420392018
0.20091583082590317 1.0181351878207383 -0.31361600856569538
-0.54846608420626808 -0.88942018444130611 -0.38564741331059604
0.38673337447320932 0.21623658827273839 -0.036966614580780544
0.24268209546152875 -0.0040667015642394944 0.76810434289388496
-0.56937033539478676 -0.048728130772286882 0.83760798454133201
-0.60505061858387421 -0.2009576513339173 0.7158650120295178
0.57055797509551098 -0.0065517993456509771 0.60070379658655781
0.52273074431120881 -0.34740232005337646 0.32784479627944052
0.37058704986346491 1.0976358407558777 -0.43395872304112615
-0.27395850083149043 -0.11254176152639417 0.78930332049599272
0.10943317409964504 -0.14085796763859371 0.81011776133220081
0.72517885462742981 -0.36958513113082958 0.68113825115167592
-0.19364198408833477 -0.0029355288812329405 0.75021092773349718
0.26023882858385283 0.75363917838695416 -0.19964654174054841
-0.79741197126212171 -0.90091299155861293 -0.45213444617656817
-0.62688945351089753 -0.28615279799632498 0.69877888640956876
-0.67795799737393558 -0.97692980285274622 -0.44542510636870425
0.14100165857434277 0.41106839329976896 0.71600343049498516
-0.35133068193799799 -0.28069310865472463 0.78478685599657538
-0.39548705260849815 0.024065405639297932 0.77520807868220309
0.10226499866368144 -0.1781296698438144 0.8042862337688792
-0.91916019801091686 -0.1763434683640015 -0.35008882394682828
-0.15700202906952931 0.55611642934741568 0.74030873231298244
-0.62019773561159042 -0.64335763115720201 -0.27737681578677348
-0.1884650067476592 -0.22933825158521692 0.73757566914031258
-0.64617111594208154 -0.96011901467414518 -0.43534515674368635
0.21997716914225707 -0.34052912585972561 -0.060496414967523324
0.21389476558621645 -0.38243513984614053 0.65042484945773804
0.17932193008598496 0.33005875843918986 0.62462869755473305
0.083976058550382149 -0.14653690432699085 0.76449121754396998
-0.10099392885593517 0.37090357752182612 0.81604535845079873
-0.70210071432911003 0.15343459065746656 0.78263456704546286
-0.016177426711244891 0.16048566336350945 0.75786715596815313
-0.54502857517700853 -0.17155473762010587 0.74850152357404998
-0.75273655603075351 -0.15145866499176153 0.67527179608822552
0.33880690014186227 0.43051590243770038 0.2753595883857699
-0.42233231932071114 -0.75947288839254323 -0.27382152130093695
0.11957472836599159 0.73280910748123262 0.59874863069050122
-0.22481500418409617 -0.36153589175140333 0.68216757848697718
-0.90906814316585893 0.26799111609741955 -0.1768549076125423
-0.17349481981655668 0.32770861892266367 0.77274346265427285
-0.37024995773264813 -0.38846836063037715 0.66214470167280626
0.28473304530634458 1.1342724277132752 -0.43724135175606094
0.19196009213080339 -0.36988647852845191 0.047846877536686053
0.33150222405385943 0.95551965996585864 -0.38057177715385215
0.74085667201041616 -0.41519835404280947 0.65510468182934289
0.15282952431599028 -0.20644194127284976 0.8044141641835405
0.761490682910686 -0.35198645098940684 0.68513884896595423
-0.2910457349995994 -0.13913689417940578 0.79510863509842267
0.92031676838413956 -0.1983795671798454 0.58567329889724939
0.42532428084994006 1.1731284682442586 -0.43066933159193127
-0.0076664503604852996 0.26207614955444214 0.75877455511599834
0.36063650864104074 1.2682370758136265 -0.52070261960420861
0.15791900904923217 0.33366843312898808 0.7006441735051836
-0.51315032536008864 0.0057300699098075114 0.77934959913218449
0.13018185805055207 1.0749375575168012 -0.29154269672051647
0.12642165192023391 0.42130793246947107 0.72288725051783276
0.24277128183123686 -0.0054704393109332727 0.78854273179998202
0.080897370344246156 -0.11474942162642821 0.753480952745333
0.11410782392739982 0.97758569202550394 -0.32920244488161154
-0.53431514109872147 -0.83153374345518305 -0.37630487065833229
0.12231480126821603 -0.20956454359349141 0.76536840154721775
0.71928898254290852 -0.47921145355597661 0.6830387054622582
0.092356525598660255 -0.30973224708888303 0.51441809221900492
-0.63521954274252468 -0.11034572886395022 0.76879155604854432
-0.82355206122228708 -0.70000701731131798 -0.3257232510080792
0.2003323883351249 -0.097064163206279863 0.81950935568231387
-0.61318490228097444 -0.080991445455353334 0.7636911716474124
-0.63671374879695053 -0.65796029214638385 -0.30687466092564097
0.29018470613937808 -0.24076566760352236 0.76891649139284723
-0.65583890052397642 0.043837355522213795 0.69395507945304757
-0.75163202910085403 -0.94644796451042978 -0.45927898822982255
0.21529739660679237 -0.32551929953994074 0.69982183915660201
-0.51527007242016509 -0.61154496331135277 0.052713448371658034
0.3417439751102519 0.72712013215672044 -0.27266300138443111
0.11866912852951875 0.91153518463283012 -0.24003050032635365
0.30290808566623362 1.1656535611096928 -0.45043295757488622
0.66651398575629939 -0.30120336270573134 0.73295701490428744
-0.26691645491790261 0.08519079494504922 0.78321517477865421
0.21079025127673212 0.083769436918856854 0.72036059434949529
0.050697981111856194 0.40967800900168605 0.80155356917727971
0.20411568929257307 0.78593436422546148 -0.2429453052745556
0.07266795498530243 0.57308902759848035 0.69929142587875504
-0.3759673707627087 -0.63134939948951541 -0.0042791220710025613
-0.28127836296212116 -0.40428917514029283 0.59044023962156178
-0.53052901526293716 -0.078819656106180247 0.75841967206615557
0.67978600859192007 -0.4349643060376005 0.71320647883484156
-0.51020773498533778 -0.35055128246723832 0.6766948496225107
-0.57457070444242042 -0.27017980298489896 0.70635005694371067
-0.76495067140292017 -0.87875290850736221 -0.42652202893644864
0.0099825458432289266 -0.439228395343222 0.0074830287695599879
-0.65124532819465486 -0.89177437245270941 -0.42344885716413039
0.72168430808663331 -0.28563718138321548 0.71336220809919748
-0.034677364191242788 0.35693854603105746 0.82167063592050127
0.22568895900006269 0.21962927967268103 -0.57913563157375336
0.24644865503690472 -0.0092029790746153139 0.78751583748694798
-0.26880127406176157 -0.22131917724869687 0.77996197713614279
-0.58362257287817698 -0.62917382317599513 -0.26439545432500688
-0.24507805114751591 -0.0084922123936399529 0.75586676728802615
-0.2575846023895032 0.39273107851300715 0.75917183236973074
-0.64716864058239487 -0.009774031570505437 0.72497048979150591
0.50270966071768441 0.018396178700566423 0.55715874284057065
-0.53694799989239161 -0.3302730149597064 0.67837853002126769
-0.96164712273957331 0.037637702036406928 -0.25650247182498465
-0.60523028669899404 -0.58074908492039334 -0.38504185092630472
-0.20090681311070302 0.3427459612487278 0.77753624443241165
-0.089221532970698902 0.26089124140714048 0.76385736357620004
0.30613002451858051 0.71736053327082905 0.097311764651870192
0.15424067598151403 0.65518457984146394 0.63401925245315471
-0.67368348526431276 -0.24457866100051495 0.73431610539912029
-0.92404247409540163 -0.81571696373414859 -0.39368038230662683
-0.24936615635684234 0.54315487237234628 0.77185735135084244
0.13136917486725075 0.37813755421374751 0.71991379682317636
-0.49023223067105337 -0.37075307060181917 0.67541983950942042
0.14256148909745647 -0.036448546879980448 0.77518187696150775
-0.44145957805407221 0.11301993675624011 0.69978504546896758
0.13845109320393867 0.40985438134008967 0.71560927362435223
-0.74881308805758273 -0.67280772240226483 -0.30811718758681739
0.13839094139441066 0.36026376425788165 0.72538643752850795
-0.52424676043430996 -0.036676848214520774 0.75467837446094421
0.19751598207824861 0.0041528586015644464 0.79582707808403508
-0.39283765342672794 0.20853361400057224 0.61748935332557409
-0.74094982042126389 -0.5297100594087496 -0.049928462656248035
0.23608099864580634 -0.0017258376804480946 0.77636906347480994
0.11080330064145016 0.44514079464167366 0.72624138974302888
-0.45895203415025598 -0.61356375110903016 -0.21200681091331042
0.1491780966793943 0.17168939238529646 0.73832817728393207
0.60172394912846627 -0.32400045606653016 0.65777837056738342
0.1966864021091369 0.83096490752061347 -0.010463404593153758
-0.45596429729667021 -0.36360133303880654 0.67621631991230635
0.021192456796915171 0.5663891547079194 -0.6095710723384975
-0.88824619918505654 -0.68175159366704818 -0.4125205852349989
0.23993536672513205 1.3126357502543158 -0.45362308616298108
0.2330230129850337 -0.036577524027800123 0.81731772313096052
-0.5498300938034415 -0.30745661197423557 0.65235403494744837
-0.19460258905607475 -0.098601747831398634 0.75471382695680234
-0.98635750146674805 -0.91582700669280381 -0.44840911859791355
0.6970916678820327 -0.68186376729480713 0.53615686050330424
-0.57285202805007351 -0.10518284342327267 0.74596655433966097
0.29442290239520652 -0.18922045735603632 0.74784148790877936
-0.56878200115835931 -0.10648234213335694 0.72675477775774677
-0.3085246320234788 0.31765979625816865 0.80351151418853561
-0.57142338616224286 -0.11041482775210731 0.69998610864829391
0.43323103184497036 -0.083904617031053341 0.72265713175756208
0.31077193837456957 0.72344968983904356 -0.27193303160633864
0.20421692091312416 0.49398819841143871 0.5810690752106904
0.28165828235178658 0.10758985021337335 0.52499071169196032
-0.067508634816119795 0.55854812565708301 0.74317941313178792
-0.59830515982648258 -0.3631149460093166 0.66741691490447463
-0.5592714857891099 -0.17155880621077202 0.74471933775638277
-0.55378791445379694 -0.068908248538115835 0.7393736946821452
0.19804093716352078 0.33314846723105873 0.68508931285266383
-0.74800352890142108 -0.95109742708867273 -0.44586835876322439
-0.039073508383523858 0.21700096594330276 0.73287475682901615
-0.2605781877433857 -0.30021489592333128 0.72461342670174456
0.29379245512051 0.36588016906123855 0.57884168740621078
-0.25351997340884136 0.50230826869228462 0.65168054430239586
0.30884432239757409 1.3161964170075038 -0.45780922312026817
0.39857958136821381 0.079626714573503676 -0.032600647504038349
-0.34894431464612186 -0.2520783850377768 0.79834719016575484
-0.079833487891891153 0.59959471099062611 0.71974950958905382
-0.3079418984858755 0.55750137808164357 0.78534274446993813
-0.36739158531375793 0.42770212449967238 0.63010265686486733
-0.41019018339098423 -0.78910107254155859 -0.3053731635060366
0.82283407849684753 -0.38333557792669737 0.42763139554084972
-0.33887492523994789 -0.4399317443541777 -0.50028823625792929
-0.71283951691854397 -0.23347875538109975 0.44019497773064487
-0.57793172497871659 -0.71405411130377017 -0.33597206987958783
-0.68000138124087073 -0.99799702182668781 -0.40341015725607132
-0.095341238489719871 0.51776579430943159 0.78187789280764974
-0.022135201791524395 0.19929018577431989 0.68230966940879867
-0.44680230283339106 -0.75712249861395264 -0.30539959900734104
0.30647510189256622 0.083034042521681783 0.50385663026107608
0.74423824227740054 -0.46067797854460313 0.6800246471286937
0.030803487546271421 0.92299710791489464 0.0050118491576967017
-0.48622047888002029 -0.61871994623561821 -0.26029250249625902
0.69794470031467526 -0.40402708406887555 0.65724307512620728
0.20235583241674604 0.92964958470212866 -0.26248905846844472
0.02726908969350994 0.56583034738938576 0.71733096573289146
-0.22746592426245371 0.29021279161993263 0.78389490775574977
0.19488508466687393 0.011547216980517749 0.76301178193252883
-0.39416504895999793 0.32330454253164653 0.59942435217223711
0.71511635091829717 -0.47523300397023949 0.68624902737822069
0.21927422409718453 -0.038969775861271927 0.8127412507835281
0.14402513164628339 0.53508933868419373 -0.55270001339282515
-0.32316732426870587 0.18069666625911207 0.80406965835934496
-0.79538837998205736 -0.41668400057089272 -0.35360152515280596
-0.57727159988665466 -0.71524374722293094 -0.33609871978753603
-0.44663885093216749 -0.65810356407821491 -0.28815268589430265
0.39253444786991065 0.81694585613662341 -0.3265204985660537
0.30740264642683712 0.5069643559052146 0.47446204866503194
-0.41105076112089201 -0.071884416076292812 0.7955100619750386
0.048363459040466239 0.7165438679268199 0.65626762288036211
-0.77435612494979567 0.12962820123462859 0.33014455859781522
0.12763055874206963 0.52807909474935633 0.67380561883885548
0.27074144770132902 -0.44488310683861521 0.41155303497671958
-0.57078707640255999 0.10841584106433189 0.61293049075014494
-0.45888794578310543 -0.36306131482748949 0.67419954863588127
0.50461698600518901 1.0708453004809098 -0.41633365512331189
0.27674022243192553 0.48277707522210989 0.60821182532687601
-0.42887555630003504 -0.63569361701291172 -0.22751518776885282
0.38431115908439706 -0.1525026700011507 0.031596153031551166
0.27716382197897516 -0.085827591192270347 0.77501046222118042
0.26426150857349384 0.87560579367755409 -0.31750169651939331
0.027247432035231611 0.87477457861404928 0.49467610295490916
-0.60303197852299206 -0.64048718592900222 -0.29589101466403944
-0.35784108507309664 0.43639245771121793 0.59723540861510926
-0.088405454055278554 0.24434194531854381 0.77523174709810405
0.15598199659712009 -0.041985750314559311 0.78929400955241569
0.30303444120414724 0.60379391519857251 0.33905303047381352
0.29793827846266646 1.2202582968159423 -0.41241422757034973
-0.34701999832034575 -0.27673789235493196 0.78334145680891076
0.29965216567328312 1.0014199706915932 -0.37204658931280754
-0.33745484983677154 -0.37987955766215009 0.66135067041410167
-0.48878488546545285 -0.195214062231853 0.78554210488497089
-0.52179925754424517 -0.62324804171106152 0.0061803299303646586
0.74697428159203083 -0.45463630036093861 0.67590263681231555
-0.20403967707396031 0.19153225123043427 0.77742587742309821
-0.71584729429727645 -0.46201304700753099 0.26314043148170646
-0.7483771310557219 -0.35696985442344847 0.64815697512146797
0.7198688163993765 -0.33817514614345789 0.65856746385752185
0.39302998204846951 0.084112144552321411 0.12046224191331012
0.13430699682217195 0.79834325294777853 0.5956588746886915
-0.51671215222892219 -0.061677185754877684 0.74816500360895155
0.16014489215722527 -0.024540339881347961 0.80411998376353022
-0.17098666908783144 0.57198143014788028 0.7395482987891675
-0.60896283079515712 -0.59367731042233274 -0.2013686501885501
-0.45779871326999438 -0.60921522400028516 -0.19589081881853798
-0.50031039671085198 -0.028775855697910302 0.74119800901540245
-0.35630033820278639 0.21695516410525517 0.77852315604145161
0.061739637987861418 0.70554035655055491 0.66059101672778908
-0.85543736181929475 -0.98977874500400276 -0.41072957712632707
-0.15015454270740491 0.49875704743926086 0.76469361713064199
-0.66488727831055705 -0.0020375605046303313 0.7931889514014685
-0.40016783899101216 -0.35725967939968584 0.69692402930028052
-0.66678029539092698 -0.77368603906866262 -0.35423333086374154
-0.28354847010032497 -0.65059436070211418 -0.15100534778202981
0.19040501741352056 1.0832318127275826 -0.32834923937582428
0.37812301648322555 0.59190004763823434 -0.035763464520447596
0.29058843696122594 0.88753927743357508 -0.33212961623487303
0.15200482049663311 -0.072763759142177697 0.78736806398464587
0.17836669751144463 0.011656348648287462 0.78111497516882356
-0.43731621951562971 0.39569312187242645 0.67680186618470417
0.62457809765948546 -0.69804908639639207 0.58926220198637225
0.81228058508165901 -0.31575333686085383 0.68493081232730146
0.27972856087598374 -0.0031908299698351072 0.7341113840607596
0.75833448375707135 -0.58403409304723564 0.59783244824986359
0.39548399482285324 0.66977555520998577 -0.2195330349131388
-0.57715623711747455 -0.62579708020456337 -0.26824746221585261
-0.29774247713362101 0.3508987943371209 0.68291613434873
-0.072306750735709358 0.81082499822039633 0.32636666046912421
0.7810698158736642 -0.54806812209741906 0.48968868068578697
-0.30666872104475473 0.085243618423776368 0.78928166346291251
-0.18536095846892664 0.4060414098870595 0.77286236936772568
-0.8102225665577798 -0.96287497078590789 -0.43935578129525155
-0.52206566690489886 0.014885169855473279 0.77358383389859675
0.68955720360881401 -0.072726943902843288 0.52691327028682622
-0.85789834210744687 -0.97360373886329254 -0.49891129495214237
-0.10829532489233618 0.25907753405804534 0.77511992186247269
-0.0055124276469342703 0.31781592094672306 0.79354011726832852
0.27968092626046692 -0.0038813105463741948 0.73394700058713735
-0.71923121176791227 -0.97477230819621496 -0.46064920707933776
0.34233315936329589 1.0467945453195568 -0.39670497605347421
0.55652360936585865 -0.52095015367057762 0.37525863149278549
0.24451152587287339 -0.25971963762999906 0.73426493348690514
-0.058730981041190233 0.38326434071354054 0.82544284284121971
-0.58748247640652984 -0.65967626784617828 -0.31286032703779387
0.87563679455880372 -0.37492057639380816 0.61367244097074725
-0.2417190024342899 -0.44310865127446908 0.62669401661533719
-0.093058610563776512 0.63617250609207598 0.63806478830084679
