34.989322662353501 -76.216841101640313 34.088743031025899
3.7895011901855402 -73.016841053956639 -6.7112575769410228
45.389263153076101 -41.816840589040751 -6.7112575769410228
26.189373016357401 -77.816841125482156 36.488743066788672
26.9893684387207 -50.61684072017087 21.288742840291192
-9.0104255676268998 -51.416840732091799 34.088743031025899
27.789363861083899 -57.016840815538231 40.48874312639326
11.789455413818301 -93.816841363900551 56.488743364811668
7.7894783020019496 -109.01684159039803 -16.311257719992057
14.989437103271401 -82.616841197007673 38.088743090630501
18.989414215087798 -91.416841328137792 -1.1112574934945769
20.5894050598144 -103.41684150695158 82.888743758202025
63.789157867431598 -48.216840684408112 82.888743758202025
11.789455413818301 -99.416841447346997 92.488743901253059
-13.810398101805999 -62.616840898984677 30.088742971421311
19.789409637451101 -96.216841399663309 -0.31125748157364796
-13.810398101805999 -91.416841328137792 7.6887426376355563
-15.410388946533001 -91.416841328137792 80.488743722439267
38.989299774169901 -41.816840589040751 24.488742887974865
37.389308929443303 -100.21684145926791 3.68874257803094
11.789455413818301 -57.81684082745916 40.48874312639326
48.589244842529297 -62.616840898984677 44.488743185997862
43.789272308349602 -87.41684126853319 73.288743615150977
53.389217376708899 -79.416841149323986 19.688742816449349
22.989391326904201 -45.816840648645353 26.088742911816709
-10.610416412353 -122.61684179305368 7.6887426376355563
9.3894691467285103 -55.416840791696387 -11.51125764846654
26.9893684387207 -55.416840791696387 20.488742828370277
40.589290618896399 -89.016841292375034 1.2887425422681815
14.1894416809082 -107.4168415665562 -13.111257672308369
-14.610393524169 -101.81684148310976 52.488743305207066
38.189304351806598 -33.816840469831561 11.688742697240144
45.389263153076101 -89.016841292375034 7.6887426376355563
-0.21047592163080001 -37.016840517515234 62.888743460179029
11.789455413818301 -89.816841304295949 -21.111257791517573
60.589176177978501 -53.016840755933629 -1.1112574934945769
22.989391326904201 -109.81684160231896 61.288743436337185
32.589336395263601 -98.616841435426068 70.088743567467304
27.789363861083899 -87.41684126853319 13.288742721081974
-17.810375213623001 -98.616841435426068 50.888743281365223
-5.0104484558104998 -99.416841447346997 41.288743138314189
1.3895149230957 -54.616840779775472 34.888743042946828
71.789115905761705 -58.616840839380075 46.088743209839706
58.989185333251903 -45.016840636724439 12.488742709161073
-1.8104667663573999 -113.81684166192355 1.2887425422681815
5.3894920349120996 -126.61684185265827 24.488742887974865
20.5894050598144 -72.216841042035711 5.2887426018727979
39.789295196533203 -75.416841089719398 16.488742768765661
21.389400482177699 -38.616840541357078 0.48874253034728099
58.989185333251903 -63.416840910905591 33.288743019104984
-24.210338592528998 -76.216841101640313 52.488743305207066
42.189281463622997 -91.416841328137792 2.8887425661100394
30.989345550537099 -51.416840732091799 42.888743162156032
57.389194488525298 -71.416841030114796 -1.9112575054155059
22.989391326904201 -73.016841053956639 -21.111257791517573
32.589336395263601 -49.816840708249956 2.8887425661100394
5.3894920349120996 -96.216841399663309 -3.5112575292573354
42.189281463622997 -23.416840314859598 26.088742911816709
-17.010379791258998 -105.01684153079343 58.088743388653512
18.189418792724599 -41.816840589040751 34.888743042946828
28.589359283447202 -54.616840779775472 -12.31125766038744
-13.010402679443001 -92.216841340058721 55.688743352890739
39.789295196533203 -85.016841232770432 0.48874253034728099
-4.2104530334471999 -88.216841280454119 30.888742983342226
58.989185333251903 -28.216840386385115 22.888742864133022
2.1895103454589799 -93.016841351979622 84.488743782043869
62.189167022705 -69.816841006272952 72.488743603230063
61.389171600341797 -54.616840779775472 62.0887434482581
30.989345550537099 -88.216841280454119 76.488743662834665
42.189281463622997 -82.616841197007673 74.088743627071906
15.7894325256347 -74.616841077798469 24.488742887974865
13.389446258544901 -39.416840553277993 77.28874367475558
-16.210384368896001 -70.616841018193867 27.688742935658553
21.389400482177699 -44.21684062480351 28.488742947579468
-9.8104209899902006 -67.416840970510194 38.88874310255143
19.789409637451101 -105.81684154271434 5.2887426018727979
13.389446258544901 -94.61684137582148 -21.111257791517573
38.989299774169901 -93.016841351979622 81.288743734360182
-22.610347747801999 -79.416841149323986 33.288743019104984
12.5894508361816 -56.216840803617316 -11.51125764846654
18.189418792724599 -95.416841387742394 54.888743340969825
25.389377593994102 -53.016840755933629 28.488742947579468
-15.410388946533001 -109.81684160231896 52.488743305207066
32.589336395263601 -48.216840684408112 22.088742852212107
51.789226531982401 -83.416841208928588 67.688743531704546
28.589359283447202 -43.416840612882595 14.088742733002903
18.989414215087798 -57.016840815538231 -6.7112575769410228
30.1893501281738 -78.616841137403071 46.88874322176062
1.3895149230957 -41.816840589040751 72.488743603230063
28.589359283447202 -102.61684149503067 66.888743519783631
36.58931350708 -73.016841053956639 6.0887426137936984
36.58931350708 -93.816841363900551 -0.31125748157364796
4.5894966125488201 -33.016840457910632 30.888742983342226
3.7895011901855402 -95.416841387742394 -13.911257684229298
77.389076232910099 -42.61684060096168 30.888742983342226
8.5894737243652308 -64.21684092282652 36.488743066788672
32.589336395263601 -74.616841077798469 52.488743305207066
6.1894874572753897 -89.816841304295949 26.088742911816709
31.789340972900298 -73.016841053956639 -13.911257684229298
-10.610416412353 -105.01684153079343 71.688743591309148
54.189212799072202 -64.21684092282652 96.488743960857661
-2.6104621887207 -129.81684190034196 10.088742673398315
5.3894920349120996 -108.2168415784771 70.888743579388219
54.189212799072202 -80.216841161244915 82.088743746281111
-17.010379791258998 -93.816841363900551 63.688743472099944
24.589382171630799 -91.416841328137792 24.488742887974865
7.7894783020019496 -111.41684162616079 14.088742733002903
-26.610324859618999 -98.616841435426068 39.688743114472345
34.189327239990199 -85.816841244691346 102.88874405622502
34.189327239990199 -73.816841065877554 49.288743257523379
-6.6104393005370996 -98.616841435426068 51.688743293286151
3.7895011901855402 -90.616841316216878 62.0887434482581
-13.010402679443001 -72.216841042035711 42.088743150235103
-10.610416412353 -101.81684148310976 67.688743531704546
14.1894416809082 -55.416840791696387 24.488742887974865
18.189418792724599 -42.61684060096168 83.68874377012294
57.389194488525298 -34.616840481752476 38.088743090630501
42.189281463622997 -100.21684145926791 -13.911257684229298
45.389263153076101 -74.616841077798469 -9.1112576127037812
8.5894737243652308 -95.416841387742394 88.488743841648471
5.3894920349120996 -73.016841053956639 -9.1112576127037812
10.989459991455 -90.616841316216878 2.8887425661100394
35.789318084716797 -77.816841125482156 -24.311257839201261
15.7894325256347 -79.416841149323986 45.288743197918791
-4.2104530334471999 -105.81684154271434 -6.7112575769410228
6.9894828796386701 -59.416840851300989 34.888743042946828
20.5894050598144 -41.016840577119837 13.288742721081974
57.389194488525298 -69.016840994352037 58.088743388653512
15.7894325256347 -108.2168415784771 14.888742744923832
54.989208221435497 -66.616840958589279 17.28874278068659
16.589427947998001 -47.416840672487197 29.288742959500382
27.789363861083899 -100.21684145926791 84.488743782043869
13.389446258544901 -55.416840791696387 33.288743019104984
30.1893501281738 -82.616841197007673 58.888743400574427
-5.0104484558104998 -108.2168415784771 70.888743579388219
14.1894416809082 -105.01684153079343 -13.111257672308369
67.789131164550696 -80.216841161244915 -8.3112576007828523
10.189464569091699 -97.016841411584238 2.8887425661100394
-9.0104255676268998 -113.81684166192355 14.088742733002903
4.5894966125488201 -79.416841149323986 -3.5112575292573354
37.389308929443303 -105.01684153079343 -17.111257731912985
-4.2104530334471999 -125.01684182881644 22.888742864133022
26.9893684387207 -87.41684126853319 58.088743388653512
54.989208221435497 -77.816841125482156 20.488742828370277
29.389354705810501 -26.616840362543286 15.688742756844761
48.589244842529297 -32.216840445989718 22.088742852212107
19.789409637451101 -96.216841399663309 81.288743734360182
15.7894325256347 -90.616841316216878 49.288743257523379
24.589382171630799 -57.81684082745916 31.688742995263141
-10.610416412353 -45.816840648645353 14.888742744923832
62.189167022705 -85.016841232770432 -15.511257708071128
14.1894416809082 -85.016841232770432 -1.9112575054155059
10.989459991455 -66.616840958589279 2.0887425541891105
19.789409637451101 -103.41684150695158 -18.711257755754815
62.989162445068303 -45.816840648645353 5.2887426018727979
54.189212799072202 -81.01684117316583 61.288743436337185
62.189167022705 -69.016840994352037 50.088743269444308
-10.610416412353 -45.816840648645353 18.088742792607519
54.989208221435497 -90.616841316216878 57.288743376732583
-8.2104301452636008 -41.016840577119837 39.688743114472345
50.189235687255803 -54.616840779775472 -15.511257708071128
12.5894508361816 -106.61684155463527 55.688743352890739
-9.8104209899902006 -103.41684150695158 71.688743591309148
-24.210338592528998 -97.816841423505153 44.488743185997862
78.189079284667898 -47.416840672487197 38.88874310255143
6.9894828796386701 -98.616841435426068 87.688743829727542
28.589359283447202 -49.016840696329041 -13.111257672308369
14.989437103271401 -101.01684147118883 26.888742923737624
-9.0104255676268998 -98.616841435426068 -8.3112576007828523
46.189258575439403 -43.416840612882595 15.688742756844761
31.789340972900298 -73.816841065877554 25.28874289989578
-27.410320281981999 -77.016841113561227 24.488742887974865
48.589244842529297 -45.816840648645353 26.088742911816709
6.1894874572753897 -131.41684192418379 18.88874280452842
51.789226531982401 -55.416840791696387 59.688743412495342
43.789272308349602 -81.01684117316583 94.888743937015818
44.589267730712798 -65.81684094666835 -5.9112575650200938
26.189373016357401 -104.21684151887251 -23.511257827280332
57.389194488525298 -75.416841089719398 54.08874332904891
21.389400482177699 -77.816841125482156 55.688743352890739
43.789272308349602 -70.616841018193867 29.288742959500382
64.589157104492102 -52.216840744012714 57.288743376732583
-7.4104347229003 -103.41684150695158 68.488743543625461
12.5894508361816 -34.616840481752476 20.488742828370277
14.989437103271401 -27.416840374464201 34.888743042946828
-2.6104621887207 -56.216840803617316 30.888742983342226
-7.4104347229003 -92.216841340058721 35.688743054867743
-20.210361480711999 -90.616841316216878 66.888743519783631
2.1895103454589799 -89.016841292375034 18.088742792607519
38.189304351806598 -103.41684150695158 3.68874257803094
49.3892402648925 -55.416840791696387 -17.111257731912985
5.3894920349120996 -69.016840994352037 -5.1112575530991649
-5.0104484558104998 -71.416841030114796 38.088743090630501
41.389286041259702 -57.81684082745916 -0.31125748157364796
64.589157104492102 -66.616840958589279 54.08874332904891
42.9892768859863 -77.016841113561227 -2.7112575173364064
13.389446258544901 -41.816840589040751 10.088742673398315
16.589427947998001 -67.416840970510194 -1.9112575054155059
42.189281463622997 -89.816841304295949 66.888743519783631
18.989414215087798 -51.416840732091799 24.488742887974865
70.989112854003906 -63.416840910905591 -1.1112574934945769
23.7893867492675 -25.016840338701428 22.888742864133022
67.789131164550696 -80.216841161244915 -0.31125748157364796
38.189304351806598 -91.416841328137792 49.288743257523379
-13.010402679443001 -96.216841399663309 66.888743519783631
18.189418792724599 -57.016840815538231 34.088743031025899
22.989391326904201 -52.216840744012714 -11.51125764846654
28.589359283447202 -65.016840934747435 56.488743364811668
-19.410366058348998 -68.216840982431108 46.088743209839706
18.189418792724599 -62.616840898984677 96.488743960857661
27.789363861083899 -100.21684145926791 94.088743925094903
-17.010379791258998 -108.2168415784771 7.6887426376355563
67.789131164550696 -45.816840648645353 48.488743245602464
40.589290618896399 -82.616841197007673 80.488743722439267
22.989391326904201 -61.016840875142833 -19.511257767675744
15.7894325256347 -61.816840887063748 -17.911257743833886
46.189258575439403 -67.416840970510194 60.48874342441627
10.989459991455 -106.61684155463527 24.488742887974865
-10.610416412353 -61.016840875142833 17.28874278068659
49.3892402648925 -70.616841018193867 42.088743150235103
12.5894508361816 -96.216841399663309 54.888743340969825
19.789409637451101 -90.616841316216878 26.888742923737624
42.9892768859863 -59.416840851300989 53.288743317127981
38.989299774169901 -85.816841244691346 26.088742911816709
27.789363861083899 -70.616841018193867 -12.31125766038744
65.389144897460895 -57.016840815538231 8.4887426495564569
-5.8104438781737997 -109.81684160231896 77.28874367475558
-8.2104301452636008 -97.816841423505153 85.288743793964784
-10.610416412353 -45.816840648645353 19.688742816449349
10.189464569091699 -77.016841113561227 -21.111257791517573
46.189258575439403 -76.216841101640313 34.888743042946828
28.589359283447202 -92.216841340058721 98.88874399662042
36.58931350708 -81.816841185086759 91.688743889332144
33.389331817626903 -57.016840815538231 47.688743233681549
46.989253997802699 -73.816841065877554 34.088743031025899
-9.0104255676268998 -88.216841280454119 14.888742744923832
4.5894966125488201 -54.616840779775472 37.288743078709587
38.189304351806598 -78.616841137403071 -4.3112575411782643
2.9895057678222599 -39.416840553277993 33.288743019104984
2.9895057678222599 -113.01684165000263 46.88874322176062
10.989459991455 -72.216841042035711 42.888743162156032
28.589359283447202 -42.61684060096168 23.688742876053951
2.1895103454589799 -121.81684178113275 14.088742733002903
34.189327239990199 -107.4168415665562 -21.911257803438502
22.989391326904201 -91.416841328137792 56.488743364811668
-2.6104621887207 -38.616840541357078 22.088742852212107
8.5894737243652308 -99.416841447346997 -1.1112574934945769
20.5894050598144 -53.816840767854558 48.488743245602464
18.189418792724599 -93.816841363900551 37.288743078709587
-2.6104621887207 -111.41684162616079 2.0887425541891105
-18.610370635986001 -73.016841053956639 55.688743352890739
26.9893684387207 -65.81684094666835 47.688743233681549
15.7894325256347 -94.61684137582148 5.2887426018727979
-7.4104347229003 -113.01684165000263 21.288742840291192
40.589290618896399 -43.416840612882595 10.088742673398315
11.789455413818301 -57.016840815538231 40.48874312639326
-16.210384368896001 -95.416841387742394 32.48874300718407
14.1894416809082 -45.816840648645353 26.088742911816709
-10.610416412353 -54.616840779775472 41.288743138314189
2.9895057678222599 -109.81684160231896 46.88874322176062
3.7895011901855402 -116.21684169768631 -4.3112575411782643
7.7894783020019496 -76.216841101640313 22.088742852212107
-2.6104621887207 -88.216841280454119 30.888742983342226
-3.4104576110839 -112.21684163808172 -4.3112575411782643
30.1893501281738 -57.81684082745916 21.288742840291192
18.189418792724599 -100.21684145926791 -22.711257815359403
41.389286041259702 -57.81684082745916 43.688743174076947
33.389331817626903 -102.61684149503067 -6.7112575769410228
-8.2104301452636008 -79.416841149323986 -2.7112575173364064
44.589267730712798 -62.616840898984677 -9.1112576127037812
37.389308929443303 -82.616841197007673 26.088742911816709
54.989208221435497 -46.616840660566268 33.288743019104984
3.7895011901855402 -61.016840875142833 34.888743042946828
3.7895011901855402 -77.016841113561227 -8.3112576007828523
-1.8104667663573999 -107.4168415665562 -1.9112575054155059
-24.210338592528998 -105.01684153079343 60.48874342441627
0.58951950073241999 -91.416841328137792 34.088743031025899
-14.610393524169 -76.216841101640313 -2.7112575173364064
39.789295196533203 -24.216840326780527 53.288743317127981
26.189373016357401 -102.61684149503067 7.6887426376355563
21.389400482177699 -39.416840553277993 16.488742768765661
46.989253997802699 -40.216840565198908 30.088742971421311
40.589290618896399 -75.416841089719398 26.888742923737624
52.589221954345703 -93.016841351979622 59.688743412495342
-15.410388946533001 -54.616840779775472 66.088743507862702
-12.21040725708 -62.616840898984677 24.488742887974865
-25.010334014891999 -96.216841399663309 37.288743078709587
17.3894233703613 -98.616841435426068 -0.31125748157364796
51.789226531982401 -37.016840517515234 20.488742828370277
-6.6104393005370996 -61.816840887063748 -2.7112575173364064
52.589221954345703 -89.016841292375034 66.088743507862702
-10.610416412353 -63.416840910905591 32.48874300718407
15.7894325256347 -42.61684060096168 43.688743174076947
38.989299774169901 -41.016840577119837 14.088742733002903
58.189189910888601 -25.816840350622357 34.888743042946828
38.989299774169901 -75.416841089719398 3.68874257803094
38.989299774169901 -41.816840589040751 84.488743782043869
19.789409637451101 -93.816841363900551 26.088742911816709
2.1895103454589799 -92.216841340058721 16.488742768765661
2.1895103454589799 -71.416841030114796 44.488743185997862
-3.4104576110839 -83.416841208928588 51.688743293286151
67.789131164550696 -37.816840529436149 45.288743197918791
-17.810375213623001 -79.416841149323986 34.088743031025899
-20.210361480711999 -87.41684126853319 54.888743340969825
26.189373016357401 -77.816841125482156 -20.311257779596644
28.589359283447202 -96.216841399663309 93.288743913173988
-1.0104713439941 -113.81684166192355 -9.1112576127037812
51.789226531982401 -79.416841149323986 87.688743829727542
56.589199066162102 -73.016841053956639 65.288743495941787
-12.21040725708 -100.21684145926791 53.288743317127981
30.1893501281738 -101.01684147118883 82.088743746281111
6.1894874572753897 -111.41684162616079 68.488743543625461
54.989208221435497 -88.216841280454119 60.48874342441627
5.3894920349120996 -104.21684151887251 24.488742887974865
6.9894828796386701 -56.216840803617316 0.48874253034728099
13.389446258544901 -124.21684181689551 6.0887426137936984
45.389263153076101 -61.016840875142833 51.688743293286151
10.989459991455 -77.816841125482156 -5.1112575530991649
6.9894828796386701 -92.216841340058721 49.288743257523379
19.789409637451101 -110.61684161423987 48.488743245602464
38.989299774169901 -45.816840648645353 13.288742721081974
7.7894783020019496 -126.61684185265827 13.288742721081974
30.989345550537099 -70.616841018193867 -1.1112574934945769
25.389377593994102 -57.016840815538231 3.68874257803094
41.389286041259702 -53.016840755933629 29.288742959500382
-5.0104484558104998 -97.816841423505153 -3.5112575292573354
-1.8104667663573999 -107.4168415665562 3.68874257803094
22.189395904541001 -53.016840755933629 -6.7112575769410228
-0.21047592163080001 -106.61684155463527 -9.1112576127037812
-13.810398101805999 -62.616840898984677 74.888743638992821
36.58931350708 -36.21684050559432 28.488742947579468
36.58931350708 -93.016841351979622 54.888743340969825
46.989253997802699 -37.816840529436149 18.88874280452842
-0.21047592163080001 -115.41684168576539 26.888742923737624
24.589382171630799 -104.21684151887251 76.488743662834665
2.1895103454589799 -97.016841411584238 44.488743185997862
35.789318084716797 -57.81684082745916 -14.711257696150199
35.789318084716797 -75.416841089719398 99.688744008541335
47.789249420166001 -33.816840469831561 11.688742697240144
54.189212799072202 -94.61684137582148 1.2887425422681815
13.389446258544901 -87.41684126853319 99.688744008541335
-15.410388946533001 -114.61684167384448 64.488743484020858
34.989322662353501 -65.81684094666835 54.888743340969825
22.189395904541001 -73.816841065877554 26.888742923737624
6.1894874572753897 -36.21684050559432 35.688743054867743
66.989143371582003 -59.416840851300989 -0.31125748157364796
47.789249420166001 -95.416841387742394 46.88874322176062
62.989162445068303 -58.616840839380075 59.688743412495342
-11.410411834715999 -63.416840910905591 31.688742995263141
44.589267730712798 -68.216840982431108 45.288743197918791
26.189373016357401 -55.416840791696387 29.288742959500382
20.5894050598144 -37.816840529436149 4.4887425899518689
-21.810352325438998 -104.21684151887251 16.488742768765661
-12.21040725708 -62.616840898984677 17.28874278068659
48.589244842529297 -67.416840970510194 59.688743412495342
26.189373016357401 -101.81684148310976 77.28874367475558
22.989391326904201 -54.616840779775472 43.688743174076947
28.589359283447202 -60.216840863221918 4.4887425899518689
15.7894325256347 -66.616840958589279 14.088742733002903
17.3894233703613 -75.416841089719398 38.88874310255143
6.9894828796386701 -78.616841137403071 96.488743960857661
38.989299774169901 -69.816841006272952 52.488743305207066
22.189395904541001 -67.416840970510194 54.08874332904891
37.389308929443303 -49.816840708249956 -10.711257636545611
4.5894966125488201 -109.01684159039803 69.28874355554639
-3.4104576110839 -51.416840732091799 77.28874367475558
-8.2104301452636008 -80.216841161244915 38.88874310255143
25.389377593994102 -112.21684163808172 -12.31125766038744
25.389377593994102 -91.416841328137792 83.68874377012294
55.7892036437988 -32.216840445989718 21.288742840291192
65.389144897460895 -63.416840910905591 60.48874342441627
22.989391326904201 -33.016840457910632 14.088742733002903
20.5894050598144 -40.216840565198908 81.288743734360182
60.589176177978501 -54.616840779775472 58.088743388653512
59.789180755615199 -65.016840934747435 60.48874342441627
35.789318084716797 -53.016840755933629 -11.51125764846654
22.189395904541001 -46.616840660566268 41.288743138314189
-13.810398101805999 -109.01684159039803 50.088743269444308
39.789295196533203 -101.81684148310976 62.888743460179029
-3.4104576110839 -50.61684072017087 34.888743042946828
34.189327239990199 -93.816841363900551 76.488743662834665
18.989414215087798 -101.01684147118883 77.28874367475558
-19.410366058348998 -91.416841328137792 42.888743162156032
27.789363861083899 -89.016841292375034 23.688742876053951
62.989162445068303 -64.21684092282652 -2.7112575173364064
-19.410366058348998 -97.816841423505153 25.28874289989578
41.389286041259702 -92.216841340058721 2.0887425541891105
58.989185333251903 -89.816841304295949 -0.31125748157364796
77.389076232910099 -42.61684060096168 30.088742971421311
1.3895149230957 -63.416840910905591 35.688743054867743
61.389171600341797 -27.416840374464201 34.088743031025899
40.589290618896399 -65.016840934747435 15.688742756844761
70.989112854003906 -61.816840887063748 -1.9112575054155059
-21.810352325438998 -69.816841006272952 29.288742959500382
6.9894828796386701 -102.61684149503067 7.6887426376355563
49.3892402648925 -97.816841423505153 3.68874257803094
28.589359283447202 -95.416841387742394 25.28874289989578
-21.010356903076001 -101.81684148310976 59.688743412495342
14.1894416809082 -27.416840374464201 37.288743078709587
-21.810352325438998 -95.416841387742394 13.288742721081974
18.989414215087798 -113.01684165000263 -6.7112575769410228
46.189258575439403 -70.616841018193867 100.48874402046226
28.589359283447202 -43.416840612882595 26.088742911816709
-17.810375213623001 -82.616841197007673 43.688743174076947
-5.8104438781737997 -81.01684117316583 10.888742685319215
6.9894828796386701 -51.416840732091799 11.688742697240144
2.1895103454589799 -52.216840744012714 33.288743019104984
-15.410388946533001 -74.616841077798469 33.288743019104984
33.389331817626903 -49.016840696329041 50.088743269444308
26.189373016357401 -24.216840326780527 53.288743317127981
51.789226531982401 -49.016840696329041 5.2887426018727979
2.9895057678222599 -87.41684126853319 -18.711257755754815
42.9892768859863 -44.21684062480351 27.688742935658553
47.789249420166001 -43.416840612882595 43.688743174076947
29.389354705810501 -101.01684147118883 74.088743627071906
57.389194488525298 -89.016841292375034 2.8887425661100394
30.989345550537099 -104.21684151887251 74.088743627071906
53.389217376708899 -45.016840636724439 60.48874342441627
-2.6104621887207 -109.81684160231896 19.688742816449349
42.189281463622997 -69.816841006272952 -2.7112575173364064
19.789409637451101 -48.216840684408112 36.488743066788672
40.589290618896399 -90.616841316216878 20.488742828370277
42.9892768859863 -61.016840875142833 2.0887425541891105
18.189418792724599 -39.416840553277993 8.4887426495564569
10.989459991455 -85.016841232770432 33.288743019104984
18.189418792724599 -85.816841244691346 38.88874310255143
6.1894874572753897 -102.61684149503067 -8.3112576007828523
62.989162445068303 -74.616841077798469 12.488742709161073
43.789272308349602 -46.616840660566268 52.488743305207066
-12.21040725708 -50.61684072017087 65.288743495941787
-17.010379791258998 -53.016840755933629 28.488742947579468
-2.6104621887207 -99.416841447346997 35.688743054867743
65.389144897460895 -70.616841018193867 18.088742792607519
55.7892036437988 -79.416841149323986 74.088743627071906
53.389217376708899 -74.616841077798469 92.488743901253059
-4.2104530334471999 -105.81684154271434 -8.3112576007828523
-2.6104621887207 -123.4168418049746 -0.31125748157364796
7.7894783020019496 -52.216840744012714 -9.9112576246246817
10.189464569091699 -77.816841125482156 51.688743293286151
42.189281463622997 -81.01684117316583 28.488742947579468
0.58951950073241999 -66.616840958589279 -6.7112575769410228
36.58931350708 -27.416840374464201 11.688742697240144
13.389446258544901 -102.61684149503067 14.088742733002903
14.1894416809082 -46.616840660566268 15.688742756844761
34.189327239990199 -105.81684154271434 -6.7112575769410228
57.389194488525298 -77.816841125482156 55.688743352890739
17.3894233703613 -92.216841340058721 30.888742983342226
-17.010379791258998 -111.41684162616079 61.288743436337185
11.789455413818301 -51.416840732091799 -11.51125764846654
13.389446258544901 -45.816840648645353 6.8887426257146274
45.389263153076101 -71.416841030114796 90.88874387741123
62.189167022705 -76.216841101640313 4.4887425899518689
-1.8104667663573999 -106.61684155463527 62.888743460179029
18.989414215087798 -66.616840958589279 -3.5112575292573354
17.3894233703613 -77.816841125482156 11.688742697240144
36.58931350708 -75.416841089719398 -11.51125764846654
15.7894325256347 -96.216841399663309 18.088742792607519
8.5894737243652308 -64.21684092282652 -8.3112576007828523
43.789272308349602 -78.616841137403071 32.48874300718407
-7.4104347229003 -75.416841089719398 41.288743138314189
4.5894966125488201 -65.81684094666835 23.688742876053951
17.3894233703613 -94.61684137582148 79.688743710518338
38.189304351806598 -64.21684092282652 53.288743317127981
36.58931350708 -68.216840982431108 2.0887425541891105
7.7894783020019496 -95.416841387742394 27.688742935658553
22.189395904541001 -33.816840469831561 22.088742852212107
10.189464569091699 -105.01684153079343 86.888743817806613
36.58931350708 -52.216840744012714 7.6887426376355563
1.3895149230957 -114.61684167384448 7.6887426376355563
-6.6104393005370996 -99.416841447346997 33.288743019104984
25.389377593994102 -103.41684150695158 18.88874280452842
14.1894416809082 -103.41684150695158 52.488743305207066
4.5894966125488201 -94.61684137582148 74.088743627071906
-3.4104576110839 -113.01684165000263 45.288743197918791
50.189235687255803 -41.816840589040751 45.288743197918791
-14.610393524169 -109.81684160231896 16.488742768765661
-16.210384368896001 -60.216840863221918 69.28874355554639
11.789455413818301 -77.816841125482156 -5.9112575650200938
36.58931350708 -85.816841244691346 25.28874289989578
15.7894325256347 -123.4168418049746 6.0887426137936984
33.389331817626903 -98.616841435426068 74.888743638992821
39.789295196533203 -58.616840839380075 35.688743054867743
9.3894691467285103 -69.016840994352037 -0.31125748157364796
-13.810398101805999 -89.816841304295949 51.688743293286151
44.589267730712798 -103.41684150695158 57.288743376732583
-15.410388946533001 -66.616840958589279 50.888743281365223
30.1893501281738 -31.416840434068789 48.488743245602464
-11.410411834715999 -123.4168418049746 12.488742709161073
1.3895149230957 -79.416841149323986 30.888742983342226
22.189395904541001 -89.816841304295949 60.48874342441627
23.7893867492675 -45.816840648645353 -7.5112575888619233
71.789115905761705 -57.016840815538231 3.68874257803094
-13.010402679443001 -88.216841280454119 19.688742816449349
54.989208221435497 -37.016840517515234 72.488743603230063
2.1895103454589799 -60.216840863221918 -1.1112574934945769
-10.610416412353 -96.216841399663309 42.888743162156032
10.189464569091699 -119.41684174536999 -8.3112576007828523
54.989208221435497 -88.216841280454119 18.88874280452842
50.189235687255803 -97.816841423505153 50.088743269444308
49.3892402648925 -77.016841113561227 2.8887425661100394
-18.610370635986001 -97.816841423505153 53.288743317127981
28.589359283447202 -81.816841185086759 -5.9112575650200938
36.58931350708 -97.016841411584238 -21.111257791517573
39.789295196533203 -80.216841161244915 26.088742911816709
41.389286041259702 -82.616841197007673 94.088743925094903
40.589290618896399 -73.016841053956639 23.688742876053951
2.9895057678222599 -46.616840660566268 78.088743686676509
-5.0104484558104998 -99.416841447346997 52.488743305207066
46.189258575439403 -60.216840863221918 -9.1112576127037812
22.189395904541001 -104.21684151887251 5.2887426018727979
-1.0104713439941 -104.21684151887251 -5.1112575530991649
33.389331817626903 -61.016840875142833 49.288743257523379
20.5894050598144 -102.61684149503067 -21.111257791517573
22.189395904541001 -36.21684050559432 20.488742828370277
34.989322662353501 -77.816841125482156 -7.5112575888619233
-9.0104255676268998 -109.81684160231896 77.28874367475558
-16.210384368896001 -54.616840779775472 63.688743472099944
25.389377593994102 -47.416840672487197 29.288742959500382
-21.010356903076001 -77.016841113561227 51.688743293286151
10.989459991455 -74.616841077798469 98.088743984699505
-2.6104621887207 -114.61684167384448 57.288743376732583
26.189373016357401 -90.616841316216878 17.28874278068659
-2.6104621887207 -99.416841447346997 34.888743042946828
2.9895057678222599 -86.616841256612275 -12.31125766038744
41.389286041259702 -40.216840565198908 12.488742709161073
-21.810352325438998 -88.216841280454119 48.488743245602464
4.5894966125488201 -57.016840815538231 2.8887425661100394
36.58931350708 -49.016840696329041 5.2887426018727979
46.989253997802699 -78.616841137403071 95.688743948936747
-12.21040725708 -53.016840755933629 22.888742864133022
0.58951950073241999 -111.41684162616079 35.688743054867743
-1.8104667663573999 -108.2168415784771 77.28874367475558
46.189258575439403 -82.616841197007673 80.488743722439267
12.5894508361816 -105.81684154271434 69.28874355554639
2.9895057678222599 -117.01684170960723 33.288743019104984
-5.8104438781737997 -62.616840898984677 22.088742852212107
-2.6104621887207 -92.216841340058721 -5.1112575530991649
-14.610393524169 -114.61684167384448 62.0887434482581
11.789455413818301 -89.816841304295949 59.688743412495342
39.789295196533203 -83.416841208928588 98.088743984699505
-12.21040725708 -90.616841316216878 59.688743412495342
35.789318084716797 -67.416840970510194 45.288743197918791
8.5894737243652308 -45.016840636724439 11.688742697240144
11.789455413818301 -85.016841232770432 -0.31125748157364796
4.5894966125488201 -63.416840910905591 -8.3112576007828523
24.589382171630799 -30.616840422147874 8.4887426495564569
15.7894325256347 -61.016840875142833 6.8887426257146274
-5.8104438781737997 -102.61684149503067 47.688743233681549
38.189304351806598 -77.816841125482156 -12.31125766038744
14.989437103271401 -61.816840887063748 -12.31125766038744
38.189304351806598 -101.81684148310976 -7.5112575888619233
35.789318084716797 -99.416841447346997 -22.711257815359403
4.5894966125488201 -55.416840791696387 4.4887425899518689
-11.410411834715999 -71.416841030114796 34.888743042946828
35.789318084716797 -57.81684082745916 7.6887426376355563
14.989437103271401 -67.416840970510194 14.088742733002903
-6.6104393005370996 -93.016841351979622 19.688742816449349
4.5894966125488201 -62.616840898984677 38.088743090630501
-14.610393524169 -109.81684160231896 15.688742756844761
56.589199066162102 -82.616841197007673 20.488742828370277
14.1894416809082 -73.016841053956639 -13.911257684229298
26.189373016357401 -99.416841447346997 21.288742840291192
26.189373016357401 -45.016840636724439 13.288742721081974
29.389354705810501 -73.016841053956639 45.288743197918791
25.389377593994102 -109.81684160231896 59.688743412495342
-28.210315704345 -70.616841018193867 30.888742983342226
44.589267730712798 -85.816841244691346 -25.91125786304309
-24.210338592528998 -102.61684149503067 51.688743293286151
54.989208221435497 -34.616840481752476 72.488743603230063
34.989322662353501 -94.61684137582148 12.488742709161073
-5.8104438781737997 -65.016840934747435 42.888743162156032
13.389446258544901 -79.416841149323986 2.0887425541891105
22.189395904541001 -103.41684150695158 18.088742792607519
29.389354705810501 -88.216841280454119 -2.7112575173364064
-1.8104667663573999 -111.41684162616079 30.888742983342226
56.589199066162102 -37.816840529436149 1.2887425422681815
1.3895149230957 -93.016841351979622 -5.9112575650200938
0.58951950073241999 -90.616841316216878 8.4887426495564569
-8.2104301452636008 -73.016841053956639 86.088743805885713
61.389171600341797 -46.616840660566268 82.088743746281111
18.189418792724599 -27.416840374464201 18.88874280452842
39.789295196533203 -103.41684150695158 -8.3112576007828523
34.189327239990199 -89.016841292375034 98.88874399662042
54.989208221435497 -77.816841125482156 77.28874367475558
13.389446258544901 -58.616840839380075 11.688742697240144
29.389354705810501 -105.01684153079343 48.488743245602464
34.989322662353501 -84.216841220849517 66.888743519783631
12.5894508361816 -75.416841089719398 2.8887425661100394
46.189258575439403 -32.216840445989718 72.488743603230063
-9.8104209899902006 -57.81684082745916 27.688742935658553
-13.010402679443001 -57.016840815538231 34.888743042946828
37.389308929443303 -68.216840982431108 43.688743174076947
29.389354705810501 -96.216841399663309 -1.1112574934945769
45.389263153076101 -37.816840529436149 26.088742911816709
49.3892402648925 -72.216841042035711 -3.5112575292573354
-21.010356903076001 -85.816841244691346 50.088743269444308
55.7892036437988 -56.216840803617316 32.48874300718407
24.589382171630799 -59.416840851300989 50.888743281365223
-1.8104667663573999 -116.21684169768631 -6.7112575769410228
41.389286041259702 -93.016841351979622 75.68874365091375
46.989253997802699 -53.016840755933629 15.688742756844761
-11.410411834715999 -92.216841340058721 36.488743066788672
13.389446258544901 -60.216840863221918 10.088742673398315
54.989208221435497 -79.416841149323986 50.088743269444308
25.389377593994102 -92.216841340058721 23.688742876053951
1.3895149230957 -51.416840732091799 40.48874312639326
3.7895011901855402 -87.41684126853319 -7.5112575888619233
38.989299774169901 -77.016841113561227 60.48874342441627
-7.4104347229003 -101.81684148310976 73.288743615150977
23.7893867492675 -70.616841018193867 -20.311257779596644
-14.610393524169 -47.416840672487197 29.288742959500382
3.7895011901855402 -103.41684150695158 30.888742983342226
-6.6104393005370996 -40.216840565198908 57.288743376732583
15.7894325256347 -80.216841161244915 43.688743174076947
2.9895057678222599 -105.81684154271434 77.28874367475558
18.189418792724599 -74.616841077798469 -11.51125764846654
0.58951950073241999 -75.416841089719398 15.688742756844761
-10.610416412353 -78.616841137403071 15.688742756844761
29.389354705810501 -87.41684126853319 64.488743484020858
-7.4104347229003 -109.81684160231896 -5.9112575650200938
10.989459991455 -105.01684153079343 -11.51125764846654
12.5894508361816 -70.616841018193867 -13.911257684229298
0.58951950073241999 -81.01684117316583 46.088743209839706
16.589427947998001 -41.016840577119837 37.288743078709587
41.389286041259702 -81.816841185086759 74.888743638992821
53.389217376708899 -61.016840875142833 36.488743066788672
9.3894691467285103 -81.01684117316583 25.28874289989578
-4.2104530334471999 -102.61684149503067 54.08874332904891
-8.2104301452636008 -74.616841077798469 37.288743078709587
55.7892036437988 -65.81684094666835 -19.511257767675744
5.3894920349120996 -125.01684182881644 26.088742911816709
70.989112854003906 -60.216840863221918 -1.9112575054155059
38.189304351806598 -105.01684153079343 -18.711257755754815
41.389286041259702 -45.016840636724439 9.2887426614773858
54.989208221435497 -73.016841053956639 69.28874355554639
22.189395904541001 -99.416841447346997 18.88874280452842
39.789295196533203 -89.816841304295949 49.288743257523379
-16.210384368896001 -49.016840696329041 29.288742959500382
5.3894920349120996 -105.81684154271434 48.488743245602464
17.3894233703613 -100.21684145926791 -15.511257708071128
24.589382171630799 -50.61684072017087 5.2887426018727979
46.989253997802699 -57.016840815538231 47.688743233681549
20.5894050598144 -93.816841363900551 -2.7112575173364064
14.989437103271401 -71.416841030114796 49.288743257523379
-7.4104347229003 -71.416841030114796 -4.3112575411782643
34.989322662353501 -22.61684030293867 30.088742971421311
33.389331817626903 -43.416840612882595 2.0887425541891105
38.989299774169901 -106.61684155463527 53.288743317127981
55.7892036437988 -86.616841256612275 52.488743305207066
35.789318084716797 -65.81684094666835 10.088742673398315
5.3894920349120996 -128.2168418765001 0.48874253034728099
22.989391326904201 -108.2168415784771 -13.911257684229298
18.989414215087798 -61.816840887063748 49.288743257523379
-21.810352325438998 -86.616841256612275 50.088743269444308
30.1893501281738 -61.016840875142833 35.688743054867743
60.589176177978501 -35.416840493673391 66.888743519783631
-1.0104713439941 -68.216840982431108 42.888743162156032
17.3894233703613 -109.01684159039803 72.488743603230063
33.389331817626903 -61.816840887063748 26.888742923737624
43.789272308349602 -86.616841256612275 19.688742816449349
49.3892402648925 -31.416840434068789 26.088742911816709
-5.0104484558104998 -89.016841292375034 19.688742816449349
-15.410388946533001 -95.416841387742394 51.688743293286151
30.989345550537099 -73.016841053956639 -5.9112575650200938
26.9893684387207 -49.016840696329041 22.888742864133022
41.389286041259702 -44.21684062480351 29.288742959500382
15.7894325256347 -66.616840958589279 46.88874322176062
56.589199066162102 -35.416840493673391 45.288743197918791
22.189395904541001 -107.4168415665562 47.688743233681549
18.989414215087798 -112.21684163808172 8.4887426495564569
16.589427947998001 -32.216840445989718 21.288742840291192
22.989391326904201 -113.81684166192355 61.288743436337185
30.989345550537099 -68.216840982431108 -6.7112575769410228
57.389194488525298 -88.216841280454119 -20.311257779596644
44.589267730712798 -22.61684030293867 30.888742983342226
10.189464569091699 -97.816841423505153 7.6887426376355563
27.789363861083899 -44.21684062480351 -7.5112575888619233
64.589157104492102 -84.216841220849517 -5.9112575650200938
22.989391326904201 -92.216841340058721 -12.31125766038744
-10.610416412353 -57.81684082745916 10.888742685319215
15.7894325256347 -84.216841220849517 54.888743340969825
57.389194488525298 -64.21684092282652 12.488742709161073
0.58951950073241999 -117.01684170960723 26.088742911816709
65.389144897460895 -45.016840636724439 45.288743197918791
41.389286041259702 -90.616841316216878 6.0887426137936984
21.389400482177699 -55.416840791696387 31.688742995263141
26.9893684387207 -94.61684137582148 58.088743388653512
48.589244842529297 -92.216841340058721 59.688743412495342
46.189258575439403 -78.616841137403071 54.888743340969825
13.389446258544901 -44.21684062480351 39.688743114472345
-2.6104621887207 -109.81684160231896 56.488743364811668
41.389286041259702 -45.016840636724439 2.0887425541891105
21.389400482177699 -66.616840958589279 98.88874399662042
6.9894828796386701 -53.016840755933629 36.488743066788672
13.389446258544901 -105.01684153079343 83.68874377012294
10.189464569091699 -65.81684094666835 40.48874312639326
54.189212799072202 -45.016840636724439 69.28874355554639
23.7893867492675 -109.81684160231896 50.888743281365223
22.189395904541001 -97.016841411584238 2.0887425541891105
14.1894416809082 -75.416841089719398 -5.9112575650200938
59.789180755615199 -39.416840553277993 69.28874355554639
-11.410411834715999 -94.61684137582148 62.888743460179029
50.989231109619098 -87.41684126853319 5.2887426018727979
4.5894966125488201 -105.01684153079343 58.088743388653512
47.789249420166001 -93.816841363900551 59.688743412495342
-17.010379791258998 -98.616841435426068 6.8887426257146274
-22.610347747801999 -69.016840994352037 58.088743388653512
34.189327239990199 -83.416841208928588 -4.3112575411782643
6.9894828796386701 -92.216841340058721 65.288743495941787
33.389331817626903 -97.816841423505153 15.688742756844761
8.5894737243652308 -75.416841089719398 -7.5112575888619233
2.1895103454589799 -68.216840982431108 9.2887426614773858
0.58951950073241999 -101.81684148310976 61.288743436337185
50.989231109619098 -33.816840469831561 25.28874289989578
4.5894966125488201 -101.81684148310976 67.688743531704546
-9.8104209899902006 -110.61684161423987 49.288743257523379
36.58931350708 -91.416841328137792 15.688742756844761
14.989437103271401 -49.816840708249956 -3.5112575292573354
38.989299774169901 -68.216840982431108 54.888743340969825
41.389286041259702 -97.816841423505153 70.888743579388219
22.989391326904201 -84.216841220849517 101.28874403238319
-1.0104713439941 -37.016840517515234 43.688743174076947
-17.810375213623001 -98.616841435426068 74.088743627071906
33.389331817626903 -51.416840732091799 50.888743281365223
-7.4104347229003 -73.816841065877554 50.088743269444308
28.589359283447202 -84.216841220849517 -0.31125748157364796
-3.4104576110839 -109.01684159039803 67.688743531704546
50.989231109619098 -61.816840887063748 31.688742995263141
47.789249420166001 -81.816841185086759 88.488743841648471
22.189395904541001 -106.61684155463527 -21.111257791517573
-24.210338592528998 -70.616841018193867 26.088742911816709
22.189395904541001 -40.216840565198908 11.688742697240144
-6.6104393005370996 -92.216841340058721 62.0887434482581
24.589382171630799 -59.416840851300989 33.288743019104984
-12.21040725708 -69.816841006272952 11.688742697240144
15.7894325256347 -86.616841256612275 19.688742816449349
46.989253997802699 -31.416840434068789 22.888742864133022
49.3892402648925 -39.416840553277993 58.088743388653512
30.1893501281738 -41.016840577119837 -3.5112575292573354
17.3894233703613 -46.616840660566268 22.088742852212107
44.589267730712798 -47.416840672487197 0.48874253034728099
-19.410366058348998 -81.816841185086759 40.48874312639326
-4.2104530334471999 -47.416840672487197 29.288742959500382
18.989414215087798 -44.21684062480351 10.088742673398315
-5.8104438781737997 -48.216840684408112 28.488742947579468
13.389446258544901 -65.016840934747435 29.288742959500382
11.789455413818301 -63.416840910905591 1.2887425422681815
78.989067077636705 -59.416840851300989 -1.9112575054155059
-1.8104667663573999 -107.4168415665562 86.888743817806613
42.9892768859863 -70.616841018193867 22.088742852212107
25.389377593994102 -61.816840887063748 97.288743972778576
5.3894920349120996 -110.61684161423987 77.28874367475558
54.189212799072202 -43.416840612882595 21.288742840291192
14.1894416809082 -106.61684155463527 -6.7112575769410228
37.389308929443303 -56.216840803617316 23.688742876053951
26.9893684387207 -88.216841280454119 2.0887425541891105
20.5894050598144 -23.416840314859598 33.288743019104984
10.989459991455 -59.416840851300989 34.888743042946828
32.589336395263601 -35.416840493673391 78.088743686676509
26.189373016357401 -89.016841292375034 -7.5112575888619233
59.789180755615199 -50.61684072017087 43.688743174076947
37.389308929443303 -37.016840517515234 79.688743710518338
26.9893684387207 -106.61684155463527 4.4887425899518689
1.3895149230957 -81.01684117316583 13.288742721081974
30.989345550537099 -34.616840481752476 23.688742876053951
78.189079284667898 -60.216840863221918 13.288742721081974
41.389286041259702 -82.616841197007673 -13.111257672308369
-21.810352325438998 -65.81684094666835 55.688743352890739
45.389263153076101 -60.216840863221918 55.688743352890739
42.189281463622997 -61.816840887063748 2.8887425661100394
35.789318084716797 -107.4168415665562 52.488743305207066
56.589199066162102 -76.216841101640313 28.488742947579468
25.389377593994102 -89.016841292375034 60.48874342441627
1.3895149230957 -40.216840565198908 34.888743042946828
44.589267730712798 -57.81684082745916 9.2887426614773858
-17.810375213623001 -78.616841137403071 24.488742887974865
14.1894416809082 -40.216840565198908 42.888743162156032
-7.4104347229003 -70.616841018193867 9.2887426614773858
-16.210384368896001 -101.81684148310976 46.088743209839706
31.789340972900298 -107.4168415665562 -12.31125766038744
-1.8104667663573999 -113.01684165000263 62.888743460179029
5.3894920349120996 -129.01684188842103 6.0887426137936984
-2.6104621887207 -124.21684181689551 17.28874278068659
-1.0104713439941 -92.216841340058721 92.488743901253059
50.989231109619098 -37.016840517515234 54.08874332904891
38.189304351806598 -90.616841316216878 -4.3112575411782643
-13.010402679443001 -108.2168415784771 52.488743305207066
37.389308929443303 -73.816841065877554 101.28874403238319
23.7893867492675 -51.416840732091799 91.688743889332144
38.989299774169901 -46.616840660566268 -11.51125764846654
-25.810329437255 -91.416841328137792 61.288743436337185
-13.010402679443001 -109.81684160231896 74.088743627071906
10.989459991455 -66.616840958589279 46.88874322176062
40.589290618896399 -55.416840791696387 14.888742744923832
53.389217376708899 -71.416841030114796 92.488743901253059
38.189304351806598 -58.616840839380075 26.088742911816709
38.189304351806598 -80.216841161244915 29.288742959500382
34.189327239990199 -106.61684155463527 -15.511257708071128
38.989299774169901 -64.21684092282652 41.288743138314189
22.989391326904201 -61.816840887063748 50.888743281365223
26.189373016357401 -57.81684082745916 96.488743960857661
-5.0104484558104998 -81.01684117316583 40.48874312639326
56.589199066162102 -59.416840851300989 -14.711257696150199
-22.610347747801999 -107.4168415665562 55.688743352890739
28.589359283447202 -45.016840636724439 31.688742995263141
70.989112854003906 -66.616840958589279 2.8887425661100394
-23.410343170166001 -57.81684082745916 34.088743031025899
38.189304351806598 -76.216841101640313 -3.5112575292573354
10.189464569091699 -105.01684153079343 43.688743174076947
6.1894874572753897 -56.216840803617316 2.0887425541891105
-4.2104530334471999 -73.016841053956639 27.688742935658553
6.1894874572753897 -65.81684094666835 34.888743042946828
69.389122009277301 -71.416841030114796 13.288742721081974
62.189167022705 -85.816841244691346 2.8887425661100394
21.389400482177699 -56.216840803617316 48.488743245602464
-6.6104393005370996 -113.01684165000263 50.888743281365223
25.389377593994102 -74.616841077798469 41.288743138314189
17.3894233703613 -95.416841387742394 15.688742756844761
-21.010356903076001 -101.81684148310976 46.088743209839706
14.989437103271401 -101.81684148310976 12.488742709161073
20.5894050598144 -91.416841328137792 9.2887426614773858
60.589176177978501 -51.416840732091799 1.2887425422681815
48.589244842529297 -77.016841113561227 58.088743388653512
45.389263153076101 -95.416841387742394 11.688742697240144
41.389286041259702 -68.216840982431108 6.8887426257146274
17.3894233703613 -77.816841125482156 30.088742971421311
35.789318084716797 -46.616840660566268 24.488742887974865
34.989322662353501 -48.216840684408112 3.68874257803094
58.989185333251903 -27.416840374464201 27.688742935658553
58.989185333251903 -68.216840982431108 -5.9112575650200938
53.389217376708899 -67.416840970510194 70.888743579388219
-25.010334014891999 -103.41684150695158 48.488743245602464
50.989231109619098 -35.416840493673391 14.088742733002903
