# XYZ point cloud file
48.571292877197266 -99.521202087402344 -142.57960510253906
46.641441345214844 -101.26032257080078 -142.69503784179688
46.445419311523438 -101.44691467285156 -142.70741271972656
45.323017120361328 -103.32623291015625 -142.80392456054688
44.388336181640625 -104.61374664306641 -142.87568664550781
43.935516357421875 -105.21460723876953 -142.91036987304688
42.8851318359375 -107.09969329833984 -143.007080078125
42.104026794433594 -108.96556854248047 -143.09487915039062
42.034584045410156 -109.07166290283203 -143.10037231445312
40.959114074707031 -110.84393310546875 -143.19577026367188
40.042549133300781 -112.72305297851562 -143.28977966308594
39.734664916992188 -113.06381225585938 -143.31155395507812
38.477607727050781 -114.61519622802734 -143.4058837890625
37.537307739257812 -115.94804382324219 -143.48365783691406
37.093017578125 -116.50081634521484 -143.51737976074219
36.014678955078125 -118.38457489013672 -143.61920166015625
35.317291259765625 -119.24716186523438 -143.67231750488281
34.4866943359375 -120.27433776855469 -143.73623657226562
33.798133850097656 -122.1346435546875 -143.8258056640625
33.858238220214844 -123.97871398925781 -143.88949584960938
34.819206237792969 -124.75514221191406 -143.885986328125
36.672348022460938 -125.44406127929688 -143.85025024414062
37.130813598632812 -125.70124053955078 -143.84454345703125
38.512351989746094 -126.41590881347656 -143.82437133789062
40.397323608398438 -126.79249572753906 -143.77778625488281
42.272369384765625 -127.30162048339844 -143.73609924316406
42.376091003417969 -127.35454559326172 -143.7349853515625
44.119148254394531 -128.16001892089844 -143.70877075195312
46.00653076171875 -128.68734741210938 -143.66862487792969
47.910003662109375 -128.94113159179688 -143.618408203125
48.023956298828125 -128.99365234375 -143.61640930175781
49.791824340820312 -129.39962768554688 -141.19596862792969
51.7373046875 -129.33164978027344 -141.13410949707031
52.61529541015625 -128.91448974609375 -141.0931396484375
53.748268127441406 -128.42237854003906 -141.04135131835938
55.785293579101562 -127.2388916015625 -140.93850708007812
56.157684326171875 -126.95259857177734 -140.91682434082031
57.871238708496094 -125.64826202392578 -140.82032775878906
58.551666259765625 -125.03057098388672 -140.77853393554688
60.013442993164062 -123.34828948974609 -140.6767578125
60.211875915527344 -123.13398742675781 -140.66319274902344
61.516639709472656 -121.24009704589844 -140.55973815917969
62.221900939941406 -120.37601470947266 -140.50973510742188
63.062171936035156 -119.34700012207031 -140.4501953125
63.761444091796875 -117.48348236083984 -140.36616516113281
64.553146362304688 -115.60688018798828 -140.279296875
64.623733520507812 -115.49115753173828 -140.27302551269531
65.555778503417969 -113.73201751708984 -140.18745422363281
65.750633239746094 -111.88612365722656 -140.12017822265625
65.927383422851562 -110.03094482421875 -140.05316162109375
66.10498046875 -108.18489837646484 -139.98733520507812
66.284065246582031 -106.33875274658203 -139.92135620117188
66.465164184570312 -104.48268890380859 -139.85623168945312
66.626998901367188 -102.63616943359375 -139.79194641113281
66.029075622558594 -100.93075561523438 -139.75343322753906
65.980377197265625 -100.81925964355469 -139.751220703125
65.546142578125 -98.984489440917969 -139.70481872558594
64.862556457519531 -97.168220520019531 -139.66635131835938
64.507713317871094 -96.642898559570312 -139.65953063964844
63.771476745605469 -95.366294860839844 -139.639892578125
62.81707763671875 -94.192138671875 -139.62954711914062
62.054237365722656 -93.586990356445312 -139.63166809082031
61.0216064453125 -92.802589416503906 -139.63624572753906
59.130813598632812 -92.276557922363281 -139.67256164550781
57.1702880859375 -92.546516418457031 -139.73663330078125
55.146514892578125 -93.451751708984375 -139.82289123535156
54.491134643554688 -93.863037109375 -139.85481262207031
53.082260131835938 -94.679191589355469 -139.92105102539062
51.055282592773438 -95.658988952636719 -140.01171875
50.85931396484375 -95.835929870605469 -140.02349853515625
48.94635009765625 -97.47222900390625 -140.13238525390625
48.631446838378906 -97.757377624511719 -140.15097045898438
46.819038391113281 -99.398452758789062 -140.25852966308594
46.515293121337891 -99.673728942871094 -140.27685546875
44.965339660644531 -101.57844543457031 -140.38621520996094
44.637313842773438 -102.00531005859375 -140.41098022460938
43.5865478515625 -103.46720886230469 -140.49079895019531
42.674072265625 -105.33863067626953 -140.58187866210938
42.346092224121094 -105.77458953857422 -140.60574340820312
41.298431396484375 -107.23525238037109 -140.68804931640625
40.379570007324219 -109.10584259033203 -140.78009033203125
40.06329345703125 -109.53184509277344 -140.80429077148438
39.008964538574219 -110.99217224121094 -140.88801574707031
38.102890014648438 -112.870849609375 -140.98150634765625
37.777610778808594 -113.2967529296875 -141.0067138671875
36.736541748046875 -114.75577545166016 -141.09049987792969
35.943756103515625 -116.62059783935547 -141.18098449707031
35.437217712402344 -118.48453521728516 -141.26254272460938
35.3616943359375 -118.66643524169922 -141.27195739746094
34.726921081542969 -120.34602355957031 -141.35107421875
35.133720397949219 -121.16049194335938 -141.36660766601562
35.66259765625 -122.14991760253906 -141.38456726074219
36.862533569335938 -123.21945953369141 -141.38371276855469
38.107635498046875 -123.91069030761719 -141.36796569824219
38.695167541503906 -124.26712799072266 -141.36148071289062
40.545631408691406 -125.03127288818359 -141.32907104492188
42.420761108398438 -125.54022979736328 -141.2879638671875
42.49456787109375 -125.59412384033203 -141.28755187988281
44.250030517578125 -126.5880126953125 -141.26736450195312
45.55657958984375 -127.32396697998047 -141.25286865234375
46.087623596191406 -127.68222808837891 -141.24922180175781
47.958549499511719 -128.3138427734375 -141.21333312988281
49.210281372070312 -129.03353881835938 -141.20079040527344
49.753471374511719 -129.80291748046875 -138.83128356933594
51.705055236816406 -129.66862487792969 -138.76710510253906
53.6429443359375 -129.60122680664062 -138.70681762695312
55.622962951660156 -129.07017517089844 -138.62896728515625
55.867507934570312 -128.88258361816406 -138.61509704589844
57.692619323730469 -127.65000915527344 -138.517822265625
58.44903564453125 -126.95421600341797 -138.47134399414062
59.839897155761719 -125.27447509765625 -138.3721923828125
60.037666320800781 -125.06008148193359 -138.35896301269531
61.339637756347656 -123.176025390625 -138.25619506835938
62.039161682128906 -122.36846923828125 -138.20841979980469
62.994728088378906 -121.26943969726562 -138.14341735839844
63.772201538085938 -119.40325927734375 -138.05706787109375
64.357452392578125 -118.34520721435547 -138.00465393066406
64.831298828125 -117.52648162841797 -137.96382141113281
65.3935546875 -115.65833282470703 -137.88455200195312
66.05615234375 -113.79538726806641 -137.80386352539062
66.700836181640625 -111.93284606933594 -137.72378540039062
66.787879943847656 -110.08071899414062 -137.66044616699219
66.965133666992188 -108.23468780517578 -137.59463500976562
67.143974304199219 -106.38805389404297 -137.52960205078125
67.325035095214844 -104.53174591064453 -137.46507263183594
67.126617431640625 -102.69830322265625 -137.41178894042969
66.819374084472656 -100.86869812011719 -137.36207580566406
66.614517211914062 -99.025230407714844 -137.30961608886719
66.273780822753906 -98.452117919921875 -137.30119323730469
65.580810546875 -97.221275329589844 -137.28123474121094
64.818511962890625 -95.407066345214844 -137.24581909179688
64.650688171386719 -95.195869445800781 -137.24411010742188
63.638473510742188 -93.607894897460938 -137.22299194335938
62.958831787109375 -92.763008117675781 -137.21585083007812
61.553825378417969 -91.831588745117188 -137.22602844238281
61.142471313476562 -91.582038879394531 -137.22970581054688
59.227928161621094 -91.283432006835938 -137.2744140625
57.361572265625 -91.984893798828125 -137.34794616699219
57.216552734375 -92.047103881835938 -137.35345458984375
55.206207275390625 -92.8193359375 -137.43463134765625
53.862380981445312 -93.964324951171875 -137.50865173339844
53.086891174316406 -94.587425231933594 -137.55009460449219
51.042343139648438 -95.738151550292969 -137.64633178710938
50.836700439453125 -95.915641784667969 -137.65818786621094
48.943687438964844 -97.446990966796875 -137.76217651367188
48.340457916259766 -97.846534729003906 -137.79315185546875
46.880088806152344 -98.729484558105469 -137.86492919921875
45.432689666748047 -99.791160583496094 -137.943115234375
44.799903869628906 -100.30413055419922 -137.97874450683594
43.161811828613281 -101.72140502929688 -138.0750732421875
42.687782287597656 -102.22874450683594 -138.10690307617188
41.586380004882812 -103.61676025390625 -138.18630981445312
40.495567321777344 -105.00376129150391 -138.2655029296875
40.023017883300781 -105.51111602783203 -138.29806518554688
38.846076965332031 -107.40048980712891 -138.39814758300781
38.272117614746094 -108.05260467529297 -138.43753051757812
37.2481689453125 -109.29511260986328 -138.51219177246094
36.120773315429688 -110.50293731689453 -138.5888671875
35.396453857421875 -111.19747924804688 -138.63580322265625
34.004379272460938 -112.63090515136719 -138.72982788085938
33.556724548339844 -113.10823059082031 -138.76043701171875
32.045783996582031 -114.99793243408203 -138.87458801269531
31.838798522949219 -115.22174072265625 -138.88932800292969
30.389968872070312 -116.89229583740234 -138.99440002441406
29.659286499023438 -118.76349639892578 -139.08343505859375
29.49127197265625 -120.60606384277344 -139.15321350097656
30.022117614746094 -122.42475891113281 -139.19961547851562
31.103836059570312 -123.25374603271484 -139.19271850585938
33.036148071289062 -123.13124847412109 -139.12443542480469
34.955581665039062 -123.06446075439453 -139.05943298339844
36.896247863769531 -122.78060913085938 -138.98638916015625
38.774063110351562 -123.32755279541016 -138.94548034667969
40.647003173828125 -123.8367919921875 -138.90415954589844
40.749671936035156 -123.89915466308594 -138.90234375
42.497573852539062 -124.61997222900391 -138.87252807617188
44.1142578125 -125.61821746826172 -138.85739135742188
44.316902160644531 -125.78058624267578 -138.85647583007812
46.162071228027344 -126.79030609130859 -138.83494567871094
46.773101806640625 -127.36270904541016 -138.836669921875
47.941520690917969 -128.46200561523438 -138.83883666992188
48.852256774902344 -129.12738037109375 -138.83453369140625
49.791389465332031 -129.35537719726562 -136.43359375
51.647628784179688 -130.32752990722656 -136.41191101074219
53.556831359863281 -130.60075378417969 -136.36418151855469
55.526313781738281 -130.19258117675781 -136.29148864746094
57.568145751953125 -129.08450317382812 -136.19282531738281
57.763282775878906 -128.89851379394531 -136.18112182617188
59.673744201660156 -127.16325378417969 -136.06489562988281
59.868370056152344 -126.98664093017578 -136.05313110351562
61.168708801269531 -125.10234832763672 -135.950439453125
61.867271423339844 -124.29519653320312 -135.90324401855469
62.820907592773438 -123.20584106445312 -135.83895874023438
63.797492980957031 -121.32304382324219 -135.7467041015625
64.129310607910156 -120.84934997558594 -135.72171020507812
65.065238952636719 -119.43911743164062 -135.64772033691406
65.704544067382812 -117.57718658447266 -135.56745910644531
66.256759643554688 -115.70882415771484 -135.48991394042969
66.659370422363281 -113.85501861572266 -135.4171142578125
66.730438232421875 -113.73928833007812 -135.41136169433594
67.664474487304688 -111.97952270507812 -135.32820129394531
67.820823669433594 -110.12472534179688 -135.26327514648438
68.038589477539062 -108.27672576904297 -135.19703674316406
68.177291870117188 -106.43112945556641 -135.1339111328125
68.378013610839844 -104.57379913330078 -135.06953430175781
67.777679443359375 -102.86807250976562 -135.03146362304688
67.729156494140625 -102.75643920898438 -135.02923583984375
67.571830749511719 -100.92071533203125 -134.97616577148438
67.126533508300781 -99.086097717285156 -134.93034362792969
66.348808288574219 -97.697738647460938 -134.90888977050781
66.101974487304688 -97.281715393066406 -134.90216064453125
65.478767395019531 -95.461845397949219 -134.86302185058594
64.72076416015625 -94.497367858886719 -134.854248046875
64.018409729003906 -93.67254638671875 -134.84884643554688
62.967079162597656 -92.671379089355469 -134.84700012207031
61.075935363769531 -92.220657348632812 -134.88517761230469
59.114578247070312 -92.37725830078125 -134.94425964355469
57.107261657714844 -93.102622985839844 -135.02183532714844
55.8995361328125 -93.968582153320312 -135.08251953125
55.023788452148438 -94.595985412597656 -135.12716674804688
52.96728515625 -95.747352600097656 -135.22171020507812
52.761550903320312 -95.924781799316406 -135.2335205078125
50.866508483886719 -97.456893920898438 -135.33645629882812
50.263031005859375 -97.856269836425781 -135.3670654296875
48.816085815429688 -98.691635131835938 -135.43547058105469
47.114528656005859 -99.809898376464844 -135.52223205566406
46.741043090820312 -100.09679412841797 -135.54296875
44.680946350097656 -101.47258758544922 -135.64970397949219
44.356819152832031 -101.75773620605469 -135.66828918457031
42.580726623535156 -103.28289031982422 -135.77241516113281
41.871360778808594 -103.68515014648438 -135.80705261230469
40.554473876953125 -104.36372375488281 -135.87049865722656
38.528877258300781 -105.35886383056641 -135.9666748046875
38.185661315917969 -105.65384674072266 -135.98731994628906
36.45947265625 -106.93067932128906 -136.083984375
35.560592651367188 -107.59352874755859 -136.13491821289062
34.377098083496094 -108.67194366455078 -136.20867919921875
33.639862060546875 -109.49869537353516 -136.2596435546875
32.22332763671875 -111.08399200439453 -136.35896301269531
31.8995361328125 -111.39674377441406 -136.37983703613281
30.613319396972656 -113.28846740722656 -136.48606872558594
30.042884826660156 -113.93930053710938 -136.52638244628906
28.966941833496094 -115.18215179443359 -136.60423278808594
28.236030578613281 -117.04447174072266 -136.69166564941406
27.9874267578125 -118.89969635009766 -136.76335144042969
28.51666259765625 -120.71868896484375 -136.8089599609375
29.350929260253906 -121.45336151123047 -136.80668640136719
30.806541442871094 -122.47732543945312 -136.79428100585938
31.143836975097656 -122.7579345703125 -136.79254150390625
33.051460266113281 -122.91827392578125 -136.73590087890625
34.971206665039062 -122.85203552246094 -136.67167663574219
36.914535522460938 -122.53989410400391 -136.59800720214844
38.142562866210938 -122.22413635253906 -136.54779052734375
38.887123107910156 -122.03810119628906 -136.51763916015625
40.876617431640625 -121.26243591308594 -136.42764282226562
42.438217163085938 -122.07437133789062 -136.40692138671875
42.708511352539062 -122.24407958984375 -136.40383911132812
44.533760070800781 -123.32962799072266 -136.38461303710938
45.031570434570312 -123.83047485351562 -136.38653564453125
46.084934234619141 -125.63080596923828 -136.41676330566406
46.248435974121094 -125.79450225830078 -136.41738891601562
47.745582580566406 -127.40999603271484 -136.42741394042969
48.009231567382812 -127.67414855957031 -136.42915344238281
49.628074645996094 -129.181640625 -136.43275451660156
51.732460021972656 -129.36959838867188 -133.99549865722656
53.627723693847656 -129.80352783203125 -133.95384216308594
55.5601806640625 -129.83038330078125 -133.89784240722656
57.091163635253906 -129.00418090820312 -133.82456970214844
57.602516174316406 -128.7220458984375 -133.80056762695312
59.660987854003906 -127.34945678710938 -133.69407653808594
59.994422912597656 -127.06447601318359 -133.67425537109375
61.514183044433594 -125.17227935791016 -133.56645202636719
61.823150634765625 -124.83157348632812 -133.546142578125
63.087020874023438 -123.27825927734375 -133.45748901367188
64.034866333007812 -121.93423461914062 -133.38597106933594
64.483474731445312 -121.38078308105469 -133.3544921875
65.161087036132812 -119.51747131347656 -133.2734375
65.970611572265625 -117.64942169189453 -133.18930053710938
66.482803344726562 -115.78241729736328 -133.11325073242188
66.553428649902344 -115.66634368896484 -133.10733032226562
67.486106872558594 -113.90709686279297 -133.02403259277344
67.640388488769531 -112.06163024902344 -132.95999145507812
68.047027587890625 -110.19728088378906 -132.88865661621094
68.895050048828125 -108.32637786865234 -132.80615234375
68.332412719726562 -106.50605010986328 -132.76329040527344
68.393135070800781 -104.65343475341797 -132.70274353027344
68.554313659667969 -102.80645751953125 -132.64064025878906
67.954795837402344 -101.10000610351562 -132.60346984863281
67.906303405761719 -100.98837280273438 -132.60163879394531
67.480720520019531 -99.152549743652344 -132.55595397949219
66.785392761230469 -97.335563659667969 -132.51953125
66.44012451171875 -96.809722900390625 -132.51240539550781
65.692306518554688 -95.532859802246094 -132.49365234375
64.722755432128906 -94.491081237792969 -132.48829650878906
63.68212890625 -93.763351440429688 -132.49473571777344
62.915878295898438 -93.186370849609375 -132.49798583984375
60.986541748046875 -93.105644226074219 -132.54824829101562
59.028762817382812 -93.224357604980469 -132.60569763183594
57.055015563964844 -93.61749267578125 -132.67306518554688
56.398872375488281 -94.02899169921875 -132.70352172851562
54.998367309570312 -94.845268249511719 -132.76805114746094
52.958770751953125 -95.825767517089844 -132.8568115234375
52.723365783691406 -96.004417419433594 -132.86921691894531
50.898895263671875 -97.127899169921875 -132.95703125
49.173652648925781 -97.973411560058594 -133.03379821777344
48.868827819824219 -98.154281616210938 -133.04808044433594
46.840179443359375 -99.085891723632812 -133.13864135742188
45.729267120361328 -99.937248229980469 -133.19786071777344
44.757926940917969 -100.67958831787109 -133.25128173828125
43.378242492675781 -101.870361328125 -133.33085632324219
42.656883239746094 -102.49061584472656 -133.37332153320312
40.623703002929688 -103.6378173828125 -133.47245788574219
40.419197082519531 -103.814697265625 -133.48481750488281
39.153106689453125 -105.69873809814453 -133.58522033691406
38.429039001464844 -106.36529541015625 -133.62945556640625
37.187393188476562 -107.61597442626953 -133.70864868164062
36.305778503417969 -108.50445556640625 -133.76577758789062
34.950119018554688 -109.53209686279297 -133.84346008300781
34.24298095703125 -110.04667663574219 -133.88294982910156
32.696540832519531 -111.44766235351562 -133.97886657714844
32.123931884765625 -112.10861968994141 -134.01959228515625
31.0556640625 -113.35171508789062 -134.09585571289062
30.312843322753906 -115.21500396728516 -134.18226623535156
30.407264709472656 -117.04964447021484 -134.24093627929688
30.237335205078125 -118.90213775634766 -134.30906677246094
30.983528137207031 -120.7138671875 -134.34663391113281
31.302986145019531 -120.97614288330078 -134.34532165527344
33.183067321777344 -121.439208984375 -134.30079650878906
35.151466369628906 -120.84395599365234 -134.21658325195312
36.141921997070312 -120.5364990234375 -134.17440795898438
37.121604919433594 -120.24819183349609 -134.13352966308594
39.046730041503906 -120.27583312988281 -134.07298278808594
40.994636535644531 -119.96315002441406 -134.00137329101562
42.954933166503906 -119.5364990234375 -133.92588806152344
44.200881958007812 -120.25637817382812 -133.91157531738281
44.772048950195312 -120.69805145263672 -133.90916442871094
45.775634765625 -122.03852844238281 -133.92292785644531
46.4981689453125 -123.0025634765625 -133.93467712402344
47.114845275878906 -123.83857727050781 -133.9444580078125
48.219032287597656 -125.30764770507812 -133.96124267578125
48.477432250976562 -125.62845611572266 -133.96441650390625
49.783416748046875 -127.42066192626953 -133.98658752441406
49.947135925292969 -127.58439636230469 -133.98741149902344
51.559196472167969 -129.19670104980469 -133.99470520019531
53.511024475097656 -131.22848510742188 -131.6265869140625
55.406753540039062 -131.69091796875 -131.58609008789062
56.522026062011719 -130.954345703125 -131.52874755859375
57.467666625976562 -130.35598754882812 -131.48060607910156
59.1939697265625 -129.01368713378906 -131.38560485839844
59.551261901855469 -128.68057250976562 -131.36335754394531
60.931304931640625 -127.11431121826172 -131.271728515625
61.705879211425781 -126.22885131835938 -131.21946716308594
62.652214050292969 -125.21495819091797 -131.15864562988281
63.625602722167969 -123.34162902832031 -131.06922912597656
63.953697204589844 -122.90576171875 -131.04505920410156
65.002265930175781 -121.44419860839844 -130.96725463867188
65.800079345703125 -119.57687377929688 -130.88352966308594
66.309860229492188 -117.71912384033203 -130.8082275390625
66.380905151367188 -117.59415435791016 -130.80207824707031
67.312126159667969 -115.83435821533203 -130.71992492675781
67.504508972167969 -113.98732757568359 -130.65385437011719
67.868728637695312 -112.13447570800781 -130.58535766601562
68.716087341308594 -110.25450134277344 -130.50224304199219
69.002792358398438 -108.40316009521484 -130.43557739257812
68.700469970703125 -106.57331085205078 -130.38632202148438
68.390495300292969 -104.73386383056641 -130.33708190917969
68.571830749511719 -102.88568115234375 -130.27482604980469
68.363449096679688 -101.05133056640625 -130.22402954101562
68.043991088867188 -100.25041961669922 -130.20782470703125
67.657371520996094 -99.225425720214844 -130.18788146972656
67.301582336425781 -97.395851135253906 -130.14115905761719
66.52587890625 -95.997154235839844 -130.11949157714844
66.277679443359375 -95.590248107910156 -130.11428833007812
65.315483093261719 -93.781936645507812 -130.08587646484375
64.845870971679688 -93.307479858398438 -130.08457946777344
63.367767333984375 -91.999725341796875 -130.08572387695312
63.064811706542969 -91.745857238769531 -130.08634948730469
61.157821655273438 -91.446807861328125 -130.12896728515625
59.216201782226562 -91.404182434082031 -130.18057250976562
57.236824035644531 -91.844596862792969 -130.2493896484375
56.581016540527344 -92.24688720703125 -130.27874755859375
55.179412841796875 -93.072952270507812 -130.34284973144531
53.161277770996094 -93.83599853515625 -130.42330932617188
52.505828857421875 -94.247085571289062 -130.45448303222656
51.107925415039062 -95.062629699707031 -130.51934814453125
49.081466674804688 -96.042289733886719 -130.60882568359375
48.86614990234375 -96.220008850097656 -130.62042236328125
46.982841491699219 -97.66632080078125 -130.72042846679688
46.322334289550781 -98.152565002441406 -130.75495910644531
44.907859802246094 -99.175613403320312 -130.82926940917969
43.792198181152344 -100.08353424072266 -130.89120483398438
42.786109924316406 -101.18592834472656 -130.95588684082031
42.085372924804688 -101.99372863769531 -131.00363159179688
40.659187316894531 -103.88432312011719 -131.10728454589844
40.59234619140625 -103.96208953857422 -131.11222839355469
39.076530456542969 -105.77983856201172 -131.21665954589844
38.413558959960938 -106.52894592285156 -131.26152038574219
37.347763061523438 -107.68827056884766 -131.33200073242188
36.263145446777344 -109.56493377685547 -131.42721557617188
36.197181701660156 -109.64268493652344 -131.43180847167969
34.757026672363281 -111.45571899414062 -131.536865234375
34.019134521484375 -112.40514373779297 -131.59136962890625
33.193489074707031 -113.35725402832031 -131.64958190917969
32.007110595703125 -115.23587799072266 -131.74984741210938
31.778152465820312 -115.79988861083984 -131.77632141113281
31.285232543945312 -117.09828948974609 -131.83491516113281
31.114875793457031 -118.95121002197266 -131.90283203125
31.405441284179688 -119.85511779785156 -131.92369079589844
32.442489624023438 -120.74331665039062 -131.92042541503906
33.225105285644531 -120.98978424072266 -131.90373229980469
35.145027160644531 -120.92368316650391 -131.8394775390625
35.771324157714844 -120.62904357910156 -131.8099365234375
37.144325256347656 -120.01630401611328 -131.74623107910156
39.126556396484375 -119.42018890380859 -131.66336059570312
41.1064453125 -118.76708221435547 -131.57943725585938
41.43719482421875 -118.59543609619141 -131.563720703125
43.116226196289062 -117.81144714355469 -131.4852294921875
44.503517150878906 -118.48851776123047 -131.46534729003906
44.952796936035156 -118.75550079345703 -131.46037292480469
46.354976654052734 -120.26152038574219 -131.46809387207031
46.698036193847656 -120.83369445800781 -131.47706604003906
47.386589050292969 -122.06306457519531 -131.49754333496094
47.953811645507812 -123.89033508300781 -131.541748046875
48.297904968261719 -124.46253967285156 -131.55101013183594
48.999931335449219 -125.69159698486328 -131.57159423828125
49.780845642089844 -127.50240325927734 -131.60955810546875
49.944595336914062 -127.66619873046875 -131.61029052734375
51.557060241699219 -129.27879333496094 -131.61732482910156
51.730445861816406 -129.45187377929688 -131.61836242675781
53.34649658203125 -131.06425476074219 -131.62568664550781
55.343048095703125 -132.53955078125 -129.2359619140625
57.296302795410156 -132.47224426269531 -129.17713928222656
59.342498779296875 -131.21347045898438 -129.07609558105469
59.655479431152344 -130.92901611328125 -129.05757141113281
61.192497253417969 -129.02696228027344 -128.94967651367188
61.499740600585938 -128.69570922851562 -128.92982482910156
62.761589050292969 -127.13318634033203 -128.84251403808594
63.705657958984375 -125.79831695556641 -128.771484375
64.153549194335938 -125.24500274658203 -128.74124145507812
64.827316284179688 -123.38172912597656 -128.6605224609375
65.5440673828125 -121.50752258300781 -128.57916259765625
66.12872314453125 -120.44915771484375 -128.528564453125
66.60235595703125 -119.63046264648438 -128.48899841308594
67.162010192871094 -117.77069854736328 -128.4132080078125
67.824287414550781 -115.89791107177734 -128.33506774902344
68.486846923828125 -114.03377532958984 -128.25765991210938
68.660713195800781 -112.18722534179688 -128.19432067871094
68.836807250976562 -110.33097839355469 -128.13121032714844
69.013534545898438 -108.48360443115234 -128.06808471679688
69.1912841796875 -106.63585662841797 -128.00596618652344
69.371841430664062 -104.77834320068359 -127.94438171386719
69.432029724121094 -102.93429565429688 -127.88595581054688
68.883094787597656 -101.11187744140625 -127.84457397460938
68.104057312011719 -99.713417053222656 -127.82322692871094
67.856536865234375 -99.297294616699219 -127.81721496582031
67.300498962402344 -97.474693298339844 -127.77670288085938
66.484931945800781 -96.464706420898438 -127.76870727539062
65.856170654296875 -95.684242248535156 -127.76220703125
64.7613525390625 -94.201797485351562 -127.74746704101562
64.514190673828125 -93.889175415039062 -127.74484252929688
63.007278442382812 -92.365180969238281 -127.74050903320312
62.426216125488281 -92.11181640625 -127.7489013671875
61.150550842285156 -91.562545776367188 -127.7669677734375
59.212387084960938 -91.481697082519531 -127.81806945800781
57.232894897460938 -91.922248840332031 -127.8848876953125
56.577255249023438 -92.324386596679688 -127.91519165039062
55.175590515136719 -93.150466918945312 -127.97854614257812
53.135971069335938 -94.122108459472656 -128.0657958984375
52.898994445800781 -94.31005859375 -128.07798767089844
51.068115234375 -95.49114990234375 -128.16523742675781
49.87335205078125 -96.261711120605469 -128.223388671875
49.000015258789062 -96.887992858886719 -128.26805114746094
46.948883056640625 -98.037788391113281 -128.36346435546875
46.733566284179688 -98.215461730957031 -128.37535095214844
44.885147094726562 -99.432952880859375 -128.46783447265625
43.500144958496094 -100.17115020751953 -128.53190612792969
42.84820556640625 -100.58103942871094 -128.56474304199219
40.804397583007812 -101.82339477539062 -128.66569519042969
40.449485778808594 -102.12869262695312 -128.68617248535156
38.714401245117188 -103.46310424804688 -128.78121948242188
38.076095581054688 -104.05168151855469 -128.81976318359375
36.58428955078125 -105.641357421875 -128.91654968261719
36.248878479003906 -105.95471954345703 -128.93685913085938
35.251876831054688 -107.83853912353516 -129.02842712402344
34.352096557617188 -108.92600250244141 -129.09199523925781
33.64654541015625 -109.73279571533203 -129.1397705078125
32.683746337890625 -111.60484313964844 -129.23147583007812
32.111114501953125 -112.26544952392578 -129.27084350585938
31.092247009277344 -113.50685119628906 -129.34368896484375
29.953598022460938 -114.88418579101562 -129.42578125
29.513893127441406 -115.39893341064453 -129.45672607421875
28.213302612304688 -117.28093719482422 -129.56051635742188
28.554771423339844 -119.11647796630859 -129.61048889160156
29.444908142089844 -120.42461395263672 -129.62590026855469
31.331344604492188 -120.70011901855469 -129.57460021972656
33.260337829589844 -120.63432312011719 -129.50971984863281
35.266334533691406 -119.63278961181641 -129.41276550292969
37.233154296875 -119.08458709716797 -129.333740234375
37.800125122070312 -118.80124664306641 -129.30636596679688
39.250320434570312 -118.11976623535156 -129.23818969726562
41.2491455078125 -117.26811981201172 -129.14810180664062
43.200920104980469 -116.9456787109375 -129.07745361328125
45.110023498535156 -117.10540771484375 -129.02447509765625
46.492382049560547 -118.49944305419922 -129.02830505371094
46.869010925292969 -119.0233154296875 -129.03448486328125
47.572494506835938 -120.29965209960938 -129.05488586425781
48.523002624511719 -122.02899932861328 -129.08468627929688
48.575302124023438 -122.10249328613281 -129.08540344238281
49.014205932617188 -123.93446350097656 -129.1331787109375
49.942352294921875 -125.74045562744141 -129.1658935546875
50.102767944335938 -125.94203186035156 -129.16798400878906
51.141036987304688 -127.53675079345703 -129.19062805175781
51.819709777832031 -128.50314331054688 -129.20329284667969
52.441886901855469 -129.32972717285156 -129.21286010742188
53.554878234863281 -130.809814453125 -129.22990417480469
53.834999084472656 -131.12980651855469 -129.23294067382812
57.209541320800781 -133.64315795898438 -126.83755493164062
59.2001953125 -133.03701782226562 -126.76069641113281
59.394210815429688 -132.86053466796875 -126.748779296875
61.038322448730469 -130.96443176269531 -126.63934326171875
61.346237182617188 -130.62339782714844 -126.61907958984375
62.606391906738281 -129.0609130859375 -126.53216552734375
63.549636840820312 -127.72620391845703 -126.46174621582031
63.996345520019531 -127.17296600341797 -126.43215942382812
65.038764953613281 -125.29648590087891 -126.34114074707031
65.492378234863281 -123.44081115722656 -126.26771545410156
65.95587158203125 -122.49992370605469 -126.22489929199219
66.439598083496094 -121.55827331542969 -126.18162536621094
66.9970703125 -119.69851684570312 -126.10581970214844
67.656761169433594 -117.83498382568359 -126.028564453125
68.318634033203125 -115.96179962158203 -125.95079040527344
68.490623474121094 -114.11495208740234 -125.88819885253906
68.663955688476562 -112.26808166503906 -125.82479858398438
68.839958190917969 -110.41146850585938 -125.76277160644531
69.016128540039062 -108.56400299072266 -125.70071411132812
69.194366455078125 -106.71604156494141 -125.63888549804688
69.253761291503906 -104.86255645751953 -125.58110046386719
68.693138122558594 -103.04054260253906 -125.54086303710938
68.364463806152344 -101.21015930175781 -125.49417114257812
68.021774291992188 -100.63655090332031 -125.48597717285156
67.337234497070312 -99.394905090332031 -125.46699523925781
66.561370849609375 -97.580101013183594 -125.4337158203125
66.402191162109375 -97.378143310546875 -125.43174743652344
65.436836242675781 -95.777641296386719 -125.40994262695312
64.71319580078125 -94.754196166992188 -125.39909362792969
64.054542541503906 -93.983810424804688 -125.39453125
62.955459594726562 -92.94549560546875 -125.39385986328125
61.906646728515625 -92.207977294921875 -125.40072631835938
61.149909973144531 -91.639328002929688 -125.40422058105469
59.210960388183594 -91.558753967285156 -125.45425415039062
57.231254577636719 -91.998878479003906 -125.52182006835938
56.575706481933594 -92.401077270507812 -125.55165100097656
55.173439025878906 -93.227401733398438 -125.61495971679688
53.133895874023438 -94.198753356933594 -125.70046997070312
52.896827697753906 -94.386978149414062 -125.71261596679688
51.065994262695312 -95.568359375 -125.80015563964844
49.8709716796875 -96.338554382324219 -125.85801696777344
48.997650146484375 -96.965095520019531 -125.90138244628906
46.967002868652344 -97.906387329101562 -125.98970031738281
46.374248504638672 -98.305046081542969 -126.01895141601562
44.910697937011719 -99.225814819335938 -126.09033203125
43.586395263671875 -100.24520111083984 -126.16091918945312
42.82794189453125 -100.83841705322266 -126.20161437988281
40.970420837402344 -102.18740844726562 -126.29986572265625
40.756744384765625 -102.35542297363281 -126.31167602539062
38.715080261230469 -104.1065673828125 -126.42835998535156
38.650131225585938 -104.16523742675781 -126.43243408203125
36.57928466796875 -105.73737335205078 -126.54576110839844
36.24578857421875 -106.03206634521484 -126.56495666503906
34.478446960449219 -107.64962005615234 -126.671142578125
34.144889831542969 -107.95349884033203 -126.69155883789062
32.934226989746094 -109.83438873291016 -126.78964233398438
32.255348205566406 -110.78208160400391 -126.84136962890625
31.587844848632812 -111.7197265625 -126.89242553710938
30.105010986328125 -113.30685424804688 -126.99168395996094
29.771133422851562 -113.62918090820312 -127.01234436035156
28.606513977050781 -115.50696563720703 -127.11044311523438
27.901908874511719 -116.45487976074219 -127.16351318359375
27.257621765136719 -117.39060211181641 -127.21473693847656
27.713630676269531 -118.50666046142578 -127.23699951171875
28.257217407226562 -119.20471954345703 -127.24227905273438
29.498146057128906 -119.88874816894531 -127.22514343261719
31.167411804199219 -119.10686492919922 -127.14613342285156
31.499069213867188 -118.91656494140625 -127.12921142578125
33.449081420898438 -118.62399291992188 -127.05795288085938
35.370468139648438 -118.55848693847656 -126.99513244628906
37.325759887695312 -118.14308166503906 -126.92063903808594
39.3094482421875 -117.54661560058594 -126.83976745605469
40.319862365722656 -116.94631195068359 -126.78886413574219
41.343742370605469 -116.31674194335938 -126.73725891113281
43.317588806152344 -115.76756286621094 -126.6585693359375
44.781204223632812 -116.79135894775391 -126.64739990234375
45.122665405273438 -117.05322265625 -126.64596557617188
46.631645202636719 -118.57474517822266 -126.64990234375
46.889610290527344 -118.88625335693359 -126.65223693847656
47.920326232910156 -120.36782836914062 -126.66996765136719
48.587440490722656 -121.41000366210938 -126.68435668945312
49.142616271972656 -122.16366577148438 -126.69256591796875
49.889762878417969 -123.98529052734375 -126.73043823242188
50.238945007324219 -124.51053619384766 -126.73768615722656
51.047370910644531 -125.78327178955078 -126.75540161132812
51.967735290527344 -126.92030334472656 -126.7662353515625
52.575035095214844 -127.56865692138672 -126.77011108398438
53.509521484375 -129.37530517578125 -126.80296325683594
53.67010498046875 -129.58663940429688 -126.80479431152344
54.704658508300781 -131.18220520019531 -126.82774353027344
55.3878173828125 -132.13946533203125 -126.83976745605469
56.291702270507812 -132.96699523925781 -126.8414306640625
57.072486877441406 -135.46685791015625 -124.51995086669922
59.053787231445312 -134.97483825683594 -124.44719696044922
59.248214721679688 -134.78901672363281 -124.43517303466797
61.155654907226562 -133.05319213867188 -124.32457733154297
61.360099792480469 -132.87646484375 -124.31262969970703
62.465690612792969 -130.99835205078125 -124.22055816650391
63.392936706542969 -129.71113586425781 -124.15218353271484
63.844398498535156 -129.10096740722656 -124.12058258056641
64.884658813476562 -127.22504425048828 -124.03066253662109
65.656822204589844 -125.35796356201172 -123.94852447509766
65.726936340332031 -125.24221038818359 -123.94359588623047
66.691459655761719 -123.48167419433594 -123.86060333251953
66.837287902832031 -121.62640380859375 -123.79679107666016
67.494705200195312 -119.76298522949219 -123.72025299072266
68.154075622558594 -117.89896392822266 -123.64345550537109
68.324897766113281 -116.04293060302734 -123.58086395263672
68.49676513671875 -114.19585418701172 -123.51808929443359
68.670112609863281 -112.34881591796875 -123.45601654052734
68.845512390136719 -110.49183654785156 -123.39427947998047
69.021514892578125 -108.64383697509766 -123.33283233642578
69.199180603027344 -106.79573822021484 -123.27223968505859
69.258583068847656 -104.94193267822266 -123.21530914306641
68.697540283203125 -103.11993408203125 -123.17473602294922
68.368186950683594 -101.28887939453125 -123.12914276123047
68.020797729492188 -100.76286315917969 -123.12232208251953
67.320816040039062 -99.474372863769531 -123.10256195068359
66.350898742675781 -97.996871948242188 -123.08472442626953
66.094070434570312 -97.675224304199219 -123.08185577392578
64.919883728027344 -95.874092102050781 -123.06038665771484
64.639488220214844 -95.591041564941406 -123.05951690673828
63.157524108886719 -94.093795776367188 -123.05535125732422
62.87762451171875 -93.810592651367188 -123.05541229248047
61.08441162109375 -92.371353149414062 -123.06147003173828
60.960540771484375 -92.319473266601562 -123.06333160400391
59.209587097167969 -91.65374755859375 -123.09178924560547
57.231857299804688 -92.075599670410156 -123.15787506103516
56.576118469238281 -92.477325439453125 -123.18729400634766
55.17376708984375 -93.303665161132812 -123.25066375732422
53.133956909179688 -94.275550842285156 -123.33574676513672
52.897079467773438 -94.463516235351562 -123.34752655029297
51.066009521484375 -95.644699096679688 -123.43410491943359
49.870712280273438 -96.415260314941406 -123.49144744873047
48.997459411621094 -97.041786193847656 -123.53517913818359
46.945907592773438 -98.191322326660156 -123.62924957275391
46.710689544677734 -98.369712829589844 -123.64142608642578
44.87921142578125 -99.615379333496094 -123.73223114013672
44.120292663574219 -100.30321502685547 -123.77570343017578
42.732879638671875 -101.87245941162109 -123.86467742919922
42.393653869628906 -102.21475219726562 -123.88556671142578
40.868385314941406 -104.10911560058594 -123.98967742919922
40.559280395507812 -104.45023345947266 -124.01026153564453
39.295890808105469 -106.00443267822266 -124.09604644775391
38.348960876464844 -107.34906768798828 -124.16718292236328
37.902267456054688 -107.90245819091797 -124.19806671142578
36.995590209960938 -109.77339935302734 -124.28517913818359
36.076828002929688 -111.05963134765625 -124.35338592529297
35.626724243164062 -111.65989685058594 -124.38686370849609
35.087821960449219 -113.52688598632812 -124.46288299560547
35.717948913574219 -114.88234710693359 -124.48659515380859
36.108589172363281 -115.33107757568359 -124.48900604248047
37.517829895019531 -116.15040588378906 -124.47176361083984
39.470710754394531 -115.89485168457031 -124.40355682373047
41.398483276367188 -115.82847595214844 -124.34256744384766
43.319282531738281 -115.84696960449219 -124.28490447998047
44.912559509277344 -116.86652374267578 -124.26902008056641
45.13397216796875 -117.03791809082031 -124.26815032958984
46.949081420898438 -118.35135650634766 -124.25598907470703
47.209648132324219 -118.63465118408203 -124.25788116455078
48.703933715820312 -120.25151062011719 -124.26554107666016
48.866813659667969 -120.41555786132812 -124.26609039306641
49.603500366210938 -122.22860717773438 -124.30304718017578
50.361488342285156 -123.26763916015625 -124.31427764892578
50.927627563476562 -124.03034973144531 -124.32254791259766
51.8873291015625 -125.83588409423828 -124.35326385498047
52.057937622070312 -126.03732299804688 -124.35526275634766
53.028656005859375 -127.63503265380859 -124.37915802001953
53.73095703125 -129.03477478027344 -124.40410614013672
53.983451843261719 -129.44094848632812 -124.41051483154297
54.561653137207031 -131.2698974609375 -124.45412445068359
55.357398986816406 -132.66679382324219 -124.47663116455078
55.61138916015625 -133.0732421875 -124.48273468017578
56.454147338867188 -134.88418579101562 -124.51837921142578
57.358322143554688 -132.23760986328125 -122.02338409423828
59.275962829589844 -132.51193237304688 -121.97814178466797
61.198204040527344 -132.75758361816406 -121.93227386474609
62.58612060546875 -131.07719421386719 -121.83951568603516
62.774223327636719 -129.22084045410156 -121.77414703369141
63.183639526367188 -127.36634063720703 -121.70325469970703
63.284591674804688 -125.52239227294922 -121.64162445068359
63.866653442382812 -124.46397399902344 -121.59191131591797
64.3382568359375 -123.64556884765625 -121.55312347412109
65.244552612304688 -121.76425170898438 -121.46895599365234
66.168899536132812 -120.47648620605469 -121.40306854248047
66.622688293457031 -119.87539672851562 -121.37177276611328
67.301612854003906 -118.01085662841797 -121.29557037353516
68.213844299316406 -116.12795257568359 -121.21305084228516
68.50518798828125 -114.27683258056641 -121.14786529541016
68.798629760742188 -112.42500305175781 -121.08347320556641
68.870437622070312 -112.29946899414062 -121.07770538330078
69.80584716796875 -110.53782653808594 -120.99996185302734
70.011566162109375 -108.68845367431641 -120.93856048583984
70.138710021972656 -106.84186553955078 -120.87958526611328
69.967086791992188 -104.99604034423828 -120.82906341552734
69.644645690917969 -104.20413970947266 -120.81410980224609
69.255050659179688 -103.17872619628906 -120.79357147216797
68.725051879882812 -101.35464477539062 -120.75347137451172
68.065513610839844 -100.45204162597656 -120.74442291259766
67.406570434570312 -99.549430847167969 -120.73497772216797
66.326194763183594 -98.37847900390625 -120.72882843017578
65.709365844726562 -97.767021179199219 -120.72777557373047
64.550956726074219 -96.598602294921875 -120.72434234619141
63.944923400878906 -95.986595153808594 -120.72283172607422
62.769287109375 -95.00762939453125 -120.72614288330078
61.344757080078125 -94.2362060546875 -120.74198150634766
60.933677673339844 -93.976799011230469 -120.74489593505859
59.01629638671875 -93.677040100097656 -120.78853607177734
57.084999084472656 -93.632652282714844 -120.83992767333984
55.106399536132812 -94.07281494140625 -120.90750885009766
54.212005615234375 -94.4927978515625 -120.94426727294922
53.072105407714844 -94.987213134765625 -120.99033355712891
51.076614379882812 -95.635238647460938 -121.06554412841797
49.872840881347656 -96.491096496582031 -121.12485504150391
48.999237060546875 -97.117561340332031 -121.16785430908203
46.947509765625 -98.267662048339844 -121.26078033447266
46.752174377441406 -98.444435119628906 -121.27208709716797
44.832450866699219 -100.18438720703125 -121.38016510009766
44.637042999267578 -100.36147308349609 -121.39057159423828
43.503868103027344 -102.25263977050781 -121.48146820068359
42.579254150390625 -103.54096984863281 -121.54850006103516
42.126350402832031 -104.14228820800781 -121.58023834228516
40.431877136230469 -105.86263275146484 -121.68375396728516
40.226539611816406 -106.04915618896484 -121.69510650634766
38.921661376953125 -107.94426727294922 -121.79357147216797
38.225112915039062 -108.74205780029297 -121.83919525146484
37.273841857910156 -109.84122467041016 -121.90232086181641
36.418365478515625 -111.71022033691406 -121.98737335205078
36.244415283203125 -113.56536865234375 -122.05081939697266
37.424369812011719 -115.36443328857422 -122.07099151611328
37.586227416992188 -115.52857208251953 -122.07144927978516
39.479042053222656 -115.92611694335938 -122.02652740478516
41.402351379394531 -115.9071044921875 -121.96762847900391
43.329292297363281 -115.86879730224609 -121.90798187255859
45.255279541015625 -115.85882568359375 -121.85057830810547
46.850379943847656 -116.87841033935547 -121.83527374267578
47.081695556640625 -117.04949951171875 -121.83382415771484
48.57470703125 -118.66715240478516 -121.84154510498047
48.838233947753906 -118.92195892333984 -121.84168243408203
50.352767944335938 -120.44432067871094 -121.84539031982422
50.593238830566406 -120.85096740722656 -121.85160064697266
51.338798522949219 -122.24911499023438 -121.87464141845703
51.938812255859375 -124.07649230957031 -121.91584014892578
52.210227966308594 -124.48220825195312 -121.92093658447266
52.999267578125 -125.87863922119141 -121.94269561767578
53.5643310546875 -127.69832611083984 -121.98583221435547
53.826271057128906 -128.11372375488281 -121.99088287353516
54.619712829589844 -129.50155639648438 -122.01313018798828
55.551734924316406 -130.56350708007812 -122.02082061767578
56.334877014160156 -131.29121398925781 -122.02138519287109
57.207725524902344 -134.27906799316406 -119.71137237548828
59.222702026367188 -133.38943481445312 -119.62574005126953
59.685211181640625 -133.09996032714844 -119.60366058349609
61.259918212890625 -132.26254272460938 -119.53304290771484
62.849685668945312 -131.15113830566406 -119.45317840576172
63.287811279296875 -129.28605651855469 -119.38251495361328
63.527122497558594 -128.58872985839844 -119.35359954833984
63.906730651855469 -127.42397308349609 -119.30648040771484
64.378219604492188 -125.56679534912109 -119.23508453369141
63.898902893066406 -124.31881713867188 -119.20906829833984
63.669921875 -123.75091552734375 -119.19683074951172
64.019027709960938 -122.96455383300781 -119.16281890869141
64.515739440917969 -121.87124633789062 -119.11521148681641
65.422676086425781 -119.99870300292969 -119.03247833251953
66.347976684570312 -118.71074676513672 -118.96840667724609
66.802490234375 -118.10956573486328 -118.93752288818359
67.483268737792969 -116.23494720458984 -118.86203765869141
68.396110534667969 -114.36141204833984 -118.78044891357422
68.809120178222656 -112.50479125976562 -118.71346282958984
68.881027221679688 -112.3798828125 -118.70764923095703
69.81640625 -110.61782836914062 -118.63066864013672
70.022056579589844 -108.76818084716797 -118.57027435302734
70.198699951171875 -106.91909027099609 -118.51029205322266
70.347816467285156 -105.06136322021484 -118.45177459716797
69.744132995605469 -103.35330200195312 -118.41762542724609
69.695419311523438 -103.24147033691406 -118.41559600830078
69.635368347167969 -101.40017700195312 -118.36365509033203
68.455947875976562 -99.589271545410156 -118.34165191650391
68.193367004394531 -99.315010070800781 -118.34076690673828
66.696945190429688 -97.808677673339844 -118.33576202392578
66.424026489257812 -97.5443115234375 -118.33541107177734
64.810722351074219 -96.032417297363281 -118.33489227294922
64.638328552246094 -95.868049621582031 -118.33432769775391
62.840995788574219 -94.428817749023438 -118.34105682373047
62.628494262695312 -94.265914916992188 -118.34259796142578
61.030723571777344 -93.140846252441406 -118.35288238525391
59.114311218261719 -92.831283569335938 -118.39487457275391
57.173133850097656 -92.881736755371094 -118.44911956787109
55.195091247558594 -93.312324523925781 -118.51517486572266
53.193885803222656 -93.894645690917969 -118.58776092529297
52.078529357910156 -94.644012451171875 -118.63976287841797
51.124359130859375 -95.273826599121094 -118.68486785888672
49.100692749023438 -96.215545654296875 -118.76961517333984
48.497348785400391 -96.614677429199219 -118.79810333251953
47.031753540039062 -97.536117553710938 -118.86655426025391
45.794700622558594 -98.553565979003906 -118.93248748779297
44.916694641113281 -99.444290161132812 -118.98465728759766
43.967521667480469 -100.46019744873047 -119.04235076904297
43.191276550292969 -102.33938598632812 -119.12104034423828
42.616668701171875 -103.27594757080078 -119.16640472412109
42.041519165039062 -104.22178649902344 -119.21179962158203
40.695579528808594 -106.10941314697266 -119.30879974365234
40.377601623535156 -106.54535675048828 -119.33180999755859
39.321502685546875 -108.00722503662109 -119.40837860107422
38.45355224609375 -109.87764739990234 -119.49123382568359
38.407691955566406 -111.71977233886719 -119.54987335205078
39.772369384765625 -112.91850280761719 -119.54592132568359
