# XYZ point cloud file
0.079858637341523819 0.96100831790389485 -0.19661627769208967
0.35730443127930034 1.030203318723935 -0.4032803074818625
0.61420366051081021 -0.28017126102200884 0.64403147288570617
-0.05839021964732001 0.2170581239209024 0.71921616489740425
0.21505878979108006 0.33092035773735651 0.32874860833567987
-0.49491684660922064 0.1139844911621446 0.66294127148108939
0.22152430263844608 0.046400680347329804 0.48625465869926865
-0.42237252277419557 0.028808624032105046 0.74280439075799065
0.11742070062148841 0.34088151141024015 0.64040275191664719
0.50432528891674511 -0.51721302816614401 0.62452318052498501
-0.078441896605845343 0.27764439679323671 0.71976273644086763
-0.24583536076139101 -0.43009668102643173 0.050945542294739798
-0.34109152075953042 -0.014014252638282709 0.80761110157009175
-0.52469709193636005 -0.0058308166112914783 0.70751917135781195
0.14659568118021263 -0.14284380703114818 0.054137832560214649
0.19655657817672889 0.7177110564690139 -0.24425964263926137
0.10942391408387497 0.3413024016176831 0.65732453581630179
0.2188775118878703 0.55438090216801661 -0.024950321005777543
-0.60401785309778044 -0.20430782524791491 0.06703787644412551
0.56398837650767897 -0.2258196720464376 0.39755168083731551
-0.22369862232367704 0.0072182464794789958 0.75803518999485797
0.68038245083817528 -0.32487641299576642 0.64626277365639007
0.62325847011816682 -0.30353961448838662 0.62151491869620379
-0.68317594229813716 -0.6958606755680774 -0.31665209396624694
-0.18059209775969043 0.46115020095688442 0.60754768433667761
0.033235653188860237 0.49436850400444299 0.63049988128370149
-0.14583797694017542 0.070439809715679536 0.73118101180741146
0.19418826407684386 0.69424361349829256 -0.24326005530832173
0.25519557932094455 0.61914509512388127 -0.25040394691355106
-0.55328218153760877 -0.6151043568676644 -0.18592743275556667
-0.22965873146102478 -0.064203551927407121 0.74935464575262611
0.12015043939308886 0.13352898955692738 0.67377393189746726
0.028738011082132919 -0.020774913846061782 0.73765413002264868
0.12024367296968808 0.40231547340318419 0.62097639819685846
-0.69861189775450039 -0.6227445445567954 -0.37940905688199966
0.73791332875481586 -0.37260734061165923 0.60109065630810954
-0.48000288734475238 0.10520948213238213 0.3100008054264991
-0.14770078503179229 0.48663949622798275 0.76298422928891252
0.26934839143474337 0.56663320180648702 -0.16587450888151434
0.20625759334377847 0.57308404350426434 -0.071312353518468763
0.30020160954386232 -0.45302407870650718 0.52366877659582167
0.15132407367519701 0.85004972762597042 -0.28739933393875483
0.1751255501686286 -0.031808094711719637 0.048282935741126742
-0.37274763460478771 0.087429332745279975 0.69649150872664367
0.16920060825032379 0.79069720954481926 -0.14393962178902453
-0.21775684129199957 0.27353932785798207 0.75757017127819948
-0.7010728785081507 -0.8323580377545301 -0.24230507013071545
0.022891566733761158 -0.2615311991742475 0.45379953032450571
-0.093349736970406147 0.31024254914556071 0.71876535388860607
0.036438976771993571 -0.082626235339883225 0.73799844968759398
-0.60995876805813953 -0.62917877927745636 -0.23935651389656631
-0.69682652304571613 -0.73728989433730252 -0.32440195178321085
0.14576945035729416 0.43559329019301418 0.60049218550676953
0.065279932067939306 -0.012069860144332312 0.72799293507093987
-0.0053403871837875115 -0.13820639338098428 0.6662406522316241
-0.022320537231434193 -0.19487008413807194 0.56512612082093761
-0.19531332570081261 -0.0029960964444113447 0.74957037275824534
-0.3735963601514265 0.067904124829668344 0.74733293741858153
0.68309191384275758 -0.28745433517887653 0.62860707907466684
-0.058332029618758774 0.43632322401558055 0.70946698375058914
-0.70530454101436102 -0.52793008737564606 -0.3835158101031424
0.12267648805052486 -0.080562225901865459 0.74967440668387297
-0.60515728774010225 -0.49128639861921664 -0.16020240219883863
-0.51248876650911701 -0.51877905675082148 -0.03651728059224979
0.079301274292340018 0.37140442388221917 0.70369534564103431
-0.3972897535054426 -0.14131628452340816 0.72147418848238631
-0.67681446682053759 -0.81532299462815661 -0.24767836203798899
-0.1990960095847458 -0.42669918370950954 -0.042531171159861492
0.2019708401541962 0.50269643602319114 0.52666057306289071
0.31384123560189892 -0.30702659476247351 0.7074511770267482
-0.8361457676724483 -0.7873803951063143 -0.50510318387715603
-0.029721069828531177 0.256690344051967 0.71746315644963832
0.22241980832501634 0.37084379836027681 0.36175971807689422
-0.48790194446024182 -0.55565937951474664 -0.26106821573211758
-0.57614686979514607 -0.56980949536223058 -0.20796066380786726
-0.56947437333865669 -0.49215611219016209 -0.085398060385036612
0.1493601307935413 -0.27450842605133374 0.38668669107941012
-0.54791984419039808 -0.14321512609547238 0.67890423313398296
-0.19484405852545483 0.29424414814235633 0.77647656692028655
0.36552182144481715 1.0605630048728294 -0.39807527728782754
0.10826903824806838 0.45768594850986055 0.61117597301342119
-0.36698952761715331 -0.10237618954321248 0.76419748384510178
-0.22960824759376791 0.088620227720867861 0.75330479384104465
-0.19710836256826209 0.27013156189904697 0.77449600082531744
-0.57467619186179852 -0.25949213035052421 0.61769629562165229
-0.28430558435848141 0.094116296112933817 0.72844435353089287
-0.39889109894923735 0.11142614973196951 0.74463884958359516
-0.39146989685027755 0.088854006489463844 0.74200120815001802
-0.36248417700478464 -0.083498236854921082 0.78594083821546068
-0.14091641501640834 0.89594574711828345 -0.3041665001032583
0.0098620225747269308 0.11768645376451037 0.71359431224797332
0.048919034487632962 -0.19723969734715996 0.65919946899658743
-0.67443138591539131 -0.66382492032338392 -0.31700731072481414
-0.032819073178539437 0.36351530612985794 0.75557968047879664
-0.22263764886624382 0.31960814555159134 0.60397678433552904
0.31900685748534618 1.1077325074804854 -0.31620491072279755
0.61458071090183097 -0.37083311632579496 0.64781483774298965
0.42982303375256059 -0.095583314878844083 0.63285627790937304
-0.053362779502351257 0.28602065525883891 0.73126860422388118
-0.18422823869686025 0.016401408266057516 -0.6244034414232551
0.45696464135969472 -0.46131570364257013 0.49883580586238074
0.33166940450876964 -0.13062237223356599 0.3794129193093253
-0.23509560428975598 -0.1322956182518531 0.67684072184421873
0.34346957189435368 0.76549358739211582 -0.35518026190368723
0.71677437804260302 -0.2765157383158372 0.59505285893942539
-0.31877428162200683 0.12255277162909217 0.75839745371666067
0.12422930774114399 0.54873621702086028 -0.36328699546186427
0.23565012400113083 0.45404608174855676 -0.21017838105815279
-0.064961356699746509 0.23150764651871758 0.72420855591697586
0.6093729415207384 -0.25401345480198456 0.40031842196293188
-0.58812268929704414 -0.36009543847621961 -0.31795249327246511
0.12714993639648825 0.39986387908742138 -0.306332557596801
0.76877464634965975 -0.35204499411674472 0.56903772105150863
-0.11500932061994608 0.3552724757605692 0.73501423345150063
-0.5339900029070771 -0.57729807458951399 -0.15774426178224443
-0.32731381374145724 0.097170099365743168 0.7241639002135738
0.10782442105368933 0.26177187729828 0.62886907012700877
0.46186932845265721 1.0920441219833235 -0.45047910320383
-0.6473817571585232 -0.55287152280203022 -0.38565994349735289
-0.29226557274866771 -0.18873853766165194 0.64867929702870031
0.23533405173223021 -0.060651173236728084 0.68997270698971913
0.084024360947711582 0.013577218892448562 0.74024096754056257
-0.65582224614247209 -0.79889024937378839 -0.25071539756837757
0.30241023148699464 0.92990569100335652 -0.34097601086659668
0.64499015600381948 -0.4216588286893026 0.65327776122434855
0.14251135288266523 0.3684850881483932 0.59330433875329858
0.69787810955909324 -0.43756283140773555 0.53664524497199761
0.04401158207265346 0.63920719158348582 0.62301871043788726
0.19407178383626114 -0.32205497157637364 0.44931051383100806
-0.041204950165599621 -0.18883536860981609 0.55217402834295548
0.094124289287377857 -0.095050930170913039 0.74245928494841607
0.044393001199998311 -0.28015291337286596 0.38174133508910157
0.098209069689003531 0.48422935122991539 0.61488191706797013
0.11904089561906533 0.85807672457279294 0.019893000639827241
0.2482633390728835 0.44123409535520874 0.44710785355864546
-0.29049595394209787 0.035295949238793645 0.8004001291343652
-0.18594098188178904 -0.044141482405144261 0.68132433350452493
-0.30653962827458064 -0.30552329867543127 0.50388917602960004
-0.54911305949732536 -0.67529235796358855 -0.10824707735917882
-0.02141136330694085 0.58280859141238861 0.693573533100033
-0.096254286087660429 0.39221238462920827 0.72594236338651452
-0.55222492964849246 -0.073454147744304921 0.57178764929677017
0.40494509431243331 0.75049178234049174 -0.41423575891927689
0.15476439127961816 0.02138667481179124 0.74420042975327394
0.14319216095560475 -0.21690289351836611 0.69956163217727385
0.026762752119430508 -0.055305363368728822 0.76603643495766971
0.2068253259774101 0.83717265552483111 -0.33545460284966877
-0.066273641437938291 0.15532925013715371 0.71487679457708175
0.39605726499977451 -0.23929861941077912 0.70176705778528636
0.25105320279483134 0.88417734214436239 -0.30654910107267508
0.29220676802829221 -0.37986879632803094 0.6760542982945672
0.0884340081202033 0.54239448598082141 0.61223374649726103
0.19834632877993646 0.65619629790084555 -0.0034905176782853431
0.30908726684441151 1.1292483519471983 -0.37432136710824393
0.0057165404812154728 -0.2565064863304003 0.44790015139948136
0.017001454504655407 -0.037827548975261305 0.75583075634131558
0.22530032648783216 0.53785551672407905 0.0022932714433789858
-0.26267607930108616 -0.15621483978208928 0.67334982638530727
0.014012694886919752 0.29474918810425121 0.74762142145947463
-0.42483286674389598 -0.0053607728681313027 0.73033693785333997
0.28935853636132947 -0.22721045977452059 0.38124415397936007
0.32988641582328904 -0.47635797209279951 0.57653409136265565
-0.40093379135403057 -0.038934073074518238 0.78270571033939063
-0.26198057817591103 0.56178268890128202 -0.61358183409449607
-0.82549109238896279 -0.77126698409647898 -0.4687277046610856
-0.40059657631311835 0.081286812343617898 0.64695734334707611
-0.064997882772564561 -0.17072806890277259 0.56518827515319037
0.32784165317553338 -0.070220766080920871 0.39320537605049333
-0.42349422100011436 0.13537789565578984 0.75690106249009959
0.30143324047191844 0.85189314369877556 -0.33487147923997207
-0.74594515970465258 -0.58284264914020345 -0.43607488972556996
0.54937793632949716 -0.36722221242432984 0.65982470807870908
0.25208111227691471 0.61410251265522042 -0.23835880979405544
-0.25913764741428963 -0.16721357078204035 0.65348466195836563
-0.27917621583663299 0.24427272157479618 0.60110423733008589
0.19332013523378705 0.67440314529355172 -0.24244116004159499
0.21162820980490923 -0.095327713680108062 0.70253774436675431
0.29863666282239776 0.77897809973986987 -0.3195781231852588
0.24492761009764435 0.55986400064734854 -0.17426402919320472
0.27608483484198382 0.60612808380527827 -0.22993791860497215
0.6432743112319117 -0.34857441741668027 0.63452223113150441
0.20614136561909296 0.97601314135399919 -0.32178866087255376
0.12804117770392948 0.80952917473726682 0.097143723944524307
0.28442419551449905 -0.40453966531279795 0.48299934941297651
0.063820724552061558 0.97914675364219028 -0.20080872889040768
0.64150386030135831 -0.28600901367544296 0.65252443340711352
-0.58646062371145735 -0.15212969858946157 0.54909028201081789
-0.47694252678908 -0.043131144867623705 0.61964161128372686
-0.52704962273053668 -0.088209896483189887 0.69821891131128977
0.125755516260591 0.04575435760181179 0.69974980836687894
-0.50323892877550824 -0.30647176351390448 0.60371421723804319
0.19164526621496547 0.059580981174159664 0.52141358353940925
-0.23159443626201565 0.24063107160964448 0.75659767454264681
-0.26530608899062952 0.23524306578081799 0.72054533114719965
0.66366448541724421 -0.3514018355938342 0.65122390224362381
0.002182578391818556 -0.19641675475278109 0.60821160012183473
0.71002982957421124 -0.43473224678032807 0.55481427121947013
0.34945758144530209 0.69240974529090682 -0.2790661848153464
-0.42586602928650263 -0.27473393792215606 0.6474320705880261
0.25708245471585345 -0.007174128207811048 0.65040713581762633
-0.77362299248519706 -0.84377683162143757 -0.41501660263649787
0.45903687129810417 -0.13105063825553209 0.40603916419577057
0.22187523844673113 0.53452854232417035 -0.13333875635562764
-0.53838453148990428 -0.12262863041238625 0.38360031802546546
-0.25031201065642805 -0.30545266697125317 -0.47870902959336492
-0.60363084886036589 -0.45944926851722401 -0.27891414291891348
-0.036076636363554321 0.70352946247644921 0.32550772453591714
0.29347111701837852 1.0101956285300062 -0.36082943144282087
-0.4422261836162556 0.065573829163460884 0.54254610596085961
-0.70455220858025325 -0.84390236404435703 -0.22899627919587373
0.36776973196224677 1.05777775825926 -0.40742949420566621
-0.48018938549730134 0.011455625908319833 0.52230972408322818
0.44040951843610882 1.0323830926018533 -0.3826228248251633
-0.13552720484423034 0.053506304196655252 0.73132542402165646
-0.47632268566106872 -0.057362323356062506 0.70828708220750025
-0.10210552196371048 0.31809587496651548 0.7292536528107133
0.14204421976271131 0.68824756754918925 0.53848603953514229
0.23182946417502442 -0.11462944929968044 0.2907293597347389
0.41896066307979241 -0.34943464437418092 0.70893158636246012
-0.1771218363528328 0.55372456122407065 0.65648372130142918
0.5119889663669398 -0.30651187960485848 0.69699561120401365
0.038945593829918496 -0.034008450831015224 0.76730398407758216
0.1621809441551344 0.030673074694723024 0.69295782525127159
-0.34966266250950134 0.049136293704143963 0.79080364454715313
-0.50274984185059934 -0.50933674802976081 -0.32279678930858702
-0.59896530462297104 -0.58062896126445418 -0.23016552367175214
-0.10372991013899042 0.42461863296691904 0.72113981637850411
0.051488122775348449 -0.067746847648181951 0.77294123232096401
-0.26583731248097281 -0.19319662727472031 0.6934442854069589
-0.066902844130628913 0.94751666993490602 -0.34582199267727387
0.32345838768658136 0.69672655291858709 -0.30323994207780336
-0.66392762142666994 -0.78019872063171603 -0.35459019637788858
0.15499685429594351 0.21382954324383041 -0.11873145015832409
0.61266963948351572 -0.4063432725197762 0.67514535646735152
0.2445092742788586 1.0513736753215572 -0.26362628344574257
0.087290201360644804 0.68466802680081362 -0.41177481127074356
0.12485889068699899 0.05215881466027894 0.70029776518175113
-0.038256902477731822 0.51289706992453277 0.69593687533136528
0.3305436312988887 1.1457504704958872 -0.34306936313388214
0.30987738145801508 -0.46535229755632801 0.54842776003330684
0.1583735540009065 0.20612093989942926 0.62139646879417543
-0.34483864375950374 0.19029435377712112 0.78281653577855947
-0.46861269740036604 -0.33917593666577561 -0.47833890738034035
0.25586783686673542 0.56048994270014885 -0.16904945307476704
-0.26857933923013239 -0.020603754145540387 0.79436827955827627
0.19100902955100718 0.68531279550848767 -0.21862203079053955
0.10481211041584108 0.0062983361593980103 0.75439606965043704
0.060126664146390951 0.3438479171405604 0.72403799479284847
0.531634961173443 -0.35324296697305679 0.69074965449314807
-0.30529009039777533 0.12127097354897254 0.75916214301538543
0.092265362257604788 0.93056064164903285 -0.25051564274983229
0.15118317851069868 -0.28879246087147026 0.41350382139009323
0.21687521426378908 0.84537977953779686 -0.26406351354074897
-0.22221907120758394 0.36606363067080139 0.67038411955985144
0.067458564751586098 0.30215811637048806 0.70904307318931603
0.133059729549663 0.36572615763274552 0.61446093893147702
-0.72824691168110789 -0.8453310214148777 -0.27921522910379482
-0.26881595273879305 0.290355387534871 0.57994357885815528
-0.55642000551523829 -0.06736805549752356 0.59890540893901156
0.23420720281029123 0.31247526552049965 0.50146674407882663
0.2000142258105122 0.19552811133300119 0.47677263096806266
-0.60623537631777313 -0.27101529988736006 0.4588938533291993
0.094573707675189855 -0.01354053422634216 0.75867764720273312
0.22531596296665973 0.90490800395995885 -0.26095871147594174
0.16912133099777796 0.086765235345769298 0.49604214447142281
0.15146386127729472 0.70346986888453422 0.24922112200287982
-0.10012992262663795 0.39372266258766087 0.72769183005795968
0.2609916148402644 0.57579615649452598 -0.1891515564962003
0.073055637176720631 -0.010995878179864027 0.72455351276692259
0.71765682557114718 -0.31877207028129573 0.42564408315015756
-0.76124172819803881 -0.6885590494226812 -0.44354973912868489
-0.45113601544643528 -0.074343996917483723 0.7068176174384071
0.26329467549963692 1.0140842452269867 -0.38972411171176158
-0.3854128914781268 -0.53702195702334277 -0.058949774774051056
-0.72549771619638714 -0.55862860612452714 -0.45133589216279613
0.071467072687285027 0.5035647463542372 0.62611735564318149
0.069286611057434666 0.79372950588221447 0.21819329569702961
-0.58727336023873933 -0.50878974854439685 -0.14826525465098217
0.40235247013111208 -0.11867457293399197 0.66146359516475661
-0.33686731520113522 -0.3821702138826979 -0.43820012168507816
-0.2961389963395194 -0.053563228779671457 0.79885417180229878
0.27850201614372788 0.67769565822224775 -0.27835717689249062
-0.10680239017632037 0.49482750652006646 0.73824641218094667
-0.64003693273145601 -0.66954461643435059 -0.26563514039234182
0.17213205395726683 -0.046319200514991721 0.73921633691522071
-0.13605672344818956 0.5770791297046689 0.6197974115102749
0.36393709484010478 0.7337181529643988 -0.32476526988864962
-0.58006946333726783 -0.21874079350664299 0.40226608640411032
-0.035870977897451528 0.38586552966474241 0.7504780535085257
0.50431289681429736 -0.52199560235340647 0.58356567773431778
-0.30640507983198573 0.22594608314269116 0.67053485263183621
0.45916775733609683 -0.2782307741222465 0.70022709698894692
0.53449167339784931 -0.22624090550635412 0.66771458984653431
-0.27969901012815068 -0.094368007902330797 0.74668576362753569
-0.62013655152976521 -0.20865558587262734 0.55774351995695359
0.12609036529737344 0.38094731838276918 0.62794749845772468
0.051582169785887255 0.41871061673740595 0.70204196094390481
0.12073666403926289 0.31993948261396654 0.64890387767999269
-0.13648833696197815 0.3147554357759399 0.6748112614691506
-0.01474793967531407 0.64973079199119743 0.40453521547950311
0.13296956514913308 0.48036179957726155 0.51745357137425185
-0.21711132987537973 0.47115676882696045 0.67019565551520544
-0.45895689999512734 -0.49628870744069964 0.15723304960375328
0.069744279475302373 -0.024350723642621919 0.7649142506601152
-0.77151150603362717 -0.66113893063653806 -0.44385381789742651
0.53191664856513232 -0.36187065665376461 0.65314607810817593
0.31513643494945998 0.53450156096832235 -0.24937912121910832
0.36796525758379972 1.1193123240982397 -0.34823626086340198
0.19771634769530272 -0.21493302864333375 0.33280516757711931
0.33700195414078032 0.92437143557014689 -0.36291812845601079
-0.30434803589596443 0.41512991220310647 0.41014617453358249
0.43788204049269752 -0.20884677633592186 0.68536446884214897
-0.50800372029446705 -0.33892020436855996 0.55674639751204458
0.25089395565411154 -0.13335225080540591 0.70378798231842443
-0.089361362825327473 0.83154186428286736 -0.49059965917808168
-0.29508372573309111 -0.10877936925146225 0.74316439507952192
-0.70264545435245918 -0.8293504581702027 -0.31824382906730864
0.7535389978130167 -0.27620951619452749 0.45365965644717599
0.4040340872455363 1.1348089597747986 -0.36883174161294452
0.43848965454788685 0.89709897781485948 -0.46406611213685811
0.48634050931281975 -0.52043149812403211 0.56388589181235294
-0.098881476013005037 0.32007135911225948 0.72451502070121698
-0.59708265236968616 -0.506719945750715 -0.15845981203521275
-0.74050334562026709 -0.59198343573500845 -0.40423239849624171
0.44479349128695844 1.1029362704267522 -0.46720130117275582
0.27741566824622516 -0.32586421814198707 0.43281529170475996
-0.42234590553492135 0.19082117959495992 0.76851839356573337
-0.068081317413615283 0.4494214616446135 0.71133816642619885
-0.053718575160252177 0.25969152189497069 0.70811773994699301
0.32497037143784069 0.81591798691026307 -0.3506475382660279
0.19952496719874385 0.74201137332256195 -0.2451495154146337
-0.57288741539859167 -0.55622783389306729 -0.18613547858737833
0.20129765007210759 -0.011651709988260706 0.69496877197351248
-0.54518903087241266 -0.5897635907516372 -0.18923848303726598
0.51031022258085923 -0.32206405823852857 0.68276041138154797
-0.37586786320999382 0.035350603670959435 0.78021674759510895
-0.40359545190323104 -0.15777421354840282 0.70380377119826587
-0.72737699198540118 -0.84940071448993715 -0.34303859654593616
-0.22215794415639345 0.29823800435708514 0.74170173737372525
0.48938001779099721 -0.3241480977073492 0.70465642988326382
0.61594274920448311 -0.48230484994134892 0.60692989177388879
0.14849306804294232 0.42781182385509964 -0.28981485031017051
-0.20130262373762509 0.24614457668121958 0.77335068088114822
-0.38517982786479588 0.18755280440320821 0.77697012979088087
-0.30148164472298306 -0.078014337474746398 0.77542725161618797
0.63211101485842347 -0.24336910265747624 0.403134130075394
-0.49465475434308631 -0.11972559411800687 0.69056311636251211
0.2811256791202984 0.98667657593423463 -0.35076683647843954
0.48531018621768973 -0.49130915950493681 0.66157135804740252
0.19934152616073669 0.71969673693119818 -0.25407613995982636
0.092837950789548429 -0.088894333228294764 0.75448177640526559
0.56357926191332353 -0.40419797339101704 0.69017671024064831
0.046204550355370771 0.27209166266112383 0.70499031531513456
0.046225010184321527 -0.071987877051723048 0.76952933612967289
0.69883042195863143 -0.24653686051751666 0.43089159923238485
-0.066144034301534718 -0.15429564388671402 0.61958658512859688
0.53571252611181297 -0.37873978686897791 0.44058545499630242
-0.18962322204615839 0.43902578440933393 0.77952021436320806
0.18636629295106266 0.61907963555603263 0.51227402595837512
0.26816833057042372 0.79736352746376404 -0.30464254322770801
-0.25232479470484398 0.054299614538291907 0.75001292042893475
0.18524913875766269 0.41363105068257622 -0.22480200558232988
-0.42687070446442732 -0.29264160078920987 0.62921663532169347
-0.51549145259959284 -0.6522262887512198 -0.007897660948376739
-0.24774506416267453 0.2538390401981514 0.6241647838532024
0.33194155570954142 0.67004889543233626 -0.26010427923365698
-0.054871723096046723 0.61314091147994954 0.62657324944314174
0.026605211874285262 -0.069813115300668249 0.75027943606606229
-0.24160020875215896 0.18842482256169979 0.77593049091310884
-0.34607298732903458 -0.058374465209366289 0.79834211016885415
-0.20904330021879322 -0.043261410083096585 0.74737181929017127
-0.19181952599198931 -0.41542251163105881 -0.22387374842313323
0.077083779075047543 0.94873013143502405 -0.088441192409272951
-0.65112056794858253 -0.54552951995509824 -0.24601543085078292
0.66503862653919299 -0.27207388034676483 0.63133073324338118
0.74675249090826956 -0.37879584819407608 0.58802281298364778
-0.57818799444789037 -0.49204015062752471 -0.31839390125707934
-0.70822786060310272 -0.75706007270313558 -0.43606569061494649
-0.18346817000968593 0.83749447549314815 -0.33202605516990702
0.19486995193698614 0.64919936763343156 0.44571316058813049
-0.19857666160975113 0.39789844203511437 0.6199829199252278
0.37914239559418417 0.76960883618977394 -0.35195130300121424
-0.50511556031679694 -0.35759533922659847 0.47898844294049958
-0.0094712695673882519 0.41179136872804989 0.73597932605388683
-0.80057159904199438 -0.87855828429670413 -0.35521720979409932
-0.4374339214643298 -0.20327088380509228 0.68921365974666626
-0.19420389088891815 0.32002583542821861 0.77862418024425617
-0.21248512916911449 -0.010708822101908932 0.73427925196853583
0.19433848295650236 0.63873971446240985 0.23440624968457069
0.6782540355892398 -0.30050413034105738 0.63943211239551057
0.26847383267439223 1.0601322782940255 -0.27380594487118493
0.014041766520048293 0.55305385624917913 0.67358005002542054
0.73190365896119425 -0.39314515272349948 0.59869490638632017
0.60769664608587204 -0.29118824573510005 0.62096824645450099
0.14487671789072309 0.72629720563201983 0.20763044370851047
-0.13297270725766133 -0.39657994586821488 0.033759388471751084
-0.44771279842784806 -0.61896649307098239 -0.0023108602117924981
-0.16032934699164697 0.32803963463056784 0.756292939121602
-0.089267044615459187 0.43090476248696352 0.71747973947390864
0.017524140302619673 0.97608874090367492 -0.10205853243625262
-0.53069869580095397 -0.18372911828391048 0.66666607841721115
-0.53920693386681329 -0.088131473355812728 0.70031805650448642
0.085503882654339336 0.39209235935852216 0.67710090963135094
-0.70342715162369929 -0.65062050643056213 -0.39105672392221114
-0.39817545874649424 -0.077092442665822603 0.77458389868661737
-0.12548796782829175 0.346817017382959 0.68758658536129358
-0.76261823050346156 -0.86327586522115207 -0.30675196489022727
0.013347163747810309 0.3815124228867115 0.73931790170919742
0.62771109610683662 -0.19340187994557301 0.43353280713879883
-0.4519982862278647 -0.16768975530804142 0.70092268733377483
0.49722547881844581 -0.079474708628218593 0.53384278492947801
-0.56344549754436435 -0.16293468736472838 0.45292261651573407
0.13710910880029614 -0.01876542726209407 0.75615502228780995
0.071141378869502864 0.31831301185204341 0.71876617804870091
-0.26383370468514988 -0.44637770529361576 -0.028642402721268834
-0.46286437605133329 -0.52218797518088711 0.073100912777160021
-0.30368102164205241 0.090944796291559715 0.75591867284579717
-0.58536307782592445 -0.13136075939838898 0.65270023764589791
0.66935443149383911 -0.41305733058651195 0.48548062924190072
0.1610769528350004 0.32482480583981088 -0.18241712914397357
-0.6451021297422519 -0.62005897971343149 -0.28490086916364232
-0.12743617070007687 0.41569037880393145 0.64176778525012501
-0.49096165398082536 -0.057998857748175148 0.70083506284069119
0.40181340117270459 -0.028454004396378352 0.54293346037251078
0.19289042673260998 0.53381930755688156 0.5289482908853641
0.32335557185434305 1.0140401559528032 -0.38090498621989188
0.28929137285846362 0.013814677722898683 0.4691800419250578
0.50203693214369027 -0.33370991649518156 0.70284198640476914
0.40769567597348927 -0.17464951100911152 0.6824307844216374
-0.60529470605894931 -0.42397216163800788 -0.1210885676633946
-0.5957669508195419 -0.56295555427361998 -0.21163989447635423
-0.21950213193781271 -0.27585790055180182 0.48054335720544672
-0.55014642242087064 -0.0050084370845120407 0.069853169236615997
-0.40099620873111924 0.078125631812101304 0.73909976664449961
0.10846739258835217 0.4402358846218366 0.6115794694744362
0.46216529643613879 -0.49045531120285735 0.52220980301069098
0.048300251316100717 0.79313583859770942 0.22315053362295345
-0.73467068082548292 -0.61157670822498456 -0.39437806823372301
0.16786223178599158 0.58255703804853809 -0.32333537103135157
0.17257641384702577 0.10827340027494836 0.47267075314606544
-0.45261832398934887 -0.12518408768012401 0.68990158291413772
-0.42335673251791106 -0.18277120083456566 0.70347932956309078
0.25394265215434275 0.60414819884037119 -0.2369245933650761
0.2800075397492251 -0.035356837536279606 0.38666300939735099
0.31221507529142256 1.0298395399226867 -0.37696813482794922
0.010048095350659474 -0.06139258049220242 0.7354546363551131
0.19549871664069829 -0.085495344734826118 0.70512674220077387
0.66603779010368191 -0.33423376730468357 0.64879130849008471
-0.12849150971760906 0.035135484506761072 0.73545800617583001
-0.16374207143155745 0.46983950210198122 0.51906518533614188
-0.78472970995906799 -0.77776701806973469 -0.44472243715630322
-0.34612855579021973 -0.23135813344486489 0.6799092675933196
-0.68199323143416446 -0.75717540200940014 -0.30362853191930084
0.084492050759695042 0.53195177465630805 0.61666535955257473
0.063907193422125599 -0.21145539493430698 0.66163252357039626
-0.26210465138458217 -0.023736360959275338 0.78138452693396332
0.54982831231219143 -0.48953390171227529 0.65001780588525282
-0.57721511972506856 -0.35176581435081333 -0.36207997268109327
-0.20848524200539659 0.27069663974799685 0.7694271209578436
-0.55559234003319902 -0.68200553478144044 -0.08206785670365746
0.1490716753877657 -0.16816437880334156 0.71249081150678806
-0.71767011816489634 -0.67387739070414465 -0.40853551394543408
-0.0099245721286912447 0.067242625731494421 -0.46170072595189637
0.51460230689627073 -0.44172677785263592 0.48336347749652309
0.10425147274939731 0.48388672904664864 0.56698762600488839
0.50637915508986509 -0.33636143119530093 0.68662785511943092
-0.11111417676299132 0.31319899930035566 0.73602592101965458
-0.40846349838359675 -0.071560003656511162 0.76806499977103049
0.074448087893663056 0.31642902273469353 0.71404977280947257
-0.38001987613324478 -0.1593546879099641 0.70949506968785192
-0.61392700616133422 -0.24325544865913162 0.49585144932500658
0.17731061897408162 0.66630921116038477 0.25948911320730206
-0.274471971859098 -0.41801887824202399 -0.34379509783970663
-0.085127416369814149 0.46823898169435019 0.64261329386233745
0.18490463872342383 -0.2142976183235783 0.31042503931982535
-0.6183178124064499 -0.3455866404154746 -0.0051511842656459805
-0.26104546372749438 0.11602891567730111 0.75734951269843642
0.26874232667615994 -0.41510243570730831 0.49816348269304667
0.10883839698142972 0.90225962461172049 -0.16650891659110223
0.10755749181604768 0.36480214863868032 -0.32401800098659006
0.34648096189085992 1.0108223584216129 -0.38957159080164905
0.59873445863719899 -0.28760932399464179 0.62320352410490887
0.56415402946828408 -0.45912833711901713 0.66979369887881257
0.22271411032336702 0.42980577225079686 -0.068381861436201508
0.10907471676744387 -0.091035759754339196 0.74430311778454616
0.19677224747158065 0.16374506982918691 0.30583554123380507
-0.062792635435290567 0.910907926192841 -0.41045781267721826
0.054951503578385547 0.32970231618375667 0.72935402369371605
-0.24126960893028454 0.75084322931119285 -0.17017497337661025
0.11332286619565587 0.46044653910499389 0.61157978993301954
-0.4667565743108818 -0.10545068713546946 0.69069782386976097
-0.36113929781321846 0.42820391828105531 0.24934538251673299
0.091842653375287131 0.51829394774440107 0.61626917755008037
0.1779648422295437 0.083308715272118583 0.47540665895256895
0.14566523444418139 0.037051391895035701 0.70027355075968567
0.39681356731272865 1.0361879964895753 -0.41998010476176173
-0.68478102809190944 -0.57534274448534029 -0.3172313143271186
0.24436840168675966 -0.16187728856896388 0.33362224905685411
0.7061993794352307 -0.24465116943542209 0.5789137576166411
0.38057570799280382 -0.22753995352965761 0.39404441225670495
-0.49661721207977194 -0.17815850808406086 0.67911174638272431
-0.74501042230719861 -0.66868136202472606 -0.52828502273490408
0.44853562964151528 -0.33987778381659561 0.70880816895196497
-0.49512157585294647 -0.16095243714540097 0.6837917943522398
-0.54376885574460665 -0.50464700094021064 -0.32223245821963853
0.56910422127893467 -0.37117410652982419 0.66263319621658467
-0.53372474055241992 -0.13915825227294665 0.6775228596302405
-0.78423642499558532 -0.78949707688128656 -0.46090759365794254
0.51767991253558354 -0.3090692161474009 0.69459587935411748
-0.46800892962428103 -0.53518668925975343 0.017638392863633667
0.011355220057705645 0.67117164183665468 0.38036143023644797
-0.24250918899865909 0.44537191652232933 0.46807548617663675
0.329831783946199 1.0478862397518247 -0.38422660639167638
0.3295337410588377 0.0038480715361020046 0.54928907331973165
-0.28109429062684893 0.041638832617110655 0.77896988296880321
0.11837851137894104 0.38707937127058356 0.63081120714483052
-0.027359577178919237 0.37755639282406972 0.75184042109944305
0.28546096549639199 0.91711069695014702 -0.33182148385526911
-0.06190256145677786 0.44170873238411557 0.71322672963442624
-0.44539408817297094 -0.54186354238485857 0.03201770378080937
0.33400711449989468 -0.38627347724417049 0.460475808954384
-0.19392660362235922 -0.12666470931113416 0.72288636415843444
0.57600975424051382 -0.30074317000642381 0.63372305154180275
-0.089138608904055977 -0.19452301642839109 0.54003388317492196
-0.38805684609002983 -0.19079289834479951 0.67083022466742848
-0.67287547076707621 -0.8114058260665491 -0.21667740322256601
0.060632560098765026 -0.12248897960871741 -0.21673047159887693
-0.71094574758856843 -0.67681185376876396 -0.38331436329434321
0.62460209220243179 -0.33915256433150609 0.62282360064739706
-0.077311254308593494 0.35070909428144215 0.7322774614565225
-0.081514113462807236 0.32953929695476458 -0.59365549175113674
0.12087024472199673 0.296453896553448 0.65025747125735267
0.025138454791446472 -0.12396670285538414 0.70278293575329376
-0.50893973175981055 -0.70414769847605241 -0.063720291690358311
0.038724001590629227 -0.049864461912918268 0.77149411751788322
-0.40532650068316495 0.03347937653113453 0.73981187884275257
-0.511842020948168 -0.14529006359973695 0.67729568456538458
0.24680242133740643 0.60735793503080893 -0.22349970869305724
-0.1372370373600218 -0.20102935660774124 0.58060822638349108
-0.61277002547294868 -0.38752110209353807 -0.06707711035235886
-0.6102963603768391 -0.45479839596761051 -0.17719299546742939
-0.3163021837866371 0.087800825666747073 0.75187852970145719
-0.04611551767512688 0.25031189881013916 0.71237531490678463
0.22366050239387963 0.74190339496023583 -0.27578381210354674
0.14158191471070403 0.67614965022343854 0.55868893658233554
-0.4489808997405087 -0.21609343710908258 0.68105441648671405
-0.70764803818815436 -0.85329062295621072 -0.22994033478068543
-0.43697973180856897 0.082482818329010721 0.73965067473396173
0.049294209824618823 0.41419079577790008 0.70747199269085648
0.25436210411053528 -0.4146891552731431 0.60358785229109202
0.17580447292579499 0.022489559360809208 0.70461670726239445
-0.4627193081457926 -0.073253390686288666 0.70712342753240454
0.012272585836959171 0.44253123179822018 0.69768433441282984
-0.5428614582373239 -0.70237093206818235 -0.19772652678363656
0.05359910729067105 0.42428904663159162 0.69078936018551085
-0.269739555649327 -0.10041758603644424 0.75042159567832001
0.10803612418855796 0.32523112525099696 0.64506280518721693
-0.46191583828974481 -0.053278159147331694 0.721027150390396
-0.53614823746806106 -0.50145726603156793 -0.022010715871176201
0.12883165926174486 0.22569949231329089 0.64428786877385302
0.080971169094018636 0.49930211836435601 0.62154596224908465
-0.6471819544859283 -0.49077522946983954 -0.21950072034979717
0.11243160894296009 0.42189416718916473 0.61496646641827601
0.22305964285230867 0.48401138479015016 -0.2508053897685103
0.0070697993004476545 0.64068833791008162 0.5657409005770575
0.14221549377151244 -0.33618834464319081 0.59850697124842878
-0.54013702138745479 -0.039295139249619471 -0.40036493187820144
-0.83056581199241064 -0.86705498617203469 -0.51456389452940021
0.34163807864082635 1.070521371082094 -0.36330453766659132
0.1782907331996782 0.01134235910345871 0.73698725693474265
-0.39212353454950866 -0.20602523532839001 0.64986298856306646
0.11031624894285073 -0.041474039707500854 0.76466932509192587
-0.74108299478536488 -0.86815273347752808 -0.27132253533039075
0.64718105919132451 -0.38033278619987354 0.45522923877434374
-0.42421205606269985 -0.15030600955536033 0.70102082860953141
0.37465475489913258 -0.13998409198373074 0.67975766067314014
-0.42682921880365665 -0.15448794679625477 0.70364012247199681
-0.32011647133806992 0.058313931480919345 0.77636441361403352
-0.43265614289875876 -0.16386225019922929 0.70652284622168282
0.18390157609515617 0.16373783482472204 0.45070671473774371
-0.059335452338124123 0.60401007578235033 0.57498746692802605
0.17872039752382646 0.66762546773305131 0.49317372866701492
0.1988190590736939 0.62500214382170727 0.37733140538140941
-0.22831274579481048 0.28246167603864358 0.66866132427484504
-0.29490740807479987 -0.27427984234567448 0.61342406155285034
-0.23083489854319919 -0.15414022194650001 0.71313071216608348
-0.47403068159741146 -0.15608855548419021 0.69522381115548582
0.12371932574106254 0.4676651278759143 0.60833347382812653
-0.77938899096699721 -0.75962778724192037 -0.46221458383918756
0.042210712464394673 0.28608333402140795 0.72694790645777396
0.33282219093330445 -0.34923269365618692 0.70063140050070094
0.20593069221836785 0.65529873820898343 -0.24488597433023229
-0.34923400668940668 0.10918615003874321 0.68243447002409452
0.32357052765352973 1.0538854023921642 -0.36114547334693747
0.42060091940955585 0.88232299266165848 -0.37895828092715345
0.0050932799224885621 -0.15168060330886934 0.66084727442513758
-0.12619024619216515 0.40304976623915012 0.73128769251838932
-0.44718172799700084 0.061431697569837018 0.73485511271514081
-0.45558947404788325 -0.0031983232557162289 0.72064174418302418
-0.57452424961489246 -0.56274175431221241 -0.19809740985723834
0.38992378145525841 0.67346281519749374 -0.36066758405510502
-0.32141152469377438 -0.27278887419656828 -0.52376664739186629
-0.59833064510124379 -0.31958245159595844 0.50072534105577104
-0.68604955469421081 -0.54854370840103828 -0.2998543357862129
-0.72942340456009169 -0.67650934953333342 -0.43918268023155682
-0.24140526278534308 0.2497709555993759 0.71821153252483061
0.029041877225540441 0.26597618543781465 0.71166037535395366
-0.30403577229512069 -0.37841038324561671 -0.4328561460680993
0.23243108631574333 0.64301336768495032 -0.3089436452158838
0.75353281643342784 -0.29581143762757733 0.57242351103923061
-0.055628131633697953 0.59858648022237704 0.67653249845325369
-0.34141556182269933 -0.40914972435649433 -0.40063425458019397
0.65577343575837532 -0.29938840353983642 0.6506271465794301
-0.16488872816361533 0.54391432779893889 0.61628935144058228
-0.078141075577601971 0.41816233300851335 0.6990937779600932
-0.22024802377597691 0.098903517604623348 0.75082402912850554
0.17172582869977326 0.060977496418506805 0.61318404172715446
-0.46911779512038848 -0.030057054734547561 0.71250342490938312
0.57898879880107368 -0.27948519868547694 0.64590663800792614
0.19235438898723434 -0.0040293381391556249 0.72265957520306079
-0.34972786601386097 0.26408044477657011 -0.64218096188989193
-0.29766326712385249 0.045368921718015098 0.79596361019899264
-0.59438856173063548 -0.46750446198333817 -0.10693124684131616
-0.59020896045174864 -0.55395609998354023 -0.31231423471887609
-0.50924044338203966 -0.63425277733285967 -0.01619845692198818
0.35208102574325512 0.97446310943282999 -0.3805947430342147
0.19206692461184405 0.66970272872524594 -0.23125383708992242
-0.19472484782437569 -0.041203612941001611 0.7001334125346238
-0.13365771527978082 0.446304275946805 0.74193725038934355
-0.59130864771202418 -0.3085257208978518 0.32707104402841636
0.013136331477564045 0.48307173647260271 0.66742414138635209
0.36342899829233288 -0.15442093740934792 0.38739466248157817
-0.53972031592807013 -0.11907959636397969 0.68792939099387773
0.22888571072726288 -0.40066840168241225 0.51377013929030813
0.20641377730799171 0.98820724868164334 -0.22517716466350213
0.20302724960529128 0.67043049897497653 -0.25833635935464039
-0.42458671948062304 -0.58791865564274937 -0.0026155228062632041
0.39338061252417744 0.85502319134122651 -0.41147847689988803
0.15356920572556171 0.35876147634974442 0.60942995136846723
0.19104540247808666 0.86724550870554973 -0.18971332038827327
-0.36979227222046346 0.25202802773624255 0.68879427136715443
-0.54282624064464924 -0.58005556747093312 -0.189428431973379
-0.54285680961136085 -0.049280143816569311 0.69638745949358372
-0.027945445381493253 0.23452686644787391 0.71733410001870634
0.16381550396255545 0.032283409289552756 0.71959504038208233
0.20797144898340497 0.72433300692875835 -0.31988069917867712
-0.28906453106792429 0.66675741175139769 -0.18866238557014303
0.025257427547069077 -0.17415303162919482 0.65689560730705576
0.21852591113190006 0.93195128897214707 -0.22845115182125109
0.44916967937582453 -0.50039873769781851 0.64947592372330953
-0.09239462198567934 -0.1512915882292678 0.64834945552486445
-0.47368375046350958 -0.53549141150299184 0.0042739240497928765
0.7413012075464267 -0.27943843444626171 0.57346967203598365
-0.25168642249110884 0.084049132232753676 0.75934361940196338
-0.45101133960041145 -0.51631462165778252 0.099846000715623218
-0.50531187313186521 -0.35190796853731943 0.50952569741579978
0.62710586412188518 -0.30300623919283698 0.62555752578417056
0.29291325865577506 0.75635622501643818 -0.30885286135147183
-0.091089769331149179 0.47787359759402603 0.62311583292797035
-0.32554530393170339 -0.057904346169945775 0.80026203360128112
0.099101592691766938 0.28691430365403892 0.66584445921105917
-0.27659213582616193 0.21339853831101818 0.77585820505503444
-0.67143416519778598 -0.49256114510865534 -0.29175051820833442
-0.31461912257196245 -0.44393543693468129 -0.27947600499894332
-0.35773441936922734 -0.06199678651707563 0.7952316612734891
-0.34855187278285593 0.038528379060457807 0.79885234058652754
-0.21787217939334624 0.31651717180149763 0.62031755680466616
-0.77486525291195241 -0.83639556292372452 -0.39340554700173502
-0.22326783035333142 0.23151925887963332 0.76873596411126988
-0.47131226421365252 -0.15079598446501485 0.64607026214875396
0.32384409088334237 -0.46308943555852067 0.60467517339128896
-0.63543784137289616 -0.69735931206136459 -0.25096884054060853
-0.0061667158147764994 -0.25332630743913809 -0.21640337258459574
0.16103467093020496 0.87569735111605063 -0.28662256672543451
0.16590239146991781 0.71425199921104277 0.16636528672133633
0.19696374859758786 0.88974578816491379 -0.19548258434950094
0.19976026515957879 -0.022266490541504202 0.70331723498097243
0.17316706737111009 0.078151158131706699 0.52716104159086408
-0.48546006028180394 -0.022787651429722722 0.71369863507404419
0.63780509097624027 -0.2970382033658221 0.41038403109458776
0.2245769272312696 0.42483548500111779 -0.097598560207321938
0.15798499417095135 0.37560072840560199 0.54844470376946319
0.50017018154581105 -0.21462955297087261 0.39607383692050824
0.1112725577504991 0.7118204893111133 0.31894537227723996
-0.54907211843204151 -0.50944299633875367 -0.091470658853414655
-0.42470353012639595 0.0081013483220575555 0.73962617051336421
-0.42882859827946501 0.22268293955503338 0.74221012539170883
0.69438075256445619 -0.42097207647745827 0.61963078132609128
-0.28578374847239363 0.038873027113583758 0.79209729868994661
-0.36787334164322111 0.086027502529287814 0.75245350249716303
-0.77509518603511374 -0.8241001604633218 -0.42977665184708336
-0.30767316948799717 -0.063865664692779323 0.79659277845347787
0.2935509608886907 0.66445199289147983 -0.26961994608280615
-0.72376591995031947 -0.83999991621618353 -0.34440817281284963
-0.040313791243047292 0.22853122893693456 0.72028543705012193
-0.027484033053163895 0.32603168285638917 0.75786510342821489
0.09675301724164026 0.22146361456814923 0.58228975441922048
-0.77241125116822362 -0.76669050435204511 -0.46555969911712602
0.29683213017513371 1.0076476274893307 -0.36640524303337574
0.3580964902341397 -0.091851593147309618 0.39575809469560375
0.56832744976862848 -0.37941852478304638 0.69247302561119661
-0.088606610848674855 0.34971481549766326 0.7238166822526404
-0.56507404604575984 -0.50348495083275457 -0.10699991906096673
0.22657698018285588 0.47614583746273431 -0.04844544497917247
0.17015669140676346 -0.21632422588213318 0.27675987278187897
-0.25672220757506353 0.23812531678699878 0.64570298801014925
-0.42278012080483446 0.17129615066897674 0.59371873901392669
-0.011231260322544234 0.31041657021706937 0.75515515038908965
0.18545084644763202 -0.24088430290243545 0.35516629633984098
0.061562249510328432 -0.0036568946300346017 0.71728216630143204
0.61473894771212834 -0.39462258585731247 0.67710521622057562
0.57266347438063736 -0.48325397390427005 0.64546961525047319
-0.59561121343361334 -0.70754705588270084 -0.27825813086546014
0.43606933970701978 -0.15474296904094231 0.66702214165831919
-0.62932893672212664 -0.66663067715394364 -0.25237008931013993
0.28762285518937047 0.61220448963697116 -0.21659593542786859
-0.082085519944390978 0.22968884546809565 0.72587988261419389
0.17971137323237629 0.75677856510295904 -0.17581501329012794
-0.0067894450724853353 -0.043855904574778393 0.73977578459134774
0.0018393705831925011 0.99361498644784341 -0.2259623283026273
0.29277805389696399 0.80959941592551266 -0.3223417526719019
0.27295763130187051 -0.27896950615052352 0.70783409203657821
0.22633653197960318 0.44704988992874251 -0.031657026492561746
-0.38810506652878174 0.055615287497938537 0.72718076983323576
0.27363691432918824 0.7228106156117784 -0.29115793044032223
-0.032951234198172336 0.0045520208850264865 0.73335429022252441
-0.098109422124434548 0.14217453477676267 0.72167347618768085
0.54848957641330509 -0.35194130093577924 0.64315843482804247
-0.10437526924486479 0.38177483239560517 0.72998356474813941
-0.17616460570310583 -0.15905402855100736 0.69209815580247636
-0.076052733319018503 -0.30127566404398642 -0.28476928571143612
-0.05449738270419302 0.25578420738479579 0.71401550158721505
-0.023361913956022051 0.62537495077894834 0.61004602396086705
0.41473573480338338 0.95816222747915791 -0.41016930558319231
0.1251098965343786 -0.22969908454391241 0.15435641482436702
-0.38050466461904453 0.041881937388414059 0.75540581012479202
0.066214663683772601 -0.031781779780483799 0.76879506068773895
-0.74024225328789572 -0.76102236501789799 -0.38594848350527466
-0.49576931214823328 -0.61418171787865328 -0.01805696524075584
0.27650711713654375 0.52635883887419754 -0.25810680478738068
-0.38329002161103126 -0.32712103230057799 0.52145223345199621
-0.25984830693446281 -0.27273126358839095 0.54925371498104325
-0.0071736002200223498 0.21715973433685964 0.71032703846786227
-0.32027375016516196 -0.38246483689399158 0.32855128941615774
-0.60133816898840253 -0.39699321985526126 0.1229023370270792
-0.4505973165515671 -0.051247572690996002 0.7138228938114537
-0.39099632937613238 0.056182717084129141 0.74405969766644908
-0.12965644305355192 -0.15229325281792971 0.67443393224948123
0.02441614542841708 0.99386709025637021 -0.2206818484571198
-0.47098022988093224 -0.1914507325307031 0.68572857943237131
-0.50064277516861011 0.0779850214704918 0.70648455257735709
0.099428720267646056 0.036660431705020979 0.73678127614089939
-0.52575468948198378 -0.64250163303435914 -0.12320723950885104
-0.79217604129380659 -0.86765492803058586 -0.34601453665467652
0.57090452773513101 -0.28760522073978345 0.64988729163020476
0.00011494311905460575 0.38597195587163657 0.74275151057748223
-0.29741059311442425 -0.15858386986197726 0.72022637824619373
-0.094996043529774615 0.43541674775414885 0.71716061314121371
-0.62224424906629261 -0.45946742639428373 -0.2624557352603416
0.27358095016177209 -0.0095559029884633162 0.41272998868027233
-0.50564479001135232 -0.43852176048302982 0.26776669781684292
-0.20991805986055173 -0.019534652733833369 0.75367800030157206
0.21618383467453345 -0.04804724960984541 0.69316962208816857
0.29820674494592952 0.64110653855821376 -0.24906234800728666
-0.75521654485786038 -0.62966503985996258 -0.42450708199317644
-0.091242806252388231 0.29691830471996017 0.72301030515873899
-0.54413076675412497 -0.66590386319557981 -0.15049092923145269
0.65977921763613834 -0.35790264629634549 0.65338633978284366
-0.72597248533011738 -0.55386338408303804 -0.42260594960455888
-0.16735388464842049 0.39848179946491902 0.76510344522827423
0.14125782590157177 0.79489692505454768 -0.3230077893983645
-0.56220238338949491 -0.59852729490103851 -0.20486872336469442
-0.5057497651401156 -0.011073928976821579 0.72219424328437243
-0.012648299556048431 0.52649733754113104 0.68138381593346009
-0.55117729787004333 -0.13708341408876823 -0.42697953970276026
0.72147977850032008 -0.38308938170798301 0.47668352020967086
-0.21389578801072029 0.067432394603180068 0.75038906655703119
-0.10303870421507785 0.53359666274322404 -0.61812987604504821
0.17828727637419423 -0.14285115823185546 0.71338387654003765
-0.10765990125595934 -0.18695250724067369 0.56021039055285682
-0.0055437030038837376 0.97386325850363598 -0.1031360712854259
