# XYZ point cloud file
-0.75162246193739435 -0.00018767547900822024 0.70212935891274331
0.35754916005666004 0.068750521672082954 0.5005728857740348
-0.55141631715817852 -0.11338443183093183 0.75260252754623225
0.12605713209107705 0.43046278734585108 0.70089068746103056
0.64678789443303586 -0.69273651064033981 0.55538144658909716
-0.12899902291361443 0.28624613016972056 0.75934518089459535
-0.053363257604452485 -0.48295955403031599 -0.12967168894367434
-0.39289438343454108 -0.17409110274418005 0.81296542523349413
-0.70987894933454854 -0.1666119158329078 0.72852510619009792
0.40968640346316931 -0.082969235655292906 -0.061150175441860632
0.26598382185343183 0.80424918762785325 -0.28004545998828156
0.11270161381616006 0.43006732979328 0.7191377334525999
0.32996356305564589 0.66254147135275332 -0.040618980518940973
-0.86256848544337572 -0.29998292331957543 0.092683680511933875
0.77524117400899328 -0.16865576103785429 0.39474674549122768
-0.23359146679963771 -0.1166221343502869 0.7624872879348048
0.78673693455891325 -0.34733628352792589 0.70306615640355385
0.74655115531884064 -0.32858709787907081 0.66470765089473294
-0.73128639686611407 -0.78454538442984756 -0.38379717062334395
-0.36992370181047818 0.47352745488218062 0.64377573453439418
-0.039910928229986098 0.59464848398216041 0.68067525836083442
-0.14837208491155351 -0.01059204861069496 0.74574823567620108
0.27337914898691551 0.78228370040745787 -0.28003027726373109
0.39726358717795307 0.73887730572016075 -0.28859549942891327
-0.50707094305761302 -0.68831470898311409 -0.31621565788090233
-0.21190431176066582 -0.21752590755364665 0.74138333525401201
0.17865040693839518 0.14764979909188014 0.72472108256753143
0.097082206691123218 -0.10370118215538682 0.76483743884984645
0.11391815040347453 0.51073228251450331 0.68089237302667494
-0.84554092611899279 -0.69261506564833653 -0.39572210580039613
0.85499956424488133 -0.38133563738782961 0.64241132945920398
-0.77409101087593513 0.024527293116637594 0.3503994362704832
-0.33391443887403938 0.53423585653128214 0.80866990176939191
0.42341529739453421 0.69409527122736314 -0.19507526176768231
0.31404286730840525 0.67547865184625699 -0.09303603362700219
0.50273562813119099 -0.6038888866065264 0.41837820059525832
0.13074357228350664 0.89834552452914807 -0.32015233403846821
0.42364038659842507 0.043297299883104046 -0.040508716240137854
-0.50692186675379247 -0.022476107013334357 0.70665212472593053
0.17076913280986261 0.86305187268636274 -0.16507395979495598
-0.3435275550230692 0.24408233893563747 0.78960199894613181
-0.61487283821258387 -0.97170113007784664 -0.37166955081147401
0.20453426314968581 -0.36987206749084933 0.36201117297462032
-0.16338742542111717 0.32448858394224445 0.75834646465328848
0.12046254431205838 -0.19374435547060287 0.75554790925888327
-0.61968835853509319 -0.70580876420557104 -0.33733990431933625
-0.72363022203074578 -0.83456384166074216 -0.3988246874208774
0.13964970265817911 0.56179899768613595 0.66203667898933949
0.13848453145082473 -0.080760273455467768 0.76057380266167551
0.10036453886331742 -0.2674593568429362 0.64901947351716194
0.11384284310623016 -0.32289973418298068 0.50999901923818214
-0.18976077071615904 -0.12486981151653609 0.75318621516067408
-0.49288224410316417 -0.054776073892785604 0.75863695446447954
0.79609614098627191 -0.28340391798667675 0.69418500684326656
-0.16194875153287214 0.49746164788923508 0.75647077228897497
-0.94129004715437148 -0.59001302427382996 -0.35541021557803376
0.21104012554981821 -0.17262640163459153 0.78557867915512325
-0.69658854224237743 -0.57106404563324276 -0.21864565855716245
-0.46656694807068178 -0.61276977546550171 -0.1641097155447378
0.056630952025056303 0.46514908864009108 0.76809248498778948
-0.41327226115347315 -0.34207452332966071 0.69651458354740048
-0.59000358239633144 -0.94070545472508726 -0.38222263210521823
0.018520100905973891 -0.43773846953790141 -0.23298946414271915
0.20298687721619402 0.65970646109553499 0.58660039319619184
0.44051290235949025 -0.46304942403255822 0.70710639646157791
-1.0026739833119294 -0.904704849908196 -0.46840220728488269
-0.052938908242371241 0.27293769707448945 0.76202567234382146
0.30907370428211678 0.47897532192134307 0.39384976557802576
-0.43631883070612787 -0.58261914135461268 -0.3983260116608181
-0.58994307875505925 -0.63794058244418039 -0.30755695326088328
-0.60548928427699522 -0.58220711331732744 -0.1719869416928618
0.36449166986161785 -0.33892915238528154 0.29061355212512852
-0.65622334352781309 -0.34999363682097595 0.67368610799044726
-0.31700838377978613 0.27725827012984894 0.81281783246727235
0.3304079340566215 1.1712881626214831 -0.45331796957162052
0.081117463572070392 0.57647280733562489 0.66873461617237728
-0.38694338748121382 -0.2944003411648044 0.75034427650311231
-0.27667054667405822 -0.0040709057546131078 0.76688123331860802
-0.30924242039440131 0.24511234384452862 0.80899084224888229
-0.62751361384658111 -0.49754043742571241 0.58733556337951165
-0.36265121453447335 -0.0036922771007894539 0.73791158780141897
-0.5620894446544078 -0.00031921967542913876 0.76471452806950668
-0.53585102356263548 -0.028718995329077401 0.75765006659578604
-0.38907810751777561 -0.27223312655744358 0.77815147040252874
-0.5105458290031919 0.81049290604367741 -0.23732987231874159
0.042258459738292231 0.092852751035200853 0.7515560833160162
0.17604923761836488 -0.34104368819570574 0.63368028985721225
-0.74180274539957836 -0.7452084156661023 -0.37678119349072087
-0.10020248262553011 0.41809707514864236 0.8092618904986123
-0.36953433122731383 0.29552033309697201 0.62734377538700159
0.21965032045613064 1.1974472452164324 -0.35929578804117313
0.72934183222566773 -0.44362367061881702 0.67164405346114919
0.55293725833254115 -0.085546337011416895 0.69617006678053572
-0.097739603238519379 0.30569641425517879 0.77617558994114089
-0.12728239597126745 0.12350464987215304 -0.73064375229638934
0.65342825926549963 -0.56094127331305721 0.41273904064132805
0.5384335489082801 -0.11003126775464267 0.3498767760962942
-0.18765235490928589 -0.2978718072428066 0.64370197765262471
0.46999061128632036 0.90667234819668785 -0.39803308302977047
0.83923004496720921 -0.24384149566787983 0.66352308663750481
-0.43210053299288376 0.025464979368967633 0.77513217557662972
0.2408709139268943 0.63223396456204739 -0.42278740000395665
0.42518213616117961 0.57783994335447453 -0.25515895584142001
-0.093563855916670491 0.22876499756824842 0.76311924524091856
0.81915865686048051 -0.19151034953297597 0.40049582245243198
-0.79516264361401312 -0.3911959173075239 -0.32666433287310204
0.29530130177969482 0.50003056416607805 -0.37397814304197219
0.8958624324608202 -0.3267483424783526 0.61788886409580601
-0.21649182639644593 0.37722766493059545 0.77639958097081596
-0.49090016747151566 -0.64868506763286149 -0.28710373029793212
-0.4339105202873732 -0.0061103529682249302 0.73458142266864201
0.13927731467265403 0.31927391207051947 0.68118611810866092
0.43882197003313195 1.2405153627588135 -0.51956495446475781
-0.7976272156885571 -0.59740653023075652 -0.41175275852203347
-0.240389119995843 -0.3765835282573633 0.5990664077641481
0.33928168657506674 -0.10228365010262586 0.73589731978954187
0.15145084172103651 -0.039667583100698067 0.78315703901587019
-0.56839685748959212 -0.91274972358729656 -0.3894076895655596
0.3206231240147801 1.0340539858097202 -0.38455933756594707
0.75286864715656421 -0.51264162036261318 0.66576411274332981
0.15835241949187662 0.47086352600456927 0.65161945393835508
0.84776335340807307 -0.46535563456830253 0.52535642249260428
-0.086551750471347333 0.77508402487773509 0.67228693302154507
0.40425516954755381 -0.41454847375169557 0.35762097555423877
0.092091970214760011 -0.31413407846809882 0.49405361033286321
0.18510623917992675 -0.20021244589312204 0.7684509897559465
0.24839936721793521 -0.36549111684296065 0.27258948950061196
0.057347953146802411 0.60698352509897369 0.67155260549823725
0.022445939188056485 0.92059763010407636 0.022360965653501097
0.29861850289394454 0.58663106917680885 0.50136506621143306
-0.34289173235342219 -0.094866372300534962 0.81182247487984815
-0.15612486079330523 -0.16882930794673001 0.66714838469855842
-0.20425347598521171 -0.49284901743149234 0.40609354153521382
-0.43754010755016637 -0.78111444327821999 -0.26975146975788711
-0.169471181096295 0.69147380788516877 0.74324291773642193
-0.20276561328765297 0.42984559314086113 0.76958848464306251
-0.74140754075880366 -0.23159209218610144 0.58551044609308756
0.56742429700957686 0.91773339938492526 -0.46017321373821574
0.22713015192730879 -0.0088247120305915416 0.8027539283685442
0.26856154134710053 -0.36312533566156091 0.69376659404454155
0.098028715490581675 -0.16030276844004732 0.7938117634530707
0.2324337473549889 0.91027981928152535 -0.37665547612272832
-0.06802127483979703 0.12510102591396333 0.745583936497904
0.51163677524711204 -0.33113238289845981 0.73823040843817334
0.26858408378014431 0.97259443061736661 -0.34500760097146799
0.43790019119622414 -0.56947979343279798 0.63689463174232686
0.021914926001894486 0.67580772999933458 0.66688570604280217
0.25375275779136786 0.75710840070794205 -0.012535649331243626
0.19863520546513236 1.2007275914448314 -0.4213611509919275
0.18443778438879121 -0.36439035498432482 0.35493695942315351
0.084585276826057765 -0.13453601985938235 0.78251380640266122
0.33951811127345621 0.64887906205982837 -0.01004913919311079
-0.2148282523709959 -0.33423321408870343 0.63436326824186029
-0.010964407759001205 0.34103415113203894 0.80553015634868097
-0.53599197617574745 -0.15774406004741692 0.73373848800836772
0.50770913454786992 -0.2443310052343115 0.31809580137632143
0.51367160817727964 -0.65711438207751449 0.4795071836043665
-0.47162121999247475 -0.2122880022721283 0.78320979443615557
-0.5903788661342162 0.53057250456411253 -0.57568555932385568
-0.98514338448937622 -0.89000568654159196 -0.43984982524036165
-0.5568318920065316 -0.02840619654839216 0.65689735221697021
0.056052935999058917 -0.29703921611726436 0.51206948186377699
0.52095958736684267 -0.037605802537543198 0.38102257145373675
-0.61871000262553721 0.026113498123818246 0.78466604697557818
0.36368746944203423 0.96575763907601342 -0.37720492986107601
-0.99513733897974532 -0.65325649371510153 -0.38982495243570003
0.66839596778317301 -0.46590687862784819 0.67317985665657853
0.3929533440349644 0.73285154501396121 -0.27556230590270037
-0.20453556247790061 -0.34376690021463396 0.60893883516881986
-0.43149624213306481 0.19361205070810783 0.61842249865845833
0.28110750345909352 0.76415404825272404 -0.28009521163287054
0.31722741153505751 -0.1630373779875427 0.73974484368406024
0.39608282741901135 0.90054343213185639 -0.36013932308320662
0.3935095686686374 0.67844742364482968 -0.20695593140868862
0.42866066214969223 0.73479890076293763 -0.26471794238273727
0.75935870098020786 -0.39398601596787586 0.67000945141517176
0.14526094517259835 1.0276546842703436 -0.3564289860915224
0.0501972142679179 0.89044522720170072 0.1049378203926965
0.49564572282359975 -0.5202952848746758 0.38405231138625684
-0.11919311391175214 0.97024449301571281 -0.19986367842713193
0.75015416626124676 -0.30435153044860108 0.71514913175878114
-0.74876867522763035 -0.33314633884514322 0.5536118441408705
-0.61718925264072055 -0.19310727337446032 0.61894138281882616
-0.65700265094731591 -0.27644888107437104 0.70147966103311821
0.19962819614404026 0.022585712442447559 0.74579669798360593
-0.48481047486463424 -0.5510405994450025 0.54302315953193236
0.31209858139334301 0.074376418926869192 0.54076082361010891
-0.34998259461078973 0.19809775811103059 0.78546374232065908
-0.40292786436374683 0.18416470942895025 0.7453057812147359
0.77019630688672791 -0.39647414668297554 0.69548259240779331
0.13450141209368738 -0.33337454536908595 0.56485220865043062
0.85031826965120771 -0.46480928409284772 0.55231287528880846
0.5001655325458465 0.84437204275847755 -0.31239765541031517
-0.38453128772288991 -0.51330038249798093 0.58681280755663412
0.36350918155963541 -0.011951483491529302 0.70099507744319445
-0.79944870267005896 -0.96303820288392572 -0.46947618824534676
0.66059345261859903 -0.080307474984756766 0.40818690277733993
0.36311324277631485 0.64473448039205472 -0.16433398332506144
-0.71912233716736296 -0.25501059315568142 0.38207157673170689
-0.12428150732706911 -0.2088604243125971 -0.63019288369806414
-0.74705130726530911 -0.50803417998077549 -0.31499746234757919
-0.20827260737127773 0.74707371676375978 0.35652889842258517
0.25948939493428114 1.0963465476402643 -0.40627921431428859
-0.63644436641967772 -0.040954738225842391 0.55518733478352522
-0.60497952102400632 -0.99122337049080045 -0.36440483555300829
0.33674794423263599 1.1689215563440278 -0.46369420035667996
-0.67635897603446438 -0.10849610589379566 0.53371201427174686
0.44352486204038399 1.1875785343352021 -0.43968613951793056
-0.1282040131158233 -0.032016171100281099 0.7448692835839652
-0.59156761191705343 -0.23034326390911808 0.70825476234552043
-0.18066264299191914 0.33272193640361358 0.76955715311059736
0.046525441460186556 0.86343287134234359 0.58759787261945817
0.451489962975824 -0.093799200872837218 0.22994356499858815
0.53647436229047685 -0.49995110559339473 0.71501363799109374
-0.42018626609128518 0.58810945725950248 0.70225590918181235
0.62036551144247554 -0.3974539274266089 0.7351807372022453
0.10645288387209462 -0.12560884952417872 0.80106305498712138
0.24471227916642135 0.011492275158307308 0.74199234738633901
-0.44043676815717347 -0.083257297511829975 0.80257983601328342
-0.50681931613842579 -0.5215791052713179 -0.43360460211841167
-0.63304389911390402 -0.65067342927101635 -0.31783366865111523
-0.22855583886548558 0.4676835016284997 0.76474744103580572
0.12700270414908488 -0.17475264012184155 0.8044355324833149
-0.20366842375232963 -0.39365298269158799 0.650242067752965
-0.36151806897207095 0.87433332064432534 -0.31286678174003679
0.46732398154030363 0.83725919711276653 -0.34116079363292773
-0.63366143439827738 -0.86229913742906916 -0.46353983778331187
0.36792146203639575 0.31502123286818495 -0.18771746603777562
0.71665141018808853 -0.51014896684665345 0.69232595396286412
0.14367024407265205 1.1172231194437359 -0.29378773279020276
0.12197722295026381 0.73343413277925862 -0.46349779998466101
0.19711963324872173 0.03158190397515348 0.74725361937288493
-0.16342384731757065 0.59908542475253768 0.74463884179665274
0.21141047482262643 1.2308035085542937 -0.3897818218965492
0.50448571841305423 -0.63166543976693035 0.44569873934078741
0.21696134887762497 0.26007632810505932 0.6764681241931374
-0.51203545073158097 0.10848474404534869 0.81072234085670614
-0.56428555181378925 -0.30609853174448176 -0.54836340016966023
0.40766980061037827 0.68312158502280873 -0.20014310258059087
-0.28549560444838207 -0.17009382715617249 0.79853633237343069
0.26899198885546127 0.77321367088275217 -0.25308838630047159
0.17338062857340475 -0.046554306785157706 0.80343826885974301
0.037305485743747369 0.42281000646621258 0.7876188824421233
0.6409588829683841 -0.46210390547242675 0.71447571420033018
-0.40947917618273877 0.025974755386027226 0.77554630568573824
-0.025449514095647885 0.94015918351596994 -0.26622741348645196
0.3625143342707986 -0.36647584706966541 0.31889781530367084
0.2332943315970688 0.92563115014774056 -0.29775558296780869
-0.39633015309014397 0.35506678013549298 0.70325092063882044
0.062173830615968484 0.36682318019073357 0.7703005617463099
0.14314807704223398 0.46638466114037591 0.67442930156627878
-0.66385255791477604 -0.98569960876956841 -0.39158456128167418
-0.43757516876818414 0.25036740519449552 0.60130386578084261
-0.74698690018461988 -0.22976067097986785 0.61514196280262656
0.30664602728165491 0.42141905544986358 0.55622248578766165
0.30178748212039608 0.25650558445702742 0.50875417378430887
-0.71419587536621165 -0.46825244737670957 0.43725456616565772
0.16540932304032196 -0.079633585392979711 0.803693587703325
0.2108744101311899 0.98203146317355205 -0.29314316502205529
0.28617359501541983 0.10591031500570658 0.51058349989271545
0.10985988953667913 0.81856359511126975 0.2709822695166646
-0.20959720037152962 0.43063031810327423 0.77119744812658597
0.41252413784087594 0.69992594456581081 -0.22152363902998218
0.14769286394961512 -0.076793573888677358 0.75786100654008648
0.91179710059924801 -0.24820389885366012 0.43839369095060698
-0.93397897462295276 -0.77478530915309562 -0.42971225841102617
-0.53921326186844354 -0.25031609615269801 0.69924871742144612
0.21654534210092535 1.0813720688286192 -0.43541707447886502
-0.23238449855212551 -0.59695344494096503 -0.23987434914317465
-0.97877387854529374 -0.61612085570632757 -0.4090581780193866
0.011385336276255487 0.62198424957434817 0.68048084337297388
-0.059212844150014377 0.86750786901589194 0.2396905545814354
-0.64359562971862871 -0.58887365526651436 -0.22518603940231974
0.51993625612963967 -0.13408496479259568 0.7211362404783952
-0.256041061685508 -0.31701183287172441 -0.58203329025614314
-0.30900290081918769 -0.22297070129023666 0.79800956011773838
0.40953618940900327 0.80168814255952014 -0.31643204084364385
-0.26826691148605164 0.55607718632311887 0.78457615992844454
-0.65355249347856414 -0.75374020977722012 -0.35745907927683485
0.25923751560741337 -0.10569100779423302 0.7884077784846677
-0.35491471185934031 0.62326640350275042 0.66356397814256374
0.50801690147218892 0.88745799670952152 -0.36272715194980165
-0.72271208644612273 -0.38261483747088931 0.38868673503182216
-0.11253205772076669 0.44598077542261372 0.80352100001464111
0.66349542106681625 -0.67763407421005439 0.50186607172612385
-0.47043497663505818 0.16545847363997801 0.69251181150523167
0.57144519955690143 -0.37166429385758448 0.73732625107216565
0.64787054666529897 -0.25549668354396182 0.72880889903394142
-0.26730234273513886 -0.26731070558752101 0.73122968839558977
-0.76000379866538736 -0.41522742212970165 0.55741458061071869
0.12700381856612708 0.48580618499656225 0.68930086571725679
0.0039556810580592128 0.51699601134814976 0.76226285370404634
0.13490238559559486 0.40443880521622333 0.71042521752818422
-0.22715972071749135 0.3149638403207291 0.7057108561942137
-0.15278411696765914 0.71361961254326012 0.4365706373371161
0.12335206759104622 0.59919497426962032 0.56658373390131755
-0.44678133405345832 0.48175295946890095 0.71242087790366926
-0.35550008808188593 -0.63751570257577228 0.011170783975590126
0.13908351369168415 -0.10316574013347157 0.80513259392201342
-0.97894986209437107 -0.74826736898514667 -0.409941252692824
0.65574172639438544 -0.4610231860173517 0.66263490587661467
0.51354254627802476 0.68386189375561557 -0.285804784768799
0.28316910754771385 1.2291366640216648 -0.40007720534385971
0.42039698258318126 -0.2356003476660149 0.24917284622265234
0.37530949477664066 1.0439139453975059 -0.40962560998696329
-0.58637680925123092 0.37836608239924274 0.45412680352613766
0.55312494459241179 -0.26593433824032253 0.73519120569560914
-0.47802833937301514 -0.5802721938919575 0.48502308854018938
0.36202597078124654 -0.21021663631866971 0.74025008842255657
-0.32090439067432541 0.77767249771387981 -0.48472640765136354
-0.28201266541512382 -0.28920382815002377 0.72435777222390563
-0.64834336630492473 -0.94463629369127489 -0.43126026989354505
0.93132057196031326 -0.18641565661251924 0.49645993227855101
0.32205906920994387 1.2586144439811964 -0.42691512520370534
0.53883433328435082 1.0592617681411749 -0.52086575146122449
0.65617782536267555 -0.67026441333867481 0.47429985563392452
-0.17618489779637159 0.33596872218604723 0.76470398791972716
-0.66767370236342671 -0.58654565995503916 -0.22772457786145181
-0.96567989484193362 -0.66820799814686893 -0.37150125095916164
0.41237310364516411 1.2384670024076545 -0.5371747884022211
0.49412415854765968 -0.39405774874050437 0.34858320541106824
-0.65086867334662912 0.097229748191320908 0.80494639512685251
-0.18285425017374735 0.51055320276627114 0.75781530456055879
-0.085931442012675774 0.26926582399444143 0.74809791723237562
0.41824960953866608 0.94368957934848474 -0.39414565175126359
0.25874551966195014 0.82718949266253894 -0.27999539665201389
-0.58828797310472325 -0.62783301065535113 -0.28486029930941098
0.29437394933246352 -0.039741463896286078 0.74493292125858313
-0.51041977802107397 -0.65659215392498282 -0.31456784288627021
0.62461908268674904 -0.41759856850121757 0.71078876130200519
-0.47509844517950128 -0.10443365297807716 0.79008077329570048
-0.41482799649641677 -0.36116911825509135 0.67394609215037327
-0.68297055453403743 -0.97038108493162767 -0.44533466094568586
-0.36265891284823226 0.27432210132603529 0.77406060758773765
0.59838921670380429 -0.43564601695768879 0.73381144471638848
0.7474022155440565 -0.59364406938726511 0.57396670784832637
0.31693790728957794 0.53029406882495955 -0.35216643475919174
-0.30471834546801446 0.2124987406248966 0.80582776923599519
-0.58123797752121575 0.09833074103787709 0.80785802176053556
-0.3052112958560329 -0.25367020708559984 0.7669025216316907
0.83875697632074875 -0.17059210706256955 0.41293700290361701
-0.58305639139475574 -0.31406990313817218 0.67978726857486871
0.25576792557827233 1.0713494141589521 -0.39440814659450218
0.61561461088147951 -0.67911583109978135 0.60993011796158769
0.27070388115397392 0.80701091988278684 -0.29084056140150594
0.17993277896247051 -0.1936004519090897 0.78457175251066913
0.66907673629929221 -0.53083461020274925 0.70107160038843541
0.044647207088519991 0.31776887374297935 0.76052134973761576
0.12282857822165738 -0.1817782676680153 0.79849600835896717
0.88975310603618141 -0.15963189251304932 0.4631732037157672
0.04138764928206129 -0.28902194387469393 0.58150310272985994
0.74225230880945858 -0.39682871895371363 0.38981286212258259
-0.38105483856986666 0.46310740001909778 0.8234201853305122
0.14154285099581898 0.79589150321394442 0.5659423152009504
0.34109272243014033 0.90415553212101507 -0.34403842025827736
-0.2950131995070997 -0.054721127509496981 0.75789316662903183
0.36833510657597657 0.5242147049643755 -0.2793770726242979
-0.37713135602150061 -0.53260443221161857 0.5621733471731305
-0.37426256359410814 -0.78026174808851323 -0.18306950223815299
-0.38061952976183733 0.21122609502647904 0.64240616179293353
0.48336688517624182 0.81664025913441129 -0.29259102062459608
-0.23208098148665002 0.69862765993672582 0.67121230761158168
0.10417802187198077 -0.17917481549326553 0.77162156168627982
-0.34112798130587763 0.12664125144337213 0.80200980580693626
-0.37773006943368159 -0.2367158908673801 0.79603299000512906
-0.192399749662858 -0.18395433482625734 0.74363709202549644
0.028384204876619634 -0.36647632764961813 -0.41572633396922365
-0.089697375197253848 0.96532650806718578 -0.083872182031573317
-0.77191164237730447 -0.62332098704632344 -0.28457992375252938
0.77896650343824803 -0.26775312484645397 0.69835106752165244
0.86818944659584574 -0.38212664942503238 0.62585863630806626
-0.67712994398620197 -0.52650221757894045 -0.37902977581204123
-0.76616102284754106 -0.8314432608137281 -0.49210299857524609
-0.57570664971648355 0.75237980241168856 -0.25520469131394474
0.15342631047059996 0.82048736934754452 0.49229961137333111
-0.36874276164040154 0.39554507183817122 0.65180132327611129
0.51497065232181072 0.92571077129531254 -0.39281684159863062
-0.47429900204673459 -0.57742455402949489 0.39745672099700191
-0.083016337076163182 0.48830050492348676 0.79127593901703286
-0.78665660794196057 -1.0322649623949864 -0.422465293168927
-0.43995517131944339 -0.42554715995264125 0.65138522481926819
-0.32835036069046097 0.31095785306759538 0.81668476689041358
-0.20940505062958792 -0.13599421124022371 0.73290530036277035
0.20356791025063004 0.76445867802391732 0.25590386878916416
0.78760515221944871 -0.30851240823811032 0.7023878364651206
0.17478880464870628 1.1361827093973123 -0.30755000166168145
-0.098990294962874259 0.66740014691065674 0.72532426340186706
0.85055944743254486 -0.41352810218054969 0.62984823946229218
0.73277213149357578 -0.31544325907621307 0.66452458500960376
0.097695001666007641 0.83232393190112219 0.2249188916957312
0.10181298044542686 -0.41585661962810505 -0.15181503252270756
-0.28238941697635767 -0.7262172016057491 -0.1910664085969771
-0.27681744702938715 0.32981938943846423 0.79479005267487102
-0.20824043948238113 0.48027913113752874 0.76215194435390277
-0.22264993947890233 0.95625666579757151 -0.079577852708331065
-0.60160254838089955 -0.4009534243997166 0.64717007384903358
-0.67687470578847098 -0.27842253837547482 0.70647882762351166
0.062277183293385718 0.49162902138354703 0.73914442240654021
-0.83506084871055819 -0.72243696340347086 -0.41342947231387528
-0.44629629239599211 -0.2644634698355226 0.7677673880768443
-0.22505745587776005 0.35941895943446767 0.72277268420177232
-0.71677512944111399 -1.0123553772692624 -0.40113281914258336
-0.040285749146988792 0.45755507969218634 0.79804721128744971
0.8194918047633557 -0.11441138613971091 0.46412066850343603
-0.48247882515258667 -0.37972849127062425 0.67383384879891262
0.64880623446303076 -0.023812978570896703 0.58926694893797049
-0.72243367268228553 -0.32186613978029044 0.44808671023366331
0.21321588911120415 -0.075793640416273789 0.80776188636473822
0.060390695151529172 0.39138417055934838 0.78276121335583104
-0.074566355954218011 -0.47842305500114435 -0.21344298734086642
-0.3574992000390651 -0.64080459467265527 -0.079431566591135705
-0.39139180242820615 -0.014130044715084722 0.76825931112866364
-0.7343689669639204 -0.33148893233827259 0.66044244748547154
0.84488038107110697 -0.41851467491801131 0.4644389959779559
0.35475781592485234 0.42998020397701708 -0.24366425007969506
-0.7099006339505145 -0.69461364611611387 -0.35146627947267145
-0.25586362257682538 0.43969200047295942 0.67681478725602418
-0.61702054455144406 -0.23130285923540228 0.70305139282622764
0.54569114911217298 0.015012236378886712 0.5914817800449319
0.17982870356249592 0.6958571117938579 0.58759626715995195
0.30214087890382224 1.1125478472428494 -0.43052304086236504
0.44334463215582431 0.047324684841864695 0.48571992725383484
0.61036051865854191 -0.44586914944478195 0.73079147602857053
0.52351066822294712 -0.22210624268707413 0.73459537874748781
-0.73908600900736943 -0.50575814766496663 -0.15871808889903824
-0.63538293534306689 -0.63499687182713416 -0.29677972247163464
-0.096381262118306665 -0.43469143128596599 0.38226612043985153
-0.893051124991878 -0.075580299930763317 0.12982863896791175
-0.54595869024723953 -0.04391089662392389 0.75398194947928932
0.087435694699415478 0.55400209771419107 0.66905370021900867
0.65058069312670597 -0.61236083401638908 0.43063937188582868
-0.095043174571070921 0.85759872134203263 0.24633094885930129
-0.9334494276121994 -0.68995849193658998 -0.37618463666292656
0.29239938560236212 0.67515090114470411 -0.37574784794910521
0.2908635472239034 0.1363316217676882 0.48635372738455906
-0.51176125734978584 -0.3166915582492571 0.67093722507224784
-0.42971385761261516 -0.39907711070526375 0.67018142242389356
0.39946971358222783 0.72441832010234819 -0.27426641741544699
0.46507478592653939 -0.005499305179720082 0.37225724830129603
0.27525046163474443 1.1205936886397811 -0.425494509452089
0.086086731123710791 -0.1674225342726352 0.75211740720727049
0.29842341647249171 -0.15304565790682645 0.74203980713341822
0.77327273551208364 -0.36822229820834362 0.69932041164077952
-0.11272541408876791 -0.056792931043583295 0.74812280642388973
-0.33651343949150814 0.47845169702012491 0.54988737792256459
-0.89549307726226957 -0.88491712803067202 -0.45372783512012571
-0.29395183585414841 -0.45362789554500615 0.62742656367209482
-0.67082368663793801 -0.85767096936412202 -0.39971734918152213
0.019878399108261391 0.66179636814372245 0.6714299764967302
0.19465830159685993 -0.3597635975270812 0.63517983064562289
-0.27485563753836928 -0.17100079863163131 0.78328637816017976
0.67403061146056586 -0.64913273053334386 0.61003006645446389
-0.78570064653717964 -0.3712216194253628 -0.37198275713010398
-0.32747674644805969 0.24287463712308721 0.80281109088780334
-0.43775503525991866 -0.79988221564819995 -0.24551221864876216
0.26293038469310304 -0.29132684184771485 0.7237966113627059
-0.84914038234424538 -0.7494208012926542 -0.42724846293174368
0.18563892140289795 0.1919282951666581 -0.58134830026168194
0.70964224094426953 -0.50880765554438057 0.41362191638835832
0.074083698350637661 0.60025668497118723 0.61872983863107511
0.62020572182009559 -0.44269133875170041 0.70973005416376211
-0.19280603133479346 0.32401731701943781 0.77592762757279965
-0.46577135012889315 -0.25615378401010425 0.76209227681047809
0.06596551259006489 0.38952145865918375 0.77782716410098307
-0.37866018875009289 -0.36254645562498133 0.67828594403696907
-0.7396223419574639 -0.44315658535889568 0.4847792714353536
0.16200132044453497 0.79169923475627613 0.28333691801047056
-0.11507466826410351 -0.35754764333696087 -0.51806591136145652
-0.21134904241297647 0.5177877144183114 0.68257625665103649
0.41163971822487611 -0.23077122843490017 0.22098327587790068
-0.79934408561481263 -0.44705801151788194 -0.015863524916117477
-0.33690217189959171 0.026957214431650556 0.77326991660419919
0.47728146330216248 -0.54570959232972349 0.39640800127051407
0.010460899860351702 0.9320329434096255 -0.17915926681054817
0.27806269970001907 0.46474315248331521 -0.39762014011337765
0.33742341694423317 1.1205173522426222 -0.44145392174401366
0.72388685838710032 -0.31398395909306309 0.66647184388479097
0.67784898552351791 -0.60718940477253192 0.65188757479473547
0.38907710419253405 0.54120018261676073 -0.098983238820401276
0.19983135910494099 -0.19090285112142702 0.77424229876431216
0.34701181984006979 0.22347521284188154 0.29876897804408298
-0.318443104681851 0.84667818659165306 -0.39382219024435727
0.034254186579172341 0.40210467736521949 0.79250125538378546
-0.6706520818473436 0.67651609623110076 -0.072381995938139099
0.086783320218057014 0.58229127558763771 0.66993160483303815
-0.54707214424453099 -0.29111165952172868 0.67808763494882784
-0.73477314460710019 0.37993527960789208 0.3227869663241294
0.035500580282320726 0.64783102430871509 0.67205816700618826
0.302249767577905 0.10555347778619684 0.48639214689857835
0.22358302679728226 0.015491801541921646 0.74888794034091122
0.39172622083331454 1.1639168423890158 -0.4786832134408332
-0.83800018636381068 -0.65005277343800216 -0.33383336725673579
0.46247884978090426 -0.15938617487462636 0.27123985014345142
0.83588441564304716 -0.19614991339429722 0.65060664090332065
0.59722583187895495 -0.22491816861615632 0.35016202843127564
-0.54862673555480512 -0.39292137136810723 0.65481400633704867
-0.94873631306285588 -0.72711889773495386 -0.5033945162100858
0.561877361588909 -0.47547355311239237 0.72460319187379474
-0.55706965048491597 -0.36986653817708337 0.66348447533640398
-0.5954999986205145 -0.5288344397485929 -0.40831840196584035
0.68435821040480604 -0.46622720960642816 0.67983826132051717
-0.63617137678556901 -0.34219147565474017 0.66989696278112931
-0.88952680279050611 -0.89396251753163014 -0.47249578296977279
0.62630286958697923 -0.3987262036072341 0.73244707255159225
-0.36634632096127362 -0.63877930950154393 -0.13602522755779456
-0.11631354668833893 0.74367812407908218 0.41129925922946775
-0.47375403130312677 0.42633633194765608 0.50300399393369455
0.28855523203342237 1.1439015813457463 -0.43501721103163149
0.46508311199903574 0.036462051186592959 0.59111825394493511
-0.33217523571152441 -0.081080209145932614 0.7884071074858221
0.11464668727147753 0.49129319900414359 0.69149681202860291
-0.097318720821746751 0.43833531176644058 0.8060827725855938
0.3028960136672616 1.015585730698394 -0.37383366233232884
-0.1701349566262067 0.50343936544637025 0.76032158318900733
-0.32113508130267121 -0.64654823998966293 -0.13237852463044808
0.54798589434780354 -0.4728603230760271 0.37114553028233088
-0.13865393852480778 -0.29621219575089519 0.70132729917617698
0.70012321523909549 -0.34540126215256528 0.67007063106842013
0.037298013905928684 -0.32610972620640055 0.47452923139131931
-0.37574154934956994 -0.39663537055820974 0.62875604962126697
-0.57584809040852036 -0.9449022776850633 -0.35691625131607019
0.3309338667331545 -0.012629398203817033 -0.35741552322245074
-0.82472450870274017 -0.75626767165130815 -0.41237182575085385
0.74776630910433894 -0.38243886502299951 0.65391877244020269
-0.15724031702397312 0.38340017777853674 0.77712935348506373
-0.038801177213706239 0.40587681013003163 -0.67521695365338097
0.14161527767652871 0.37270565354468488 0.71084341131367546
0.12435466643258763 -0.2497140486739724 0.70160299843492291
-0.33816702865986059 -0.82038813357001317 -0.25741223516405176
0.10912083958620755 -0.1503022402524028 0.80356590927834548
-0.5261310926259064 -0.10431440684043203 0.74817582788707848
-0.5960431736272831 -0.34801568943405314 0.6634537846211257
0.38574201125624086 0.72435490472070541 -0.25960514699065573
-0.02603692049294537 -0.35387729523731437 0.51877682916052881
-0.76997399791432741 -0.47926859973750524 -0.091388955120846826
-0.73979358252280747 -0.52797888977546137 -0.21734233002652489
-0.41000425394380358 -0.019951272542551024 0.76354576275923114
-0.072585460575840699 0.25917203354762286 0.75339786468654624
0.29963423264260314 0.83658706559100793 -0.31380323735153048
0.047945489909105632 0.85405205908913118 0.60984352201725267
-0.45032054690680923 -0.44256449408970511 0.64087415463263175
-0.60165735124086339 -1.0033247067254401 -0.3680149828198902
-0.61087871852377873 -0.043192289739002021 0.76029065776754012
0.0016561462857573872 0.51091086066922209 0.76798975606230391
0.43063373005649197 -0.59816829296760154 0.5255163265085504
0.25853209794587073 0.002418077174494826 0.75781169461317088
-0.5588139840891273 -0.25024726083788096 0.70155500313833863
-0.058973208824173895 0.53135167185289589 0.75194070600915852
-0.4274338173584411 -0.78078983915856526 -0.3638078847360029
0.0063793175297384153 0.52341544718339783 0.74997562967987808
-0.25097791815369774 -0.27568111718408694 0.73485361563158058
0.11802814470987499 0.40640734666131806 0.70403667737937004
-0.56824886755732251 -0.22587713695284428 0.72016888352235897
-0.52030453334162274 -0.60257457867264819 -0.13340190958885706
0.17188398975471131 0.27816832507100564 0.70024507957573334
0.026972633870023799 0.6199004111749673 0.67664581344239871
-0.80073438783146145 -0.56777693947462993 -0.24296267010911549
0.098335565654732449 0.5323038012287391 0.67321434152796233
0.40321561017620766 0.60369890920775759 -0.29924204556086131
-0.13675680308567095 0.74586644416672954 0.60927869196409334
0.31419168011883514 -0.50469915087678707 0.53036468405630954
-0.92511350115484703 -0.048961371053344749 -0.32903845138409116
-0.91759149918925331 -0.99013296893373237 -0.51899689425908324
0.28572726610679844 1.1717388876618262 -0.4132997241513916
0.25594103931015866 -0.016387359693283088 0.79686394405045458
-0.37472577962723008 -0.41215322050242342 0.60226537465866103
0.18703266387140616 -0.11872641316364252 0.80940580776976478
-0.66047020698074022 -1.0204592055718535 -0.38892510220421794
0.83729884316236181 -0.36836887489442383 0.43403948234855894
-0.45060881332804215 -0.35196876998899818 0.67435035291548462
0.48996583172286989 -0.17881763418310825 0.73327304580782593
-0.45179998758034756 -0.35896283145098451 0.67665852300093587
-0.39985323531162109 -0.063842678404304465 0.78712730947261189
-0.45465803233513924 -0.373843866982007 0.67851648477933058
0.29647266901285008 0.21141146840131952 0.47026024204092032
-0.22884781399035248 0.67610933166714915 0.61655278832091631
0.11437682295180096 0.84637254749647006 0.542332144111076
0.18355944525920265 0.77772567238600132 0.41706234053014235
-0.36298978088848344 0.25115645753381344 0.69335619346360622
-0.20407855765596494 -0.48671200632868228 0.53854587107165997
-0.17499215842697424 -0.33848475159502378 0.68243305528850784
-0.52496009503098406 -0.3639703283509288 0.67327404196775875
0.098555124278458806 0.59556593341996589 0.66779596525687168
-0.90946008487880192 -0.85777965155715563 -0.46322272021745248
0.031735180318186451 0.33730048497630349 0.78603569596055112
0.46340167137351074 -0.52143656081040035 0.68718705161875493
0.30901297365198843 0.75206700327707487 -0.28337192572429348
-0.47964384689869277 0.010456740902872852 0.69249643176096776
0.27219552217701803 1.1485313194373443 -0.40916447978342507
0.51231629590243877 1.0443669880346995 -0.42590748276452217
0.11661521528864327 -0.28356636783196443 0.6407150636145571
-0.25528275150604074 0.43402098652788723 0.77332424071339501
-0.61572529104096319 -0.071739362247033256 0.75337023284859916
-0.59029765621683694 -0.15683515009338933 0.72822459590428812
-0.58957713962458058 -0.63229741598777522 -0.29706874773740999
0.57560301507160361 0.84295530025423027 -0.40024056331777302
-0.28332301061262299 -0.1905311378563006 -0.64516730200558214
-0.65008268790125356 -0.5450402157751757 0.45927530115829041
-0.85794372728462065 -0.6248404816405646 -0.30718907601379386
-0.88059508588644775 -0.74963147853510392 -0.44504797651856781
-0.36999268597530843 0.20777619019172633 0.74406033127254156
0.023218116222277985 0.30407475511835358 0.7650682258131587
-0.19328936044055922 -0.30481190946551351 -0.58675202604357946
0.36290441604578305 0.75244138779066994 -0.35402261607598895
0.88120250869813788 -0.25111526830417574 0.6379249438508876
-0.23086817126037928 0.69132851743570889 0.72333580930663288
-0.24859720135869878 -0.35365318805032686 -0.55092905382638424
0.76351136245975226 -0.31896713930237208 0.71159911605580528
-0.38897552549022052 0.5748834588505698 0.65916176180343178
-0.18343935014835466 0.46594473301949968 0.74271055023823274
-0.26719114145396361 0.011959169673586345 0.76575282316556526
0.26732961336812977 0.063473923245341624 0.65010852410546671
-0.59688263931752061 -0.19320826310345751 0.71683675222155308
0.69751639210587868 -0.31566679420767052 0.6937808852838151
0.27697301981990563 -0.033967212376630584 0.77919877520825676
-0.6417062973984855 0.28057558218616663 -0.62412338889936869
-0.35849597363683472 -0.081155097334544735 0.80779953656045445
-0.67948372289490067 -0.55501879597028037 -0.16843786206271755
-0.65588744241740571 -0.59774382241266721 -0.38706226150550327
-0.3778699134738055 -0.75408238987609266 -0.18670838723921901
0.36737597590483695 1.0930785650026191 -0.43088920323096769
0.27968031997951215 0.75945305370978389 -0.26790932854516392
-0.17067011540995836 -0.16964898310280496 0.68922461266702295
-0.2888517894534246 0.486768482646184 0.78581494318312406
-0.69196090973614233 -0.47801368899890662 0.2918905618870169
-0.069767269363833151 0.57847479818181924 0.71887800196687857
0.57251288129153721 -0.13368338844555971 0.35938562250121064
-0.65819073024350061 -0.3179505933110427 0.6867511725342903
0.43257449193984598 -0.54187992450571087 0.41498075185443417
0.12281654951740606 1.048496558859922 -0.24957195952826172
0.29988346768096719 0.7645209219251452 -0.29770791858028911
-0.26309187073687923 -0.68404871851424076 -0.18850009739303253
0.49769315210863851 1.00551437985437 -0.46116882563451522
0.17200552708400707 0.4644677865365896 0.67176550699335147
0.16932306011206322 0.93867886356681751 -0.21367431306306361
-0.60307602697153939 0.18677492729037048 0.72373893646429899
-0.51274540354836873 -0.64504041620177333 -0.31262828260534481
-0.71234920653363787 -0.22503542440620272 0.71228685576133932
-0.043057255113019721 0.24348903437611824 0.76065800710847431
0.24024919735519035 0.012164273117242885 0.77562178878553789
0.29063597596632462 0.81399366269452145 -0.36352926263504592
-0.73614718801193746 0.59817028167691078 -0.083258737753861389
0.14538092229985722 -0.31123354888579868 0.63325645920978657
0.17864264914815919 1.0055294462862001 -0.25610665910727004
0.59040279960477804 -0.6980086417396496 0.58308376932045003
0.0045264672574418796 -0.29662789063720574 0.61461004239633221
-0.37817274444623195 -0.63601737229346611 -0.14690619334064126
0.86984840483259518 -0.23216447927890904 0.64151591205005865
-0.30775280022463392 -0.014967944376278908 0.77219029038315856
-0.33733467469613387 -0.64051482313770691 -0.0551886008666721
-0.4732246131769422 -0.58064703452429356 0.43102408693438954
0.74833339063035353 -0.32764302179487359 0.67102308702730418
0.39769819443202792 0.87817965275945831 -0.34850651592079451
-0.22363083360784586 0.5244853728828307 0.66164656742038841
-0.34839363300669746 -0.23373095494684293 0.7983703315228603
0.11427778933076382 0.35330566977476607 0.72475081187090118
-0.4099956672869034 0.15230094070894395 0.80345660277147257
-0.87134735006553043 -0.56050584810219206 -0.28892520049370762
-0.17196465247344861 -0.4125053536557779 -0.45108762434118166
-0.39297268170319555 -0.24275021510420025 0.79205132886584795
-0.43244434780473995 -0.099160975222362779 0.81014843836316008
-0.36022990589476578 0.29358171056917826 0.64443521343650378
-0.80032693278869615 -0.96103209483657182 -0.44796832482270099
-0.33246227232390879 0.18798756890787871 0.7984313041706953
-0.53183208777429059 -0.34247493197706014 0.6213243184131243
0.49744469705103711 -0.65360870270431981 0.51917463557241073
-0.61734966097029442 -0.78804506200213709 -0.35871703930874088
0.26569592230307748 -0.15750827119905253 -0.38507855559805559
0.13139155836782379 0.92456294787622539 -0.31858266710265415
0.14332758971100645 0.82239253879489205 0.17925894235736184
0.16605263456252217 0.96104070809400532 -0.21959445761915219
0.29259600021012488 -0.056932339666069254 0.75316437013314663
0.28545156775142289 0.093372028062262302 0.54774666395429428
-0.62922805039246654 -0.18563436059471172 0.72256175823951907
0.84406195088427438 -0.24216678415841386 0.40606840607192685
0.39904739957737334 0.53865983552879726 -0.13231683054056198
0.18473433414539997 0.48022028664308891 0.60243083953574739
0.71333934289258849 -0.1738743766189188 0.38153720010414816
0.031988437868758268 0.822190888161483 0.34683708535624325
-0.55394622004423155 -0.59507398588499072 -0.1946702169880237
-0.54289936243327119 -0.14117292617512511 0.74601537583090205
-0.68824051996795177 0.13886440841712933 0.78468052084588902
0.80900847608167581 -0.47850248112725602 0.63549474020969265
-0.33773253848492502 -0.087734245908764663 0.80291398808488235
-0.49336765136104788 -0.030358541031221264 0.76635209590971753
-0.82721776758062404 -0.93720631590773351 -0.47063515573266546
-0.3203174637122288 -0.23909166997599307 0.79354042602665875
0.43503493974911933 0.79576011930994461 -0.30606031014163015
-0.68599447628647425 -0.95757799693491563 -0.44424022369505178
-0.05818307777532894 0.23178059844964238 0.76182980962399971
-0.079206655879474397 0.370002282355685 0.81172398100507492
0.14579801481317745 0.25951858045457676 0.62062702139323611
-0.89094334680205378 -0.86187240302146151 -0.47428534757257435
0.26682273256489708 1.0953147874741234 -0.41267120533317669
0.55550931196775011 -0.057192525533633187 0.38473766696999134
0.67208293744867831 -0.49106766000534208 0.71504989014975295
-0.17285743008198295 0.3776334347362571 0.76640815546444396
-0.59325502597608448 -0.58810340664724237 -0.19833945788868912
0.37453168840668027 0.587574778899695 -0.072046472220662849
0.40355457435481412 -0.22604381846227817 0.17878771379884673
-0.38876697769924817 0.19014930736038416 0.66419988793871354
-0.66319429000799701 0.085235488182846098 0.62455258868027774
-0.051065829294056897 0.35427867694011894 0.81064985280677215
0.40579297526802094 -0.27781401759793667 0.26703411845479064
0.1343882675559307 -0.067932578709665847 0.74808214152787078
0.71767215539163232 -0.49188571403558612 0.70008854458872882
0.69494620001395546 -0.62941365494201129 0.61221393946548774
-0.54130070165230038 -0.77820288528791792 -0.40962878169811445
0.55334260864405493 -0.17898555641902725 0.7263429569015234
-0.63123543656990222 -0.75063415304490277 -0.35141270988809986
0.43980835833956178 0.74486051467405368 -0.24862102105607065
-0.11706489995301794 0.22151974407764996 0.7626589458386992
0.21014210814857037 0.834710120934961 -0.20219604935663771
0.061475819780781649 -0.14596696162533362 0.7578973255816156
-0.25292253885029581 0.94847299396666074 -0.2046954525182727
0.37245242611169971 0.92511809578602211 -0.36328032912868391
0.40004845370169306 -0.43019063860332984 0.70904743219804178
0.38080335771952178 0.55799849522976608 -0.055342454658616091
-0.51178446050337101 -0.07038980895897673 0.73627225621429315
0.38390006907442853 0.84029726878605615 -0.32997708234761358
0.018305138561991896 -0.080128336851899462 0.75381322737338374
-0.10759865349029951 0.099051025722527442 0.74808445397946588
0.67373214015750804 -0.43634454241859899 0.65729166192106514
-0.21114827258216451 0.41420114254288087 0.77289986120931076
-0.10152688489212025 -0.33223347336007159 0.65923046923652495
0.17726166850422587 -0.203931077862471 -0.46320522892195082
-0.086361928550370948 0.26406528140212693 0.75449792080174805
-0.18411813750739725 0.72353994809959943 0.65490410190694126
0.46427243255179285 1.1062797863026024 -0.46464987918524248
0.38061074598542888 -0.21317637152159996 0.028776772908467807
-0.48854378110977592 -0.092069125588364997 0.76412809170447793
0.13606189657520318 -0.11585861589313495 0.8080979040672438
-0.80615722067586404 -0.86204599271651006 -0.43039891058244606
-0.36886015184597198 -0.7262142069343831 -0.18662221913840282
0.46498584914898444 0.66232844648156686 -0.29985986009378518
-0.30261326616365736 -0.53711370512984757 0.42819242952873759
-0.15586125826513708 -0.45825633404158239 0.4635882276614347
-0.0087483291328709356 0.22585357796111971 0.75439083494842296
-0.18758689880823454 -0.53410874012984877 0.1920929201042465
-0.69201682769438122 -0.53389665646525231 0.073023948044365183
-0.55202403986414339 -0.22012255932274627 0.71115179562636877
-0.51532530471191151 -0.072489948867278997 0.75485761363713144
-0.044085451750952132 -0.31083207294883763 0.64274684383588254
-0.20607955337390038 0.96018166341289302 -0.20731698610970195
-0.4986956413436765 -0.41103904619199128 0.65465457802669058
-0.72724318511244235 -0.052811543714739173 0.73906308575843016
0.16437462864296393 -0.0010780538846315579 0.78517644908025241
-0.42278909639289708 -0.73142437582814068 -0.28212297040978895
-0.77963023899473072 -1.0184424697424603 -0.41511424746788106
0.68909963423217846 -0.33225292919967053 0.6942542432045975
-0.060666049835770508 0.45882219576126637 0.7999688692054916
-0.26204202238819363 -0.35526631246624163 0.6884043329227314
-0.21929150402865005 0.48383437084491199 0.76144984859626319
-0.78351978354719165 -0.5168668619036012 -0.28710341780315496
0.44606890580650216 0.020812044775208705 0.40858266086548545
-0.45542597786634786 -0.61106997524067808 0.15651230323042609
-0.20340005849638132 -0.15147757691992147 0.7545572255618892
0.31665287650432461 -0.089367029522517072 0.73869588703501976
0.4480615378363666 0.77614421958000435 -0.28330307303269997
-0.96862774103612637 -0.71107359414879667 -0.39295229593687075
-0.15541267044622131 0.30796053702001203 0.76262211596307761
-0.44523487494789649 -0.7546807744799402 -0.30699332119647593
0.76594573857292048 -0.40878294095588963 0.69484272312422224
-0.97477916676028897 -0.61711862446206567 -0.38250793529975424
-0.32217752959127566 0.41816689577448862 0.80717352146107335
0.14937820749435105 0.84606390020254985 -0.3619670379748543
-0.54064807192363773 -0.66677649081740853 -0.3227588385302172
-0.67021390657415481 -0.17413393899276741 0.73789857879735321
-0.12849352293780214 0.62420804025417453 0.73134033965187073
-0.88830500767793552 -0.1411749646702809 -0.37891529323845807
0.89444264432523113 -0.35419250697660054 0.47884043305192736
-0.24445330389979603 -0.029934938329171601 0.76197881758352148
-0.17744094453133386 0.55869600145810594 -0.66705993529969732
0.28815616104875375 -0.24595168121525823 0.73632274559788879
0.0090404553606298066 -0.32442720666247382 0.49931901810476731
-0.26893485572060172 0.94300933481956406 -0.07316472024441989
-0.39608283821224433 -0.76229197828316941 -0.20344848393336967
0.12750414364314011 -0.37383196098785021 0.30916439645274374
-0.14654352041730334 0.21298763824412781 0.76440156211190224
0.12563013834900261 -0.33380466008273757 0.50424945989310566
0.42748106046351353 0.73996308191347104 -0.27666201626211517
-0.40897313933716362 -0.28227851069456023 0.76419703314728959
