# XYZ point cloud file
-0.073875701822224471 0.13474336118581562 0.57383394517479203
-0.26225926488986079 0.093267346031011292 0.42227485401555753
-0.44755768979464683 -0.32339922388141407 -0.21672518468526958
0.13284771022670619 -0.22404554464066198 0.71175547903880754
0.11228043560750398 0.37580384608880757 0.46065766339489683
0.35044198044693042 0.75615794444613937 -0.15897486435549002
-0.091076755216244865 0.042488898207988596 0.612038436412641
0.073584825464880099 0.15330818751776576 0.51622967705593559
0.1731191260547244 -0.22849885596232999 0.69136219754340511
0.070010724612936837 0.33952766273882268 0.48715580179080603
-0.76550598862469887 -0.70867989623362893 -0.25403348817923083
0.026963103716907855 -0.00112624932312895 0.67808392888102853
0.25387013978908224 -0.2279657057532104 0.62057728140935742
0.25500555145624165 0.50417784919570219 -0.024589490297347139
0.21457900782669673 0.60350717028808543 -0.015859953873056609
0.22472768165899837 -0.26131935803636919 0.65734333585042581
0.30003763418024487 0.76500208826515048 -0.11305542782865213
0.0011870106558185545 -0.1797688719195219 0.69224629047778552
0.075630072077932042 0.51759898355616851 0.33577600911305705
-0.063263002095410859 -0.24346288424643281 0.59279785670739216
-0.098681100198807381 -0.018969000618059298 0.61772133524742556
-0.41925193017564893 -0.32282601167945735 0.11500611977749003
-0.52673976459687366 -0.52838530478385604 -0.078690971302678603
0.080500130660285496 0.33992801078577489 0.48377412226786548
0.10858126398792745 0.2208160757970305 0.54518558999835809
-0.13229770242359795 0.10040241853499976 0.60097106948015022
0.080443291648995885 0.053394420501693421 0.61208758938044916
0.14099887265914232 -0.26342773038895784 0.71077196457902658
0.07591946194328153 -0.046615289467406923 0.65804702927520642
0.072124851526459366 0.52036580987427816 0.40378243102518474
0.21284774003496151 0.53549963932490863 0.26530842210467648
-0.077269304902442604 0.19774487186408221 0.53024850363388576
0.17443615242134108 -0.20834579122780422 0.67373360047964637
0.15326095784980692 0.33031122226173154 0.09412895240816177
0.1653192994792908 0.37812581731250228 0.42523274870453998
0.18928515476049124 0.50371927285231821 0.013684029628403038
-0.17346812440204551 0.07972029866552921 -0.35639864896826545
0.21159371008751593 0.43502154924223035 0.38423996399750049
0.066386501765884454 0.36706877394587334 0.47714692790697272
-0.17648914623437179 0.066797909648958598 0.55367520521882674
0.12039947122790923 0.26590474844358719 0.54173772027514622
-0.1735618886932403 0.23968897282765084 0.41545260310460319
0.0725500788629862 -0.20297199090345569 0.53188403741433121
-0.048544630273606726 0.32944614946667677 0.442281845433524
0.083038995197686927 0.021624312750490343 0.66112718427006267
0.088635138849034123 0.35204384654553778 0.47606533064561851
0.10655939433914133 0.146570237240808 0.55280907873592877
0.13148553647070491 0.25948932489237841 0.16296580885932732
0.16900519531026451 0.5486535842257223 0.20946129591309498
-0.045648620899858439 -0.24355282256518135 0.64282453017903607
0.18438177374953701 0.2988831521232303 0.1354410681564952
-0.34152994883501037 -0.027393461066042582 0.37344562442324447
0.054741444396835426 0.19118380166751292 0.5242104654688825
-0.11639536943170337 0.20312647115609175 0.49907297982662824
-0.49596989713909378 -0.42584730048309705 -0.10156319628327998
0.088796587188501502 0.073948895986720109 0.47577900010993301
-0.070517116268889124 0.24299036163017548 0.51706260410033367
-0.73491643236714488 -0.73493426085102465 -0.14388780824619918
0.18470918172334716 0.66620500044217801 -0.12830926139212268
-0.030844660482183317 -0.14323249667337118 0.65427180052936462
0.16107942884741683 0.19172988169515923 0.44153894121015014
-0.20577761123626903 0.10520901619768033 0.28925677636158487
0.013044372894804424 -0.017740860905787331 0.67682350221948528
-0.064839211515195005 0.32132433275691497 0.48760692748069928
0.16317416561330195 0.41786696405321 0.025308180659161905
0.034348687054015947 0.26682582074058375 0.52522714138695248
-0.52434125184872715 -0.55782054428883565 -0.018682638451473221
0.051171788401363438 0.30177333351402458 0.50561250490301424
-0.22939681092975689 0.032718265239370603 0.50756025020554763
-0.49820173984768762 -0.39026178257041116 -0.13325761932424329
-0.53666656329960505 -0.56290509819270451 -0.040677577216315264
-0.17077188600361159 0.071643943221368994 0.56377306844554143
-0.28159419124505763 0.044408873817476865 0.47193158691067422
0.12349808040332139 0.11711277117550409 0.50481636599712987
0.025753090842176862 0.63785421120822294 -0.39760080842742485
0.12099995304886832 -0.22676116484945988 0.69769295827939182
-0.059094494608640913 0.13092824458516084 0.56939055906627956
0.16782908937716171 0.27260770809225221 0.47120122223638489
-0.12124366287562949 -0.26567235646529774 0.24695623958848484
0.29707914332579921 0.39603232417049772 0.0089089648055977744
0.36920141867190126 0.63253906652934888 -0.11490150028511037
0.073224782189549309 -0.020910932874788374 0.66616843255791514
0.16006863152136119 0.38331630592922639 0.12714402223141191
0.084958194297494016 0.3454405432919378 0.4797104290042391
0.183423547266237 -0.29202671078491893 0.62678117523354615
0.084180477365919937 0.29331948186180623 0.52308741234150813
-0.18203468601480927 -0.15427172556205798 -0.15417100069319867
0.14250690177156283 0.5311759345224556 0.36027443423041772
-0.72611001885605309 -0.70871928033996612 -0.19695012759482483
0.145514041214865 -0.19856044149297758 0.69026415181608969
0.033357140115315431 0.016824673687364233 0.64304329059815202
-0.63823752648137622 -0.5088714987355617 -0.33404950094148805
0.15753549504742026 0.40145880096776343 0.035252229428114623
0.34352376133532336 0.7381319172120322 -0.15011808409237876
0.060867530228735589 0.04255121633803724 0.62621929221494277
0.45100945035939499 0.74927732537872971 -0.17825164872267829
0.35847087960560309 0.55902933598251003 -0.055641038205546167
0.28745008935365246 0.77333053084665448 -0.11625411502342881
0.15111206477752748 0.37595717823381769 0.07043797677611352
0.38492395317072275 0.8485876604483098 -0.17527955105912651
0.11348246757110392 0.50577081701442861 0.42166836351732118
0.03897511401740178 -0.14128549454079428 0.48811777923337279
0.21071300362822887 0.32614912289896736 0.39839977708218804
0.20042204029524666 0.36087404636732895 0.41291960277287404
0.1789627524080277 -0.2069322264707659 0.67625963350216312
0.20197147633181056 0.56064106922921109 0.067796694187404416
-0.17960200639565788 0.10781973346297591 0.46552110095068422
0.10243077465901204 0.38804524360751003 0.43520710352650388
-0.098999853153437456 0.011005508139277059 0.60346424243331531
0.28308467056312991 0.69814434603391362 -0.10221963899501291
-0.4825393695003804 -0.37574445240003818 -0.11425732790388871
0.097796975997023416 -0.0045620628292702137 0.53007619934929329
0.011530048997851483 0.0046835601803205118 0.64407547372430474
-0.54840857580786351 -0.38267115567753812 -0.29428236132341401
0.12259453883691862 0.22910797981114328 0.53664300392189823
0.099400870664615143 0.095471948604054307 0.45066661722868417
-0.14582155678600955 0.067625198618587207 0.60979512725347862
0.16187253064145882 -0.18341267868185995 0.70053348528740389
0.051720712667483904 0.41146376293299219 0.48105066575118172
0.15842226699770409 -0.25369452715891211 0.70971967271777336
0.30570457744833396 0.62572112172091798 -0.082119022104315431
0.2578252602475728 0.67027527014318977 -0.067094573396179524
0.3400925175318098 0.81070883792568194 -0.14708147849848163
-0.63599466187266351 -0.65032802899321263 -0.043818669385929376
0.21444023105667845 -0.2746667948925372 0.60374323170862365
-0.41402388279575408 -0.21408785453644405 -0.10928490197826035
0.036573501281091381 -0.28784321461504275 0.71075889824249971
-0.42259841522380132 -0.45330811423117301 0.12521640099185655
0.015137703154798898 0.32050038793713059 0.41454525823918176
0.1104249837066992 0.10051413763294118 0.53446688934240283
0.23350890165514826 -0.18709245013234771 0.6643698309170869
-0.35895470411402008 -0.26522114999944346 -0.29482515776093965
0.11556286830989609 -0.031519895666316883 0.63537414118741731
-0.51171579529790057 -0.57556731878686029 0.018589308831243767
0.078781439790662655 0.26558502767295977 0.53098435228397922
0.21444042128167157 0.42515982222094972 0.020806538350968573
-0.14115873593675166 0.30499394320728956 0.38419141500754372
0.15611637593177397 0.2155516224568117 0.49315057171347226
-0.51919996347910569 -0.52999415602773847 -0.056913141779487364
0.12899820088107303 -0.22176339590825539 0.72547080375218576
0.1966267158297125 0.42028786987894584 0.39747296735325882
-0.036715346132239202 0.11261640182792582 0.57793203491355993
-0.11431979569071471 0.3005996892914819 0.33526083171168491
-0.24946746716194163 0.080998970348400118 0.079075969970438142
0.12003181426170861 -0.20822417123956105 0.71354908978122689
0.37721211991570169 0.66446694062131462 -0.12843160130978631
-0.44723011784865563 -0.48301161723700853 0.12281922434119763
0.048017755679161556 0.42318605523802794 0.47121280439342411
0.14423529715272962 -0.18970822966637346 0.7072940762960267
-0.2193441405903282 -0.0045356351094399672 -0.35261608667900446
-0.30041743815865907 0.0070984583925513267 0.46665154576193518
0.042195215131188124 0.014926597536382799 0.64588362325167337
0.1338569692688209 0.23941830504811296 0.093285448100100754
0.070450173130136795 0.31119149937472446 0.49540881870169007
0.1461992491036144 0.37908903003569272 0.43588254049561348
0.17115533740449476 0.5268450178198395 0.34985053388817766
-0.13351819093507911 0.18430460749894273 0.49849524085405994
0.14143772799984472 0.2831051339645877 0.51968088890662367
0.0029411538589574349 0.55648506861316938 -0.3997318198401838
0.22088682407595436 0.5896113733640822 -0.02178072265734593
0.0055080177034118605 0.30191673384405865 0.40671060631553091
-0.052466484284048709 0.084179352858115369 0.59536721374254287
0.11153513104913534 -0.0731616958424674 0.66581832451875078
0.047868538084662626 0.022606055709909742 0.64063235469879598
0.10678499394576937 0.2315026468186597 0.55592807054783611
0.048497792721873156 0.017261844105151095 0.65533045658637812
0.18394917413103787 0.39087821946161971 0.20271757046877531
0.026529362299125225 -0.035055129221088735 0.67688465158989164
0.23714809106103166 0.32789343701152052 0.085270095789913236
0.28362333869484957 0.66036803150523837 -0.095154592945719152
0.036463566991217333 -0.31441712477426459 0.60019910478503036
0.36427726696902013 0.84440569141620014 -0.20873600042064644
0.064725115048658244 -0.22279178915171788 0.72508200157505964
0.0097923328907622564 -0.0085424852601628798 0.2340074442005563
0.085414668309036212 0.035153445269815981 0.55169313163228595
-0.21823842157397516 0.028261635939558931 0.51792694913401205
-0.76837878997981268 -0.71389982618306991 -0.3136138702593988
0.16543239800627046 -0.21659922129740156 0.67803072360097483
-0.41905009568578144 -0.26284354194072335 -0.2843133394191083
0.45404279423655375 0.82994639238018297 -0.19797345651153253
0.082976726577441096 0.0051227847661277637 0.66416046110728622
0.3294519706782999 0.65153319565766643 -0.10037301450225738
0.18788918502618071 0.34903740044898213 0.29444820413315487
0.11205826092541912 -0.16563083145021859 0.53129736546137463
0.2606085556457427 0.53619072054873973 -0.037777969013875645
0.1675693616386966 -0.28655120948383567 0.67620790224413774
0.057598205586190054 0.24203475366782251 0.53146883891796171
-0.20767537154268012 0.11153705691478601 0.31114518971907806
-0.31376086302283829 0.018494425387960707 0.43537229446440245
0.094506169872267287 0.28188784989497245 0.53936995907443408
0.19020964358303902 0.53467977668154376 0.29074184922771057
0.31913738676417025 0.67338821220191414 -0.10665218822927042
0.20423985297277611 0.59231694545818125 0.03862133594437106
-0.30357694601945917 -0.28787429138861559 0.33697051972710745
0.14751649057196389 0.40579832079347644 0.43305619595751577
0.085541524895638099 0.066237619193478564 0.48551540956920136
0.12949832039999268 -0.020545646339593493 0.58554738447663612
-0.61962122749843362 -0.53585803121552256 -0.27656569208538379
0.032024167379148871 0.0032656247208929651 0.67569452629603977
-0.0045277597592054408 0.12609164820163338 0.57043035527875297
0.019480442040058443 0.0024214268440493625 0.67144200533206067
-0.039001118813604796 0.11207047857950875 -0.10339152264699003
-0.24329773570182645 -0.20388085551351112 -0.21879451901585056
-0.48753147618674575 -0.4486947123497329 -0.072960160373778227
0.20830937612300623 0.76625834746033805 -0.1282842782711191
0.36151627435285755 0.7321462442817479 -0.15072453280257753
0.18775492003237454 -0.18479336260620957 0.68710698100217782
0.054249722874539441 0.19522868262388626 0.54627739823940635
0.1361566615327022 0.19278552289448522 0.37514726420907268
-0.15793477834744685 0.27208279545346642 0.38800859467029547
0.082912750659656087 0.0069310905323679839 0.51299015758977151
-0.14145543537228716 0.15706022961891508 0.5187386072130461
0.14527500958898729 0.2472564852869312 0.49835829690389821
0.038517285987765937 -0.31696528088545917 0.68779166626793309
0.062247666327230111 0.24805449851386055 0.52172351039821163
-0.29851851035965971 -0.37913831672522108 0.21145713763076679
-0.1182668337902652 0.09749229416719081 0.61460433305450457
-0.20650227833678503 0.16664135766783444 0.46389505987753865
-0.07153028277666601 -0.20815764067414511 0.30393757804394289
0.17627802659114383 0.45690042837756428 0.015028570915689654
0.14420627830500035 0.25030873735483716 0.50587933169638899
0.15510916329232299 0.32908049889023266 0.16904000458000601
-0.34049478974338931 -0.050777911074517623 -0.017989001029216412
0.13803214049499857 -0.20573904050809894 0.54540183101568229
-0.063923147487346232 0.078018389272957234 0.59885387721314076
0.20777635326218855 -0.21207010621410469 0.69666897743443834
0.18023711628792885 -0.20274284771422729 0.67685545446018491
-0.62753102563488961 -0.5774275705907731 -0.21853606271382586
0.062494132580342976 0.44322525544859009 0.34749279536286865
0.14878435090266118 0.39088877465943755 0.4199212103546654
-0.016991455523119203 0.10508245226757507 0.57899352990368902
0.16781248702120249 0.4343912662471201 0.023127209253196446
0.17314796699408272 0.34630265486000511 0.062394592416781858
-0.51230288428046822 -0.51925612478846883 -0.060034634749204452
-0.089597393834926542 0.024908011658091256 0.61276154955213236
0.095429560479590697 0.09980128740391897 0.57816158376541937
0.022238703988067654 0.014741923910266602 0.64291954003715102
0.15979610971244454 0.29309136066211672 0.4682671016123518
-0.60959240109157875 -0.50564482648163345 -0.29606165760335101
0.21467444673862768 -0.25154865600854781 0.67733898704993456
-0.16081598346611869 0.23118073258033553 0.12729422805715002
0.085535099871138442 0.46181433186960469 0.4526758361592999
0.16939165146226701 0.30795536090361775 0.11950917421418628
0.15025300995507473 0.34166973613881846 0.1406062158871309
-0.045112099749353596 -0.30240070348376463 0.60480306252583682
0.19512775860982284 0.60189217757319047 -0.074394052764949981
-0.027977885533902902 -0.12972078035464771 0.29944079818253649
-0.10145028089144348 0.18650323856802406 0.47717475766072903
0.19479079453281378 0.55171621816543204 0.018282533078408658
0.011125041000402902 0.29446121640563022 0.50890519487854213
-0.70139594047039433 -0.69437772275659992 -0.13883424990063731
-0.093356127978572234 -0.19096085355237363 0.50766731292764822
0.064702726085893503 0.27898966605280334 0.50587428097293352
0.0058253570258688936 -0.025716775954289312 0.65941271645768929
-0.54969504272856906 -0.52408888686011734 -0.12925029766130985
-0.6563940518703234 -0.61577197063187694 -0.22328397083085111
0.17645903744244618 0.31320712554974128 0.45158378747191669
0.038247942037267613 0.015267445225782342 0.63996942766768572
-0.035687148987319395 -0.06840528549051858 0.61685274721544003
-0.072306196288261404 -0.12154825394075476 0.55874003344246215
-0.05658264200527896 0.063099873663318207 0.60263055716101999
-0.10725374852874958 0.17320451847610122 0.52484999690512235
0.21981749787720956 -0.19525718123025404 0.68318256872278293
0.10677023590670298 0.37465991163300205 0.46366467129467787
-0.57365249578070643 -0.40176398344168163 -0.33102259839502857
0.04242933370341323 -0.030023137959130933 0.67835728719518495
-0.47614717168778764 -0.37738157103331132 -0.098534910111281515
-0.43548090673597228 -0.4148976823061129 0.051964218116365646
0.14469962769327643 0.28284293163795515 0.51618548231787265
-0.18593372155644816 0.00014515112999409843 0.57022693510512656
-0.6790100149807563 -0.68513630468023701 -0.13465275031936458
-0.29532303661758097 -0.4056078534448222 0.16958931749689543
0.20887730639522278 0.35201299120892787 0.40387151594709064
0.041095259320447219 -0.17696965059717654 0.71037340515556446
-0.79573614854103203 -0.64629401744826631 -0.44389955301849809
0.074918953947937128 0.21894952725490233 0.53905012499654925
0.15592935677161776 0.22712991016486375 0.37974535456809932
-0.46833957619903099 -0.49878238696649613 -0.086452248203253035
-0.50330965174748132 -0.47307429518409072 -0.097659720765906732
-0.45209633048644476 -0.38011580417781238 -0.020679909455386447
-0.061114692126369552 -0.22107362567969435 0.49091916935391294
-0.26164939735791487 0.041800262644827488 0.48432394278079527
0.02541046567420685 0.3050060563451884 0.52214147120209364
0.37705095326977855 0.76632753233805373 -0.163088044005198
0.16772787889803836 0.33956797270457717 0.4412304272513688
-0.1589179352488978 0.028758501242443425 0.60157705470322953
-0.042059231446434531 0.14241548795298586 0.56739541640414326
0.018744563122742863 0.28462295876382748 0.52892036692715516
-0.3187081109943401 -0.062294553232695671 0.46431936790018474
-0.062411030357407582 0.16151461506466303 0.53050153703714964
-0.1072084604791701 0.2239234084386986 0.49694555944745822
-0.10964340756699453 0.19930655092922372 0.50621687875212085
-0.15063164122191858 0.045159682200060433 0.61474410248386335
0.11943862846144518 0.82894897201956841 -0.31024112605378756
0.052752158306038299 0.10836781889682184 0.58706611048441049
-0.035971793288331722 -0.1110629491427737 0.63238886651004123
-0.60739186004995815 -0.5482441979006486 -0.22085501587326267
0.10276117235407217 0.30771615981904821 0.52638169153333725
0.014062234520547667 0.32671677619692835 0.38458204573927418
0.36605095420762973 0.84263461650973404 -0.16735902737385028
0.15548784933320708 -0.23386998164208789 0.69793179317657073
0.15599159256715756 -0.073413657826253198 0.64212591886065429
0.074510812975445095 0.24891500024641064 0.53257260241072779
-0.20557619797896609 -0.14463294882891203 -0.21334319879498853
0.019829084280134801 -0.31716287674891791 0.60276941396872974
0.057019295240441026 -0.13751251937623324 0.50097178982285495
-0.11810261944402206 -0.033988356192203112 0.57630517462410968
0.26531907459956239 0.4553538881814409 -0.014127457343216965
0.23671718094596786 -0.1980042382918954 0.6655319065739258
-0.068092449950002742 0.20112068884772025 0.53213237739345232
0.084250172236319587 0.29460224892314579 -0.013861515293114524
0.11460474261250603 0.20542786376835162 0.11923977688887893
0.055935244991559108 0.20840238644949455 0.54328798186921812
0.15257643291245479 -0.22496609207829249 0.55281652248474633
-0.43264663207618154 -0.2742165171703711 -0.2353930342759516
0.04349835738973562 0.16407003421175012 0.050960421597586625
0.23463520565670759 -0.2496169649018064 0.65987078137097566
0.068394816970018091 0.32554739265322641 0.49431020899987183
-0.48370053668473656 -0.48476326825626048 -0.035668903841644672
-0.078993416700297636 0.17922616556198334 0.51176192566769219
0.11925618327017914 0.18851122894093569 0.51466210878535823
0.45364607479243169 0.7799142910202852 -0.18862487264061661
-0.55050756770622433 -0.45603532418048853 -0.28163355269964774
-0.16175771970972419 -0.069768578236954815 0.5560262471061197
0.088340395953730527 -0.033853149029320351 0.64913595797314017
0.054730955681510596 0.031383063723197796 0.64440624532417567
-0.65924217145384822 -0.67542695988498902 -0.12973934243449875
0.29603402924662148 0.63911123356246136 -0.085485345872688079
0.15347953142138354 -0.2617082418410005 0.70689185351013928
0.15663657661717845 0.26040494993568608 0.46977447525026844
0.15768455240689394 -0.30235449279270321 0.64100619395284952
0.18624442123567572 0.51905621068125274 0.36066456019556548
-0.050867975749879557 -0.23867275068648944 0.53787056288805468
-0.078496855720044501 -0.11833579075917736 0.54578851329674638
0.025310784816224119 -0.037712240850190121 0.67320780329216756
-0.10225980443023042 -0.2205030945817047 0.4706418144858589
0.1706574331380821 0.36416329465124331 0.43124807359708534
0.21088472008819542 0.65886035759143946 0.027727424014762803
0.20092285584202668 0.28818110678492248 0.39947919870436038
-0.081213590380147693 0.12188080845641985 0.60522361072022668
-0.06984471915223428 0.022254650445935067 0.5673929480741513
-0.22081345724091972 -0.17928137565841173 0.47376081435198558
-0.53237912863986314 -0.56014849819812951 0.0090582369061046331
0.15241447953948442 0.49419681647717018 0.40666984257341487
0.083452086808798898 0.35042512066748988 0.48002867699794377
-0.24113082646240008 0.1039711346777336 0.36114488013964291
0.29857862481243325 0.42014531811571038 -0.027097342350852149
0.086455551395461655 0.029865287835532828 0.65475352351093519
-0.00077180595537634789 -0.12089738544230097 0.67501126865293493
0.013317796452713582 -0.0036076069621804457 0.67073206083180237
0.21437791918472687 0.56495126175152077 -0.069566486742667799
0.034688345125216236 0.14978328538927876 0.56090696997871725
0.1029026626853313 -0.14307512069519232 0.70262478739095768
0.25373822840016674 0.60657454101098729 -0.063384571530192224
-0.00072002374346852305 -0.22349112068554502 0.69738077709576074
0.18065193149961511 0.41625438832595107 0.40557154714294663
0.17970532355609062 0.43035869014921424 0.13690509788982386
0.36523693696615678 0.86506251564293635 -0.2067128181127672
-0.098501746309940574 -0.18777094694188576 0.50026186641711612
0.014064224873887532 0.007297489199481158 0.65778289992828221
0.15601212234591325 0.31713781861063228 0.18689797443320799
-0.13733269606563037 -0.047189094640558468 0.5734009309959871
0.10386426669299739 0.24067726538367856 0.55519750095647757
-0.15265574604458743 0.12600794372774882 0.52027564784136016
0.0088835413432772348 -0.19783364617578841 0.50467411697106201
-0.034543114616547854 -0.30277568987370429 0.64293080129198332
-0.15293351992947174 0.092777235337132169 0.58511549771728832
-0.039384131604620509 0.48328300761075765 -0.41992271502323897
-0.77559132920833496 -0.62753024941916258 -0.41154830220888544
-0.11621155764449353 0.18917365290775007 0.42955730016036348
-0.079253883719180351 -0.10158795737846926 0.54605856240854656
0.076413042108158136 -0.094677647446938989 0.5006940001519784
-0.11391118358737351 0.25951091553175165 0.48857832585954686
0.26977860156268424 0.55625144870570309 -0.047993287719621025
-0.63047302071278388 -0.44930864391273223 -0.38691227906017567
0.12491489253708288 -0.22679893041335136 0.70141974699861576
0.17071775105811471 0.34408635423871275 0.068595719175768177
-0.14089570181815547 -0.05892358835841556 0.56237354908847248
-0.025079329792352278 0.28209114727319745 0.38734959806481034
0.16120824725077698 0.41524114272551149 0.030085561264451277
0.069051241847409461 -0.051613251247341535 0.66125931601237986
0.24468934674009651 0.48344785211946173 -0.012480486760568121
0.15464317450752268 0.30528605262516406 0.11133420415979667
0.18090335225090298 0.33286895651748771 0.081064482070156707
0.17679641927736589 -0.22579710897328895 0.68966170732612908
0.26003999388447929 0.71975887362505453 -0.13005855669888755
0.20824556561495219 0.61323325119484773 0.083696855628294431
-0.038854819969440346 -0.28360496947371278 0.57485846435491017
0.20808153679273872 0.79561274070179389 -0.14988750381782973
0.20178489021358986 -0.18760205068734703 0.69434557204674596
-0.28661932576713517 0.038861205671727281 0.35754947912371271
-0.18973407897154648 0.10305561479857769 0.42247373102256119
-0.2318955623355744 0.087115721224894513 0.48759919307417732
0.076161641334273 0.043243449384646249 0.61693807239855891
-0.30065331684118318 -0.12499042802496847 0.49284268954493021
0.08049841707867661 0.023561539599905951 0.52354540853669718
-0.0022894540498293314 0.27078231851622614 0.51594914700748573
-0.017660046034668642 0.27712664477263799 0.48007126728510252
0.18965433766285014 -0.22469314387921829 0.70101856198490575
-0.058987825977916131 -0.1165490378150093 0.59126688869234445
0.16835821112647537 -0.29652491828154459 0.65213800733767568
0.24698956397850561 0.39308123967510378 0.04824143126953484
-0.25154888952657412 -0.11003281596535359 0.54330197147790438
0.10819504856744117 -0.0075692708167819645 0.61733925957270297
-0.76721901870874754 -0.71432854131273715 -0.31578677717652875
0.11876853796853248 -0.1386943947627306 0.53085323011018359
0.13939767247323367 0.29354065971005494 0.13010052703962105
-0.25394979840582055 0.03204455794072112 0.23468762618533051
-0.32202899454842321 -0.39039034124489141 -0.12560873990754096
-0.47563517350504392 -0.36390234354907691 -0.19296231002854403
0.14573615840181794 0.59270674298201775 0.15518062198541593
0.31689967619329773 0.72909380609447039 -0.13688155485959713
-0.14229856423223064 0.18605135206012705 0.33615935286563331
-0.70889273237910833 -0.70225952270176595 -0.12726660620794306
0.37742366172693242 0.76152891716933269 -0.16524271929207091
-0.17694980105271702 0.15004081092822313 0.32231458411453662
0.41851056452207225 0.72137243890285929 -0.12829464224735454
-0.01811022013660657 0.090343531621761924 0.58663506429715229
-0.19439459800404452 0.096736036784437304 0.50281923469084466
0.064047705436291069 0.28908678369778373 0.50757121473505251
0.2318412049353227 0.52946643511395353 0.32208630372757691
0.0063101253067106566 -0.14001316053215893 0.43868242080478681
0.074372356078152568 -0.20285453194216085 0.72385041061781963
0.085460515838988671 0.54033463831995132 0.34042695862906786
0.1343673009922953 -0.18487320906658442 0.7161289239080979
0.02497948315803411 0.0088740264322390017 0.66801005280027914
0.085710010362285594 0.029173210914710646 0.62166232914041064
-0.10236442147476826 0.15139980361746427 0.57535357061804704
-0.46097350554784128 -0.46225789854364846 -0.14494384636450763
-0.52093558051040456 -0.47919215950046157 -0.12579474527110918
0.087766085184177167 0.38173675661654471 0.46241543827714626
0.019857169673737851 -0.012948350086492047 0.6821142762089355
-0.15185950053925851 -0.070447032924074032 0.59828431495214573
0.1491242228674744 0.82592311677970087 -0.28838499554781793
0.23240041341225848 0.39860428203542375 0.030055742561014454
-0.66312743282156039 -0.67409371286232156 -0.2186736105355957
0.015926994929846228 0.031730304401964643 0.18477391062140019
0.14549327626390335 -0.24711085095698224 0.71786423967735158
0.30765436967983212 0.80206877964044176 -0.13547047585463057
0.10889186067563678 0.43475717432857897 -0.094582548172114644
0.077725212581137404 0.047590102940041068 0.61556593517052982
0.13075906342914367 0.43539737244550797 0.43135656697549796
0.38467167535829161 0.88321316034923592 -0.19860583003524296
-0.04257147097003311 -0.3033581482376152 0.62229439009845133
0.12363786837739982 0.14035374189688787 0.53581522373216639
-0.062268648218968936 0.27557142963541753 0.51712650120456194
-0.39888888376818449 -0.33855209395620844 -0.25680698110207911
0.16055556908050805 0.30448339237206945 0.11637776950256934
-0.089771708703479558 0.071584944331022721 0.62490842168443284
0.16527442187246072 0.42991373950900946 0.036111845984739099
0.06251846347835166 0.026257189056831359 0.65845311480516611
0.13216655895359022 0.26682200863383582 0.53369180727015242
0.12596563937748734 -0.21209495492253772 0.71860492117047681
-0.062790345068194975 0.19493254151195905 0.53763677922797282
0.19908959970484574 0.71869356190865319 -0.12592791980736512
-0.061246671428940302 -0.22424070248789682 0.50789465796354349
0.22579570224099846 0.57978283758985505 -0.038444355878795911
0.028456115975605434 0.37593050606646267 0.41031255097157832
0.12318655101138082 0.23232487448296404 0.53987394673866285
0.1548155051645862 0.26158102732220057 0.47966419335223337
-0.72720229306175055 -0.70657028881736328 -0.17950325978415216
-0.010743017285547218 0.31916486906216102 0.36008942970457058
-0.24188017513010951 0.1138388205190987 0.38015451574034953
0.16667727553397621 0.19621261047378313 0.46016297996056377
0.11542235785679894 0.11193288662838036 0.47270242118345307
-0.34135767750424362 -0.078277997886881334 0.31665161159142918
0.052822051667196002 0.01519388384011644 0.66483197144232808
0.24961920962963191 0.6417063196681384 -0.06198437389517808
0.075404705930183724 0.040814011025392005 0.50082104169417208
0.20521245389997145 0.51693104656243161 0.19696705823724159
0.082446084381845031 0.35327644517590628 0.47948990078882048
0.16637743943327038 0.31426809608957218 0.10442050656036472
0.04127333400601918 0.014733690109095504 0.63862450202428378
0.19372863696684722 -0.26423503578437879 0.57809139742824001
-0.68750083300936593 -0.5588095163154968 -0.37273114904208299
-0.18713514636396372 0.071897788508027735 0.51685059581989257
0.30013325630002757 0.7385689701095195 -0.16036212536554462
-0.40114173173960677 -0.46636723735035479 0.098263997824209026
-0.60818548347384183 -0.43438348224703927 -0.39068416252495386
0.1657198107368015 0.38798638984207429 0.42369267037130548
0.19468412207234223 0.63078565099241013 0.11305590435570295
-0.47416795044216853 -0.39988018097577166 -0.073912738163676994
0.1403105850381095 -0.081315665502790735 0.65972549893281207
-0.37102089153963819 -0.4240648494772925 -0.13925645530631536
-0.11202445650443488 0.053461461402382879 0.63260101572662175
0.20245898829665399 0.39315293392078676 0.037214437062800143
0.10261631312904443 0.44915573180531548 0.44530612735155778
-0.5864739780794439 -0.55774950385423583 -0.15869017816008357
0.072580080286357762 -0.014236699411442455 0.66964790796530382
0.10449423486436793 0.53836682309403916 0.32369626959196879
0.26791662567689084 0.42398595990208743 0.015705140345438684
-0.30867029103981269 -0.04309790254789804 0.26262166620204203
0.10644504027458351 0.32680382103120453 0.51434467136532869
0.031180226889043372 -0.33051255558808623 0.66131017212066134
-0.037499616050883255 0.28344296301388344 0.43138440067789835
0.1190096781362269 -0.16701311511281183 0.71139224191119665
0.16959406607930513 -0.14707546640202046 0.68955765137375935
-0.11967997971087491 0.012373060686556019 0.60767147731068105
-0.3269602584102283 -0.0028547993314831238 0.37336845397443452
0.15760298845582546 0.27568717175738328 0.48032988799446807
0.14477675534641632 0.32691920444874978 0.49293521697063369
0.14228253107091413 0.23142706409883218 0.51030641581127534
0.047296771572853225 0.29348217509638763 0.46322832244190032
0.14679733499667261 0.53498762674893141 0.2258680205146914
0.17189642244011025 0.34605592836077348 0.39244002875250406
0.053399675256517842 0.47831385743760862 0.36869641947088755
-0.38632751635353912 -0.37129039151198284 0.21097100605936969
0.040094123538494342 0.011563325113959799 0.66831398651985741
-0.68286766122387932 -0.52486140377850865 -0.38808842657502168
0.11700676035549923 -0.22470008928775476 0.69573490644432501
0.17753394668437175 0.25578869663127601 0.10090298639429984
0.39939783518208927 0.84148754881305776 -0.17548271035422675
-0.031529934183944397 -0.19650051215402708 0.46382994780814546
0.31418480414235916 0.62249424928507158 -0.08445256247037547
-0.0019682798766741394 0.45583985544598893 0.17931165322219805
0.13084949200601981 -0.1304737448175331 0.69095572697070873
-0.31693348881110583 -0.15789256485282474 0.4617682736234166
0.073720590433810407 -0.076228822510475913 0.67364238234611984
0.095366314472758784 0.68109555969754765 -0.30902995624791485
-0.13100508036207725 0.0043105720320371008 0.60546807150582804
-0.70678723715364811 -0.7046052222391368 -0.20128741220654373
0.23396039326172235 -0.23367985404657238 0.59350586284322904
0.42793189444683 0.85058214027612089 -0.18620052043636404
0.37131594835760107 0.56091838980492859 -0.10358520421803169
0.020239114211074161 -0.3345161015855771 0.64757415331931079
0.065418922374363531 0.2893578510869288 0.50464095070555959
-0.4788851136457965 -0.3956718395654733 -0.088181227304641563
-0.62644608835931337 -0.45766809240086148 -0.3546805417186964
0.44493195768061938 0.79387852113130153 -0.20462962688297576
-0.02089875256436996 -0.24767832103825285 0.5390906290276728
-0.1009366275557716 0.31475915170746505 0.47654098637612718
0.10618302829462403 0.38990344627425177 0.45709923232398231
0.065948220897553589 0.22629739341494243 0.52647019337857537
0.27109657471586873 0.51139796756797662 -0.035009544602524645
0.18533944169613281 0.4803363472015465 0.0065373492314009241
-0.49327314243880138 -0.45740093950195532 -0.082472512764659556
0.089647699904679912 -0.00064143918852321846 0.63770833911309399
-0.49744008369624443 -0.49878690609150594 -0.062352622994739315
0.12556075462420885 -0.19603827153491477 0.70887992024412994
-0.11811492752626024 0.14793410039244773 0.5634085576184571
-0.19473365775193818 -0.013772339500234029 0.55909638588436994
-0.7341987251271026 -0.72189058854538946 -0.23004620431324918
0.014896262808490213 0.31739461985211931 0.48665828463547078
0.11773647034261292 -0.19216514799664672 0.72189077436005611
0.1075336834808602 -0.30540739914763804 0.68023166655768208
0.062013333183914221 0.18706483042371558 0.060557485764231311
0.011253573200733114 0.26536853925537518 0.53558072609005025
-0.082258994569072319 0.29227231742508403 0.4989042843070372
-0.12257729953194457 0.033196341094300696 0.62009320950153723
0.16875829396047015 -0.21900419405519611 0.55581970483986876
-0.2243269630611201 0.045102502686274894 0.5045330145470206
0.30233091565603626 0.706608365527988 -0.12364168264658054
0.044324130337312084 -0.29269972317044246 0.70985251817287986
0.17756763121289579 0.45678913570944668 0.010864477383090376
0.028026972681379936 -0.032134869395611707 0.67981578926969588
0.12286729076183156 -0.24083145685012886 0.72499068554045953
0.10670809695662903 0.21348440708213209 0.54280503131023927
0.016067855636807071 -0.015569043306088715 0.68005574634913191
0.20904372804009297 -0.21797135360350334 0.57592066952502874
-0.068326010439133278 -0.081021378004620448 0.57823890954670432
0.078837638280233158 -0.28654030438532041 0.57267360672537171
0.059213425031733324 0.43711458683068655 0.47001299873661573
0.231115377237786 0.45358959244282598 0.34930650231988419
0.23454396677034395 0.5112676418869665 -0.020683250621521432
-0.060921905412577859 0.12110287163723293 0.56994222274494621
0.078296692061902096 0.17729041751174129 0.10691055850964387
-0.25966740455000353 -0.12675998721772902 0.53332797300269918
-0.49818533334501119 -0.52657320291850451 0.094273011533169582
-0.01014687406813003 0.27867086662423901 0.41245030836156954
0.23028298153305055 0.37773770386855848 0.060604912196766447
0.14233476619821525 0.53403673192817758 0.34287485838431803
0.0072165575140217819 -0.014944971601827006 0.66335115399641453
-0.01897165249565641 0.23074688577323446 0.54625877662758504
-0.13496373585637056 0.062225638477705465 0.62096569613346286
-0.074783535552509606 0.035949395953969711 0.60984813590666687
-0.31329725951826692 -0.44148065692739774 0.062266654776589214
0.21245286533865787 0.76567452629672061 -0.081649779400200351
-0.53280724574138316 -0.42600222830686207 -0.18026471423174034
0.21588467570989339 -0.18525377435877857 0.68213461360827876
0.21523158033993689 -0.25865238397980217 0.67074494012073826
-0.48273070417341918 -0.41450422875183035 -0.19553853985330816
-0.68471244029963851 -0.65002175563762377 -0.31404621961646595
0.089908175474391727 0.78980042651803273 -0.33231752644230306
0.23466080167396317 0.47385090118785617 0.30976893968883218
0.042197917519723127 0.39116080916217361 0.37389262802580209
0.28877548597368458 0.45313223156555055 -0.0071973487372341549
-0.32440576471429011 -0.18614890162458567 0.40394738930585822
0.12173581748815343 0.33976460153417343 0.50208260310590114
-0.79828395492734994 -0.7330604919904955 -0.27171908482945539
-0.22752548481681356 -0.04411644481621653 0.55194609967335573
0.031694299207007559 0.3278293408335114 0.51424649917709186
-0.066164033145700352 0.059181510685418985 0.58940998828486435
0.20281390737349037 0.44459005131918783 0.23124706971519088
0.21431719396614465 -0.19999909584544331 0.69033070490616766
0.32299463660424771 0.8041655817679948 -0.13678544069083842
0.15858966198582919 0.45208104742581656 0.41651830846301757
0.20323755184308223 -0.26320298180560059 0.67684670955073134
0.17634059323911255 -0.19527684048834951 0.67437475582621598
0.20378672320480415 0.53645182947210257 0.16918625213858396
-0.25290456341924988 -0.37250371574353319 0.2341340589416378
-0.45488394085344241 -0.51031753460382068 0.12127548214773565
0.045970906721143123 0.31998023363691608 0.50558121096795228
0.094402769716322221 0.38160161041691837 0.46194319484110241
0.19988775232247691 0.82978072531625324 -0.13917545326703784
-0.26603486937405313 -0.0027027247614756292 0.49498022929156305
-0.23907713129705443 0.092217773573894102 0.48507415340024795
0.14951905118052519 0.29603566780527479 0.49510658603319746
-0.62644061670989859 -0.53460482082152083 -0.30125648184139775
-0.16425782453247995 0.059072734156281344 0.59274949828261281
0.059815830237556766 0.3184260564200217 0.46321664249641559
-0.76056568744197905 -0.71999303595796671 -0.21543294317783956
0.12389996729506594 0.30874379863742518 0.52024852357112283
0.1883312390550923 -0.18052841535735575 0.56746984772083098
-0.22068056366702693 -0.0092620553236933238 0.54520978319252855
0.17641450163518049 -0.08322190437317506 0.59338392906764037
-0.27816915717231722 0.0099442732171087234 0.29151798245390831
0.068441826928745564 0.007700856624615407 0.66999031408849863
0.12975402045359727 0.24456691018310611 0.54115606475689182
-0.32096993296028659 -0.40772185635995284 0.15692449586694157
-0.40734291127830413 -0.40930347899947533 0.15393263887255704
-0.070607925312332731 0.16799352583064428 0.54651958006298584
-0.28010423832385439 0.066012940423026856 0.44210257129360941
0.14291227345662993 -0.30068758405317075 0.60935072769110776
0.044944497286175833 0.11223445632072948 0.13756882801513592
-0.56768408374285229 -0.51001836561470137 -0.18752417654030373
0.072499536128304232 0.37739619896437193 0.40771285782852007
-0.20223171599720163 0.10132933311678696 0.49127182945589121
0.14837710067235119 -0.045067132334933202 0.58012372461650652
0.21349387955246443 0.37975658560638631 0.39156867327790545
0.33537918564181457 0.72379739273218935 -0.13994425387935261
0.09844103670353091 -0.02273967473492558 0.52085979721945785
0.1202134148168425 -0.19811044199399785 0.72256844155641309
0.12767289083137537 -0.11046630830347429 0.68164989465947168
-0.44335558405573466 -0.30373849746434844 -0.087399474897592033
-0.50933539644567882 -0.46001125095875939 -0.11386077292797364
-0.17983989641246523 -0.17391433942789197 0.47466812185586099
-0.2469938619562364 0.13545822195096774 -0.051426655487489537
-0.11708497207242613 0.19328467801399291 0.50446363500196423
0.16344960393572683 0.32527195161972955 0.44768904636727574
0.014535713419043972 -0.32797594122150436 0.61856985404139597
0.18744472695307443 0.63914989286179336 0.1063579432562447
-0.62953680995701855 -0.48022610940291754 -0.33675437093003163
0.11587513482519454 0.3210862452202406 0.012179454100503417
0.079147839370711348 0.052247831649181065 0.48508458992692188
-0.20514364283036601 0.026048703856478145 0.52046962542934783
-0.21321812769869092 -0.029096549326470923 0.56135907563091436
0.16858397282603227 0.33452560989482355 0.072716805872279466
0.065758387729030088 -0.069616501962310395 0.48568330559215611
0.33402142054939532 0.74518477637509195 -0.14942239138212454
0.0020658143367132675 -0.0099046125723878109 0.64856754651688964
0.065727175615781397 -0.044303404488949233 0.65905033181699513
0.19687626673404668 -0.21594772595079084 0.69819423585423557
-0.020666978142192038 0.075982735454731706 0.59657057747450049
0.064611730654240529 0.43581173758308156 0.29840432798716271
-0.74533358347900891 -0.64569912627053583 -0.36422873720754273
-0.19938380520807097 -0.087027463613961298 0.57865264936046168
-0.65601699082732368 -0.63694579290255082 -0.19379268879164341
0.17694742271302064 0.40847611843632076 0.41098849992684727
-0.034888989372463264 -0.12032397947754991 0.6387740454696047
-0.088302087528391693 0.06616069669832926 0.61718171293143953
0.076369413151223642 -0.29630499975634228 0.70502142306876203
-0.42989955061929419 -0.27761963516519411 -0.26024507664473029
0.014334550678731683 0.28911893086882323 0.52154237995760089
-0.53629694212156864 -0.55932899465113239 0.026592843539380462
0.020131153071080987 -0.090094483605217046 0.67511160944677218
-0.64785571226547956 -0.55580816396571908 -0.31879181343417912
-0.12100934962712789 -0.12601055576879513 -0.036303052443140693
0.052585906100169444 -0.31155815034406986 0.59737183084095224
0.16740622751499037 0.359078056308405 0.40828581417653026
0.11890648278204533 -0.20291646514942238 0.71272552334018102
0.059935051500435099 0.28838576652537229 0.51132373052093882
-0.16697898233441127 0.066125614484664474 0.5820992548679973
0.13012763900273669 0.2421436440440447 0.53959932254288179
-0.1850769360042262 -0.020148006266116108 0.57125425425025134
-0.3353123079845709 -0.044605125688760322 0.33467831536653841
0.20684825701535403 0.47649616490616747 0.22452143137686531
-0.35458236796209669 -0.45359470209676378 -0.04528177930352606
0.099761673812510193 0.40873457782098682 0.4020756273332845
-0.039817179590550755 -0.20053571342008478 0.44961684288887271
-0.40654042819031233 -0.20133668986867634 -0.033517042463783953
-0.04641107994577931 0.17479464218825591 0.55197510727847399
-0.047417641298728941 -0.28578107271663822 0.58329761978842887
0.20293516901359443 0.68924307646124494 -0.069121577054059247
0.023715401760958543 0.13416131047249574 0.04202191367858954
0.3484164567505913 0.71380731979490264 -0.13676496690662471
0.17330220367670771 -0.19242734529649158 0.67473545742676999
0.098688345848081088 -0.27526320240012492 0.71645090475156603
0.11409382953046626 0.21141638886358233 0.18567757496691384
0.032894172632939533 -0.036136704477688075 0.67543681952001133
0.077232039805864683 0.064670463782046272 0.3991766230086366
0.13338866712623834 0.76837107259335713 -0.29118672774130316
0.12710804084310429 0.2573561948694536 0.54059832605769298
0.063523855931463091 0.75312220940341335 -0.26426397619225822
0.17056300156390283 0.34076404785325143 0.4415730451236709
-0.20514543099736171 0.048165639401296548 0.50911664884833741
-0.029527623637371325 0.50378419658353046 0.030427864624399781
0.17659851441081847 0.39474111964967801 0.41775868360731161
0.074545245092218382 0.034610445007348056 0.49263134102966472
0.081774363018567442 0.035681342381588932 0.62227272337229245
0.38928988966937383 0.72909156707574918 -0.15388645382035943
-0.57306114014389009 -0.45282454550475021 -0.25059617198968859
0.0036636423266591667 -0.16340899292356886 0.46723349166207673
0.23927916210293729 -0.18277862664237299 0.65322774306129872
0.04983465274264387 -0.19900962981310399 0.52336250553242192
-0.24620661505238706 -0.007444021587113013 0.51553250625478819
-0.67796306148103103 -0.55588232848765973 -0.43485195217448058
0.092325394907396385 -0.19855974076703137 0.72425060656923534
-0.23913205607089899 0.0077277725951806799 0.51381364815802411
-0.47438027315788139 -0.44197716177801999 -0.17193074405683628
0.13400199488653369 -0.22906269241307414 0.70463676639526385
-0.25204628476772267 0.040235322416813948 0.4865662790043731
-0.75242705179623104 -0.66072020732181758 -0.3740504811135732
0.1359127508050301 -0.18692346141093455 0.71524820662507826
-0.4206598102343162 -0.43051768502980037 0.11465242810553539
0.15870814731870941 0.54355111874903095 0.21557309987599443
0.029856466090787626 0.45132427470483427 0.2388515281141893
0.35055598693621659 0.76110000402391664 -0.15802652016498059
0.12657945474177329 -0.019384477002638623 0.56910202760288464
-0.075555234230962665 0.12212827486540165 0.58850972677251012
0.15634707618620486 0.28215374490532547 0.47822437271276036
0.10791385418456673 0.31747739880672549 0.52025491850241523
0.28239584280103036 0.63034576211209647 -0.079860641022966028
0.1068860626995769 0.380926970008996 0.46299841057735652
-0.41407217614693959 -0.43834601066080631 0.13566123070138797
-0.014069005135051937 -0.27946665709536805 0.56532026683407799
-0.098460567943157884 -0.029841099530104165 0.61868560701128428
0.15859905625917273 -0.19663529317080908 0.6807117276371375
-0.09877497061368995 -0.1199741496375978 0.52932688006441553
-0.20062620698268252 -0.048444378554171913 0.54725594751312756
-0.67235613241075143 -0.67663081777743483 -0.10887276409534036
-0.13186838837585529 -0.24713633838486573 0.1385588101095146
-0.64213089787284405 -0.5578163948978313 -0.29353592637850651
0.16828001835923762 -0.2223086814860821 0.68083164986066314
0.081244154464723606 0.30882445129738234 0.50460993209804328
-0.070900952530451755 0.12033486421347137 -0.18705059094185184
0.13639273856956163 0.21390974236165666 0.51840498080372255
-0.015598849578041751 -0.05611237900999401 0.64320094293237995
-0.52691647919952023 -0.58471250259416752 0.063703168982325142
0.02029476980999162 -0.00065011487553573444 0.67488818496504566
-0.13182187603698403 0.15421598254463234 0.52046945828993585
-0.242116358730951 0.026743805270084471 0.4964816244799185
0.16692080561499262 0.34119366710362442 0.075942962920471868
-0.11400044146854493 -0.11209990700421543 0.54726579062420411
-0.42643982476420589 -0.25548087817934173 -0.063008236484062563
-0.46496096513867641 -0.34099530055525934 -0.12405847258552127
-0.076756014374277759 0.16941161417682743 0.5404369334096778
0.066744954489781294 0.21745306256230684 0.53407374180543332
0.19507704839972279 0.46976373833764085 0.00067051006168833416
0.23071995277259605 0.51954023550871464 0.3369912631219148
-0.23788821315374387 -0.052796084136787783 0.54582957161321422
-0.7160563734211165 -0.71074437386418021 -0.12748127959810807
-0.13395155776829692 0.21369388008438514 0.4898737191162601
0.14327840933605224 0.32414565818334584 0.4972494692372092
-0.039954294700491499 -0.25920470095703907 0.6495628125029913
0.090497014529425879 0.024109568041148263 0.6325347619688626
-0.19253718701199118 0.077062916212770893 0.51265948642044346
0.13440657883282658 0.35690756787887312 0.47260931999553274
-0.55181319956386521 -0.60429729078081051 -0.049582183297587346
0.14585785111346916 0.33025464374533475 0.48480510178173725
-0.11778230974938436 0.0063030406401621275 0.61495490781345674
0.13799878201451141 0.23736342454670575 0.50403082034606483
-0.18590206583938129 0.096010247387507699 0.51739611456241275
-0.43558387335834942 -0.389291084358943 0.046457228250592064
0.12010586162658513 0.160450444867239 0.53760269417883944
0.16805407243279566 0.38157797583233233 0.42513526634449489
-0.50405319941511406 -0.3673974184404063 -0.1721607892952135
0.16083335404202354 0.30984484361067133 0.45673729257974371
0.11511217138344465 0.22789447547690225 0.089564553880630615
0.16749268795301647 0.53041909933670539 0.31772113897049276
-0.05691096637832771 -0.21178750688632425 0.62616802016478501
-0.30314922182356557 0.03746168416509834 -0.35255620545714939
-0.83011529167892029 -0.73597354820065053 -0.42568059828009475
0.36597497288291375 0.78730570309925318 -0.15893444243373783
0.09245496809728862 0.020644580148467567 0.65558488895860445
-0.20846935845240783 -0.062569638813554401 0.5337836110249039
0.051303616819193376 -0.0029950920937616837 0.67774432952792796
-0.74710839562412779 -0.72443530767478326 -0.17416356095622926
0.13785687669105784 -0.28861978251121284 0.5900569608889924
-0.20116560176662857 -0.0024848259612501658 0.54792893880385951
0.12336665803869007 -0.089617563073893097 0.67163741698445367
