# XYZ point cloud file
0.46405386422460637 1.2255177837535882 -0.52855293842233975
0.52085729481654042 1.0510939004652196 -0.42440494343406954
0.12816915589148792 1.0825891722204695 -0.26941347300466534
0.29926124879221661 0.72316546394695536 -0.2232179798389895
0.24421979863741328 1.2196992657061649 -0.3812483022761195
-0.31153025828427516 0.62153883224084616 0.78658938636886733
0.50919392337393887 -0.11744856416837735 0.32377990666921397
0.25168581287981695 0.63984554385990489 0.54621650519474596
0.15042683778011323 0.6562849679979621 0.62433450704305093
0.75014103676526389 -0.33708934528080992 0.66102012371353669
0.14076740451287151 0.86571459439875742 -0.024181765353594287
-0.58774835605970921 -0.19734109215660212 0.6656551962792312
-0.19254870143711145 0.50199573944735931 0.72168186685094304
-0.2128851503110063 -0.24429010008107621 0.71613985931768998
0.2206264361043786 1.048139465412552 -0.3415522264900388
-0.7291749362993265 -0.56703219762221302 -0.22376350204608464
0.40244532241402453 0.059453956508543904 0.52527684546501252
0.086031384528297394 -0.13393092364955006 0.75727263148923507
-0.92131667687907992 -0.55854078449796418 -0.32706957850627871
0.061875691541580125 0.36338189250126263 0.76387527081595263
0.30536238682427808 0.23679836918989139 0.4471260907348924
-0.41215867740541512 -0.24615141694122755 0.78782814726519934
0.67529097601314447 -0.34751938291143736 0.71780667643644325
-0.3811202693987461 0.42192407813840926 0.82378957591580937
0.75014204508524429 -0.49834600510892635 0.67750548303204905
0.35587547120755758 1.0395535822308677 -0.39816681091321193
0.19042253917255181 1.0052332469149441 -0.27289988031218915
0.20078347857240075 1.1584016193950779 -0.33625229691725611
-0.51610868397222376 -0.9293382443155167 -0.31543526862855309
0.93508515234433176 -0.28678372256724938 0.49097367600731667
-0.82522585657394032 -0.4154811405919272 -0.11178628593254025
0.6003151669756015 -0.67986796252087744 0.60871532792075111
-0.32039406788754832 -0.65840975187118111 -0.15751872060065031
-0.36695616604510306 0.28413362867565439 0.66800290773431081
0.2484094748327017 0.19586768662949172 0.63788834929242411
0.82189903505120654 -0.22648489650756742 0.67028538165936125
-0.57561322409353011 -0.18362363780659763 -0.59647631934879652
0.40613584586917639 -0.056235294477852804 0.71639654555147625
-0.35384292020840391 -0.75883103275196895 -0.31668148219974945
-0.11583126338575411 0.32978660806430771 0.78765914575297469
0.40131754809027242 0.83634624571659799 -0.32945208643122204
-0.75290620684098641 0.040355908301613397 0.71300216003250094
0.20810695041401317 0.41446001230141061 0.6594399327814422
-0.51053139842698769 -0.7040035222064418 -0.31944560000041955
0.65562380727117997 -0.49044346674968464 0.71804253881558688
0.056164957044586572 0.70887769891661456 0.65315606136960536
-0.21792978514234917 -0.034395468017504705 0.75455388861216921
-0.70628150116385768 0.077514754186150725 0.63518210694924493
-0.81147731946305512 -0.15823815790863804 0.23932187681771167
0.63003245227131899 -0.45505839325926933 0.70619526619708983
0.44104280605526469 1.1237648919981336 -0.48678766079468483
-0.32400727448561994 -0.70786593352670124 -0.16662365878963392
-0.40516087586503602 0.4250967369886931 0.81902024132898998
0.64967726746426635 -0.38676756494556219 0.7188047268340414
-0.48610791048679758 0.16211642846539398 -0.70205458656149666
-0.68220785597303291 -0.42410862698702978 0.64171466201112271
0.1459720134676985 -0.081858704796209381 0.77066493971518879
0.43803712419207841 0.63202350126182338 -0.29443891470808348
-0.19704007594127759 0.36571490868754264 0.76704218218115372
-0.046891018672361895 0.57797182760314403 0.70343172194441639
-0.14702307747138121 0.75090254931639056 0.66684193733269348
-0.57474571733710178 -0.079480457536864613 0.74597142731027288
0.038582773397269676 0.45994471661011183 0.77773636990735828
-0.51671696522691235 0.6191554701236921 -0.56045419410798525
0.20081492382904287 0.92218473321509808 -0.23954914328398313
-0.36911292338339408 0.25442822610425964 0.64437042429701963
-0.21459313584716 -0.09569220725098937 0.75899041975704007
0.44363416727343719 -0.15820406421729905 0.73578101837808152
0.14931644252485299 -0.059928564012285968 0.76888250559841964
0.0046632405244722008 0.33483341194240257 0.80121164630554187
0.15402334584453214 -0.077094568259641783 0.7893021454953475
0.27646256370234212 0.71918874832106638 0.11058487012146401
0.1826621170072471 -0.1997843932093355 0.77642759708572262
0.55474554450626812 0.79088899805964985 -0.28444010511507223
0.27047836724209162 1.0327492741161723 -0.37425005727742988
0.6861630504515901 -0.53373234378971013 0.41136477491985746
0.21961744272086747 1.1915991443072897 -0.45320245382456026
0.55046462093122273 -0.55202569405924473 0.6946414484827681
0.38832171742601318 0.24327663402225674 -0.1102404955744577
0.28104472265837899 0.071503023209182004 0.61208999152540677
-0.54032534586184156 -0.33559885485002816 0.6739971140546519
-0.81294377512465488 -0.96150263552129722 -0.46762803652573526
0.73870898836551291 -0.37119280479905337 0.65263773307696682
-0.79626510743111467 -0.32427072771712417 -0.40473195888765878
0.38254906040076264 1.2697552509475081 -0.48761478406414227
0.25335216273336414 -0.059764831816542241 0.79816584604925689
0.37160037597387685 1.075357239576813 -0.4218970234831243
0.26655114262435475 0.66055685671896569 0.30788054306997736
0.68428581247417952 -0.12083995842201833 0.39124488023705428
0.36996921860770371 0.9480322749758674 -0.37197065451534561
0.82278163346768096 -0.49149912751940406 0.60046244819191408
-0.14209067480818405 0.26832524015192938 0.77210439521894569
-0.70000138447226234 -0.17661994924061908 0.50861899657600329
-0.7317923924645271 -0.4149371038065599 0.62786319851207839
-0.097950958408748789 0.37321259775089644 0.813149407710267
-0.065999397672154458 0.79299998029526364 0.5482840395374573
0.32708777645147435 1.0758769040031604 -0.40652964346071929
0.11332713227696445 0.88721811611772594 -0.055650266530896664
-0.24920508204654723 -0.57410158807361089 0.16847667573068303
-0.081942267885725784 0.60476204870774009 0.72125681573026101
0.28296596009577613 0.16019187526786016 0.50143851884297796
0.45912633791921564 0.022954062057448432 0.6271409657578273
-0.82389068434662605 -0.72035173358672111 -0.3987175792840647
0.13038708480896943 -0.13289475577135335 0.8091196210646534
-0.14854369989573968 0.032413723852107168 0.74767561646173109
0.10246652727406769 -0.1465956889201081 0.80019095611191959
0.10402306921946902 0.43046311845711749 -0.6012137586907722
-0.18415840453577204 0.045102410938016035 -0.72100814601898744
-0.59595992821741817 -0.62042387328251181 -0.27254912992926617
-0.078012162966526688 0.96397179941001276 -0.20084131022964025
0.34025607225626331 1.1431238455589128 -0.4586915201595918
0.72909897720035488 -0.30426478878261065 0.70072024423598767
-0.08332294899078363 0.209973749975644 0.75790878663681216
0.31776749240781044 0.4285451458701246 0.35289060076655787
-0.75272899352578548 -0.0087818696653716444 0.70170372062627262
0.35719827423719508 0.069940775400923805 0.50211285344098067
-0.55229717228684549 -0.12047605127698002 0.75135407647252661
0.12051383009335126 0.43148923281749951 0.70378902048379843
0.65122066093640285 -0.6934071623723681 0.55137458576761222
-0.13453877642737666 0.28502223631698254 0.76014579219309608
-0.055782207153747265 -0.48369830800804614 -0.13295516744589753
-0.39317637199865629 -0.18027287571335826 0.81142984146852637
-0.70904995048769237 -0.17547064023489867 0.72748748410424158
0.41002821069337259 -0.081982558522763149 -0.061289894387304478
0.26782878126931919 0.80621375622364777 -0.28056098991294576
0.10694901845155869 0.43099157337482374 0.72200106356715166
0.33002827945859536 0.66445656839269684 -0.039674211110225954
-0.86614077772076215 -0.29738898718559525 0.093523227830079936
0.77681545683265796 -0.16651824671695792 0.39641724284251989
-0.2346768454997914 -0.12039828367309369 0.76119275372409723
0.78614457274317218 -0.34839356654233056 0.70417057820063733
0.74666350759400757 -0.32917799019019656 0.66567049762857478
-0.74345630837940746 -0.78044446088393116 -0.38467491835150991
-0.37708751399526719 0.47013409565509523 0.64367857050515331
-0.048073996926898843 0.59507105319918097 0.68301397461517088
-0.15059070736743152 -0.013010430622764524 0.74515614738814007
0.27540004360502124 0.78426339857824168 -0.28057899026707922
0.40008339271513194 0.74092943950998347 -0.28946993484832673
-0.51624891536681261 -0.68745928360154807 -0.31861166418047349
-0.21148658015385635 -0.221509801556385 0.73945979922851013
0.1759566745109673 0.14768919740068931 0.72643649797223064
0.096437977345402714 -0.10543999031258444 0.76459781073281619
0.1075587255593291 0.51198797878594071 0.68405698662673031
-0.85984315852872228 -0.68465291211127166 -0.39410074911368032
0.85464126489292624 -0.3812979426298071 0.64346740096702226
-0.77594778177321899 0.022033449622725243 0.35038903512536512
-0.34346672371164644 0.53058687213967382 0.80926412364602873
0.42541724397028347 0.69608428900876973 -0.19526945577888677
0.31454167686194268 0.6773555468539243 -0.092438252329406945
0.50851694358921762 -0.60373232160052037 0.41445660345830415
0.13204484551927109 0.90004138224181318 -0.32054893713191035
0.42421677507291022 0.044574160085065984 -0.040173240813609234
-0.5091912847534168 -0.028193252601782959 0.70554622531979172
0.17008807564275941 0.86450336522858251 -0.16457144503191712
-0.34936078428786743 0.24023390995864613 0.78954402896653786
-0.62102004929025156 -0.97235494858248117 -0.37690337135458041
0.20751020877588289 -0.36995966090240628 0.35940565887283293
-0.16948155552989519 0.32305654276380125 0.75910795408069687
0.12089145731523132 -0.19586237267035145 0.75470202857451341
-0.63041616885553253 -0.70333703729292729 -0.33878603545660591
-0.73544521098493831 -0.83109360364748319 -0.40032903229891836
0.13294583431428109 0.56333427296781835 0.6656148269242611
0.13768279290457386 -0.082203376729196087 0.76067014088352503
0.10199325218658828 -0.26916094034207916 0.64729068485557573
0.11627253061477916 -0.32386739840864021 0.50764699934867163
-0.19065039406980944 -0.12824659886436063 0.75189530651512992
-0.49478900295558503 -0.061004421418024535 0.7575361623066712
0.79530115787985878 -0.28410978819660215 0.69592785007896252
-0.17009422372007421 0.49638702585122818 0.75779123649013558
-0.95493269098518496 -0.57912344685157535 -0.35207346437207443
0.21110268420064315 -0.17468031545555007 0.78535559564011326
-0.70578636117807747 -0.5673219271521166 -0.21890988967116964
-0.47225236691062378 -0.61267550014026817 -0.1669977688091504
0.049780780866335306 0.46579458786992589 0.77088565743400461
-0.41076747940433478 -0.34818914390534328 0.69365950970834422
-0.59713184382971463 -0.94123835669531353 -0.3870653816948888
0.014617538547636144 -0.438488284645695 -0.23553743861212562
0.19596780802475067 0.66176008302006917 0.59094248204548772
0.44329067695710123 -0.46558006217342518 0.70497366624149516
-1.0178537602958251 -0.89401008394423265 -0.46665013177854586
-0.058040086522670009 0.2722520631567571 0.7631822895316982
0.30635962891689061 0.48101154294825577 0.39681582145969235
-0.4481035048541564 -0.58118295281263244 -0.39943475339381163
-0.6002868762963125 -0.63549705075037188 -0.30873294215454061
-0.61284192079232724 -0.58037517602489253 -0.17348774285777235
0.36740323575278921 -0.33809786787713492 0.28884270220200481
-0.6528288615085458 -0.35824877940610556 0.67137955946019368
-0.32336487074186593 0.27366566181592322 0.81299013233969086
0.32856803641872645 1.1734059273528095 -0.45398488673713544
0.073885729482036311 0.57774470942783918 0.67193816753280333
-0.38520308418179994 -0.30055099548352793 0.74790875080863994
-0.27931510781803226 -0.007740376923154102 0.76607895522575031
-0.31517282965155502 0.24157787473527303 0.80909099068456403
-0.6218742021878505 -0.50521184392445218 0.58370436505667289
-0.36531513431991058 -0.0080093874753668359 0.73692946851924956
-0.564518835242243 -0.0073594685367392998 0.76389586576220614
-0.53799232439333622 -0.035399596803906697 0.75668627097113283
-0.38768812485111681 -0.27857567063634647 0.77593661371606881
-0.506592371549619 0.8110362779928515 -0.23652163772627333
0.039483233237962878 0.09202162229630062 0.75228285357907376
0.17866141548855552 -0.34276214755604695 0.63153674241767543
-0.75435154494649836 -0.74049120599192975 -0.37710986300990124
-0.10757181932952875 0.41731406575413388 0.81087363112460586
-0.37485632119857826 0.29245518707765328 0.62694260354864673
0.21507225150797638 1.1984804549368278 -0.35838463380472785
0.73003947543288206 -0.44474024301444137 0.6713509564253779
0.55243670844152248 -0.0859546514057552 0.69826834922642878
-0.10349659363532027 0.30471914667601929 0.77726474281389768
-0.13394011479789469 0.1274407653555425 -0.72895214918022488
0.6578933376821432 -0.55977601047164915 0.41024372130072129
0.54000786442896498 -0.1083671707990792 0.3507287919943296
-0.1860281541971851 -0.30129758926582628 0.64105713519018392
0.47320458311801161 0.9091873849654819 -0.40005042789447032
0.8383174830778124 -0.24388878006714432 0.66577194236660664
-0.43521099901095539 0.020082383857300101 0.77432194197090443
0.24453811976153261 0.63446331014610102 -0.42393960383242524
0.42802420797780272 0.57960767939157876 -0.25570170091961431
-0.098355421813575816 0.22762334289300235 0.76387768822658453
0.82067596555634736 -0.18923522218349387 0.40223440386760512
-0.80742461508492269 -0.38264246923176515 -0.32374563285978697
0.29796580176152432 0.50175898482593695 -0.37472326451649907
0.89529126272619308 -0.32609032590842535 0.61961584407674608
-0.22352629950957592 0.37526436465376722 0.77711505341656961
-0.49959951157669735 -0.64782459258686131 -0.28937005931284121
-0.43652795900869634 -0.01121242986193316 0.73355570293079619
0.13511310210929395 0.32004576781399408 0.68350512517522088
0.43589834268194139 1.2432747119461984 -0.52083076053250199
-0.81262024444808745 -0.58935579050737275 -0.40958197826791842
-0.23765153382015214 -0.38049892712095623 0.59570661609724507
0.3389510060020271 -0.10327336247598851 0.73677500357327652
0.15012973960573106 -0.041035790709667452 0.78366142139023776
-0.57626190918601239 -0.91318890511450945 -0.3939233807318816
0.3210669306201055 1.0361936542075636 -0.38543542384031637
0.75370723608415702 -0.51378799393229313 0.66485419127222256
0.15291843638238589 0.47223596795503209 0.65479127860874509
0.84914163870219994 -0.4639746651642418 0.52532884584094175
-0.097530797546443893 0.77516716846566158 0.67492036142337619
0.40808823631797253 -0.41397622765044062 0.35534205648706152
0.094345160234318826 -0.31505726578802928 0.49169772416561752
0.18555990477375772 -0.20231893273565227 0.76784656088233127
0.25116485729871485 -0.36513337069805374 0.27013681482932839
0.049566693768813508 0.60817967268844608 0.67472496709110685
0.017776236629998721 0.92086152673544497 0.024012457686930722
0.29376429415351524 0.5887971278151598 0.5054829372106121
-0.34444894961592354 -0.10005635220874964 0.81067475624081808
-0.15626283931558405 -0.17149223492082655 0.66548099654446347
-0.20051928033648991 -0.49577074322133452 0.40159959719492111
-0.44282510168739364 -0.78226805334734806 -0.27433075476878344
-0.18020386458591275 0.69047009211552179 0.74504696864263287
-0.21033261763074407 0.42815798916765857 0.77050422696221066
-0.74019539155766623 -0.23851658949592114 0.58416982193081157
0.57182167278114449 0.92055149777703615 -0.46333015420419565
0.22549412909968325 -0.010042582325712424 0.80391744987559166
0.27110304206913938 -0.36527441499583446 0.69187815230880201
0.097882553733935396 -0.16264640063262625 0.79322474615081795
0.23467432005578104 0.91237444566168513 -0.3776381785393923
-0.071494955169018937 0.12384146046057065 0.74594820193260292
0.51261587492532357 -0.33321527309916732 0.73795749899034835
0.26942319175301677 0.97455415729692962 -0.34564099453817443
0.44235973985606236 -0.57170268300824167 0.6333613718717368
0.01302930185245188 0.67688509184381473 0.67007541209884902
0.252401656226791 0.75884626941173039 -0.011232477079877512
0.19525300338159113 1.2018309629908517 -0.42096773036822466
0.18726358252061814 -0.36451021705305031 0.35231652319299123
0.084184715574828317 -0.13665788805674239 0.78204073669496665
0.33938214546871492 0.6508240311535447 -0.008910070489001054
-0.21267261379302127 -0.3380004737400979 0.63140080322651659
-0.016977414777432642 0.34068781304920392 0.80737587714588699
-0.53627895385429625 -0.16458919465515542 0.73222667531363461
0.51011940845366155 -0.24287595327789901 0.31778553162660916
0.51971790978589638 -0.65759118922446769 0.47502176528528217
-0.47111232440463979 -0.21924974869302627 0.78145723502663866
-0.58586255649124652 0.54082944153366519 -0.57247625952032921
-0.99934095532089628 -0.88010123305624433 -0.43844491856503875
-0.5588898819315844 -0.03412581571280171 0.6557517760296796
0.058021268186315922 -0.29814011007992658 0.50977224472576932
0.52203259492156562 -0.035955082841956809 0.38233304310857297
-0.62122747483339325 0.018077853570813929 0.78409170562377062
0.36538534520694554 0.96805960333242691 -0.37844902321673946
-1.0097199681420364 -0.64087474724612647 -0.38606542331971694
0.66975248689571742 -0.46735689251887846 0.67226545031958151
0.39561959845824646 0.73488446032478283 -0.2763249909063874
-0.20227852783405709 -0.34730125193837047 0.6058752107973957
-0.43586771459216322 0.18991189974401834 0.61771001531244174
0.28326175904872741 0.76614214867069563 -0.28066888571847981
0.31741538334175701 -0.16441163001042813 0.74001499921301273
0.39854363572155904 0.90285856627783456 -0.36150595618729175
0.39559172599635417 0.68039505173774284 -0.20720081604256091
0.43132343779145188 0.73684959317353993 -0.26547496103011747
0.75958401925914032 -0.39480193236779071 0.67041670671468845
0.1451892321916084 1.0290708724848932 -0.35662711579192763
0.044836189773555191 0.89099523047034612 0.10699480897954761
0.50055054999175042 -0.51972423698096382 0.38107979574487283
-0.12068767703662431 0.96988060859012215 -0.19929489017876856
0.74956868149719469 -0.30555976699498277 0.71647946437982557
-0.74621575834168041 -0.339989754179431 0.55178175764612103
-0.61703819198467968 -0.19940747943136294 0.61729339539180739
-0.65482401160650383 -0.2847452608858152 0.69966191825421831
0.19801105688620879 0.021954856640808984 0.74688177941901723
-0.4787796326457503 -0.55748205605807843 0.53835285160389645
0.31140626332460641 0.075344424675611421 0.54222238863212713
-0.35525448882619415 0.1941070973313721 0.78526384634774971
-0.40783553074864543 0.17977414600951036 0.74486082438821777
0.77002857577285866 -0.3976337165528796 0.69598052087522877
0.13710201731407423 -0.33466931703438085 0.56253442829343081
0.85136557973838123 -0.46372683888850652 0.55235671095650773
0.50286405153581981 0.84669801385398902 -0.31375340864393575
-0.37910842259377731 -0.51917870551931955 0.58230496170488877
0.36266627502462612 -0.01218473081076521 0.70261402627002623
-0.81210014783394513 -0.95890226910816878 -0.47131471076024445
0.66184054692654826 -0.078504954556333217 0.40994665254679408
0.36472073785991199 0.64663488403033487 -0.1642539879261935
-0.71963559709214309 -0.25838277873545401 0.380801920472432
-0.13635798126701815 -0.20788419547556458 -0.62909206920717209
-0.75924701818627582 -0.50156496620684798 -0.31344741314546321
-0.2151937565526012 0.74567699934103615 0.35738153233486813
0.25883596454581692 1.0981857440185525 -0.40679341161095595
-0.63820065401323944 -0.046126035608279992 0.55412364791754465
-0.61007006680665654 -0.99236623159279524 -0.37018878414282153
0.3351968085682806 1.1711194253762534 -0.46452221882105604
-0.67735543557207123 -0.11375723208229083 0.53258801646773124
0.44086473001194548 1.1901636801342468 -0.44054373688146287
-0.13011258435082951 -0.034382894923560059 0.74422170001708565
-0.59053058717558216 -0.2378069888801031 0.7064760746723735
-0.18699964338397734 0.33108662226827068 0.77029289823246838
0.035467533932205697 0.8648526278553037 0.59173697551360838
0.45289711338194394 -0.092166169112283924 0.2302672396832719
0.53878243583778129 -0.50258237986327714 0.71298523203664743
-0.42916347313738612 0.58327565699433137 0.7022058041624899
0.62106731762304079 -0.39966123702871936 0.73483026324833434
0.10588452837918538 -0.12777545250133571 0.80078856554656408
0.24329962127237437 0.010915721535794454 0.74323432334869333
-0.442071217636272 -0.08943159226899855 0.80146200383200705
-0.52048171906614371 -0.51834359924941964 -0.43332145855390403
-0.64392293593349947 -0.64758600260123167 -0.31867993135480432
-0.23662558296158309 0.46574393505736911 0.76560801257741717
0.12698278560380416 -0.17720709468287499 0.80387595107424881
-0.20042556686505719 -0.39787730776864194 0.64681107536850657
-0.35818505826395963 0.87505933567627636 -0.31241711748271994
0.47042673022135162 0.83956417534403371 -0.34268312384135902
-0.64631120244580487 -0.86041702262027009 -0.46583390479898901
0.36904121663783584 0.31637328329613812 -0.18755982104518187
0.71753567117533024 -0.51187696441512731 0.69124756923453745
0.14025494150308049 1.1179573921995845 -0.29289602744324261
0.1261221955421199 0.7361408117581032 -0.46466741231454911
0.19540531787719218 0.030979720549213496 0.74839020995463867
-0.17280833493440539 0.59812642229108448 0.74622228316399841
0.20631935511845256 1.2316997161393566 -0.38880051094126244
0.51047859211665525 -0.6318011844710183 0.44145771840750658
0.21369229621850039 0.26087971171427604 0.67893775100043197
-0.51617303535842396 0.10184570285127403 0.81027225087302934
-0.57969919447762663 -0.2990629136444749 -0.54531692602044468
0.40971557243414836 0.68508456791789563 -0.20035623523347246
-0.28589307082416937 -0.17498150569797666 0.79698481375045382
0.27069281971670023 0.77514250132219153 -0.25345128645115134
0.17204157818662935 -0.0480894072454916 0.80405228500305315
0.03070513277560849 0.42313591946010121 0.79012368719936821
0.64208543626580905 -0.46425073917274418 0.71350231741516135
-0.4126140184884477 0.020870218403941543 0.77474427790625278
-0.025559621821397371 0.94089319536151983 -0.26603679589139073
0.36574963954421591 -0.36579835394663984 0.31688313557477832
0.2340043469746611 0.92743980289214534 -0.29808641369340405
-0.4027875577550013 0.35112843186455134 0.70302933471998053
0.056481441707799007 0.36712985352108429 0.77264507767945512
0.13750087268859801 0.46764645011139905 0.67755203939538466
-0.67104039251744751 -0.985564247396022 -0.39631758001780604
-0.44233333945585684 0.24671724096389092 0.60066383822482683
-0.74553233631307947 -0.23724961607841522 0.61384281613335734
0.30311039715281041 0.42320672731230857 0.55971177968446684
0.29995475206637323 0.25801750065254758 0.51109191014518984
-0.71089110294411029 -0.47370914519570206 0.43444015226827926
0.16439439119060495 -0.081385504098799188 0.80402788785248624
0.21054530656376613 0.98362856383196995 -0.29317593809926246
0.28532314846699691 0.10702944892368293 0.51201174813631645
0.1035877254658395 0.81981762418668769 0.27389224103851162
-0.21721028751982274 0.42885701051831226 0.77208296709014546
0.41476442034059602 0.70191110352500541 -0.22190570523244268
0.14687850830432225 -0.078166179861933749 0.75802177418253747
0.91284273394380122 -0.24570101003110434 0.44029837604253474
-0.94911003408629568 -0.76494459479312482 -0.42760048708670828
-0.53807980993516225 -0.25719326267456033 0.69721073943722267
0.21684069457986865 1.0832166171870705 -0.43615369446305596
-0.23762688152121925 -0.59793056142990508 -0.24339638839658972
-0.99403727608757464 -0.60346734880311814 -0.40497227639449029
0.0030884173074383625 0.62288016312465633 0.68336632168724232
-0.066258437951759674 0.86725677368734821 0.24164044717126909
-0.65252480886322672 -0.58601183657019007 -0.22603753458097842
0.51964542363190702 -0.1349765254192925 0.72271279236967367
-0.26979607748445389 -0.31519011176095901 -0.58097572215249227
-0.30854722561785763 -0.2284030727666515 0.79613241894615472
0.41238598640864055 0.80385610617009018 -0.31756064913649418
-0.27777477262148054 0.5535581323417027 0.78547607708376566
-0.66458263574711651 -0.75104205400010038 -0.3590010822863392
0.25861870093962125 -0.10729286828176576 0.78896607768344618
-0.36400204723314289 0.61960538225895068 0.66376333468072168
0.51101304207010756 0.88993210015873903 -0.36457723322547553
-0.72156442847509794 -0.3867042284814719 0.38667787130175624
-0.12025414523326106 0.44518083531161157 0.80513746663487984
0.66818469857271623 -0.67747310755231105 0.49810548498834795
-0.47483056929753076 0.16063037708966199 0.69183751877154487
0.57233639267243674 -0.37386438391136334 0.73696870464434561
0.64764994537529574 -0.25691177112772845 0.73003997487936267
-0.26613149613041998 -0.27196743249298194 0.72890463536719041
-0.75579538780072753 -0.4226742769436207 0.55510034155117616
0.1209286479240852 0.4870334491896795 0.69246409617766314
-0.0037515369886520489 0.51748961645281355 0.76487533560866039
0.12960686282481859 0.40538820344002335 0.71328092954586064
-0.23296825098917395 0.31310053264979398 0.706002531342524
-0.16024281910810956 0.71290664686762639 0.43783817080458176
0.11699898010658316 0.60076821914264844 0.56984020330304508
-0.45459140516081575 0.47675197290139515 0.71222790066378083
-0.35568825160038386 -0.63933867262924515 0.0063802783952064956
0.13828038360240669 -0.10513842323256828 0.80517499005687432
-0.99370555428980012 -0.7371184141787559 -0.40715801938335971
0.65729517514081337 -0.46234656496970761 0.66167923630086012
0.51705018530743274 0.6858460108876816 -0.28692433512322957
0.27828638994930444 1.2305790410472648 -0.3994068846738017
0.42252813623517582 -0.23428844006894067 0.24845522257316999
0.37608040850914293 1.0462956241520516 -0.41090729103851809
-0.59040842413614669 0.37409686367591988 0.45351409749839267
0.55345385954756665 -0.26759338693099544 0.73579164346553405
-0.47195834653997437 -0.58620983353339717 0.48003574828915507
0.36256724278335639 -0.21180889662665514 0.74034125201520906
-0.31532274022953288 0.78171556106050666 -0.48427741878297015
-0.28048322995779884 -0.29406014240435674 0.7218607032910862
-0.65807229507658249 -0.94385689760844826 -0.43504174777793825
0.93149250554587582 -0.18427116731940041 0.49904028369082809
0.31660397564307985 1.2602793900060982 -0.42632399102897756
0.5416024493488294 1.0625026272827629 -0.52417060084001976
0.66114458351504268 -0.6698254985991059 0.47054774033387314
-0.18250589479438162 0.33440866874609743 0.76545814797369482
-0.67683786921044486 -0.58327767243361173 -0.2283234710683395
-0.97961301720803817 -0.65717895441172836 -0.36843318171995021
0.40992257272987587 1.2411688518614001 -0.53852954806757225
0.49774300414782502 -0.39302795031592908 0.3469247215385316
-0.6541252575157479 0.088506804398276628 0.80466758084268708
-0.19125615566264997 0.50924702818959311 0.75904436646030105
-0.091031944694751843 0.26839180169913579 0.74902109053817645
0.42072486442193835 0.94614761557066274 -0.395829155377597
0.26038035274945415 0.8291307921376383 -0.28046805875240954
-0.59807670317696093 -0.62552100997565319 -0.28612129501490102
0.29344719033049671 -0.040535525135728001 0.74607920154701279
-0.51999773131401028 -0.65538396588554093 -0.31656522230858997
0.62566542985177875 -0.41952637827217565 0.71020321033447109
-0.47633471539255723 -0.11098971747929998 0.78886383059480503
-0.41205301876827249 -0.36716907231162033 0.67091335636005311
-0.69303640472799444 -0.96919042037527703 -0.4490142069043328
-0.36875423769442861 0.27036729273076876 0.7739742034289705
0.59952006220490972 -0.43807257809146005 0.73291051769269
0.74981006577362663 -0.59368159071019644 0.57194773338000537
0.31979324512327878 0.5320477650235329 -0.35294005727124644
-0.31022892471372998 0.2089637813090075 0.80584093428065851
-0.58495396710102909 0.090659933769589252 0.80744926810287199
-0.30424377967897343 -0.25893854703915942 0.76474480616645257
0.84004041114405581 -0.16830445184967591 0.41493447531755923
-0.58070463830547325 -0.32148457988230739 0.67746079951425209
0.25549664439135356 1.0732052612999823 -0.39496017554571816
0.61968315724788425 -0.68070689262433692 0.60596793993721043
0.27269517588918646 0.80900266622958306 -0.29143855147986519
0.18022997516153438 -0.19584081871326209 0.78403519187290094
0.6704668629667303 -0.53298367253094003 0.69945837195505511
0.039494087943754863 0.31783984800624943 0.76246964765374114
0.12291838511240982 -0.18423054227121582 0.79785025171417434
0.8903754382533009 -0.15743629840797935 0.46562880109700033
0.043264262520928298 -0.29059386262941533 0.57930598021247581
0.74513744147753513 -0.39486974983860135 0.38953380491682421
-0.38984062922295237 0.458628991388915 0.82377380996770055
0.13233813345216916 0.79789999139273338 0.57051706863166141
0.34309870204780779 0.9063423096244545 -0.34507394905557831
-0.29700390702283741 -0.058718703668905192 0.75681588274652833
0.37092665353848986 0.52589110504350955 -0.27987999369905192
-0.37146244645311199 -0.53831276561098207 0.55743974303465915
-0.37623472132722569 -0.78228691319566224 -0.18868945116162994
-0.38526625858119345 0.20792318562491818 0.64183655373115345
0.48600213388480995 0.81888245302867002 -0.29371984741926882
-0.24225388855285601 0.69674503037765767 0.67235071215994102
0.1043576529482273 -0.18140593357839752 0.77086218470393719
-0.34561966200044481 0.12245324338930885 0.8016796132444246
-0.37697256029247228 -0.24291495760881343 0.79408244765849245
-0.19245675397481321 -0.18760408823089492 0.74196169676611801
0.020925238270638857 -0.3674804372587932 -0.41696028659367546
-0.093301816796035553 0.96468959805620003 -0.08284446857096972
-0.78292871774554129 -0.61785144236140432 -0.28407343187864686
0.7782011447038677 -0.2685228593703699 0.7001496853991096
0.86791835443724352 -0.38179222474113006 0.62695041114254391
-0.69065922290168302 -0.52077443219390673 -0.37775449397428496
-0.78184487268692138 -0.82597501262664785 -0.4921419707305823
-0.5708192048703431 0.75424628899593138 -0.25399641417735852
0.14464115143077905 0.8224504122597498 0.49677215683131226
-0.37519302668070509 0.39225878986416696 0.65161239012786565
0.51794547158988991 0.92831687247025751 -0.3949548490010355
-0.46948895760120024 -0.58230268487094783 0.3925854448266195
-0.091036112791631041 0.48793099743872848 0.79320994900186959
-0.79526099713768517 -1.0300588942902387 -0.42620640519127395
-0.43595412434036263 -0.43196251218843251 0.64785245984121165
-0.33515980644577326 0.30724623940899143 0.81691517234779543
-0.21014289182934576 -0.13941596851440785 0.73146914927145845
0.19862900804676542 0.76622577372946843 0.25894331974026052
0.78687414361619545 -0.3094370761339067 0.70386830830471059
0.17109655364791365 1.1370632614594109 -0.30665205125416017
-0.10890412668865324 0.6672923108115425 0.72759181330331169
0.85049680653261817 -0.41339381788725582 0.63054340142520537
0.73293165168845675 -0.31603459960544944 0.66553139659187255
0.091755564915253274 0.8334208881398304 0.2275742633843334
0.099949260926887717 -0.41634618442982774 -0.15447794935024906
-0.28471915760457023 -0.72814205978885838 -0.19635563581598436
-0.28359601305121984 0.32695007522533892 0.79517046596595753
-0.21638250164176398 0.47861666603294406 0.76315377400401418
-0.22558842241609156 0.95454820531947249 -0.078882838716905823
-0.59766333329518417 -0.40861526693748651 0.6442694299062639
-0.67449395198530127 -0.28701938636297086 0.70473684074255516
0.055385172722751008 0.49246224135988825 0.74201460463757196
-0.84967436316824063 -0.7148334141673427 -0.41208471458653628
-0.4449510597235431 -0.2712544940605337 0.76563659434039
-0.23147537849079924 0.35756399677486694 0.72324329812244237
-0.72422906032959133 -1.0115379431567835 -0.40562336802085941
-0.047774482182742162 0.45744307803067219 0.80018402003071376
0.82020585924218281 -0.11247752751739748 0.46656401817521875
-0.47920471426086664 -0.38648928206256361 0.67078508880068011
0.64855715163492533 -0.022997605497172557 0.59199198362153727
-0.7213985167636956 -0.32666331987175035 0.4463196732366832
0.21217548575310019 -0.07747100021183595 0.80836795604787559
0.054308469059051845 0.39173117017628112 0.7852596407050636
-0.078795819865579375 -0.47916445885918968 -0.21630414852268531
-0.35965545261378651 -0.64213070221627433 -0.083796136046422998
-0.39399078188226611 -0.019088858644164652 0.76730160646303736
-0.73089380431544981 -0.34014446642208362 0.6585786185560929
0.84671281103505436 -0.41652934236187855 0.46471661940269504
0.3566118757884027 0.43149688292660038 -0.24383155853378713
-0.7219593661237127 -0.69025624342048708 -0.3517654107722139
-0.2628651229036798 0.43771500426300491 0.67722682674330015
-0.61586496009680758 -0.23897517657507539 0.70133419463661273
0.54535649684934739 0.015813936395547401 0.59395319149843395
0.17217339315139313 0.69789729969913505 0.59197792407812999
0.30155960443139307 1.114616063570856 -0.43131136045798701
0.44338096055394516 0.048651917449442195 0.48751028252225059
0.61148459303993619 -0.44827312334547864 0.72984239424347042
0.52369113469347539 -0.22356704577418451 0.73544115904697049
-0.74731824320998896 -0.50162949380018951 -0.15849784567134684
-0.6458204143916646 -0.631926532839163 -0.29760825917259437
-0.093475171393741618 -0.43653762644502336 0.37839628807448777
-0.89557010908692902 -0.072967262609681782 0.13148020530172388
-0.54785564270536469 -0.050721029245885063 0.75297475750077369
0.08052157867076204 0.55525367241961288 0.67219252474667779
0.6554204131457837 -0.61143381068094049 0.4275297888921048
-0.10204348317052236 0.85702810927339002 0.24802933204849786
-0.94738912792722729 -0.67998460750992251 -0.37368285344531849
0.29593485086512317 0.6772585955328605 -0.37688784793538588
0.28993519611535135 0.1376124761469022 0.48790536398984341
-0.50965880829270205 -0.32329748389644575 0.66838984512779742
-0.42617488300886563 -0.40543114777352329 0.66687351739169021
0.40218496785054825 0.72644262851257668 -0.27503184745376652
0.46589877031723148 -0.003882607641481961 0.37348413753928567
0.27434206007800555 1.1224999269969995 -0.42607616596601838
0.086197367536787084 -0.16946523984796702 0.75133571853019587
0.298519769376135 -0.15441070536309009 0.74230327449639555
0.77292376778141048 -0.36933756651820504 0.70012987256745607
-0.114308443666296 -0.059200591639220868 0.74739183002568321
-0.34282614289636371 0.4759447308671696 0.54978661718330035
-0.90990056400580954 -0.87730570157877352 -0.45328738393758528
-0.28963212537859562 -0.45875263615651196 0.62342783197583707
-0.68167420068654394 -0.85554552113913118 -0.40214395865946662
0.011143535485505396 0.66283367974537022 0.67454877304807637
0.19749426198189113 -0.36153987788708619 0.63292789754672452
-0.27521896134998869 -0.17564447845166775 0.78169405507911494
0.67718035714810298 -0.65028564885740137 0.60686085734566442
-0.7988326129245138 -0.36204192279953595 -0.36866060451532912
-0.33336493649242271 0.23914303948685234 0.80283459965922876
-0.44186841019884682 -0.80136127681367952 -0.25055709880830257
0.26453119927187174 -0.29336868954808626 0.72263568614510598
-0.86406179325243215 -0.7415958430121421 -0.42590977063904534
0.18353653859708174 0.19275054325105323 -0.58133674963717019
0.71331406477527537 -0.50725519011772979 0.41207095401215188
0.066985341979478363 0.60155772510191152 0.62181068228189906
0.62145291219753673 -0.44473235841682168 0.70884068485917684
-0.19913296361459487 0.32220541512990675 0.77659576601690361
-0.46454179865552092 -0.26304370675084598 0.76002453353440291
0.05997125777624035 0.38990657070378809 0.7803393551289477
-0.37588071096579867 -0.36827203044369483 0.67520466980223848
-0.73598139743486257 -0.44935743799294237 0.48222022090401673
0.15617556682112621 0.79329545137074042 0.28647797247266082
-0.12624614700356673 -0.35771775709409148 -0.51829892612165129
-0.21919770208333844 0.51633407064051351 0.68343915140638467
0.41365617443777225 -0.22945745730202205 0.22023600722652725
-0.80464589354970073 -0.44395925310357676 -0.015724926982452647
-0.34003077264828008 0.022725328982261317 0.77252238168147258
0.48251739256160064 -0.54537435090366504 0.39305052920886663
0.0089043825341761362 0.93259803034992572 -0.17856143030210703
0.28044873810068438 0.46642365130319519 -0.39831936593390171
0.33685700953612496 1.1227554892961242 -0.44243683047365234
0.72408407186022217 -0.31462236566511681 0.66744503428461432
0.6801782926790203 -0.60882003571222576 0.64933349740193869
0.39042138954345873 0.5430546108661245 -0.098514235593738952
0.20015146554985819 -0.19297721604793949 0.77379230465571025
0.3466357490530676 0.22531943840683955 0.3003739911576726
-0.31408997447448428 0.84878288183636386 -0.39348665183686471
0.027843866252304394 0.4023184249827958 0.79489919960430599
-0.66745185623868508 0.67657091244522327 -0.071382511570538876
0.079490711396744018 0.58360900660631732 0.67321722352764635
-0.54529314035909238 -0.29801192137887877 0.67579710106904844
-0.73647482570339307 0.37644370062960242 0.32277153168651029
0.027036569424883083 0.64896167258868775 0.67524892517996049
0.301559860417143 0.10678344596318201 0.48782853057229736
0.22205767765342799 0.014847392234647927 0.75006142040532087
0.39064180019173378 1.1664415071460823 -0.47997612128209299
-0.85058313599700952 -0.64272278014428252 -0.33244322297311113
0.46426745608200193 -0.15784740083906978 0.27127194178173974
0.83498129148043887 -0.1959491196403147 0.65319293955853674
0.59950235634846294 -0.2232413931669619 0.35048231711432254
-0.54501001992871068 -0.40014983052734543 0.65180974756913823
-0.96684980457612113 -0.71507120225996523 -0.49980354521092574
0.56368502876760118 -0.47805378434117607 0.72302178813516482
-0.55383519658079905 -0.37714106666157576 0.66068473758490143
-0.60924645197711058 -0.5243558172330296 -0.40755933149235313
0.68549540425799904 -0.46771961737500201 0.67903054133889951
-0.63308115747114257 -0.35014787810699932 0.66755831962937862
-0.90448726283729286 -0.88638710643410512 -0.47206119858208773
0.62699303776033943 -0.40088540199149181 0.73211336303027874
-0.3699636000468054 -0.63975349817070182 -0.139999150718225
-0.12380876994763668 0.7432874097481923 0.41286664209196644
-0.478995826090447 0.42260924412560996 0.50243642372426578
0.28717880912036975 1.1458301811986056 -0.43556132382722801
0.46462567692133661 0.037261410346926205 0.59330582525724429
-0.33388972054913779 -0.085859588876369131 0.78725781289400976
0.10843006196020966 0.49247901591369381 0.69460244035252217
-0.10490037296974108 0.43764982359780014 0.80777860241779686
0.30350295077120393 1.0176645412857157 -0.37464060060111226
-0.17842394441680298 0.50226856547304877 0.76161896314080213
-0.32405596899199196 -0.64781584440526707 -0.13670661939847539
0.55226098986294758 -0.47185309718097557 0.36897309961741076
-0.13695079237677277 -0.29978967952215196 0.69885263482932825
0.70060965159750666 -0.34625973295833923 0.67060728932295688
0.039514856149981625 -0.32722594997182242 0.47190209086415136
-0.37254295582117436 -0.40203453986375326 0.62533200167223946
-0.58169329711106954 -0.94588391586921539 -0.36222295260853876
0.32885958227037548 -0.012848087752789894 -0.35753195513039693
-0.83892444547937117 -0.74934527192841927 -0.41155096484798914
0.74822497880677474 -0.38303869440442995 0.65433965084925028
-0.16414803724071092 0.38209209373066511 0.7781768917527323
-0.037943866834169171 0.41022486173662998 -0.67496569566542419
0.13668674786848456 0.3735689203540824 0.7135738340202733
0.12564700843259757 -0.25166691750496817 0.70020385962858178
-0.34078591271156 -0.82276104250266435 -0.26342272130879163
0.10881951045152505 -0.15264151181125385 0.80312233295775304
-0.52723872785844961 -0.11100684342383449 0.74690537592444262
-0.59308789427655029 -0.35552535181879907 0.66092659306382284
0.38822036704777929 0.72636395431747047 -0.26023015637372815
-0.023503111585906566 -0.35571784021173958 0.51578878897145186
-0.77679543375175442 -0.47551974444267309 -0.091197492839251826
-0.74939190047841464 -0.52317252382320056 -0.21683623453555656
-0.41250928795428976 -0.025103758271631804 0.76254847823253913
-0.077558177173678189 0.25833928989498656 0.7543640641527114
0.30179927368898873 0.83865491250799895 -0.31459755224654407
0.036825019697221961 0.85553003857684207 0.6140255812394928
-0.44600246055841808 -0.44907137819728948 0.63720474664565252
-0.60643390804249364 -1.0046657565973902 -0.37403633670746927
-0.61249056196054141 -0.050931573252637641 0.75943592467867171
-0.0060364181027878772 0.51135799710618457 0.77057547367134482
0.43622633389527721 -0.59929941121289954 0.5214189430750209
0.25712095320232464 0.0016890735304819771 0.75910746612227609
-0.55760189938792237 -0.25736293402397514 0.69956980113868283
-0.067074430205288138 0.53139558782056362 0.75409412237416928
-0.43551029775224492 -0.78162401475386822 -0.36773873884022068
-0.0012857066893730007 0.52396828182018584 0.75259576127449113
-0.24966269658193596 -0.28028817699235731 0.73248606524450022
0.11268882445088835 0.40731548048394561 0.70675828939759455
-0.56734255110429999 -0.23322441428123675 0.71837479879839616
-0.52582075646816406 -0.60218190753487555 -0.13601788447423813
0.16811097904914973 0.27882740042914111 0.7026118674469235
0.018817321751367189 0.62091154969369278 0.6796414778803348
-0.81101058183159225 -0.56182824117705188 -0.24200002061913928
0.091707719268736554 0.53355273995092656 0.67634199375806037
0.40638057202913203 0.60551352537702119 -0.30006169845833108
-0.14671041275707353 0.74528137671217021 0.61117976783565264
0.31901449252294967 -0.5059277058572258 0.52688427449008035
-0.93239205523660473 -0.035763287730986804 -0.32360964405634773
-0.93281650793560189 -0.98263014482300015 -0.51914198123888422
0.2830570074829204 1.1734704180943583 -0.41336714862963664
0.25444157359558872 -0.017559601720990692 0.79811257828059023
-0.37137749861878433 -0.41737120310815623 0.59868471352272756
0.18639922640730333 -0.12072992989337639 0.80955892091367465
-0.66637717166064903 -1.020928461753849 -0.39438716609994984
0.83923036468509693 -0.36618754231943296 0.43464623990719575
-0.44795387004691634 -0.35824818035839279 0.67144309395591151
0.48998020087746141 -0.1800710432330872 0.73432066427777465
-0.44899430278605479 -0.36532670103895981 0.67370642601287933
-0.40179930910037243 -0.069284450990923396 0.78602832063850903
-0.4515404073122582 -0.38035645594142942 0.6754625709819928
0.29515418956041728 0.2129097220427969 0.47218952849174656
-0.23805875582543479 0.6743779843711728 0.61753935220077261
0.10441442051889283 0.84822422887051196 0.54686404423501167
0.17646212109259807 0.77966269990522097 0.42107105233525505
-0.368303757514159 0.2477265116688816 0.69300599311246014
-0.19951074517349099 -0.49060654732014086 0.53411598097561885
-0.17264154664927389 -0.3424221524533877 0.67954211408012188
-0.5218894929490645 -0.37102882955669614 0.67044133391004834
0.091162151954826243 0.59698351115755877 0.67124317756660301
-0.92474513303814021 -0.84925107101127928 -0.46212307216309467
0.02611115623149729 0.33727378411166864 0.78807788376870702
0.46675172216488292 -0.5239789429213908 0.68445658789963426
0.31136836219256381 0.75407732540235806 -0.28402222353786755
-0.482348545848307 0.0052934873682541905 0.6914429731227969
0.27015550105848618 1.1502608556620233 -0.409350220099995
0.51357386682951045 1.0472028434481491 -0.42800460700060228
0.11847482006304588 -0.28523000263272635 0.63889120818509237
-0.26308658244951744 0.431670923346962 0.77398733923532204
-0.61691287143466056 -0.079521847195504591 0.75241926815860927
-0.5903934111155138 -0.16424182972071133 0.7268267161564177
-0.59967590876636478 -0.62989850795096913 -0.29827020685755468
0.57994269672035159 0.84545925965883484 -0.40282521443147878
-0.29684639535324209 -0.18707686788783917 -0.64307432648097285
-0.64498601596119443 -0.55123213615967792 0.45538988359715571
-0.8699194454721173 -0.61720760870315416 -0.3055766518300973
-0.89628933697209234 -0.74072332166735499 -0.44315246271429354
-0.37515026963700038 0.20385293043763753 0.74372199460070387
0.018084789014022107 0.30396187831512389 0.76682700618905653
-0.20637270173133615 -0.30373358003041417 -0.58594338211712538
0.36637740361572213 0.75458100318617927 -0.35530752657033116
0.88029249372415208 -0.25068439196799464 0.64026062343441725
-0.24153441909840012 0.68942399977628455 0.7245979465288801
-0.26192907068957894 -0.35227687687801712 -0.55030759479678482
0.7629142329943619 -0.32013548965495087 0.71285953368890875
-0.39738122269807263 0.57083625037431585 0.65913456612003452
-0.19113974329828309 0.46462240100419816 0.74376159162777933
-0.27001818968165736 0.0084597803285095807 0.76503266918185497
0.26605006233500461 0.06378259935393249 0.65157556474049194
-0.59640422292456563 -0.200683112553528 0.71527063997899765
0.69762601507835598 -0.31674792168490384 0.69464431867875076
0.27576395034159162 -0.035053758382459499 0.7803836979729919
-0.64408914306120835 0.29321976502817648 -0.61949598853930676
-0.36024478998325904 -0.08640939689498417 0.80669665963212855
-0.6874141160231737 -0.55203512087677709 -0.16909340198933398
-0.66932415937241529 -0.59302089612100062 -0.38656048386154973
-0.38061715725415368 -0.75581024143719233 -0.19188136078974516
0.36735696851728861 1.0954464592118001 -0.43207492413093451
0.28169510366688755 0.76141899458851725 -0.26839984448781351
-0.17084066037597623 -0.17259385603148925 0.68756368264843948
-0.29750374672138591 0.48393160615511555 0.78646675803662713
-0.69092476519794843 -0.48109632099671629 0.28929657902734718
-0.078225528525443622 0.57856091747763294 0.72103097794612059
0.57422553319575798 -0.13199252160077535 0.36025988051379088
-0.6553191349881331 -0.32624757765707812 0.6846733724408427
0.43785416084805817 -0.54187604680549306 0.41146329501153023
0.12027840543417767 1.0493133018809324 -0.24880429840096863
0.30233197568484371 0.76655347529725226 -0.29843801208175957
-0.26600431619706555 -0.68568952731161659 -0.19329758428570898
0.50044551015498584 1.0083788607375102 -0.46375710939202097
0.16652987167715594 0.46583290441444714 0.67508404534886113
0.16832015665382727 0.94003441022782663 -0.21323429204758604
-0.60735145145217118 0.17979012726325472 0.72322903514366388
-0.52242715416429775 -0.64370127631650931 -0.31448748628774492
-0.71061623476725089 -0.23386770492017206 0.71097241386731458
-0.047787995848825204 0.24277044571437134 0.76173364124592791
0.23861250015650626 0.011314399943429088 0.77693514576905076
0.29368482460875001 0.81617903672160796 -0.36469093193517965
-0.73258182012481043 0.59980843990237354 -0.081717600886379582
0.1476177420410103 -0.3128866495247653 0.6312771553464831
0.17716634983361246 1.0068217430524342 -0.25567764255464054
0.59523541100874411 -0.6994257432609623 0.57865982653275339
0.0064343084528744043 -0.29865874884425558 0.6122904445019417
-0.38222153468532127 -0.6368471831000857 -0.15071600932890084
0.86892491109911063 -0.23179588073259527 0.64395768722779634
-0.31031280411222184 -0.019043704605254952 0.77131013112713198
-0.33875173962809413 -0.64203186541670298 -0.059774365445377953
-0.46786146231057657 -0.585929130917199 0.42606629135914176
0.74835852384484625 -0.32831056775679945 0.67201958084559599
0.40025203741566528 0.88045921834125807 -0.34980946919812173
-0.23138517977412576 0.52293259956740368 0.66240147895792356
-0.34772423836556499 -0.23962961113391934 0.79643138694269666
0.1093269110822348 0.35395373260169816 0.72723304039550096
-0.41482610938698983 0.14727509423941676 0.80310679507847516
-0.88306550848146159 -0.55224558642486521 -0.28675212453160537
-0.18251462700119703 -0.41246347744986878 -0.45183831717054201
-0.3920880708452934 -0.24910567737965383 0.79006319775910416
-0.43385834360323727 -0.10539113050439042 0.80898397554386348
-0.3656427635923265 0.2905181730559061 0.64408212218397365
-0.81214678199603796 -0.95708889972725864 -0.44999355053407664
-0.33767204649247518 0.18410031989544517 0.79828388851723187
-0.5295078551755168 -0.34878608880588047 0.61859611885397037
0.50330293689876271 -0.65457430813165773 0.51469606605044271
-0.62749508623789652 -0.78636270259147878 -0.36107332859149244
0.26180305619857691 -0.15828245269519137 -0.38551804723938909
0.13234189615319636 0.92616948431013846 -0.31889909775635905
0.13827771487194696 0.82372399650295058 0.18182392454468177
