# XYZ point cloud file
-0.15430363748266984 0.43145958168190646 0.78229634932006098
0.19025641221753631 -0.14576825801145699 0.80578363641875539
0.35547948325838519 0.73154061084829092 -0.24840422037170606
-0.0087115585217603098 0.65977109463600669 0.68093263732061349
0.4255569333916398 1.1758523777486936 -0.54226710827698543
-0.057119812526970293 0.63419602112736051 0.70226640214095437
0.6052708756170162 -0.34448014652766101 0.34402622986485154
-0.81559023693730026 -0.3731634562795012 0.13566107600051547
-0.67175762995813315 0.66072458743682638 0.02383848393037924
0.32385630094978168 0.036932308577230621 0.66120442392851508
0.59190256983650968 -0.018766080419788445 0.6258677990129129
0.30331967034078389 0.74070681336233513 -0.25834733154956036
0.50841643951456916 0.8965025751717377 -0.39057443417322002
-0.43861371607995991 -0.59956717052460995 0.22307661212658392
-0.051129167749266458 -0.11925779081739574 0.75881172558463827
0.2291312802937604 1.0483199927811722 -0.35604909231126181
-0.70015276285833039 0.12154192448224777 0.65994167958031413
-0.85133616925149269 -0.85892727608368347 -0.44705469701678702
-0.74563337086449621 -0.23528814623707284 0.6421689267190045
-0.53819380023639241 -0.75809172525610968 -0.33446277645221922
-0.43490562855767934 0.17415081866733217 0.74635497643377047
-0.86216355035879388 0.24251807679218551 0.21116116606436908
-0.0078640198664423622 0.84960098083170621 0.26771163531984465
0.065432002091846186 0.83619229555415409 0.6140309080282359
0.14703338960257284 -0.043240559778406684 0.77545922427278224
-0.79167206136858681 -0.65777640622110489 -0.35363342453434532
-0.59706613403035647 -0.0045822212611117408 0.77086990231829233
0.77505103923870067 -0.39735460489426089 0.69863308019173087
-0.031439890199987275 0.31437691776962051 0.79694279927613021
0.69365074693569895 -0.39155867483704165 0.6612376099194579
0.21679339564464684 0.0049116017357100361 0.79721182949734581
-0.5432968449229385 -0.98930160994680705 -0.35721626084206193
-0.56454037158017556 -0.14152393165229604 0.74394871098634718
-0.55969786069481842 -0.60624482276254277 -0.24003644493550524
-0.41997711264600923 -0.62810145311782328 -0.1145284972151388
0.21632837442548691 -0.32118541455829153 0.69062978215192317
0.3439123956686494 1.1759586984984871 -0.52060090240551027
0.37189237260995256 0.82459027569270837 -0.32487324451046184
0.30068471342972813 0.25660707047248188 0.53168342796565859
-0.84272934650883613 -0.26999534524706625 0.1500690687569497
0.30522115281229389 0.54721536238509483 0.32500626751003425
0.16521578632326595 0.29044102856934018 -0.5902837900763882
-0.017690046579826202 0.48487199894175959 0.78567875383855412
-0.016560115224788063 0.81548135205177008 0.66394411211311766
0.18894917491070018 -0.37532385730294493 0.59814736128790136
-0.4399533004827525 -0.63534038589957653 -0.015240933800776624
-0.26149556572165977 -0.27405995566685792 0.73220621434870159
0.56313583033469072 1.0738751435633267 -0.45513505139440102
0.38888494863082101 0.15708713607993374 -0.21862044098420402
-0.27745950982671985 -0.69215148055147147 -0.1721032053781606
-0.65145992126988617 -0.95686285349153088 -0.43468222033481929
-0.45209060598972428 -0.37559302826548713 0.64382665704277464
-0.23303914238771739 0.43567791596182204 0.71624802957258549
0.20339469480774142 0.96325228179119105 -0.26709119630792078
0.32288792452992965 0.759260810700499 -0.28573850151946711
0.1928198758188131 0.36744762100314787 -0.55494392425311867
-0.66446259984931899 -0.81909170849684187 -0.38260601660989124
-0.11603971266021418 0.68553489904710663 0.73434807380465728
-0.61337844472344472 -0.67967500453905849 -0.33041530543012954
0.11987945269718026 -0.39020499393431329 0.23687512703502867
-0.25059536252835102 -0.21562189938400156 0.73928593791846353
0.67784402847403413 -0.27724414596452363 0.73010851549628697
-0.38957740937033947 0.019093905548072776 0.77443176131367375
-0.37634925036559963 0.27396583712341549 0.72357480041881894
-0.33363507139003445 -0.13649669826936339 0.81412434198152495
-0.12765643137745286 0.88485211284642418 0.20020488654474189
0.3764738340902305 0.0042958535678536691 0.68332802687833549
0.94352313645067198 -0.22768411527341481 0.4775428383923469
-0.49802143925404252 -0.67645303559630321 -0.29261388559169887
0.73083870734106071 -0.14382461948606196 0.39292801984669645
-0.21124005376518085 0.27755137310583233 0.70577409318175155
0.4352180276942228 1.1772172501785301 -0.43603642584682634
-0.67802503554013072 0.46555151644816029 0.33355776590083674
-0.73384470744663588 -0.62265093964988516 -0.28154358071083374
0.3856305775811073 0.57569152419470093 -0.10402021767168979
-0.036307602121990357 -0.182166261590611 -0.61799605249251077
0.037548535873149547 0.76529567017268718 0.66106804721413148
0.95063975228819331 -0.23677012375794781 0.53485620063994965
0.086940788330466034 -0.15072268755576168 0.75270718918858437
-0.29421313835283058 -0.078180343238836159 0.76579555159151003
-0.24113146933441243 0.50823343293682122 -0.69764086217179511
-0.36064631481855258 -0.1262142218623854 0.81494241516485033
-0.18985691299165453 -0.1542561117843988 0.74842481373079339
-0.59442228697163912 0.060129022918644637 0.53483378314694541
-0.70006749282293512 -0.6190352780597479 -0.39956271340705252
-0.29000460551502272 -0.3975210544773482 0.66605600910126839
0.7013823914723325 -0.43311750446401653 0.6535011720060111
0.30087908392042451 1.191273766306713 -0.41618190051731485
0.81102855165436338 -0.095230258927874623 0.50593923589482193
0.54508189855247124 -0.58758667889075245 0.67462574197469838
-0.35051521977390721 -0.065140270019135471 0.77754921073930872
-0.74095853987576987 -0.29015292592980124 0.65225362180715551
-0.76058044538980951 -0.42987915002751009 -0.34152279501588367
0.67286052957268438 -0.47028507818738108 0.69469105322638747
-0.15385055383823243 0.50850818454010316 0.75237894807664563
0.29319093265627316 1.1432916557032478 -0.44361423743563666
-0.24483146313503923 -0.20317644366158927 0.75471195035020466
0.061292594065594841 0.21040061339851412 0.66074422913185105
0.75581363291044212 -0.40629026908500654 0.67011948198385429
-0.23652585691761274 0.39212957623733313 0.77627141671958899
-0.77521681199540282 -0.99166797191825218 -0.41548937083635051
0.1249288954050094 -0.14743976380162316 0.80860782034435319
0.93309714857252501 -0.20126718446848946 0.56270450787944826
0.39599449771974449 0.92523999977785021 -0.37262496252543853
0.15944882239284297 0.91740727434798242 -0.19735861179835146
0.89487412275829215 -0.35246529657158288 0.60394433393086344
0.16804686371169453 1.0950693321234981 -0.28639125833703183
0.3739317290774764 -0.48415213836055937 0.66546154322746975
-0.43147181136584933 0.54753860883373306 0.68239160666720622
0.36935310810693878 -0.51354273725706356 0.44499715196953282
-0.15744745820973449 -0.2864936324997247 0.70799540265076821
-0.57908866509215429 -0.60133214066976315 0.010717376722673588
-0.54274641098428589 -0.70120164443358313 -0.32812851544824451
-0.20495148184853917 0.41279515172267978 0.76886004179174661
0.031921264923532533 0.32862551711028587 0.77296357188203402
-0.43237015064029549 -0.19032413029921269 0.80071754890431013
0.19459775668032364 0.044910264571719871 0.74734184778061397
0.73428104158652374 -0.53594099287196428 0.66528307531075059
0.32653503093239422 -0.14572387359275218 0.73973115209877927
-0.44654589051823734 0.5487725417140048 0.78404593809079048
0.021061649104062496 0.83579750512977746 0.47716831634678608
-0.45388291181179952 0.0039267752278568935 0.77255393783094162
0.74637663778888097 -0.34038046966782964 0.653853401426018
0.36277299188679279 0.69731498610386833 -0.2201343964666127
0.016923054039629903 0.61299340889217468 0.67700860183615541
0.23341011042945681 0.84113045965924194 -0.23779809030226584
-0.43648455962474131 0.26335073027608047 -0.7222749357761189
0.083090038351944173 0.74850952091004164 0.63541800398523296
-0.2830810047679293 0.41074463876275047 0.78266701852759102
-0.49574088896817869 -0.26274341475846619 0.73091527469224937
-0.0034737678243601522 0.40065025030709389 0.80381049573449781
-0.74162227057401608 -0.060344716925815334 0.71551895461629211
0.6502800163820055 -0.21532194149081629 0.36478294499402031
-0.55895358581503984 0.17994652088220775 0.75024258233789443
0.22780917576568882 -0.031403567390434262 0.80738716160788671
-0.19568774595470018 0.44015953314741907 0.76413030158546125
0.14380974764782195 0.23510239249247711 0.7205506788665057
0.37797116688997789 0.60300786844268117 -0.11607534387577245
-0.090685452637224273 0.76756918989860434 0.39417061972260825
0.39845410279050597 -0.56855147280604168 0.52447228182424732
0.46710970085843684 0.70192131105302202 -0.17556724715450089
-0.74901845940383183 -0.45792761842302276 0.54132360229165766
-0.066269339567352148 0.21474930464452235 0.71599047904950064
-0.55976267203676855 -0.03920351901545871 0.75407215368741154
-0.66908186304981498 -0.6104733623839298 -0.25749619264785473
0.2879251080413141 0.18041896573344562 0.48634608337483742
-0.49728436560529943 0.059186123212814579 0.78869127006919282
-0.60483391125667652 -1.0280246093367253 -0.39822266304779497
0.016897376058178537 0.90891820669991752 -0.33554803940672917
0.24674977150680988 -0.40863204805312403 0.63607099400889577
0.31647276740244479 0.42083881808260237 0.51021558020769486
-0.69401611657812623 -0.17069628105627821 0.47421634789621869
0.12015275196694475 -0.18866428921934464 0.79049700247850296
-0.57929471331400606 0.14427064462855377 0.80786820948103566
0.28615316958364545 0.77119578218008744 -0.29028629696504282
-0.24547374574962788 0.25301853841977273 0.78645753652840966
-0.44515601028380303 -0.74752868336314116 -0.31071314177104847
-0.24289719770506935 0.31985756699367673 0.77995631297083934
-0.57261122224000616 -0.33975862098861853 0.67219553775344032
-0.74689650916635841 -0.58433541596865446 -0.23933524090718006
-0.47752859843924966 -0.75329690029243856 -0.32198889275774878
-0.48692654717310901 -0.2547765479414883 0.74471052151740702
-0.69497848196091283 -0.37192716525817104 0.67086753247842967
0.28191352021097771 0.25219518949327568 0.58794350000010653
-0.56816717976840181 0.65499841070471554 -0.47166327975012967
0.66543291787387204 -0.46532558165569338 0.66469975469344256
-0.3072436004775696 -0.045670149573225238 0.76395231897655114
0.16156302488692376 0.50220434512009948 0.66809533497815399
0.36645013672194082 -0.12820633291806782 -0.17839707025903107
0.59374544651125305 0.90030751723667723 -0.40765802769176451
0.46229795226041048 1.1003943000373413 -0.48601743104354078
0.27299969636749211 -0.11445980539325884 0.77699356446523549
0.28312869361462845 0.71485221176141334 -0.083063028240946135
-0.1983393605140904 0.42675971578044436 0.76565083484418528
0.88808615904684629 -0.39210565125767394 0.5146467075880341
-0.13836815021413074 0.36940192086717261 0.79587227479989942
-0.011888138928807024 0.14227482011152937 -0.69747585680502078
-0.24312195487077659 0.69635706432185707 0.69931455622123306
-0.67746946850962431 -0.97484405377032779 -0.41380932352802624
0.67455396440180948 -0.37730016643108089 0.68212089729141345
0.12133737115740217 -0.088334967172277956 0.76707583967013049
-0.92020880147350681 -0.70492451744971696 -0.39488904874881525
0.29165792705185112 0.7542994663323892 -0.28115028811223031
0.30090500033870526 1.1287166454222275 -0.44153107642305844
0.15507812045389713 -0.005137247653276944 0.76226039970353243
0.46402941899777517 1.2254812831498239 -0.52849787452981323
0.52078724451639502 1.0510486999839905 -0.42432908742255826
0.12832629322735656 1.0825567512185472 -0.26948709434240659
0.29922778379721748 0.72309583705090841 -0.22322697363445254
0.24437303284975442 1.2196421696474955 -0.3813392451224078
-0.3110338277447795 0.62186869524250099 0.78649079487893414
0.50914686682127197 -0.11761454417138317 0.32371954369263944
0.25196556793594382 0.63985551921638528 0.54595713546673608
0.15079258214675662 0.65636990688736851 0.62408629480656963
0.75014370533959607 -0.3371125040913121 0.66098517103977983
0.14091606017217018 0.86564387040935209 -0.024314078367721592
-0.58784880503951698 -0.19708768830104439 0.6657113324486108
-0.19218834902537907 0.50219103016800837 0.72158152264120345
-0.21300344862319776 -0.24412505939325957 0.71624817217131298
0.2206816137228742 1.0481043128699383 -0.34155698148045088
-0.72850106443873486 -0.56757765134507032 -0.22380653480902124
0.40247046958213062 0.059335586695778986 0.52517695983975887
0.086013938870930673 -0.13388235395064996 0.75730521932488504
-0.92022263719258746 -0.55974782078481056 -0.32730765222460434
0.062132548373437402 0.36347871922645414 0.76375875593454357
0.30542283426482086 0.2366748006843995 0.44699686370391745
-0.41228625246592188 -0.24589593678675037 0.78794377638850577
0.67528473267202571 -0.34749880048900872 0.71779232911963797
-0.38080121106809273 0.42222437804108282 0.82374241235925272
0.7501190430590583 -0.49832464401655674 0.67752840084419086
0.35585697703735875 1.0395148542580719 -0.39812156584503855
0.19049915344283264 1.0051893506729517 -0.27293522143227333
0.20093214117216363 1.1583539906954492 -0.33632996648633107
-0.5154125924227948 -0.92946262626306009 -0.31492764775271365
0.93511270506989064 -0.28693949790418216 0.4908925506390851
-0.82469060393503213 -0.41606272532192889 -0.11195130921605978
0.60017180203723441 -0.67982030931878823 0.60886653942141367
-0.32021020969007097 -0.65826929144652446 -0.15724148660085957
-0.36680467894086988 0.28433587289181173 0.66796619644402977
0.24851496605808876 0.19582969541561646 0.63777762486117817
0.82193123276603686 -0.2265021481760745 0.67020447268220074
-0.57506821978734024 -0.18412604137533251 -0.59669131909893436
0.40616846452997279 -0.056252818952969186 0.71633731991571947
-0.35342346786657686 -0.75878728701154685 -0.31633609626076664
-0.1155758946395018 0.32993498298592971 0.78759159813334456
0.40125649601855073 0.83629514546680106 -0.32940508914189559
-0.75292595855083277 0.040626193868153138 0.71295363063355577
0.20832666327860494 0.41448018039813039 0.65926895178359679
-0.5099310155550576 -0.70422383864389992 -0.31925261448553188
0.65558137650380388 -0.49039598652345351 0.71808589967018754
0.056621128769133833 0.70902450516639348 0.6529125459000793
-0.21792777946700426 -0.03425310177594465 0.75459012455794561
-0.70629542853158256 0.077759221148818725 0.63513136964741479
-0.81139180838664515 -0.15836242163679159 0.23918608470412028
0.62998829670458889 -0.45502973349563858 0.70623103383511854
0.44099547122958427 1.1237390784306038 -0.48670227031212132
-0.32380521064533241 -0.70770552561389977 -0.16629227770352362
-0.40484649324682564 0.42540765156678173 0.81897404726214429
0.64965697546111301 -0.38674209367120627 0.7188100845592813
-0.48590884555235547 0.16189289308403154 -0.70217884834446131
-0.68233492371059512 -0.42382788894765433 0.64186132062710044
0.14598957787151079 -0.081821613324556175 0.77066970231562193
0.43796366465192804 0.63196112544931538 -0.29441496182254401
-0.19676854148568879 0.36589295362395813 0.76697829167913545
-0.046488883924006075 0.57812777269188587 0.7032711695481777
-0.14646292202444755 0.7511483356887414 0.66665199269616471
-0.57480234297665334 -0.079210326544680854 0.74600200526774962
0.038913678070674251 0.46008418316090705 0.7775955739891478
-0.51689234424588903 0.61924409027610849 -0.56035406881581684
0.20085959244408258 0.92213467500789381 -0.2395769990947767
-0.36899022909615553 0.2546192438192616 0.6443367697677056
-0.21462451520730852 -0.095545059934397436 0.75904628779941552
0.44364161301503913 -0.15820499183654757 0.73574974589426256
0.14934426897659137 -0.059893806037617736 0.76887910399084447
0.0049225018192053938 0.33495709043828725 0.80111959904763763
0.15404880595766812 -0.07705013585391729 0.78930533971207995
0.27657183048233591 0.71906155678098216 0.11041942904084601
0.18263017920869373 -0.19974038283591256 0.77646801416179745
0.55467526977056991 0.79080073458716438 -0.28440791892458028
0.27049192602806116 1.0327172232072019 -0.37422274052869398
0.68605327607442135 -0.53382232080004366 0.41143534363545875
0.21971300666324822 1.1915760396683703 -0.45320262396963029
0.55036518077551833 -0.55197677102163745 0.6947400000027093
0.38827525880861913 0.24316397905167886 -0.11030935562333566
0.28109267329157461 0.071440783555888565 0.61200967297569075
-0.54047924854305762 -0.33531671286174447 0.67412819323945783
-0.81138452214829115 -0.96269947624621111 -0.46738514445957557
0.73870160283232167 -0.37121814000371423 0.65261656823934233
-0.79554291628944185 -0.32509720448334001 -0.40500877934168567
0.38261069771790801 1.2696958825840579 -0.48764858317936266
0.25339494224849801 -0.059725520081964412 0.79814462968994304
0.37158240032540135 1.0753199569080536 -0.42184789839208126
0.26672777550259141 0.66045547025496099 0.3076640047529321
0.68427293616527862 -0.12103317429363081 0.39115493176373439
0.36992443832452082 0.94799378655262245 -0.3719141315864376
0.82276776614595803 -0.4915396116737214 0.60046622691981533
-0.1418856918596525 0.26846284071220872 0.77205533646708746
-0.70005260949895387 -0.17646171813833078 0.50860535441803556
-0.73188853665731912 -0.41468797344283637 0.62798500676789892
-0.097653343120505554 0.37337971354208221 0.81306930227387908
-0.065485887923244945 0.79315854482726778 0.54805198473667449
0.32709113774332366 1.0758396912509847 -0.40649566900468725
0.11347827915545139 0.88716083703050153 -0.055769529513804095
-0.24932722596832235 -0.57384719719483002 0.16874326160599651
-0.081502319693505854 0.60495085434965823 0.72109808708367362
0.28301622246166858 0.16008820269943591 0.50133118337073368
0.45916526488002418 0.022879358004700201 0.62704270619663505
-0.82267174579110858 -0.72143475748952746 -0.39876574532200326
0.13038836539837462 -0.13283418947342351 0.80914803720394346
-0.14849737931440643 0.032524316841612055 0.74768596968405676
0.10245544952019969 -0.14653287791620873 0.80022853296448693
0.10393292695030709 0.43059570615322329 -0.60113790989328342
-0.18394372190590502 0.045065936393907435 -0.72107888674860265
-0.59535931723002733 -0.6207601586956244 -0.27247778451968774
-0.077855353883208522 0.96401667002657909 -0.20087084484137741
0.34026607043567125 1.143091957669216 -0.45865059398477559
0.72910891304550418 -0.30425906950476822 0.70067978469227454
-0.083160240789471374 0.21007543745187451 0.75786396642664844
0.31786033586912055 0.42840776570958106 0.35272320626183495
-0.75276310262534096 -0.008524432760211198 0.70166323590444657
0.35721980216498039 0.069822323591379742 0.50201788416602255
-0.55237072193230929 -0.12020681262791744 0.75140198900319799
0.12077890727792351 0.43155601975240288 0.703633532138493
0.65107918520197572 -0.69338703982100114 0.55152208873730757
-0.13432667305420054 0.2851550707010313 0.76009038565307208
-0.055795047058786906 -0.48352727003067564 -0.1327803741724658
-0.39326567702049076 -0.18003197735751719 0.81152206922361847
-0.70913386340433604 -0.17519839774283952 0.72751433203204652
0.40996645717476099 -0.082065711944401265 -0.061327433045971325
0.2677962098763409 0.80616969530358773 -0.28054287522990684
0.10722401796840231 0.43107242588519146 0.72184964725553424
0.33004665158778934 0.66432567428882017 -0.039767121954269458
-0.86584388025926984 -0.29777898370304534 0.093351294281319941
0.77681171194359777 -0.16671844144013725 0.39632661456712115
-0.23472388306532466 -0.12023959502758075 0.76125825181403295
0.78616041288757543 -0.34837219517298168 0.70413429977823094
0.74666745865055972 -0.3291985523205696 0.6656336911251175
-0.7423442420127806 -0.78127467199034939 -0.3845827097716974
-0.37681117388084218 0.47037865230688958 0.64361311841658275
-0.047667871852297594 0.59522160190612272 0.68284749684236434
-0.15057150674025976 -0.012898500504782362 0.74517970273340906
0.27536072287651336 0.78421911860795213 -0.28055934681643535
0.40002129977384016 0.74086639872176363 -0.28944324335610272
-0.51565098104593687 -0.68769287502526844 -0.31844022072510558
-0.21158977477118057 -0.22134702933075534 0.73956035412982235
0.17607163801027781 0.14770515111627347 0.72635895267732842
0.096437668005414423 -0.10539385624445252 0.7646191089787604
0.10786893915926754 0.51206904262425823 0.68387648187788574
-0.85860636998809525 -0.68583034495274653 -0.39421285506487536
0.854660190787218 -0.38132311287505072 0.64342743210181119
-0.77595891711371578 0.02207446070385366 0.35027025277810386
-0.34305096593047679 0.53090361403261355 0.8091919410033297
0.42537770771378192 0.69597849239870158 -0.19529218489227107
0.31454523900792353 0.67724078345280514 -0.092508230067358976
0.50832394857788543 -0.60373049476231611 0.41462272328877381
0.1320472906479182 0.90004142197287251 -0.32051360387967387
0.42416583874908298 0.044453997410721868 -0.040239504648376723
-0.50922527513030857 -0.027952339232784951 0.70556761028777615
0.17014999313433421 0.86444467148076054 -0.1646272569387639
-0.34919074946621009 0.2404595709366637 0.78952429799589918
-0.62001547940889523 -0.97279103516759946 -0.37642534672242078
0.20734784592470135 -0.36993996344732061 0.35950889710399325
-0.16924404370865886 0.32321002196840798 0.75904892319030859
0.12084754978651802 -0.19581508631048372 0.75475123293227897
-0.62962157834258292 -0.70381696551826778 -0.33867754020449148
-0.73427794035981364 -0.83192587511668847 -0.40017329272082325
0.1332744544853135 0.56341597835276502 0.66540834730134002
0.13769682574328712 -0.082169201544506798 0.76067574342131916
0.10188957405761556 -0.26912136348355187 0.64736758946559636
0.11612711715719115 -0.32383123181929729 0.50774257325494387
-0.19069862189729747 -0.12810666264097303 0.75196012390202638
-0.49483083514841653 -0.060752142391605091 0.75757471119886022
0.7953258178800624 -0.28410184473864142 0.69586928811489512
-0.16972131672806512 0.49658888148343117 0.75768950013848579
-0.95371783113722586 -0.58049455625951651 -0.35233729831994065
0.21108811982204756 -0.17463912405288529 0.78538171258096456
-0.70514947143357887 -0.56781111290911035 -0.21893518260625999
-0.47192278089498174 -0.61271911634692522 -0.16683342297657289
0.050110707029588752 0.46592935333780439 0.77073954493856833
-0.41094305369437123 -0.34792378382083111 0.69381523001525558
-0.59617106101330819 -0.94164355870675642 -0.38662624078714325
0.014643598682159364 -0.43834200285990654 -0.23539999631722752
0.19630320832362003 0.66181633958934594 0.59068184808841462
0.44318881857093118 -0.46554425927477761 0.7050628688240157
-1.0158937551501452 -0.89600900246043302 -0.46671423265341483
-0.057834632823130505 0.27235792193990616 0.76311711280402772
0.30648868232543691 0.48089664990589487 0.39662862363412515
-0.4475464625502994 -0.58140678901014375 -0.3993551449494519
-0.59962410171785763 -0.63588189619419033 -0.3086625882093128
-0.61236574441537073 -0.58063701017444558 -0.17342868598282246
0.36726957580822273 -0.3381503906794654 0.28890045542564158
-0.65296229600976119 -0.35796505124470279 0.67149874117948549
-0.32315754634138116 0.27389451711967983 0.8129645720417269
0.32860412734192224 1.1733664500839298 -0.45396985267845524
0.074244319147403814 0.57784752706784204 0.67174262298060539
-0.38535841462896059 -0.30029880855873792 0.74804685161839979
-0.27930200514012427 -0.0075710181243344721 0.76611152186156195
-0.31498926569580732 0.24179529459182625 0.80907088494933399
-0.62202086418120928 -0.50491197318076253 0.58391493539249328
-0.36531909468299517 -0.0078114926996040168 0.73695965273459407
-0.56453976221631308 -0.0070856901174778386 0.76391118065818064
-0.53802534883964981 -0.035135421668321953 0.75671198094656233
-0.38783183325701387 -0.27832356019042592 0.77606682174990604
-0.50662244379207877 0.81123455808216605 -0.23643830476940453
0.039577749562550224 0.09207368595218135 0.75224986325458598
0.17853357245120094 -0.34272932800457134 0.63163252726844021
-0.75326910065877328 -0.74133740332841214 -0.37706927813263702
-0.10724112961505483 0.41749605094783071 0.81078341467891812
-0.3747167432479479 0.29264978607410974 0.62690201484927277
0.21523559098019618 1.1984284027107606 -0.35847633912874732
0.73001940777266228 -0.44473688451947124 0.67135848947473686
0.55246599167035271 -0.085980393138289202 0.6981895430384335
-0.10326329976255266 0.30485275035029602 0.77720050275998842
-0.13380086999204011 0.12746355751249538 -0.72899221234094536
0.65776538345846447 -0.55984758424291403 0.41033651644641189
0.53997065068884353 -0.1085404719810521 0.350659489539624
-0.18617947367819454 -0.30113671498184313 0.64118413377995331
0.47312114540116568 0.90915460160426065 -0.39995864047847363
0.83835020542108296 -0.24390753477801441 0.66569365582992468
-0.43519990205139791 0.020317406905983937 0.77434616516190902
0.24443382004164604 0.63450383631818141 -0.42385921745182387
0.42795907752800488 0.57953016100195498 -0.25570130651037593
-0.098179519491530698 0.22773515456349536 0.76383122959186656
0.82067820438367178 -0.1894365579263293 0.40214382563387741
-0.80671258424675329 -0.38343011574827202 -0.32398572326002961
0.29787851703558132 0.50176732291502013 -0.37469111455046766
0.895322424239545 -0.32614141879086223 0.61955199675456507
-0.22324452640766523 0.37546027728899922 0.77705405241280046
-0.49908074083419862 -0.64800948416566406 -0.289221607657423
-0.43654232692279393 -0.010987705766522637 0.73358321710947738
0.13530384994794531 0.32007059353272904 0.68338145003879069
0.43589987374869921 1.243231146755531 -0.52080180993646685
-0.81155400787316267 -0.59037489226580675 -0.40974057733149971
-0.2378413784815514 -0.38029315912420714 0.5958744558743474
0.33896738741925603 -0.10327493227185691 0.73674647870775045
0.15017066301949455 -0.040994396150877854 0.78365284838774851
-0.57534202466279893 -0.91356560754028671 -0.39351710618453017
0.32106261370210376 1.0361557877335201 -0.38540019648876056
0.75367978014269355 -0.51377301275638043 0.66488212100612598
0.15318033548695453 0.47227748195895991 0.65461349927500612
0.8491264489401722 -0.46407388787900405 0.525318332831616
-0.096951707982213975 0.77540868649496097 0.67470311617825141
0.4079382987994471 -0.4140185591698442 0.35542890495692081
0.094199654926224952 -0.31501617035894203 0.49179189793139155
0.18552516199640223 -0.2022787783970319 0.76788681008837223
0.25100864633555631 -0.36512531178884622 0.27023086103233496
0.049956011977734249 0.6083014051046387 0.67452484845497251
0.018031855435605593 0.92084495881407502 0.023854128652003981
0.29398536139228071 0.5887596026530062 0.50524215799099503
-0.34448802831881764 -0.099844429301530369 0.81074029550430371
-0.15634567978043634 -0.1713748713067087 0.66555141705237775
-0.20073029829584499 -0.4955357862571832 0.40182785887660977
-0.44234197455297775 -0.782298743961924 -0.27398749823841895
-0.17965792916663759 0.69074860718255504 0.74489149805353105
-0.21001083419567479 0.42836047580265912 0.77042842157692304
-0.74025571253402234 -0.23832890981395494 0.5841823167800233
0.57170423086783728 0.92054516146614773 -0.46318131312898503
0.22555881550021795 -0.009997165901789451 0.80388594171599825
0.27099490309228358 -0.36524536491257109 0.69196501422982015
0.097861132263119543 -0.16258386202480324 0.79326838312876369
0.23463768021220233 0.91236990136504392 -0.37757150408177553
-0.071389094184684865 0.12392587534279897 0.74592345483106115
0.51258194492764986 -0.33319274413248889 0.73797484289622339
0.26942255174859397 0.97451941238142137 -0.34561342696332531
0.44220124412494854 -0.57165864182648551 0.63350615356713957
0.013482266203968862 0.67704107192327534 0.66985945399255009
0.25247583415778507 0.75873392613037804 -0.011350869534836328
0.19538884474926732 1.2018007553128705 -0.42100470810543378
0.18710127939828425 -0.36448406962941871 0.3524201134435776
0.08417185730982979 -0.13659937720862647 0.78207653137629762
0.33940735163789171 0.65068485830096456 -0.0090149332350519806
-0.21284308822192344 -0.337817263527036 0.63154710061268649
-0.01671000899259667 0.34082145135844844 0.80728736079984964
-0.53637206237797841 -0.16432487784961225 0.7322898991469371
0.51003975437601667 -0.24301303600000601 0.31777054965971274
0.51951768720281422 -0.6575644497054518 0.47520855395279726
-0.47122876490120547 -0.21898131696066336 0.78155620455504726
-0.58600584860850091 0.54082611023438076 -0.57243440691352188
-0.99749331510077965 -0.88195681600939935 -0.43849287693644268
-0.55893449267543716 -0.033889433590037044 0.65576036858960762
0.057880775889021407 -0.29808984324361809 0.50986403545246839
0.52201419227959889 -0.036129744564658672 0.38224398395476311
-0.62123927022802761 0.018372300041340495 0.78409289154196271
0.3653453575660599 0.968022012355374 -0.3783932536883583
-1.0082649139674054 -0.64254392141975103 -0.38634894337182013
0.66970989287913341 -0.46734914161960139 0.67229608267999952
0.39556140363885461 0.73481651237708956 -0.27630572579974277
-0.20245324155342459 -0.34712112586132182 0.60602400290921876
-0.43580281790608311 0.19011483179587607 0.61768425372314706
0.28321726721004126 0.76609730070551318 -0.28064842536839096
0.3174072697932715 -0.16440579333230509 0.74001260257850721
0.39848525301162852 0.90281649093005178 -0.36144607466277012
0.39554871560618565 0.68029991241752619 -0.20721765563812511
0.43126607720134658 0.73677052161958301 -0.26546064005033587
0.75958095183789354 -0.39480743455784051 0.67039988502374293
0.14524420788445624 1.0290646915085091 -0.35660714975195695
0.045114377878604728 0.89096973788580769 0.10680392689216256
0.50038406438147121 -0.51975800799440819 0.38120119631727389
-0.12051792223531876 0.96994620499840956 -0.19931809984097448
0.74958480188283971 -0.30553617866966043 0.71643645971807035
-0.74626686355015437 -0.33981574355750865 0.55183350863695013
-0.61713040731481072 -0.19917330356661367 0.61733513756769076
-0.65494414457766581 -0.28446574405259284 0.69974634940334468
0.19807358664831298 0.021970743749989197 0.74684057732941955
-0.47898299154937973 -0.55715124851334785 0.53862695722461051
0.3114380455003527 0.075248731694311566 0.542133926841875
-0.35511907735498838 0.19432634085117861 0.78525286094001912
-0.40773190454040176 0.18000207320929729 0.74484931391376419
0.77003214582216728 -0.39761503567586542 0.69596333148068079
0.13696074817466553 -0.33463372731368679 0.56263306699763094
0.8513563051244688 -0.46380908625004036 0.55234488787489644
0.5027967892435079 0.84662546388599313 -0.31371136817653422
-0.37934212423327196 -0.51886681925337008 0.58256288005688361
0.36270862473153542 -0.012209695743020887 0.70254826267439574
-0.8105386691727503 -0.96010321412985533 -0.4710770739718626
0.66183449403541417 -0.078693556479071169 0.40984740426408739
0.36468881478513993 0.64653088649289803 -0.16429091627840764
-0.71963499861120539 -0.25831659203185886 0.38078009719578088
-0.13604084514482295 -0.2079287319592531 -0.62914248566707287
-0.7584823364950779 -0.50227728411839401 -0.31359002894664201
-0.21482711095606888 0.74581448216490998 0.35724077028374385
0.25887407367122606 1.0981572639190427 -0.40677208128113973
-0.63825109446671391 -0.04592649025495632 0.55410157648327463
-0.6090896371680401 -0.99275153400094673 -0.36966295435735486
0.3352231420806504 1.1710837369710845 -0.46449550311266252
-0.67741074653650912 -0.11357760943118933 0.53256760983815976
0.44087111808975976 1.1901024964645464 -0.44054700073436059
-0.13010360090624218 -0.03427793881320973 0.74424966767780543
-0.59064770443647774 -0.23753246431856034 0.70655491637034684
-0.18675235108085886 0.3312536327199469 0.77023569012494075
0.036038625498132859 0.86503454271023106 0.59142788927417689
0.45283882522698704 -0.092319639183313207 0.23021154036341662
0.53869891767204692 -0.50253724836368852 0.71306463163762768
-0.42877083252746928 0.58361283137245223 0.70213203990266715
0.621040142778849 -0.39962264196030262 0.73484744746281905
0.10588341589187422 -0.12771464332045923 0.80081892439167301
0.24335762575666564 0.010923999965648079 0.74318748366560983
-0.44211691750859572 -0.08918458583450839 0.80151905259028489
-0.51984677953868896 -0.51871736132960322 -0.43334101361696753
-0.64317854465454971 -0.64807161016064541 -0.31863002601811052
-0.23627614413627285 0.46596735185458904 0.76552802670949571
0.12696061480287568 -0.17714430244850998 0.80392046792440031
-0.20062452276758691 -0.39767439881656497 0.64699103155694937
-0.35818454313197279 0.87523681267217768 -0.31231594301287879
0.47035289457097207 0.83950961163287818 -0.34262369029471973
-0.64518016908407461 -0.86109803196971058 -0.46559298575309338
0.3689877724338082 0.31628878840797814 -0.18760972132979947
0.71750236758317953 -0.51184241353491089 0.69128365025308058
0.14042260242845472 1.1179227352823791 -0.29297541256328596
0.12601076485681162 0.73622144582984461 -0.46454775442026719
0.19547230040396357 0.030997027869177352 0.74834675314116916
-0.17235120936015136 0.59836160410070693 0.74609262318570346
0.20649911837449864 1.2316515860683683 -0.38889395275430072
0.51027924756324339 -0.63178577763143817 0.44163687684913189
0.21384276572672789 0.26087824299513507 0.67881537066254194
-0.51611877543864892 0.10212676667140386 0.81027539488959954
-0.5790780702573457 -0.29958680988129593 -0.54550483403016492
0.40967427539543166 0.68498388852060277 -0.20037639289414733
-0.28597028100116262 -0.17478692666388529 0.79707492941359481
0.27066268541204153 0.77508883910518644 -0.25344623053423643
0.17208614003491718 -0.048040174471650765 0.80404368066859666
0.031016894129454187 0.42327299029124976 0.78999773454833644
0.64204413377910896 -0.46421386604072756 0.71353875966307401
-0.41259931077547662 0.02109650080609704 0.77476954832234579
-0.025475078893411052 0.940928589765333 -0.26602846738858954
0.36560742515906597 -0.36584149949274014 0.31695480528162845
0.23401371374354696 0.92740034687630324 -0.2980778400679438
-0.4025810793244986 0.35137367912031703 0.70298656291248873
0.056744912880027698 0.36723422407110373 0.77252926575695136
0.13777323796517393 0.46770390310464638 0.67737956377186004
-0.66989485373951752 -0.98616532683750968 -0.39586730197479003
-0.442243021573276 0.24692566446209874 0.6006285447216575
-0.74559849837006098 -0.23704616385307986 0.61385954381048391
0.30327693804364486 0.42315576327738746 0.5595219707781236
0.30004190697014366 0.25791805718011585 0.51095480558546602
-0.71089957306088891 -0.47356564703359005 0.43456025245680419
0.16442258575382951 -0.08133490528367826 0.80403183790135735
0.2105916931467533 0.98358760219125596 -0.29318852874918866
0.28535766484277048 0.10692888752443608 0.51191863284775252
0.10389581364842115 0.81979034918794547 0.27365374897159078
-0.21688752468470796 0.4290633311090204 0.77200836162787834
0.41471805515032756 0.70181760448978192 -0.22191497736813925
0.14689458988621951 -0.07813515197112153 0.75802409714876706
0.91286272593390549 -0.24588902052914552 0.44020998812228884
-0.94754476918406638 -0.76652788821302487 -0.42772978016635088
-0.5382085788533999 -0.25692379103208385 0.69730658111282473
0.21686532967123284 1.083212716555189 -0.43609891868435735
-0.23743573255407213 -0.5978058260280843 -0.24317359575659925
-0.99263895008196457 -0.6050843084662425 -0.40527722331335836
0.0035062521491973087 0.62302558285599474 0.68317463486823282
-0.065875881437115424 0.86730871956354161 0.24143809492007362
-0.65193381854595955 -0.5864032160167465 -0.22601565456766615
0.51966451160678773 -0.13498475358210849 0.7226574639900365
-0.26937177102152887 -0.31533360042117309 -0.58102755803662998
-0.3086567822630677 -0.22818971583367276 0.79624375277542336
0.41232221718841089 0.80380020165140298 -0.31751840822944155
-0.27734071491510548 0.55384190263156707 0.78538555467556703
-0.66366956571556912 -0.75162540446410553 -0.35887123676001398
0.25863939859712204 -0.10725869202478755 0.78895912244233291
-0.36358002237160392 0.61990538715771581 0.66367134384572912
0.51093335992882771 0.88987973259795172 -0.36450466565986916
-0.7215465712291369 -0.38662507606413499 0.38672126997478706
-0.11990335713078437 0.44537262454644289 0.80504192237986683
0.66804150090651504 -0.67748143441704123 0.49824609820410837
-0.47476629588077301 0.16086713284285636 0.69182176372651671
0.5723042718607303 -0.37383253420885909 0.73698758411609289
0.64765855816401441 -0.25689413219109802 0.73000071176476533
-0.26626735182417605 -0.27177164687781108 0.72902843282895136
-0.755843707566207 -0.42248814788376698 0.55520013051766615
0.12122325773937703 0.48710958154518735 0.69228908508493814
-0.0033760234337911754 0.51764973350624999 0.76472582830241098
0.12985844353878662 0.40545230866667659 0.71313222787336716
-0.23276422483259296 0.31325812412769771 0.7059509671513422
-0.15985819064676221 0.71303074730876492 0.43767896477047069
0.11731154573680058 0.60080530770960916 0.56962853701907346
-0.45429475705635625 0.47706445074084236 0.71217157885564575
-0.35563196734744906 -0.63914238736551354 0.0066611668963130199
0.13829504667250703 -0.10508265735166589 0.8051919979822233
-0.99211556258197575 -0.73882275988578883 -0.40734974074124519
0.6572477610959595 -0.46234740076367675 0.66171105386905937
0.51697712383148087 0.68576619772233727 -0.28689524021092216
0.27842026437188849 1.2305173911958969 -0.39949157248042644
0.42243198500425194 -0.23439504470281847 0.2484553852713014
0.3760533319099082 1.0462583904111824 -0.41085351848686447
-0.59033472968841139 0.37433207580147965 0.45345317712536182
0.55344542359069138 -0.26757952035341992 0.73577565891836327
-0.47214652038666571 -0.58588182805989319 0.48032753308248566
0.36254732732375317 -0.21180091623938502 0.74034659649451795
-0.31545592689902691 0.78189109339237639 -0.4841199825312188
-0.2806319231946901 -0.29385342187651631 0.72199452162833122
-0.65691171109527602 -0.9445009298078233 -0.43466966875731572
0.93152822923250156 -0.18442742673468926 0.49893355495852509
0.31672676041488046 1.2602120179496055 -0.42641150061966515
0.54149242800576047 1.0625057854541424 -0.52401056143974012
0.66099402773138394 -0.66984208902095599 0.47069093636949466
-0.1822579479623343 0.33457257494469239 0.7653990530877044
-0.67621479535324625 -0.58371973308496727 -0.22832020624831051
-0.9782219558246581 -0.65871328599004464 -0.36866684823717799
0.40992573429145196 1.2411352914286047 -0.53848358796826234
0.49761793345341587 -0.39311202422541935 0.34697966704559091
-0.65410407736890619 0.088822634015407687 0.80464966213125289
-0.19087140369459732 0.50946264964641941 0.75894413637094593
-0.090834666436876432 0.26850127064133567 0.74896164664030129
0.42065992729335733 0.94611370076426038 -0.39575157147006923
0.26035565428964702 0.82908675441820368 -0.28045229484654621
-0.59745277920989537 -0.62587621164925444 -0.28605115294716477
0.29348677942929768 -0.040530315711795772 0.74603939410174469
-0.51941559053183184 -0.65562873119569431 -0.3164292803929003
0.62562962715128378 -0.41950284568132989 0.7102262520860676
-0.47639663513484365 -0.11073219001426882 0.78892331875566768
-0.41223478014336123 -0.36690114437896959 0.67107704294490222
-0.69176368851804071 -0.96995332996044503 -0.44863709438949373
-0.36857173201327598 0.27060237900393425 0.77394841863410857
0.5994773079822231 -0.43802914130634374 0.73294751248290613
0.74974264817820924 -0.59370637520819347 0.57201282453341795
0.3197079891324428 0.53204037258237946 -0.3529093130401102
-0.31006906844839932 0.20917225223000191 0.80582688502136968
-0.58491929556481637 0.090961060892108314 0.80744489142211018
-0.30437270408206274 -0.25872529573995529 0.7648664755586867
0.84005071844872248 -0.16850459172492904 0.41483539951226867
-0.58084708537526453 -0.32120289146337733 0.67757732611420618
0.25552665960821841 1.0731776453411452 -0.39493517787523791
0.61954706758375977 -0.68066352620944182 0.60611307748993548
0.27265823772743403 0.80896180587208821 -0.29141435191603549
0.18020134841280822 -0.19579355142639265 0.78407511232840044
0.67041507319531846 -0.53293879503808483 0.69951492318214736
0.039724043368423168 0.31792907694502048 0.76237188843195702
0.12289074017876089 -0.18416873572187065 0.79789766148969132
0.89040209904383261 -0.15761435779306066 0.46551999463443461
0.043132735603858663 -0.29053551375005426 0.57939932483138978
0.74508044926231776 -0.39502370362442285 0.38952728082726606
-0.38949196983487511 0.45894637596466925 0.82372124238557198
0.13278945620052696 0.79801008490998715 0.57021090058077206
0.3430573667397212 0.90630122764938381 -0.34502831902905662
-0.2970242786960533 -0.058541570202463866 0.75686287243815098
0.37085600447064238 0.52583791329394103 -0.27987749859649669
-0.37169872087985922 -0.537996229654782 0.55771077532607993
-0.37594379162553437 -0.78214931411629607 -0.18828847859312869
-0.38517557869049668 0.20811429584755636 0.64181063113048964
0.48594010635126139 0.81880428658598259 -0.29368949689850909
-0.24173822766400122 0.69701560348813896 0.6722097673933487
0.10432234178147226 -0.18135105591163736 0.77090998130526556
-0.34552523538336644 0.12266459072095515 0.80168491774898154
-0.37709600082469308 -0.24267198808661039 0.7941988540310172
-0.19253934722990351 -0.18745562352036949 0.74204772061903013
0.02106887281069092 -0.36738119981943207 -0.41688759144262133
-0.093054560330593006 0.96473165255723714 -0.082938826480998706
-0.78205193568957299 -0.61861617191673268 -0.28413679683930271
0.77822520738152079 -0.26851436178609811 0.70008925957824664
0.86793815148799425 -0.3818314693999878 0.62690792026719055
-0.68988577524675421 -0.52141694478394207 -0.37785971459894929
-0.78044369389894896 -0.82710320742099697 -0.49207472257396745
-0.57090660994442999 0.75442282246707038 -0.25391847679773294
0.14506502049829351 0.82251791013961739 0.49646045378196907
-0.37497325414539873 0.39248319038697232 0.65155862556523436
0.517860052669743 0.92827515367281066 -0.39486555182040872
-0.46963110006560882 -0.58201024957092251 0.39285902754191593
-0.090658396442467648 0.4881215557144456 0.79309450426162598
-0.79375906617752889 -1.0311007747676761 -0.425806369527165
-0.43615678788785672 -0.43166824305893137 0.64805118368660164
-0.33492747035895221 0.30748945288729956 0.81688435100162415
-0.21020322608257658 -0.13927063262381001 0.73153724961129996
0.19885861996771581 0.76615038493825516 0.25871363560254146
0.78689517549542387 -0.30942017968804603 0.70381942561780697
0.17125896184819922 1.1370198508125258 -0.30673662853324668
-0.10839963655613616 0.66752114831366072 0.7274204084287943
0.85050860851480081 -0.41342572505173347 0.63051428414764299
0.73293478776514931 -0.31605801148635271 0.66549280148500789
0.092049729319551687 0.83338812174554988 0.22734889717812057
0.099901131952858435 -0.41620910051440951 -0.15434457295429649
-0.28452204877126874 -0.72795277747875176 -0.19599132485270943
-0.28334988681488937 0.32716696289276559 0.79512923916105516
-0.21602239245945398 0.478834378326499 0.76306670370286955
-0.22533174427234215 0.95466368269400803 -0.078938380352504556
-0.59781941629467639 -0.40832070260019115 0.64442779083928858
-0.67461114087138441 -0.28673954457944895 0.70481804187230512
0.055720019633049844 0.49258549587231926 0.74185637044044928
-0.8483935596755714 -0.71601872623502949 -0.41216665910878847
-0.44509266461832908 -0.27098662015326447 0.76575892939195311
-0.23123127582945813 0.35773675675272365 0.72318332403801744
-0.72293820279793408 -1.0123071696328676 -0.40517861005453426
-0.047422405008127555 0.45761518406727486 0.80006759167991781
0.82022526207155266 -0.11265428210006334 0.46645135509533187
-0.47938671824472934 -0.3861994427586426 0.67095365649071148
0.64858712408305053 -0.02309676687451212 0.59187551854368503
-0.72141776109111078 -0.32654791708791642 0.44634633876157803
0.21221041943133656 -0.077422939506741173 0.80836173852108573
0.05459335454174763 0.39185112605949257 0.78513753978882295
-0.078740573103260658 -0.47901345524535266 -0.21614618371840688
-0.35951210759580121 -0.64198662593657652 -0.083533621887116993
-0.39399801838871085 -0.018871709444403528 0.76733726466133412
-0.73099173895458591 -0.3398938569240908 0.6586615481187108
0.84669418533940188 -0.41667147786992231 0.46469166479063451
0.3565487691350917 0.43143342936984652 -0.24385449383056401
-0.72101553558210796 -0.69097200080311261 -0.35174204057968073
-0.2625826991476643 0.43790458696014589 0.67715229167982072
-0.61597866666891221 -0.2387013324557099 0.70140720963228098
0.54538950166456956 0.015716297287103664 0.59384165610724793
0.17254308638144522 0.69797234751151738 0.59170714232040211
0.30158027536125331 1.11458562037694 -0.43127820883906498
0.44339643024800068 0.048513399610262908 0.4874070281326901
0.61144191517232116 -0.44822903952573556 0.72988037565495745
0.52368959668415016 -0.22355995883101398 0.7354159209737956
-0.74675316812786363 -0.50212312370277878 -0.15857677268155346
-0.64511338765398207 -0.63238996354481003 -0.29756675058596205
-0.093671770707981494 -0.43636781991217433 0.37857749534957374
-0.89542412866190446 -0.073282004533874456 0.13125397729017352
-0.54789717803823024 -0.050455299662199415 0.75300264171949394
0.080862530909040942 0.55534716550957164 0.67200354167576304
0.65527768095003935 -0.6114813093198781 0.42764910215801022
-0.10165779631928729 0.85709867534743189 0.24784061149939862
-0.94602326345428622 -0.68142311267516753 -0.37386892923877069
0.29584412994454468 0.67726258130004169 -0.37682165704720161
0.28997396197275549 0.13750309997820231 0.48780316402799051
-0.50981212823073818 -0.32302416049256522 0.66851838945256592
-0.42637107807727403 -0.40514595776883322 0.66705837177880323
0.40212560463282898 0.72637333726964393 -0.27501314840843172
0.46588091255102526 -0.0040496811357524365 0.37339508479553851
0.2743800036804025 1.1224707909634919 -0.42605270140624896
0.086160907946705834 -0.16941435936874516 0.75138085456665671
0.2985138985868403 -0.15440292300989178 0.74230135087122973
0.77293301585007157 -0.36931899470198459 0.70010273464433759
-0.11431085825983445 -0.059098986550715438 0.74742630325086656
-0.34258663425755032 0.47613967785016875 0.5497138064115934
-0.90823781716341401 -0.87882750538056698 -0.45325604907875627
-0.28985840392387274 -0.45849087863928073 0.62364752733012985
-0.68058450581592567 -0.85622535519720167 -0.4019111016521868
0.011587589395155362 0.66298726749780013 0.67433907030038887
0.19736162885295983 -0.36150682638893183 0.63302884556930161
-0.27529771949372517 -0.17545707632156926 0.78178280468040118
0.67707793732391863 -0.65026241671769824 0.60697147603307355
-0.79810353496441166 -0.36285330271082294 -0.36891661132470088
-0.33318822704637441 0.2393658482529144 0.80281548469340791
-0.44141294304334977 -0.80135626106566349 -0.25017970661982503
0.26445893406150134 -0.29334488127469349 0.72269344977899053
-0.86270068109955034 -0.74286138274878333 -0.42598335611451965
0.1835374615373091 0.19284670005081495 -0.58133422332299167
0.71322141797043059 -0.50736213102043104 0.41212059567194848
0.067338462499996865 0.60163888299317225 0.6216092358452
0.62140943526532766 -0.4447044567462779 0.70887453875976503
-0.19889032622559455 0.32237794679918785 0.7765429970309885
-0.46467945842026381 -0.2627730135236952 0.76014075324281904
0.060252100163481259 0.39002177362285551 0.78021610642780259
-0.37606573299112966 -0.3680133726686412 0.67537156396789211
-0.73600233361852574 -0.44920445239253226 0.48232616710411502
0.15645277439904248 0.79324750304441505 0.28623528967832546
-0.12594681576668521 -0.3577148053750836 -0.51827615113822922
-0.21884469426871789 0.51652855811052145 0.68333935276929392
0.41355894284757611 -0.22955937819089645 0.22023662362439622
-0.80420995368440984 -0.44439040679539588 -0.015825984217549216
-0.34000575770942021 0.02292130009499882 0.77254847052809916
0.48233745484929358 -0.54538952846342426 0.39319138045865509
0.0090344892544642619 0.9326001309101084 -0.17860963693920251
0.28036164962561116 0.46644724877117127 -0.39828753649016035
0.33686463828615842 1.1227220137358511 -0.442397751480478
0.72408587771790422 -0.3146449920301535 0.66740772094335199
0.68009924632337615 -0.60878699967717287 0.64942107725026554
0.39039395706954849 0.54292445146648127 -0.098578546785741406
0.20012442740559777 -0.19293798513859617 0.77382654981829635
0.34665298577091974 0.22515833723384393 0.30025271379630047
-0.31414953473376173 0.84895316310802471 -0.39335606115919974
0.028143676500263837 0.40245263650727914 0.79478089287416132
-0.66751041500895525 0.67674228695986116 -0.071373262909309343
