# XYZ point cloud file
-0.8227691650390625 -0.4378662109375 -0.24139404296875
0.8428497314453125 -0.16790771484375 -0.3331451416015625
0.8276519775390625 -0.17657470703125 -0.3290252685546875
0.8461456298828125 -0.181640625 -0.33197021484375
0.8599090576171875 -0.15618896484375 -0.336883544921875
0.8365478515625 -0.15484619140625 -0.333251953125
0.82171630859375 -0.1627197265625 -0.3290863037109375
0.8303680419921875 -0.1903076171875 -0.32781982421875
0.864105224609375 -0.17034912109375 -0.3357391357421875
0.8529205322265625 -0.1434326171875 -0.3365325927734375
-0.7631378173828125 -0.384033203125 -0.31646728515625
-0.769744873046875 -0.3946533203125 -0.3061370849609375
-0.750457763671875 -0.38653564453125 -0.306610107421875
-0.75360107421875 -0.37237548828125 -0.3252716064453125
-0.7772674560546875 -0.379638671875 -0.3273773193359375
-0.7848052978515625 -0.390869140625 -0.3168487548828125
-0.7565155029296875 -0.397216796875 -0.296630859375
-0.741607666015625 -0.37548828125 -0.3156890869140625
-0.767181396484375 -0.36810302734375 -0.3361053466796875
0.913055419921875 -0.1124267578125 -0.3515625
0.89569091796875 -0.128173828125 -0.3459930419921875
0.919586181640625 -0.12744140625 -0.353424072265625
0.9301605224609375 -0.09600830078125 -0.3569183349609375
0.90472412109375 -0.09808349609375 -0.3492431640625
0.887481689453125 -0.1141357421875 -0.3446502685546875
0.9014434814453125 -0.14227294921875 -0.346435546875
0.937744140625 -0.11236572265625 -0.3598785400390625
0.9213409423828125 -0.08111572265625 -0.35394287109375
-0.8187103271484375 -0.36370849609375 -0.370849609375
-0.8287353515625 -0.37701416015625 -0.361907958984375
-0.8056793212890625 -0.3692626953125 -0.3541717529296875
-0.8068389892578125 -0.3505859375 -0.3777618408203125
-0.8311004638671875 -0.35693359375 -0.3881378173828125
-0.8421478271484375 -0.37109375 -0.3805389404296875
-0.814849853515625 -0.38128662109375 -0.3447265625
-0.7943115234375 -0.35711669921875 -0.3622589111328125
-0.8189544677734375 -0.343505859375 -0.3945770263671875
0.9780426025390625 -0.04608154296875 -0.3702545166015625
0.962432861328125 -0.06280517578125 -0.366485595703125
0.98870849609375 -0.06353759765625 -0.3758392333984375
0.993377685546875 -0.02972412109375 -0.3734893798828125
0.96820068359375 -0.0311279296875 -0.366302490234375
0.952880859375 -0.04742431640625 -0.3623504638671875
0.97210693359375 -0.07989501953125 -0.3714141845703125
1.0049591064453125 -0.04681396484375 -0.379608154296875
0.98333740234375 -0.01580810546875 -0.36968994140625
-0.8636932373046875 -0.33544921875 -0.4402923583984375
-0.8779449462890625 -0.35052490234375 -0.4347686767578125
-0.8534698486328125 -0.34228515625 -0.4234619140625
-0.8509979248046875 -0.32135009765625 -0.445770263671875
-0.8738555908203125 -0.3284912109375 -0.456298828125
-0.888885498046875 -0.3436279296875 -0.4508514404296875
-0.8665771484375 -0.3575439453125 -0.41729736328125
-0.84063720703125 -0.32891845703125 -0.4290771484375
-0.861083984375 -0.31512451171875 -0.462158203125
1.04010009765625 0.00994873046875 -0.381256103515625
1.0238494873046875 -0.00189208984375 -0.3782806396484375
1.051300048828125 -0.00408935546875 -0.386260986328125
1.0580596923828125 0.0211181640625 -0.3856048583984375
1.031402587890625 0.02435302734375 -0.3788604736328125
1.014251708984375 0.011962890625 -0.374847412109375
1.0359039306640625 -0.0172119140625 -0.3836669921875
1.067596435546875 0.0069580078125 -0.39031982421875
1.0501708984375 0.03546142578125 -0.383819580078125
-0.9080047607421875 -0.3133544921875 -0.4966888427734375
-0.9222259521484375 -0.32696533203125 -0.4920501708984375
-0.8958892822265625 -0.31744384765625 -0.483734130859375
-0.895843505859375 -0.30108642578125 -0.5045013427734375
-0.921478271484375 -0.31207275390625 -0.511627197265625
-0.93402099609375 -0.32427978515625 -0.5065155029296875
-0.910919189453125 -0.3310546875 -0.47894287109375
-0.88330078125 -0.3045654296875 -0.4904632568359375
-0.909576416015625 -0.2998046875 -0.5203399658203125
1.0037994384765625 0.06494140625 -0.3752899169921875
0.994537353515625 0.07733154296875 -0.372894287109375
0.98455810546875 0.05389404296875 -0.368499755859375
1.01373291015625 0.05126953125 -0.3764495849609375
1.024505615234375 0.07415771484375 -0.38311767578125
1.0163726806640625 0.0863037109375 -0.3819732666015625
0.9743499755859375 0.06732177734375 -0.364654541015625
0.9955596923828125 0.0404052734375 -0.3713836669921875
1.0337066650390625 0.06231689453125 -0.3834228515625
-0.8575592041015625 -0.264404296875 -0.529266357421875
-0.84393310546875 -0.26531982421875 -0.5107269287109375
-0.845458984375 -0.25213623046875 -0.53424072265625
-0.8717041015625 -0.26446533203125 -0.54864501953125
-0.8705902099609375 -0.27703857421875 -0.521820068359375
-0.857421875 -0.279296875 -0.504974365234375
-0.8314056396484375 -0.2525634765625 -0.514373779296875
-0.86077880859375 -0.25360107421875 -0.555206298828125
-0.884613037109375 -0.275390625 -0.5400848388671875
0.9332427978515625 0.01324462890625 -0.3526458740234375
0.917755126953125 -0.0025634765625 -0.3485260009765625
0.9458160400390625 -0.00152587890625 -0.3582611083984375
0.9494171142578125 0.0283203125 -0.35723876953125
0.921539306640625 0.0279541015625 -0.34588623046875
0.906005859375 0.01190185546875 -0.34197998046875
0.9304351806640625 -0.0181884765625 -0.35418701171875
0.9617462158203125 0.01336669921875 -0.3622589111328125
0.937835693359375 0.04254150390625 -0.350982666015625
-0.808380126953125 -0.278076171875 -0.4581146240234375
-0.8231353759765625 -0.2933349609375 -0.4551849365234375
-0.7977294921875 -0.2843017578125 -0.4413604736328125
-0.7951202392578125 -0.26251220703125 -0.45892333984375
-0.8193206787109375 -0.2723388671875 -0.4754180908203125
-0.8339385986328125 -0.287109375 -0.47210693359375
-0.8125762939453125 -0.2999267578125 -0.438232421875
-0.78448486328125 -0.26898193359375 -0.4424896240234375
-0.8063201904296875 -0.258056640625 -0.4765167236328125
0.8722991943359375 -0.05487060546875 -0.3392486572265625
0.862152099609375 -0.0401611328125 -0.3341217041015625
0.8568572998046875 -0.0718994140625 -0.3366851806640625
0.8834381103515625 -0.06964111328125 -0.34326171875
0.887664794921875 -0.03662109375 -0.3423614501953125
0.876739501953125 -0.02239990234375 -0.3362274169921875
0.8471221923828125 -0.05792236328125 -0.33270263671875
0.8672332763671875 -0.086669921875 -0.339752197265625
0.8993682861328125 -0.0521240234375 -0.34674072265625
-0.76617431640625 -0.30853271484375 -0.395355224609375
-0.754730224609375 -0.31683349609375 -0.3816375732421875
-0.7537689208984375 -0.29449462890625 -0.3986053466796875
-0.776824951171875 -0.2999267578125 -0.4100341796875
-0.7797698974609375 -0.32269287109375 -0.3902130126953125
-0.7679290771484375 -0.33050537109375 -0.375823974609375
-0.7429351806640625 -0.30340576171875 -0.3854522705078125
-0.76409912109375 -0.28582763671875 -0.412384033203125
-0.79132080078125 -0.3148193359375 -0.4057769775390625
0.8080291748046875 -0.12103271484375 -0.3310089111328125
0.8179168701171875 -0.130859375 -0.332244873046875
0.8241119384765625 -0.10540771484375 -0.333221435546875
0.79876708984375 -0.1124267578125 -0.3284149169921875
0.793914794921875 -0.133544921875 -0.3280181884765625
0.8038177490234375 -0.14129638671875 -0.32879638671875
0.833984375 -0.11767578125 -0.3349456787109375
0.8146514892578125 -0.09503173828125 -0.3303680419921875
0.786224365234375 -0.125732421875 -0.325897216796875
-0.7176666259765625 -0.34033203125 -0.3454437255859375
-0.7300567626953125 -0.33306884765625 -0.3567352294921875
-0.7297515869140625 -0.3505859375 -0.3401336669921875
-0.7066802978515625 -0.34649658203125 -0.3352508544921875
-0.7068939208984375 -0.33203125 -0.3487091064453125
-0.7189483642578125 -0.322998046875 -0.3601531982421875
-0.742462158203125 -0.344482421875 -0.3509063720703125
-0.718231201171875 -0.3544921875 -0.3299407958984375
-0.6973724365234375 -0.33856201171875 -0.3382110595703125
0.8326873779296875 -0.220703125 -0.3176116943359375
0.8245086669921875 -0.2301025390625 -0.3095550537109375
0.8519287109375 -0.212890625 -0.319580078125
0.8405914306640625 -0.208740234375 -0.32440185546875
0.8173370361328125 -0.2275390625 -0.3172454833984375
0.81097412109375 -0.23516845703125 -0.31048583984375
0.8430023193359375 -0.22393798828125 -0.310211181640625
0.8596343994140625 -0.19854736328125 -0.327178955078125
0.82427978515625 -0.216552734375 -0.322235107421875
-0.7673187255859375 -0.4197998046875 -0.264556884765625
-0.784423828125 -0.4178466796875 -0.2700042724609375
-0.7620086669921875 -0.42413330078125 -0.248687744140625
-0.753265380859375 -0.421142578125 -0.261260986328125
-0.77154541015625 -0.41278076171875 -0.279937744140625
-0.7878570556640625 -0.40997314453125 -0.287872314453125
-0.7794342041015625 -0.4229736328125 -0.251220703125
-0.749176025390625 -0.4248046875 -0.248748779296875
-0.7574615478515625 -0.4151611328125 -0.2737274169921875
0.9237823486328125 -0.19049072265625 -0.353057861328125
0.950714111328125 -0.18212890625 -0.370452880859375
0.9248504638671875 -0.16748046875 -0.354217529296875
0.8981475830078125 -0.1971435546875 -0.3371429443359375
0.92156982421875 -0.21087646484375 -0.349853515625
0.9522705078125 -0.2047119140625 -0.3717803955078125
0.947967529296875 -0.1571044921875 -0.367279052734375
0.9022979736328125 -0.17755126953125 -0.3421783447265625
0.892791748046875 -0.21435546875 -0.3303070068359375
-0.848175048828125 -0.42138671875 -0.318359375
-0.843719482421875 -0.40631103515625 -0.3352813720703125
-0.8709564208984375 -0.42431640625 -0.3435211181640625
-0.8511962890625 -0.43524169921875 -0.3003692626953125
-0.82550048828125 -0.4189453125 -0.2968292236328125
-0.8246917724609375 -0.4068603515625 -0.315704345703125
-0.862274169921875 -0.40576171875 -0.35784912109375
-0.8785400390625 -0.4415283203125 -0.3281707763671875
-0.825042724609375 -0.4288330078125 -0.27691650390625
1.0335540771484375 -0.140625 -0.4104461669921875
1.0589447021484375 -0.1192626953125 -0.4170379638671875
1.0168304443359375 -0.11151123046875 -0.396728515625
1.0063323974609375 -0.15802001953125 -0.4002532958984375
1.0485992431640625 -0.165771484375 -0.42132568359375
1.07830810546875 -0.1434326171875 -0.4301300048828125
1.03826904296875 -0.0928955078125 -0.402313232421875
0.99432373046875 -0.12896728515625 -0.3890838623046875
1.01702880859375 -0.184814453125 -0.409515380859375
-0.937408447265625 -0.4183349609375 -0.4188079833984375
-0.91534423828125 -0.39251708984375 -0.424072265625
-0.9558563232421875 -0.41131591796875 -0.442413330078125
-0.957489013671875 -0.441650390625 -0.4131622314453125
-0.9164886474609375 -0.4224853515625 -0.3946380615234375
-0.89862060546875 -0.39813232421875 -0.4028472900390625
-0.9307098388671875 -0.38543701171875 -0.4442291259765625
-0.979034423828125 -0.43438720703125 -0.4400177001953125
-0.932708740234375 -0.44488525390625 -0.3856353759765625
1.1185302734375 -0.046630859375 -0.423583984375
1.130035400390625 -0.0211181640625 -0.4228515625
1.0914459228515625 -0.03350830078125 -0.4089508056640625
1.102203369140625 -0.07196044921875 -0.42327880859375
1.1436920166015625 -0.05712890625 -0.43804931640625
1.15545654296875 -0.0255126953125 -0.4366455078125
1.1043701171875 -0.014892578125 -0.409942626953125
1.075897216796875 -0.0531005859375 -0.4076690673828125
1.1266937255859375 -0.088134765625 -0.4375152587890625
-0.99139404296875 -0.37786865234375 -0.5089874267578125
-0.9648284912109375 -0.3597412109375 -0.498779296875
-0.9950103759765625 -0.36431884765625 -0.5297393798828125
-1.016265869140625 -0.39398193359375 -0.5196075439453125
-0.983306884765625 -0.390869140625 -0.487335205078125
-0.9557647705078125 -0.369140625 -0.4813995361328125
-0.9709320068359375 -0.35076904296875 -0.5158538818359375
-1.0179595947265625 -0.3758544921875 -0.5438079833984375
-1.0090484619140625 -0.40972900390625 -0.4935302734375
1.1307830810546875 0.048828125 -0.4176483154296875
1.122039794921875 0.06756591796875 -0.415557861328125
1.1046295166015625 0.04034423828125 -0.4051055908203125
1.136016845703125 0.0274658203125 -0.419769287109375
1.1546630859375 0.056884765625 -0.42889404296875
1.143524169921875 0.07763671875 -0.4259796142578125
1.0970306396484375 0.056884765625 -0.4031982421875
1.110748291015625 0.02239990234375 -0.40789794921875
1.1608734130859375 0.03240966796875 -0.43194580078125
-0.9739990234375 -0.31689453125 -0.5797576904296875
-0.9551544189453125 -0.3135986328125 -0.5541534423828125
-0.95953369140625 -0.30157470703125 -0.5917510986328125
-0.9904632568359375 -0.320556640625 -0.602935791015625
-0.9857635498046875 -0.33349609375 -0.5655364990234375
-0.9660491943359375 -0.32769775390625 -0.543792724609375
-0.942657470703125 -0.30035400390625 -0.5649261474609375
-0.9733734130859375 -0.30291748046875 -0.615020751953125
-1.00433349609375 -0.33935546875 -0.58624267578125
1.0848388671875 0.09716796875 -0.408447265625
1.0679931640625 0.0927734375 -0.4009246826171875
1.0969390869140625 0.092041015625 -0.41131591796875
1.0889129638671875 0.10516357421875 -0.411773681640625
1.06439208984375 0.10211181640625 -0.4021148681640625
1.0769805908203125 0.0830078125 -0.4011993408203125
1.110198974609375 0.1016845703125 -0.4178009033203125
-0.9152984619140625 -0.27008056640625 -0.6022796630859375
-0.927825927734375 -0.27716064453125 -0.603668212890625
-0.9028167724609375 -0.26800537109375 -0.588653564453125
-0.9153900146484375 -0.26617431640625 -0.6137237548828125
-0.93524169921875 -0.275634765625 -0.6215972900390625
-0.9146270751953125 -0.27716064453125 -0.5819854736328125
-0.8958587646484375 -0.2598876953125 -0.59722900390625
0.8566436767578125 -0.34466552734375 -0.3240966796875
0.8556060791015625 -0.33892822265625 -0.293121337890625
0.8020477294921875 -0.3441162109375 -0.29241943359375
0.8613739013671875 -0.33001708984375 -0.3559722900390625
0.915069580078125 -0.3377685546875 -0.36029052734375
0.91357421875 -0.3331298828125 -0.3313446044921875
0.8007049560546875 -0.3385009765625 -0.259033203125
0.807708740234375 -0.33013916015625 -0.326629638671875
0.919158935546875 -0.32269287109375 -0.389404296875
-0.816192626953125 -0.5150146484375 -0.1897735595703125
-0.7610931396484375 -0.5020751953125 -0.15997314453125
-0.815582275390625 -0.50701904296875 -0.15240478515625
-0.872467041015625 -0.527099609375 -0.2279510498046875
-0.81451416015625 -0.509765625 -0.2401580810546875
-0.76129150390625 -0.49786376953125 -0.212554931640625
-0.76019287109375 -0.49310302734375 -0.1212158203125
-0.8722686767578125 -0.5185546875 -0.1926727294921875
-0.86968994140625 -0.520751953125 -0.2763824462890625
1.0995025634765625 -0.263916015625 -0.4408721923828125
1.094451904296875 -0.2611083984375 -0.4182891845703125
1.0381011962890625 -0.29888916015625 -0.4215240478515625
1.1043243408203125 -0.2489013671875 -0.4616241455078125
1.1561126708984375 -0.21832275390625 -0.452484130859375
1.149810791015625 -0.2159423828125 -0.431610107421875
1.03509521484375 -0.29583740234375 -0.396331787109375
1.04241943359375 -0.28302001953125 -0.4451446533203125
1.1615753173828125 -0.20465087890625 -0.4711761474609375
-1.0335540771484375 -0.5228271484375 -0.3590087890625
-0.9837646484375 -0.53125 -0.3142852783203125
-1.031585693359375 -0.5166015625 -0.33026123046875
-1.076690673828125 -0.5068359375 -0.404449462890625
-1.030029296875 -0.51666259765625 -0.399993896484375
-0.979644775390625 -0.52471923828125 -0.358367919921875
-0.98272705078125 -0.52532958984375 -0.2835235595703125
-1.073638916015625 -0.50018310546875 -0.37890625
-1.0734710693359375 -0.50146484375 -0.4416046142578125
1.2695465087890625 -0.03143310546875 -0.4456329345703125
1.26165771484375 -0.0262451171875 -0.4295806884765625
1.242706298828125 -0.09912109375 -0.453399658203125
1.274139404296875 -0.03057861328125 -0.460662841796875
1.2854766845703125 0.036376953125 -0.4354095458984375
1.27850341796875 0.0438232421875 -0.4198455810546875
1.2346038818359375 -0.094970703125 -0.4361724853515625
1.2479400634765625 -0.09283447265625 -0.4694976806640625
1.2881622314453125 0.0302734375 -0.450714111328125
-1.1368560791015625 -0.413818359375 -0.54754638671875
-1.1292572021484375 -0.4508056640625 -0.499420166015625
-1.132476806640625 -0.40655517578125 -0.5306549072265625
-1.132568359375 -0.37457275390625 -0.595306396484375
-1.13568115234375 -0.41680908203125 -0.5690765380859375
-1.1277313232421875 -0.4503173828125 -0.5263671875
-1.124755859375 -0.4447021484375 -0.479339599609375
-1.12872314453125 -0.365478515625 -0.580596923828125
-1.1310882568359375 -0.380859375 -0.6109619140625
1.271392822265625 0.20147705078125 -0.4200439453125
1.263214111328125 0.21636962890625 -0.4017181396484375
1.286163330078125 0.1556396484375 -0.422576904296875
1.2761993408203125 0.17718505859375 -0.439239501953125
1.2466888427734375 0.2366943359375 -0.418670654296875
1.2379913330078125 0.25347900390625 -0.3986663818359375
1.27862548828125 0.16754150390625 -0.4053802490234375
1.288970947265625 0.13714599609375 -0.439727783203125
1.2525634765625 0.2061767578125 -0.4395751953125
-1.0621795654296875 -0.26324462890625 -0.7218017578125
-1.0939178466796875 -0.29779052734375 -0.6850738525390625
-1.058837890625 -0.2493896484375 -0.7088165283203125
-1.0251922607421875 -0.23187255859375 -0.747589111328125
-1.066070556640625 -0.2818603515625 -0.7267608642578125
-1.094879150390625 -0.3123779296875 -0.6916961669921875
-1.090362548828125 -0.28594970703125 -0.6722564697265625
-1.0220947265625 -0.216064453125 -0.734405517578125
-1.0306854248046875 -0.25543212890625 -0.7508544921875
1.124237060546875 0.26556396484375 -0.4022064208984375
1.1169586181640625 0.28948974609375 -0.3766326904296875
1.1713714599609375 0.267578125 -0.4097442626953125
1.12939453125 0.22381591796875 -0.4287567138671875
1.0752716064453125 0.257080078125 -0.3925323486328125
1.069122314453125 0.28155517578125 -0.3647918701171875
1.1633453369140625 0.28887939453125 -0.385986328125
1.177001953125 0.22857666015625 -0.434722900390625
1.0792388916015625 0.2132568359375 -0.4197845458984375
-0.90313720703125 -0.16802978515625 -0.7331695556640625
-0.944000244140625 -0.1837158203125 -0.7529144287109375
-0.903106689453125 -0.147705078125 -0.7165985107421875
-0.8639373779296875 -0.15625 -0.703582763671875
-0.907989501953125 -0.19989013671875 -0.7354583740234375
-0.94970703125 -0.2138671875 -0.754669189453125
-0.9425811767578125 -0.165283203125 -0.737518310546875
-0.865509033203125 -0.13623046875 -0.686187744140625
-0.8670654296875 -0.189453125 -0.707305908203125
0.94287109375 0.21258544921875 -0.354156494140625
0.94207763671875 0.23760986328125 -0.326751708984375
0.983245849609375 0.22857666015625 -0.3675689697265625
0.9408721923828125 0.16900634765625 -0.3810577392578125
0.9071502685546875 0.19580078125 -0.3433990478515625
0.908233642578125 0.2200927734375 -0.3160552978515625
0.9802703857421875 0.2535400390625 -0.3396759033203125
0.9833221435546875 0.18450927734375 -0.3947601318359375
0.9030303955078125 0.15216064453125 -0.369140625
-0.766448974609375 -0.13677978515625 -0.6012420654296875
-0.79510498046875 -0.1405029296875 -0.6351318359375
-0.77325439453125 -0.117431640625 -0.58258056640625
-0.741546630859375 -0.1365966796875 -0.5691680908203125
-0.76275634765625 -0.1700439453125 -0.6051025390625
-0.7938690185546875 -0.1748046875 -0.639007568359375
-0.80010986328125 -0.1201171875 -0.6164703369140625
-0.7501068115234375 -0.11767578125 -0.550445556640625
-0.7355804443359375 -0.16864013671875 -0.573486328125
0.9036712646484375 -0.101806640625 -0.412017822265625
0.954376220703125 -0.09033203125 -0.4335479736328125
0.885986328125 -0.20452880859375 -0.402496337890625
0.85748291015625 -0.11077880859375 -0.393310546875
0.9208984375 0.00537109375 -0.4119415283203125
0.9683074951171875 0.01812744140625 -0.4295806884765625
0.9396514892578125 -0.195068359375 -0.428436279296875
0.8369140625 -0.2099609375 -0.38018798828125
0.877716064453125 -0.0068359375 -0.3964996337890625
-0.78521728515625 -0.361083984375 -0.4631805419921875
-0.79827880859375 -0.4306640625 -0.3818817138671875
-0.8288116455078125 -0.36871337890625 -0.4970855712890625
-0.7728271484375 -0.2861328125 -0.5352020263671875
-0.744720458984375 -0.3531494140625 -0.4353485107421875
-0.752685546875 -0.42034912109375 -0.3558502197265625
-0.8466339111328125 -0.4400634765625 -0.416473388671875
-0.8114776611328125 -0.2923583984375 -0.5687408447265625
-0.737518310546875 -0.28143310546875 -0.5057373046875
1.12371826171875 -0.032470703125 -0.4801177978515625
1.129302978515625 0.06890869140625 -0.4694671630859375
1.175994873046875 -0.00799560546875 -0.4865264892578125
1.11712646484375 -0.1298828125 -0.4829254150390625
1.0669708251953125 -0.05596923828125 -0.4701080322265625
1.0748291015625 0.05133056640625 -0.461151123046875
1.1794281005859375 0.085693359375 -0.475311279296875
1.17144775390625 -0.09637451171875 -0.4897003173828125
1.057769775390625 -0.15753173828125 -0.4705657958984375
-0.9691162109375 -0.376953125 -0.5995025634765625
-1.0121307373046875 -0.37652587890625 -0.6258544921875
-0.941680908203125 -0.3087158203125 -0.6666412353515625
-0.92218017578125 -0.3765869140625 -0.5681610107421875
-0.996063232421875 -0.4415283203125 -0.5251007080078125
-1.0397186279296875 -0.43450927734375 -0.5561981201171875
-0.9845123291015625 -0.31341552734375 -0.6890869140625
-0.89715576171875 -0.303466796875 -0.63812255859375
-0.9473114013671875 -0.4449462890625 -0.489898681640625
1.268829345703125 0.0465087890625 -0.4794769287109375
1.2756805419921875 0.09112548828125 -0.4722900390625
1.274688720703125 0.0150146484375 -0.479278564453125
1.25262451171875 0.0341796875 -0.485107421875
1.25469970703125 0.0999755859375 -0.4748992919921875
1.285125732421875 0.062744140625 -0.4688262939453125
1.2522125244140625 -0.025146484375 -0.486663818359375
-1.090789794921875 -0.3673095703125 -0.663330078125
-1.1101226806640625 -0.3896484375 -0.6347808837890625
-1.0833740234375 -0.34100341796875 -0.6929931640625
-1.07647705078125 -0.370849609375 -0.65985107421875
-1.09912109375 -0.40924072265625 -0.609344482421875
-1.1060943603515625 -0.36090087890625 -0.66400146484375
-1.0561981201171875 -0.32830810546875 -0.7051849365234375
0.827606201171875 0.12969970703125 -0.3316650390625
0.8098907470703125 0.12103271484375 -0.3309173583984375
0.83245849609375 0.15826416015625 -0.298065185546875
0.8497467041015625 0.14990234375 -0.33209228515625
0.8186187744140625 0.08648681640625 -0.3631134033203125
0.7998046875 0.0750732421875 -0.3701629638671875
0.8150634765625 0.15155029296875 -0.291412353515625
0.853790283203125 0.1771240234375 -0.3026123046875
0.842041015625 0.1077880859375 -0.3596954345703125
-0.68524169921875 -0.15869140625 -0.500457763671875
-0.69793701171875 -0.13665771484375 -0.476409912109375
-0.67120361328125 -0.1595458984375 -0.4919281005859375
-0.672454833984375 -0.19085693359375 -0.5138397216796875
-0.701324462890625 -0.150390625 -0.5170745849609375
-0.7126922607421875 -0.13037109375 -0.4965362548828125
-0.6856536865234375 -0.13592529296875 -0.46099853515625
-0.6546630859375 -0.1937255859375 -0.5135650634765625
-0.690948486328125 -0.18218994140625 -0.526092529296875
0.75164794921875 -0.13848876953125 -0.3914031982421875
0.779449462890625 -0.05316162109375 -0.39569091796875
0.7818603515625 -0.12847900390625 -0.3814849853515625
0.7232208251953125 -0.2183837890625 -0.3743133544921875
0.7242584228515625 -0.1474609375 -0.408355712890625
0.7554779052734375 -0.0645751953125 -0.41241455078125
0.807373046875 -0.0372314453125 -0.387115478515625
0.7559356689453125 -0.21502685546875 -0.365264892578125
0.692901611328125 -0.22222900390625 -0.3914794921875
-0.6444091796875 -0.34710693359375 -0.4215545654296875
-0.6750335693359375 -0.3466796875 -0.4140625
-0.65179443359375 -0.2891845703125 -0.4749603271484375
-0.6143951416015625 -0.34844970703125 -0.439239501953125
-0.6384124755859375 -0.40087890625 -0.3565521240234375
-0.6733245849609375 -0.40521240234375 -0.342620849609375
-0.6776885986328125 -0.28350830078125 -0.47406005859375
-0.6254730224609375 -0.29248046875 -0.487579345703125
-0.6044769287109375 -0.398681640625 -0.3794097900390625
0.6688232421875 -0.33294677734375 -0.2633514404296875
0.6319122314453125 -0.33123779296875 -0.2725677490234375
0.6800689697265625 -0.31866455078125 -0.3070068359375
0.708587646484375 -0.33636474609375 -0.2608795166015625
0.6648712158203125 -0.330322265625 -0.2209930419921875
0.6267547607421875 -0.3294677734375 -0.222625732421875
0.6451568603515625 -0.31634521484375 -0.320709228515625
0.717559814453125 -0.32269287109375 -0.3014373779296875
0.705810546875 -0.332275390625 -0.2229461669921875
-0.6210479736328125 -0.46502685546875 -0.1613311767578125
-0.625823974609375 -0.461181640625 -0.2206573486328125
-0.5814056396484375 -0.45782470703125 -0.182098388671875
-0.6192474365234375 -0.4581298828125 -0.1105804443359375
-0.6634979248046875 -0.47515869140625 -0.146759033203125
-0.6667633056640625 -0.47198486328125 -0.2030181884765625
-0.587066650390625 -0.453857421875 -0.246612548828125
-0.5794677734375 -0.45074462890625 -0.1234130859375
-0.6620635986328125 -0.4674072265625 -0.1018524169921875
0.4214324951171875 0.36627197265625 0.55035400390625
0.40228271484375 0.37225341796875 0.56787109375
0.38519287109375 0.377197265625 0.58294677734375
0.3778533935546875 0.35919189453125 0.600433349609375
0.378997802734375 0.33831787109375 0.606231689453125
0.375579833984375 0.3184814453125 0.612152099609375
0.3792266845703125 0.28839111328125 0.60821533203125
0.394378662109375 0.27154541015625 0.5958709716796875
0.4117279052734375 0.25250244140625 0.5814666748046875
0.442108154296875 0.26031494140625 0.5552825927734375
0.448699951171875 0.2916259765625 0.5465545654296875
0.44830322265625 0.324951171875 0.5381011962890625
-0.5273895263671875 0.16864013671875 0.487548828125
-0.5088043212890625 0.14410400390625 0.5107421875
-0.4848175048828125 0.1226806640625 0.5334014892578125
-0.449859619140625 0.12701416015625 0.566864013671875
-0.4434814453125 0.1475830078125 0.5773773193359375
-0.4379730224609375 0.16552734375 0.5861053466796875
-0.4523468017578125 0.1905517578125 0.580078125
-0.4681549072265625 0.203369140625 0.5661163330078125
-0.480377197265625 0.2188720703125 0.5518951416015625
-0.4985504150390625 0.22869873046875 0.52423095703125
-0.5111541748046875 0.21905517578125 0.50701904296875
-0.5256500244140625 0.20794677734375 0.4871978759765625
0.4923553466796875 0.33709716796875 0.4636688232421875
0.4759521484375 0.34552001953125 0.486907958984375
0.458953857421875 0.3529052734375 0.5092620849609375
0.44451904296875 0.213623046875 0.545501708984375
0.4590301513671875 0.1949462890625 0.5246124267578125
0.472991943359375 0.17694091796875 0.502471923828125
0.50518798828125 0.19580078125 0.4691925048828125
0.51531982421875 0.23822021484375 0.4586181640625
0.5164642333984375 0.2822265625 0.4488067626953125
-0.5696258544921875 0.10992431640625 0.3971405029296875
-0.5469970703125 0.07781982421875 0.427490234375
-0.517059326171875 0.0501708984375 0.4567718505859375
-0.4755859375 0.04632568359375 0.5031280517578125
-0.4695281982421875 0.06536865234375 0.521697998046875
-0.463165283203125 0.08477783203125 0.5390167236328125
-0.552459716796875 0.18389892578125 0.4421234130859375
-0.5636749267578125 0.17144775390625 0.4178314208984375
-0.5742034912109375 0.158447265625 0.3929901123046875
0.4094085693359375 0.21014404296875 0.5741729736328125
0.3843994140625 0.19219970703125 0.5834808349609375
0.3550872802734375 0.17974853515625 0.5921783447265625
0.3281707763671875 0.15069580078125 0.58355712890625
0.3329925537109375 0.127685546875 0.5657501220703125
0.337371826171875 0.10546875 0.5464019775390625
0.3853607177734375 0.090087890625 0.51690673828125
0.4250030517578125 0.104736328125 0.5054168701171875
0.459197998046875 0.12872314453125 0.492919921875
-0.440216064453125 0.01104736328125 0.5071258544921875
-0.3953857421875 0.0023193359375 0.526153564453125
-0.3491363525390625 -0.0001220703125 0.5414581298828125
-0.3075103759765625 0.02557373046875 0.5676116943359375
-0.3116455078125 0.04638671875 0.5830230712890625
-0.3164215087890625 0.067626953125 0.596649169921875
-0.356048583984375 0.085693359375 0.5993194580078125
-0.390655517578125 0.08740234375 0.587615966796875
-0.4248504638671875 0.09356689453125 0.572418212890625
0.3550262451171875 0.28680419921875 0.624176025390625
0.338714599609375 0.275634765625 0.6298675537109375
0.319671630859375 0.26776123046875 0.6348724365234375
0.3032379150390625 0.24639892578125 0.63140869140625
0.309234619140625 0.22430419921875 0.622406005859375
0.315826416015625 0.19976806640625 0.6118927001953125
-0.3284912109375 0.1131591796875 0.615203857421875
-0.3352508544921875 0.13519287109375 0.6204376220703125
-0.3412933349609375 0.15478515625 0.6247100830078125
-0.3681640625 0.16729736328125 0.622894287109375
-0.39105224609375 0.16827392578125 0.6147003173828125
-0.413177490234375 0.1727294921875 0.6048583984375
0.2761077880859375 0.26416015625 0.64178466796875
0.25335693359375 0.26922607421875 0.6430206298828125
0.2311248779296875 0.27752685546875 0.6428375244140625
0.2053985595703125 0.27496337890625 0.633331298828125
0.198974609375 0.2569580078125 0.624603271484375
0.1914215087890625 0.23699951171875 0.6147003173828125
0.2172698974609375 0.19647216796875 0.605804443359375
0.2523345947265625 0.183349609375 0.6059417724609375
0.2876434326171875 0.17547607421875 0.60406494140625
-0.2901153564453125 0.0994873046875 0.6118011474609375
-0.2613677978515625 0.114990234375 0.61181640625
-0.2368927001953125 0.13470458984375 0.6080474853515625
-0.23590087890625 0.1754150390625 0.6096649169921875
-0.253814697265625 0.19073486328125 0.6163787841796875
-0.269927978515625 0.20379638671875 0.621612548828125
-0.2934112548828125 0.1993408203125 0.63104248046875
-0.3081817626953125 0.18682861328125 0.632781982421875
-0.325958251953125 0.17681884765625 0.631927490234375
0.1774139404296875 0.19586181640625 0.5877532958984375
0.1710968017578125 0.17626953125 0.571197509765625
0.1650238037109375 0.1568603515625 0.5535430908203125
0.2019195556640625 0.11358642578125 0.5381317138671875
0.2477874755859375 0.095947265625 0.537872314453125
0.2953338623046875 0.0850830078125 0.533660888671875
-0.2601470947265625 0.01837158203125 0.5560150146484375
-0.220977783203125 0.0384521484375 0.555572509765625
-0.1870574951171875 0.0645751953125 0.550689697265625
-0.173553466796875 0.11187744140625 0.5583953857421875
-0.187469482421875 0.12738037109375 0.5742645263671875
-0.2022705078125 0.14300537109375 0.58868408203125
0.1546478271484375 0.23944091796875 0.596038818359375
0.1291961669921875 0.265625 0.5871124267578125
0.1085357666015625 0.295654296875 0.5763092041015625
0.0800933837890625 0.31756591796875 0.546966552734375
0.0678253173828125 0.30694580078125 0.527679443359375
0.056549072265625 0.29608154296875 0.507568359375
0.0635528564453125 0.2435302734375 0.50238037109375
0.088897705078125 0.20367431640625 0.5164794921875
0.121063232421875 0.16796875 0.5276031494140625
-0.1425018310546875 0.13189697265625 0.5292510986328125
-0.1331329345703125 0.1719970703125 0.5136566162109375
-0.132415771484375 0.21343994140625 0.495086669921875
-0.1560211181640625 0.260498046875 0.4930877685546875
-0.1719207763671875 0.26641845703125 0.51141357421875
-0.18890380859375 0.27203369140625 0.5287322998046875
-0.199920654296875 0.24578857421875 0.561553955078125
-0.199462890625 0.21539306640625 0.57666015625
-0.2054901123046875 0.18621826171875 0.5900115966796875
0.1910400390625 0.3035888671875 0.6366119384765625
0.1747894287109375 0.3209228515625 0.630950927734375
0.1615447998046875 0.34033203125 0.6247406005859375
0.1406707763671875 0.3543701171875 0.6079864501953125
0.12640380859375 0.34661865234375 0.5954437255859375
0.110107421875 0.3372802734375 0.5809783935546875
-0.22674560546875 0.280517578125 0.55889892578125
-0.2464447021484375 0.28314208984375 0.57122802734375
-0.263946533203125 0.28607177734375 0.581268310546875
-0.2721710205078125 0.26898193359375 0.601287841796875
-0.271331787109375 0.249755859375 0.611236572265625
-0.2745208740234375 0.23150634765625 0.6200408935546875
0.1456146240234375 0.38189697265625 0.610870361328125
0.1442108154296875 0.40374755859375 0.60400390625
0.146728515625 0.4241943359375 0.5977783203125
0.144073486328125 0.44439697265625 0.5792999267578125
0.1311187744140625 0.44744873046875 0.563018798828125
0.116851806640625 0.45098876953125 0.54449462890625
0.090545654296875 0.42474365234375 0.5325927734375
0.0850677490234375 0.39306640625 0.5422821044921875
0.08612060546875 0.35968017578125 0.55328369140625
-0.220794677734375 0.3062744140625 0.5277252197265625
-0.240447998046875 0.33343505859375 0.5101470947265625
-0.2647705078125 0.3570556640625 0.4916229248046875
-0.30548095703125 0.36981201171875 0.49432373046875
-0.316925048828125 0.3631591796875 0.5129241943359375
-0.3266448974609375 0.35711669921875 0.528717041015625
-0.3159637451171875 0.3406982421875 0.553985595703125
-0.29974365234375 0.32568359375 0.5662689208984375
-0.2866668701171875 0.3077392578125 0.578399658203125
0.0910186767578125 0.45428466796875 0.5010528564453125
0.0809326171875 0.4547119140625 0.4772186279296875
0.07196044921875 0.45367431640625 0.4524993896484375
0.0458221435546875 0.414306640625 0.4398040771484375
0.0369720458984375 0.3724365234375 0.4547576904296875
0.0369415283203125 0.3292236328125 0.4705963134765625
-0.157196044921875 0.2940673828125 0.451873779296875
-0.1817779541015625 0.33062744140625 0.428314208984375
-0.21282958984375 0.36236572265625 0.4033355712890625
-0.2601776123046875 0.38568115234375 0.4031219482421875
-0.2710113525390625 0.38299560546875 0.4274139404296875
-0.2820892333984375 0.38006591796875 0.4510955810546875
0.12176513671875 0.4775390625 0.5162811279296875
0.1464691162109375 0.4974365234375 0.51055908203125
0.1753082275390625 0.510498046875 0.5066680908203125
0.2067108154296875 0.52508544921875 0.4803924560546875
0.206634521484375 0.530517578125 0.45489501953125
0.20697021484375 0.5350341796875 0.428955078125
0.1636962890625 0.5281982421875 0.4052581787109375
0.1238861083984375 0.5091552734375 0.4100799560546875
0.090057373046875 0.4840087890625 0.4176483154296875
-0.28985595703125 0.404052734375 0.353790283203125
-0.33270263671875 0.41180419921875 0.3303070068359375
-0.3770294189453125 0.4117431640625 0.309173583984375
-0.4219207763671875 0.40118408203125 0.3223876953125
-0.42303466796875 0.39892578125 0.352569580078125
-0.4236907958984375 0.3955078125 0.382080078125
-0.39117431640625 0.395751953125 0.422821044921875
-0.3579254150390625 0.3958740234375 0.438201904296875
-0.32501220703125 0.38922119140625 0.455413818359375
0.164764404296875 0.4581298828125 0.5870819091796875
0.179779052734375 0.47021484375 0.5827789306640625
0.197998046875 0.47882080078125 0.5796661376953125
0.216552734375 0.48980712890625 0.5635528564453125
0.2136383056640625 0.498779296875 0.546417236328125
0.2103729248046875 0.5087890625 0.526336669921875
-0.4222564697265625 0.38232421875 0.4379730224609375
-0.420623779296875 0.37420654296875 0.463409423828125
-0.4190673828125 0.3671875 0.485198974609375
-0.3969879150390625 0.36572265625 0.5098724365234375
-0.3755035400390625 0.365234375 0.5189666748046875
-0.3545074462890625 0.3612060546875 0.5299530029296875
0.2412567138671875 0.4840087890625 0.57647705078125
0.2651214599609375 0.47991943359375 0.576568603515625
0.2886810302734375 0.4718017578125 0.577484130859375
0.317901611328125 0.463623046875 0.5663604736328125
0.3269195556640625 0.46923828125 0.5498504638671875
0.337371826171875 0.47515869140625 0.530792236328125
0.31451416015625 0.49969482421875 0.506500244140625
0.2790069580078125 0.512451171875 0.504150390625
0.2433013916015625 0.518798828125 0.5033721923828125
-0.4542694091796875 0.3770751953125 0.402008056640625
-0.4820098876953125 0.359130859375 0.3976593017578125
-0.505859375 0.33782958984375 0.397857666015625
-0.5133209228515625 0.3128662109375 0.431549072265625
-0.5015716552734375 0.3128662109375 0.4574432373046875
-0.49139404296875 0.31256103515625 0.4797821044921875
-0.47149658203125 0.32965087890625 0.494232177734375
-0.4558868408203125 0.34356689453125 0.494293212890625
-0.4379119873046875 0.3548583984375 0.4969940185546875
0.359771728515625 0.48486328125 0.486724853515625
0.3709259033203125 0.4876708984375 0.4629974365234375
0.381866455078125 0.48907470703125 0.4385223388671875
0.34906005859375 0.51593017578125 0.408966064453125
0.3021697998046875 0.5321044921875 0.405242919921875
0.2541961669921875 0.53948974609375 0.40289306640625
-0.4613189697265625 0.38720703125 0.280120849609375
-0.498931884765625 0.36370849609375 0.274017333984375
-0.531341552734375 0.33380126953125 0.273651123046875
-0.5504608154296875 0.30419921875 0.3116302490234375
-0.5429840087890625 0.307861328125 0.342559814453125
-0.53472900390625 0.31060791015625 0.3730926513671875
0.3792877197265625 0.45587158203125 0.513458251953125
0.4054718017578125 0.42669677734375 0.5182952880859375
0.4263153076171875 0.3939208984375 0.5240631103515625
0.4909515380859375 0.375 0.4322509765625
0.4650726318359375 0.4190673828125 0.4251251220703125
0.4319305419921875 0.4578857421875 0.4189300537109375
-0.576385498046875 0.26287841796875 0.2943267822265625
-0.5872039794921875 0.2239990234375 0.31451416015625
-0.5901336669921875 0.18402099609375 0.3394622802734375
-0.5457611083984375 0.2254638671875 0.4449005126953125
-0.5450897216796875 0.255859375 0.4272613525390625
-0.538055419921875 0.284912109375 0.413055419921875
0.3313140869140625 0.44366455078125 0.5823822021484375
0.3483734130859375 0.42431640625 0.5859375
0.3623199462890625 0.403564453125 0.5904388427734375
-0.4937744140625 0.25579833984375 0.5246734619140625
-0.4944915771484375 0.27545166015625 0.513580322265625
-0.4912109375 0.29486083984375 0.5040740966796875
0.35614013671875 0.38861083984375 0.61553955078125
0.3605499267578125 0.38677978515625 0.6103515625
0.3648529052734375 0.3846435546875 0.6038818359375
0.3069305419921875 0.45904541015625 0.5888671875
0.304443359375 0.45947265625 0.5956573486328125
0.301971435546875 0.45867919921875 0.601409912109375
0.3156280517578125 0.441650390625 0.60931396484375
0.3302764892578125 0.42645263671875 0.61212158203125
0.340911865234375 0.4085693359375 0.6159820556640625
-0.4773712158203125 0.2685546875 0.55462646484375
-0.4792938232421875 0.28472900390625 0.544647216796875
-0.4762725830078125 0.30072021484375 0.537689208984375
-0.47552490234375 0.31689453125 0.5241851806640625
-0.4780426025390625 0.31640625 0.5173797607421875
-0.47991943359375 0.3150634765625 0.5092315673828125
-0.4841461181640625 0.24212646484375 0.547393798828125
-0.4815826416015625 0.24566650390625 0.5542449951171875
-0.478424072265625 0.24896240234375 0.5599365234375
0.21917724609375 0.48187255859375 0.5874481201171875
0.2190093994140625 0.48223876953125 0.594818115234375
0.219207763671875 0.48162841796875 0.600982666015625
0.23992919921875 0.47784423828125 0.6056976318359375
0.2595367431640625 0.47479248046875 0.6049957275390625
0.2792510986328125 0.4671630859375 0.6059417724609375
-0.4609832763671875 0.33056640625 0.52978515625
-0.449066162109375 0.343017578125 0.529327392578125
-0.4339752197265625 0.35150146484375 0.53253173828125
-0.4182281494140625 0.36114501953125 0.52935791015625
-0.4184112548828125 0.36163330078125 0.5221405029296875
-0.4179229736328125 0.36090087890625 0.5139617919921875
0.1580352783203125 0.4429931640625 0.6016693115234375
0.1598968505859375 0.4444580078125 0.6089324951171875
0.1622467041015625 0.4449462890625 0.6150665283203125
0.176361083984375 0.45623779296875 0.6158447265625
0.1878662109375 0.4671630859375 0.611907958984375
0.2030487060546875 0.47418212890625 0.609161376953125
-0.3990478515625 0.3609619140625 0.5436553955078125
-0.3813323974609375 0.36102294921875 0.5511016845703125
-0.36376953125 0.3564453125 0.5604705810546875
-0.343658447265625 0.35198974609375 0.5647430419921875
-0.3415069580078125 0.3525390625 0.55865478515625
-0.3388214111328125 0.35211181640625 0.5513763427734375
0.1565093994140625 0.36517333984375 0.626007080078125
0.1585693359375 0.36834716796875 0.6324005126953125
0.1608734130859375 0.3712158203125 0.6373443603515625
0.16058349609375 0.39190673828125 0.63568115234375
0.1583709716796875 0.40997314453125 0.6299591064453125
0.1613006591796875 0.4271240234375 0.62518310546875
-0.3303985595703125 0.3389892578125 0.5811309814453125
-0.31610107421875 0.32672119140625 0.5915985107421875
-0.3056488037109375 0.31182861328125 0.6019439697265625
-0.29150390625 0.29486083984375 0.60858154296875
-0.287994384765625 0.29327392578125 0.6039276123046875
-0.2841949462890625 0.291015625 0.5977020263671875
0.2122955322265625 0.2982177734375 0.6475372314453125
0.213409423828125 0.30377197265625 0.6534423828125
0.2143402099609375 0.30859375 0.6578826904296875
0.1997222900390625 0.3271484375 0.6574249267578125
0.1851959228515625 0.3404541015625 0.6527252197265625
0.174224853515625 0.35662841796875 0.6474761962890625
-0.292755126953125 0.2789306640625 0.621337890625
-0.291412353515625 0.263427734375 0.6299285888671875
-0.294921875 0.24853515625 0.6364898681640625
-0.2957611083984375 0.229736328125 0.6408843994140625
-0.2921905517578125 0.2254638671875 0.6372528076171875
-0.28851318359375 0.22100830078125 0.6322784423828125
0.295989990234375 0.27362060546875 0.645904541015625
0.2944488525390625 0.28009033203125 0.6517791748046875
0.29296875 0.28564453125 0.65631103515625
0.2715606689453125 0.29327392578125 0.662078857421875
0.252960205078125 0.29644775390625 0.663177490234375
0.234375 0.30462646484375 0.662628173828125
-0.3106842041015625 0.22119140625 0.64630126953125
-0.321929931640625 0.209716796875 0.648162841796875
-0.3367462158203125 0.20208740234375 0.6469879150390625
-0.3515777587890625 0.18988037109375 0.642333984375
-0.3501434326171875 0.184814453125 0.6386871337890625
-0.34869384765625 0.1790771484375 0.633697509765625
0.3614349365234375 0.30877685546875 0.6256866455078125
0.357666015625 0.313720703125 0.6316986083984375
0.3538360595703125 0.31787109375 0.6363067626953125
0.337249755859375 0.31060791015625 0.6456146240234375
0.3245391845703125 0.30108642578125 0.650634765625
0.3084564208984375 0.2955322265625 0.655517578125
-0.3724212646484375 0.19378662109375 0.638580322265625
-0.3913726806640625 0.193359375 0.6315765380859375
-0.4098358154296875 0.19781494140625 0.62261962890625
-0.4298553466796875 0.19805908203125 0.6087646484375
-0.43115234375 0.19354248046875 0.60467529296875
-0.4321441650390625 0.18817138671875 0.5994873046875
0.3546295166015625 0.37103271484375 0.624908447265625
0.3568115234375 0.3533935546875 0.6294403076171875
0.3538055419921875 0.33795166015625 0.634674072265625
-0.44287109375 0.213623046875 0.600433349609375
-0.4561004638671875 0.22406005859375 0.5888214111328125
-0.4654388427734375 0.23724365234375 0.5774078369140625
0.3353271484375 0.39105224609375 0.626739501953125
0.3163604736328125 0.39111328125 0.633514404296875
0.2921600341796875 0.39129638671875 0.6407318115234375
0.2914276123046875 0.36395263671875 0.6490631103515625
0.3153228759765625 0.347412109375 0.646728515625
0.3338775634765625 0.33343505859375 0.6435699462890625
-0.42169189453125 0.27142333984375 0.5941619873046875
-0.4436798095703125 0.263916015625 0.5835723876953125
-0.4606170654296875 0.25775146484375 0.574188232421875
-0.421661376953125 0.216552734375 0.613739013671875
-0.4134674072265625 0.23193359375 0.6141815185546875
-0.4028778076171875 0.25177001953125 0.6130218505859375
0.268768310546875 0.3514404296875 0.65679931640625
0.2781219482421875 0.32708740234375 0.659942626953125
0.28515625 0.30743408203125 0.6607818603515625
-0.35845947265625 0.20977783203125 0.6415252685546875
-0.3648834228515625 0.22686767578125 0.6359100341796875
-0.373260498046875 0.24859619140625 0.6263427734375
0.2384033203125 0.36029052734375 0.657318115234375
0.2286834716796875 0.3416748046875 0.660736083984375
0.221282958984375 0.32647705078125 0.6618194580078125
-0.31341552734375 0.2420654296875 0.6400299072265625
-0.33001708984375 0.25189208984375 0.6350555419921875
-0.3517303466796875 0.26385498046875 0.625885009765625
0.2175140380859375 0.3848876953125 0.6501007080078125
0.1949310302734375 0.380859375 0.6483154296875
0.1777191162109375 0.37701416015625 0.6454010009765625
-0.3099212646484375 0.294677734375 0.61407470703125
-0.327392578125 0.29254150390625 0.614532470703125
-0.350250244140625 0.28900146484375 0.613433837890625
0.2180328369140625 0.41314697265625 0.6409759521484375
0.195953369140625 0.42657470703125 0.6340179443359375
0.179107666015625 0.43634033203125 0.6267242431640625
-0.352447509765625 0.3404541015625 0.5787353515625
-0.36029052734375 0.32781982421875 0.587066650390625
-0.3701324462890625 0.31048583984375 0.5959625244140625
0.2399444580078125 0.42681884765625 0.6354827880859375
0.2311859130859375 0.44970703125 0.625091552734375
0.224853515625 0.466552734375 0.6156463623046875
-0.412933349609375 0.34857177734375 0.5496368408203125
-0.40692138671875 0.33349609375 0.56463623046875
-0.3989410400390625 0.31365966796875 0.582733154296875
0.2711639404296875 0.4183349609375 0.6354522705078125
0.28253173828125 0.43499755859375 0.6248321533203125
0.291595458984375 0.44769287109375 0.6154632568359375
-0.4585723876953125 0.312255859375 0.5453643798828125
-0.442138671875 0.30584716796875 0.5615386962890625
-0.420562744140625 0.296875 0.5808563232421875
0.2788848876953125 -0.86041259765625 0.7802734375
0.313232421875 -0.8616943359375 0.760009765625
0.345855712890625 -0.86236572265625 0.738037109375
0.38226318359375 -0.8489990234375 0.7350616455078125
0.383758544921875 -0.83319091796875 0.753021240234375
0.3813323974609375 -0.8155517578125 0.7700958251953125
0.3505096435546875 -0.7982177734375 0.8018035888671875
0.3228607177734375 -0.79852294921875 0.8172760009765625
0.2930145263671875 -0.79779052734375 0.8330230712890625
0.258636474609375 -0.81365966796875 0.8391265869140625
0.25494384765625 -0.82977294921875 0.828277587890625
0.249542236328125 -0.84429931640625 0.8152008056640625
0.2292022705078125 -0.7943115234375 0.8623504638671875
0.197418212890625 -0.79083251953125 0.875244140625
0.166900634765625 -0.78607177734375 0.8863677978515625
0.125274658203125 -0.797607421875 0.889739990234375
0.1130828857421875 -0.8138427734375 0.8799896240234375
0.1023101806640625 -0.82879638671875 0.86724853515625
0.1292877197265625 -0.8468017578125 0.8408050537109375
0.16748046875 -0.85107421875 0.8293304443359375
0.2053985595703125 -0.8548583984375 0.8154296875
0.4057464599609375 -0.862548828125 0.6947174072265625
0.431549072265625 -0.8612060546875 0.67462158203125
0.4535064697265625 -0.8568115234375 0.6570281982421875
0.4705810546875 -0.83453369140625 0.6700439453125
0.4646148681640625 -0.8170166015625 0.69757080078125
0.4534454345703125 -0.794921875 0.7244110107421875
0.4276275634765625 -0.7822265625 0.7562255859375
0.413787841796875 -0.7900390625 0.7647247314453125
0.396270751953125 -0.7940673828125 0.775238037109375
0.1150665283203125 -0.77496337890625 0.904327392578125
0.0941009521484375 -0.76824951171875 0.9105224609375
0.0761871337890625 -0.75897216796875 0.9154052734375
0.0353851318359375 -0.76776123046875 0.913055419921875
0.011322021484375 -0.78662109375 0.9040679931640625
-0.0107269287109375 -0.80242919921875 0.8903350830078125
-0.0056915283203125 -0.82513427734375 0.8698272705078125
0.023590087890625 -0.83221435546875 0.8651580810546875
0.0566253662109375 -0.83758544921875 0.859100341796875
0.482086181640625 -0.835205078125 0.631805419921875
0.488677978515625 -0.81597900390625 0.6246185302734375
0.49078369140625 -0.791259765625 0.619903564453125
0.4923095703125 -0.751220703125 0.649658203125
0.486053466796875 -0.7335205078125 0.6818389892578125
0.4718017578125 -0.7095947265625 0.7125244140625
0.4521484375 -0.7081298828125 0.7417449951171875
0.4503326416015625 -0.73309326171875 0.7433624267578125
0.4456329345703125 -0.75433349609375 0.7458038330078125
0.0475006103515625 -0.73046875 0.9210357666015625
0.0360107421875 -0.710693359375 0.92169189453125
0.0265960693359375 -0.68768310546875 0.9201202392578125
-0.0103759765625 -0.6865234375 0.912078857421875
