# XYZ point cloud file
-0.488555908203125 0.50244140625 0.216156005859375
-0.5129547119140625 0.464111328125 0.214141845703125
-0.545166015625 0.49749755859375 0.25146484375
-0.490631103515625 0.57000732421875 0.2525787353515625
-0.4669952392578125 0.5345458984375 0.2190093994140625
0.4166717529296875 0.61065673828125 0.414642333984375
0.410552978515625 0.62811279296875 0.442596435546875
0.47039794921875 0.59161376953125 0.4144439697265625
0.4212188720703125 0.5894775390625 0.385223388671875
0.36102294921875 0.63153076171875 0.4134674072265625
0.3540496826171875 0.649658203125 0.4405364990234375
0.465789794921875 0.6082763671875 0.443084716796875
0.4741058349609375 0.57086181640625 0.3839874267578125
0.36376953125 0.6082763671875 0.38580322265625
-0.63201904296875 0.36474609375 0.222625732421875
-0.6663818359375 0.33001708984375 0.2185516357421875
-0.64239501953125 0.37939453125 0.2474822998046875
-0.5963897705078125 0.40142822265625 0.2262420654296875
-0.6171112060546875 0.347900390625 0.1983795166015625
-0.65252685546875 0.31365966796875 0.1930389404296875
-0.6772918701171875 0.34393310546875 0.24420166015625
-0.6076507568359375 0.41748046875 0.2498779296875
-0.5786285400390625 0.3837890625 0.2052001953125
0.6004486083984375 0.5455322265625 0.4111175537109375
0.5996246337890625 0.55999755859375 0.43939208984375
0.6330108642578125 0.5225830078125 0.4063873291015625
0.5992279052734375 0.52734375 0.380035400390625
0.5628814697265625 0.56103515625 0.413238525390625
0.5607757568359375 0.5760498046875 0.4420013427734375
0.632415771484375 0.53668212890625 0.433868408203125
0.6300811767578125 0.5045166015625 0.3758087158203125
0.5630035400390625 0.54156494140625 0.382049560546875
-0.754730224609375 0.24932861328125 0.20965576171875
-0.772735595703125 0.221923828125 0.2114410400390625
-0.7665252685546875 0.2613525390625 0.23504638671875
-0.7295684814453125 0.27410888671875 0.21099853515625
-0.738677978515625 0.23602294921875 0.1838226318359375
-0.7564697265625 0.20892333984375 0.1858062744140625
-0.7844696044921875 0.23333740234375 0.2363128662109375
-0.74139404296875 0.2867431640625 0.2366790771484375
-0.7139739990234375 0.25933837890625 0.1851806640625
0.6973114013671875 0.3714599609375 0.3668975830078125
0.6985626220703125 0.38330078125 0.39215087890625
0.703948974609375 0.30340576171875 0.35333251953125
0.6934356689453125 0.35870361328125 0.3380126953125
0.68218994140625 0.43524169921875 0.3829345703125
0.682830810546875 0.44854736328125 0.408966064453125
0.705596923828125 0.31500244140625 0.3782806396484375
0.7004547119140625 0.29266357421875 0.3244476318359375
0.6782989501953125 0.4207763671875 0.3536529541015625
-0.7664947509765625 0.095703125 0.2462615966796875
-0.7441253662109375 0.047119140625 0.26885986328125
-0.7754364013671875 0.10552978515625 0.270538330078125
-0.7789459228515625 0.14434814453125 0.229278564453125
-0.7544708251953125 0.08551025390625 0.21881103515625
-0.7344207763671875 0.0379638671875 0.239593505859375
-0.7517852783203125 0.05621337890625 0.2931060791015625
-0.7894744873046875 0.1551513671875 0.253326416015625
-0.76495361328125 0.13397216796875 0.2030487060546875
0.6607513427734375 0.12994384765625 0.3609619140625
0.663238525390625 0.1396484375 0.3870391845703125
0.630035400390625 0.0850830078125 0.375732421875
0.659393310546875 0.11871337890625 0.328643798828125
0.6854095458984375 0.17938232421875 0.3503265380859375
0.6873931884765625 0.189208984375 0.375244140625
0.6322174072265625 0.095703125 0.402557373046875
0.6290435791015625 0.07489013671875 0.34246826171875
0.6831817626953125 0.1702880859375 0.319793701171875
-0.6329498291015625 -0.0606689453125 0.368896484375
-0.58648681640625 -0.0821533203125 0.4052276611328125
-0.6374359130859375 -0.050048828125 0.39617919921875
-0.6758575439453125 -0.03240966796875 0.33160400390625
-0.6300201416015625 -0.0709228515625 0.3342742919921875
-0.5850067138671875 -0.0931396484375 0.36993408203125
-0.58990478515625 -0.0721435546875 0.43359375
-0.681427001953125 -0.0234375 0.3576202392578125
-0.670654296875 -0.04180908203125 0.2984619140625
0.5229644775390625 -0.015380859375 0.4210205078125
0.524505615234375 -0.00677490234375 0.4462127685546875
0.4836273193359375 -0.041015625 0.4354095458984375
0.5212860107421875 -0.02630615234375 0.390350341796875
0.5601959228515625 0.01385498046875 0.4067230224609375
0.5619354248046875 0.02362060546875 0.4329681396484375
0.4849395751953125 -0.03271484375 0.4583892822265625
0.4800262451171875 -0.0516357421875 0.408447265625
0.55908203125 0.0030517578125 0.3739013671875
-0.4423980712890625 -0.12982177734375 0.485137939453125
-0.3927459716796875 -0.14080810546875 0.5023040771484375
-0.4427032470703125 -0.12054443359375 0.511566162109375
-0.4907989501953125 -0.115234375 0.464141845703125
-0.443115234375 -0.14068603515625 0.452728271484375
-0.39178466796875 -0.1507568359375 0.473968505859375
-0.392486572265625 -0.13189697265625 0.52630615234375
-0.4918670654296875 -0.10589599609375 0.4919586181640625
-0.4916534423828125 -0.12762451171875 0.4298858642578125
0.165679931640625 -0.54168701171875 0.429779052734375
0.1326446533203125 -0.55078125 0.4387359619140625
0.164306640625 -0.5267333984375 0.4062042236328125
0.1969757080078125 -0.5279541015625 0.4234771728515625
0.16827392578125 -0.563720703125 0.4534149169921875
0.1370086669921875 -0.5731201171875 0.4608154296875
0.1291351318359375 -0.53607177734375 0.4162139892578125
0.1965789794921875 -0.5113525390625 0.3984832763671875
0.1987152099609375 -0.55145263671875 0.4474029541015625
0.029632568359375 -0.54656982421875 0.4635009765625
0.0182647705078125 -0.53118896484375 0.4405059814453125
0.0635223388671875 -0.55340576171875 0.455841064453125
0.040740966796875 -0.5684814453125 0.4869842529296875
-0.002777099609375 -0.534912109375 0.47235107421875
-0.0159759521484375 -0.51959228515625 0.4481658935546875
0.0550537109375 -0.538818359375 0.43426513671875
0.072723388671875 -0.5745849609375 0.477630615234375
0.0103607177734375 -0.55706787109375 0.497100830078125
0.188812255859375 -0.67706298828125 0.51898193359375
0.1589813232421875 -0.68408203125 0.527008056640625
0.179962158203125 -0.63311767578125 0.4974365234375
0.218719482421875 -0.666015625 0.511962890625
0.1998291015625 -0.7225341796875 0.540771484375
0.17010498046875 -0.72979736328125 0.550628662109375
0.149871826171875 -0.641357421875 0.504791259765625
0.20953369140625 -0.6224365234375 0.491485595703125
0.2303314208984375 -0.7125244140625 0.5319366455078125
0.0704345703125 -0.67578125 0.5583343505859375
0.0616607666015625 -0.6343994140625 0.5338897705078125
0.100067138671875 -0.6837158203125 0.5466766357421875
0.0797882080078125 -0.72015380859375 0.5837554931640625
0.041015625 -0.66552734375 0.570343017578125
0.032470703125 -0.623779296875 0.5456695556640625
0.0909423828125 -0.6409912109375 0.523162841796875
0.1098480224609375 -0.728759765625 0.57208251953125
0.0493011474609375 -0.7093505859375 0.595733642578125
0.2436676025390625 -0.837158203125 0.618896484375
0.21209716796875 -0.84222412109375 0.634979248046875
0.2280120849609375 -0.8046875 0.59124755859375
0.274658203125 -0.83056640625 0.6022186279296875
0.25958251953125 -0.86419677734375 0.6471405029296875
0.2274932861328125 -0.86688232421875 0.6644134521484375
0.1970062255859375 -0.80902099609375 0.6051788330078125
0.259033203125 -0.79644775390625 0.5772247314453125
0.2912445068359375 -0.85986328125 0.6280059814453125
0.1130218505859375 -0.8326416015625 0.674713134765625
0.1008453369140625 -0.7996826171875 0.642181396484375
0.1468963623046875 -0.83917236328125 0.6627960205078125
0.125152587890625 -0.857666015625 0.707122802734375
0.0782012939453125 -0.82366943359375 0.685150146484375
0.0677490234375 -0.78973388671875 0.6533966064453125
0.1334381103515625 -0.80706787109375 0.63031005859375
0.1604156494140625 -0.86328125 0.6949615478515625
0.0894317626953125 -0.8492431640625 0.7174224853515625
0.3025360107421875 -0.8861083984375 0.7242889404296875
0.31378173828125 -0.8787841796875 0.7463531494140625
0.2687530517578125 -0.88665771484375 0.7459259033203125
0.28948974609375 -0.88800048828125 0.700592041015625
0.335174560546875 -0.885498046875 0.7016448974609375
0.3468017578125 -0.87890625 0.72369384765625
0.279510498046875 -0.87841796875 0.76788330078125
0.256622314453125 -0.8885498046875 0.72119140625
0.3215484619140625 -0.8858642578125 0.6782073974609375
0.158966064453125 -0.87738037109375 0.7928466796875
0.1969451904296875 -0.8819580078125 0.77996826171875
0.1685943603515625 -0.86968994140625 0.81640625
0.1205291748046875 -0.8726806640625 0.804229736328125
0.1485595703125 -0.87896728515625 0.766754150390625
0.185455322265625 -0.88385009765625 0.7541656494140625
0.2067108154296875 -0.87384033203125 0.803009033203125
0.1299591064453125 -0.86480712890625 0.8279571533203125
0.110504150390625 -0.87322998046875 0.7775115966796875
0.424163818359375 -0.881103515625 0.6325836181640625
0.4344024658203125 -0.87603759765625 0.65594482421875
0.39666748046875 -0.88360595703125 0.6546783447265625
0.41064453125 -0.87890625 0.610443115234375
0.4465179443359375 -0.8751220703125 0.612945556640625
0.4571685791015625 -0.87115478515625 0.6366424560546875
0.4077606201171875 -0.87799072265625 0.6775970458984375
0.3834686279296875 -0.8819580078125 0.6318817138671875
0.4324951171875 -0.87103271484375 0.5933685302734375
0.0084075927734375 -0.85601806640625 0.8271331787109375
0.043914794921875 -0.86163330078125 0.821075439453125
0.0199737548828125 -0.849365234375 0.8518218994140625
-0.0223541259765625 -0.84747314453125 0.8301544189453125
-0.0010223388671875 -0.85491943359375 0.8001708984375
0.0339202880859375 -0.86199951171875 0.7940521240234375
0.054656982421875 -0.85504150390625 0.84552001953125
-0.0111236572265625 -0.84228515625 0.85528564453125
-0.0292816162109375 -0.845703125 0.804107666015625
0.47137451171875 -0.81744384765625 0.5731964111328125
0.4882354736328125 -0.82177734375 0.5996551513671875
0.470123291015625 -0.84356689453125 0.5834503173828125
0.4486541748046875 -0.811767578125 0.552734375
0.4671783447265625 -0.78515625 0.565826416015625
0.48760986328125 -0.79327392578125 0.5937042236328125
0.4843597412109375 -0.84442138671875 0.608184814453125
0.451324462890625 -0.83831787109375 0.5652923583984375
0.441253662109375 -0.77587890625 0.5442352294921875
-0.07843017578125 -0.79296875 0.811492919921875
-0.06573486328125 -0.816650390625 0.8220977783203125
-0.0689239501953125 -0.79437255859375 0.8456878662109375
-0.087005615234375 -0.76422119140625 0.7978973388671875
-0.0799713134765625 -0.7901611328125 0.77752685546875
-0.0682220458984375 -0.81390380859375 0.7929229736328125
-0.0556182861328125 -0.815185546875 0.8524017333984375
-0.0785980224609375 -0.7685546875 0.83599853515625
-0.0872955322265625 -0.75689697265625 0.7593231201171875
0.43988037109375 -0.65618896484375 0.5520477294921875
0.4668731689453125 -0.67230224609375 0.5849609375
0.45068359375 -0.70361328125 0.5562591552734375
0.4070587158203125 -0.63873291015625 0.5239715576171875
0.4277191162109375 -0.60614013671875 0.5478057861328125
0.4553375244140625 -0.62176513671875 0.5822601318359375
0.47625732421875 -0.71734619140625 0.587982177734375
0.4195709228515625 -0.68756103515625 0.52996826171875
0.394317626953125 -0.58935546875 0.5177154541015625
-0.1029052734375 -0.64794921875 0.7465362548828125
-0.098388671875 -0.690673828125 0.7647857666015625
-0.09820556640625 -0.66107177734375 0.7953948974609375
-0.1077880859375 -0.6046142578125 0.7285308837890625
-0.1004486083984375 -0.6358642578125 0.698822021484375
-0.0964508056640625 -0.6783447265625 0.718780517578125
-0.092376708984375 -0.70147705078125 0.81097412109375
-0.103363037109375 -0.61614990234375 0.7777862548828125
-0.1042633056640625 -0.59100341796875 0.6786346435546875
0.3089447021484375 -0.63018798828125 0.493133544921875
0.321990966796875 -0.67742919921875 0.5063629150390625
0.2783966064453125 -0.64129638671875 0.4977264404296875
0.29736328125 -0.58489990234375 0.4801788330078125
0.3402252197265625 -0.624267578125 0.4942474365234375
0.353271484375 -0.67303466796875 0.5050048828125
0.2913055419921875 -0.68658447265625 0.5135345458984375
0.26788330078125 -0.5960693359375 0.481903076171875
0.3277740478515625 -0.57806396484375 0.4840240478515625
-0.0472259521484375 -0.63189697265625 0.6075439453125
-0.0186614990234375 -0.6412353515625 0.5933990478515625
-0.0422821044921875 -0.675048828125 0.6318817138671875
-0.0715789794921875 -0.62567138671875 0.6277618408203125
-0.0526885986328125 -0.5889892578125 0.5846099853515625
-0.0256805419921875 -0.59912109375 0.5692596435546875
-0.0129241943359375 -0.68450927734375 0.6184844970703125
-0.0677337646484375 -0.66961669921875 0.651214599609375
-0.0761566162109375 -0.5821533203125 0.6052398681640625
0.3669891357421875 -0.810791015625 0.551910400390625
0.3956756591796875 -0.806884765625 0.5426025390625
0.38189697265625 -0.84320068359375 0.57000732421875
0.336944580078125 -0.81658935546875 0.5669403076171875
0.351409912109375 -0.77154541015625 0.5352630615234375
0.382110595703125 -0.76727294921875 0.52880859375
0.40667724609375 -0.83685302734375 0.558502197265625
0.3531646728515625 -0.8482666015625 0.5876007080078125
0.3204193115234375 -0.7784423828125 0.5474090576171875
-0.0258331298828125 -0.79638671875 0.7146148681640625
-0.01788330078125 -0.82537841796875 0.7431793212890625
-0.0532989501953125 -0.79022216796875 0.728302001953125
-0.0321807861328125 -0.7586669921875 0.6859130859375
0.0073699951171875 -0.804443359375 0.703948974609375
0.0155487060546875 -0.8333740234375 0.734649658203125
-0.0440826416015625 -0.81768798828125 0.7532958984375
-0.0591888427734375 -0.75286865234375 0.702239990234375
-0.0003814697265625 -0.76837158203125 0.6739501953125
0.2765045166015625 -0.47259521484375 0.4321441650390625
0.3012542724609375 -0.457763671875 0.4472503662109375
0.28118896484375 -0.5050048828125 0.4492034912109375
0.252105712890625 -0.49188232421875 0.42340087890625
0.2733612060546875 -0.446533203125 0.4148712158203125
0.2957916259765625 -0.42803955078125 0.4343414306640625
0.3082733154296875 -0.493896484375 0.46002197265625
0.2545623779296875 -0.51983642578125 0.4443359375
0.2503814697265625 -0.46929931640625 0.401763916015625
-0.077728271484375 -0.486083984375 0.5169677734375
-0.0681610107421875 -0.5145263671875 0.5389862060546875
-0.095001220703125 -0.471923828125 0.5428009033203125
-0.088104248046875 -0.4622802734375 0.495941162109375
-0.056854248046875 -0.50274658203125 0.49755859375
-0.0448150634765625 -0.5283203125 0.52166748046875
-0.087615966796875 -0.50494384765625 0.56256103515625
-0.10260009765625 -0.44451904296875 0.5241851806640625
-0.0693206787109375 -0.48260498046875 0.47467041015625
0.385955810546875 -0.457763671875 0.5308380126953125
0.40960693359375 -0.4659423828125 0.5673675537109375
0.4001007080078125 -0.50531005859375 0.537506103515625
0.35736083984375 -0.450927734375 0.4972076416015625
0.37109375 -0.41156005859375 0.5240020751953125
0.3925933837890625 -0.41558837890625 0.56024169921875
0.42633056640625 -0.5179443359375 0.5738067626953125
0.3692474365234375 -0.49505615234375 0.5047149658203125
0.345458984375 -0.41082763671875 0.4902801513671875
-0.1226654052734375 -0.47039794921875 0.6672515869140625
-0.1172637939453125 -0.51422119140625 0.6874542236328125
-0.12078857421875 -0.47674560546875 0.715087890625
-0.127105712890625 -0.43011474609375 0.6472015380859375
-0.1179962158203125 -0.46539306640625 0.619384765625
-0.1131591796875 -0.50579833984375 0.6385040283203125
-0.1151580810546875 -0.52337646484375 0.7374420166015625
-0.126312255859375 -0.432373046875 0.69281005859375
-0.122406005859375 -0.42901611328125 0.6013031005859375
0.29541015625 -0.22906494140625 0.505126953125
0.30230712890625 -0.24700927734375 0.503692626953125
0.294281005859375 -0.23077392578125 0.4763641357421875
0.28875732421875 -0.2125244140625 0.5067901611328125
0.299072265625 -0.2232666015625 0.532470703125
0.307830810546875 -0.24029541015625 0.533660888671875
0.2977752685546875 -0.252197265625 0.4705352783203125
0.289642333984375 -0.21282958984375 0.482086181640625
0.2911224365234375 -0.2076416015625 0.5323028564453125
-0.128631591796875 -0.26116943359375 0.5718536376953125
-0.137603759765625 -0.26568603515625 0.5413818359375
-0.1290130615234375 -0.2781982421875 0.574951171875
-0.124053955078125 -0.25439453125 0.6010284423828125
-0.128143310546875 -0.24542236328125 0.569488525390625
-0.1375579833984375 -0.2471923828125 0.543243408203125
-0.1358489990234375 -0.2857666015625 0.5395965576171875
-0.1251220703125 -0.270751953125 0.60699462890625
-0.122833251953125 -0.23895263671875 0.5961456298828125
0.3309326171875 -0.31231689453125 0.509124755859375
0.3435211181640625 -0.34002685546875 0.5132904052734375
0.31439208984375 -0.3216552734375 0.474853515625
0.31982421875 -0.28863525390625 0.5054473876953125
0.3440704345703125 -0.3055419921875 0.54302978515625
0.35931396484375 -0.33538818359375 0.5476837158203125
0.323760986328125 -0.34710693359375 0.4793701171875
0.306976318359375 -0.2978515625 0.4697265625
0.3304901123046875 -0.28094482421875 0.5389251708984375
-0.1309661865234375 -0.33782958984375 0.60003662109375
-0.1282196044921875 -0.34686279296875 0.5599822998046875
-0.1310882568359375 -0.36370849609375 0.61328125
-0.1302337646484375 -0.33160400390625 0.63861083984375
-0.13037109375 -0.3162841796875 0.5887451171875
-0.1306610107421875 -0.3265380859375 0.5487060546875
-0.1270751953125 -0.37054443359375 0.571929931640625
-0.1307525634765625 -0.36029052734375 0.653839111328125
-0.128662109375 -0.307861328125 0.625579833984375
0.2711029052734375 -0.16571044921875 0.5112457275390625
0.269622802734375 -0.1585693359375 0.5331573486328125
0.2748260498046875 -0.1812744140625 0.510589599609375
0.274566650390625 -0.1668701171875 0.493499755859375
0.2744903564453125 -0.1497802734375 0.5093994140625
0.27197265625 -0.1422119140625 0.53076171875
0.2747039794921875 -0.17529296875 0.53326416015625
0.277618408203125 -0.18115234375 0.4913787841796875
0.2789764404296875 -0.15155029296875 0.4933013916015625
-0.12774658203125 -0.19964599609375 0.5628662109375
-0.12567138671875 -0.2142333984375 0.5653839111328125
-0.122222900390625 -0.19219970703125 0.5848388671875
-0.1372528076171875 -0.18646240234375 0.5597381591796875
-0.136138916015625 -0.2027587890625 0.5447998046875
-0.134429931640625 -0.21612548828125 0.5451507568359375
-0.1202392578125 -0.20745849609375 0.588531494140625
-0.1317291259765625 -0.1781005859375 0.58026123046875
-0.145751953125 -0.190673828125 0.5434417724609375
0.353302001953125 -0.10211181640625 0.4810943603515625
0.3159027099609375 -0.11822509765625 0.4944915771484375
0.3508758544921875 -0.1065673828125 0.4664154052734375
0.396636962890625 -0.08331298828125 0.465667724609375
0.3523406982421875 -0.0941162109375 0.50030517578125
0.3136749267578125 -0.1102294921875 0.513916015625
0.317169189453125 -0.12249755859375 0.48040771484375
0.3922119140625 -0.091552734375 0.4479522705078125
0.3967437744140625 -0.07598876953125 0.4854736328125
-0.2366485595703125 -0.16156005859375 0.5396575927734375
-0.2363433837890625 -0.1669921875 0.52392578125
-0.192108154296875 -0.16790771484375 0.5482940673828125
-0.2339324951171875 -0.152587890625 0.559112548828125
-0.288055419921875 -0.15625 0.529022216796875
-0.2857666015625 -0.16241455078125 0.5101165771484375
-0.195526123046875 -0.172607421875 0.5337066650390625
-0.1880035400390625 -0.15863037109375 0.56793212890625
-0.286529541015625 -0.1478271484375 0.5494537353515625
0.1879119873046875 -0.50921630859375 -0.5896148681640625
0.20751953125 -0.4566650390625 -0.63873291015625
0.2564239501953125 -0.48529052734375 -0.5710906982421875
0.173126220703125 -0.54962158203125 -0.5348358154296875
0.1121826171875 -0.52960205078125 -0.6030731201171875
0.131927490234375 -0.475830078125 -0.6569671630859375
0.2755584716796875 -0.435302734375 -0.6146240234375
0.2431793212890625 -0.5234375 -0.5207672119140625
0.0972900390625 -0.57073974609375 -0.544708251953125
-0.1180419921875 -0.54547119140625 -0.5707550048828125
-0.1851043701171875 -0.53955078125 -0.54473876953125
-0.1024932861328125 -0.497314453125 -0.6287841796875
-0.0436248779296875 -0.5482177734375 -0.5930633544921875
-0.1302490234375 -0.58233642578125 -0.5093841552734375
-0.19580078125 -0.572265625 -0.485595703125
-0.172943115234375 -0.4949951171875 -0.60028076171875
-0.025665283203125 -0.49713134765625 -0.651153564453125
-0.057586669921875 -0.5870361328125 -0.53106689453125
0.14556884765625 -0.6158447265625 -0.3252410888671875
0.1527252197265625 -0.60198974609375 -0.4027862548828125
0.21484375 -0.5860595703125 -0.3226470947265625
0.14141845703125 -0.62255859375 -0.2399749755859375
0.0724945068359375 -0.63824462890625 -0.3258209228515625
0.077392578125 -0.6243896484375 -0.40643310546875
0.2233734130859375 -0.57122802734375 -0.3968963623046875
0.2079620361328125 -0.5931396484375 -0.24017333984375
0.07135009765625 -0.6436767578125 -0.238189697265625
-0.1406707763671875 -0.64190673828125 -0.287139892578125
-0.2010345458984375 -0.624267578125 -0.2682037353515625
-0.141998291015625 -0.6302490234375 -0.3679046630859375
-0.0735015869140625 -0.6502685546875 -0.3058013916015625
-0.1331634521484375 -0.6439208984375 -0.1991729736328125
-0.1920928955078125 -0.62646484375 -0.1814727783203125
-0.2048492431640625 -0.61407470703125 -0.348388671875
-0.072784423828125 -0.63824462890625 -0.388031005859375
-0.0687103271484375 -0.654052734375 -0.2164306640625
0.1468353271484375 -0.5802001953125 0.0563201904296875
0.1425323486328125 -0.6014404296875 -0.045928955078125
0.201812744140625 -0.55499267578125 0.0470123291015625
0.152587890625 -0.555908203125 0.1520233154296875
0.089691162109375 -0.59686279296875 0.0663909912109375
0.0805816650390625 -0.6209716796875 -0.037689208984375
0.2014007568359375 -0.57623291015625 -0.0527496337890625
0.2033843994140625 -0.53070068359375 0.1432037353515625
0.0999298095703125 -0.57177734375 0.163665771484375
-0.0810089111328125 -0.59320068359375 0.0993804931640625
-0.1341552734375 -0.5762939453125 0.108123779296875
-0.1025543212890625 -0.61749267578125 -0.00262451171875
-0.02545166015625 -0.60321044921875 0.0887298583984375
-0.0596923828125 -0.56817626953125 0.1938934326171875
-0.110595703125 -0.5491943359375 0.20257568359375
-0.157867431640625 -0.6004638671875 0.00933837890625
-0.0435943603515625 -0.62847900390625 -0.0155029296875
-0.0070343017578125 -0.5780029296875 0.1849365234375
0.16107177734375 -0.51324462890625 0.3306121826171875
0.159820556640625 -0.52001953125 0.2904205322265625
0.198211669921875 -0.49346923828125 0.3221435546875
0.162261962890625 -0.51177978515625 0.359100341796875
0.12005615234375 -0.52593994140625 0.34332275390625
0.1156005859375 -0.534423828125 0.302978515625
0.2016448974609375 -0.49822998046875 0.28253173828125
0.1969757080078125 -0.4935302734375 0.3505401611328125
0.1233978271484375 -0.52392578125 0.37152099609375
-0.011932373046875 -0.5216064453125 0.367919921875
-0.05157470703125 -0.5064697265625 0.37530517578125
-0.024658203125 -0.53057861328125 0.329315185546875
0.03179931640625 -0.52972412109375 0.3625946044921875
-0.0019378662109375 -0.5191650390625 0.39532470703125
-0.039215087890625 -0.50518798828125 0.4019622802734375
-0.0681304931640625 -0.5128173828125 0.3380889892578125
0.0218353271484375 -0.53887939453125 0.3228759765625
0.0394134521484375 -0.527099609375 0.390228271484375
0.26898193359375 -0.39837646484375 0.3699798583984375
0.2692108154296875 -0.411865234375 0.3843536376953125
0.252166748046875 -0.434814453125 0.3419189453125
0.272125244140625 -0.387939453125 0.3524169921875
0.2834320068359375 -0.3646240234375 0.4036865234375
0.28631591796875 -0.38250732421875 0.4134521484375
0.2501068115234375 -0.4420166015625 0.36248779296875
0.2577972412109375 -0.42926025390625 0.3144989013671875
0.2836761474609375 -0.34783935546875 0.39208984375
-0.1137237548828125 -0.42059326171875 0.4449920654296875
-0.1024322509765625 -0.4541015625 0.4135589599609375
-0.1054229736328125 -0.43157958984375 0.4614410400390625
-0.12030029296875 -0.38916015625 0.48114013671875
-0.1253814697265625 -0.41259765625 0.427154541015625
-0.11798095703125 -0.45147705078125 0.3877716064453125
-0.0911712646484375 -0.4598388671875 0.4341278076171875
-0.11456298828125 -0.40447998046875 0.4943389892578125
-0.12890625 -0.37493896484375 0.466766357421875
0.6938934326171875 0.06622314453125 0.171112060546875
0.6756744384765625 0.08758544921875 0.23272705078125
0.66534423828125 0.0103759765625 0.1794281005859375
0.7138671875 0.04632568359375 0.10760498046875
0.7126007080078125 0.127685546875 0.1686859130859375
0.6964874267578125 0.1439208984375 0.227783203125
0.6464385986328125 0.03826904296875 0.244049072265625
0.6858978271484375 -0.019775390625 0.1114349365234375
0.7305908203125 0.11322021484375 0.109375
-0.651885986328125 -0.13519287109375 0.168670654296875
-0.6132965087890625 -0.16851806640625 0.2049560546875
-0.6395111083984375 -0.10845947265625 0.2327117919921875
-0.683258056640625 -0.09698486328125 0.13580322265625
-0.6656646728515625 -0.16259765625 0.102783203125
-0.6295318603515625 -0.20306396484375 0.138824462890625
-0.598419189453125 -0.13623046875 0.26873779296875
-0.6741180419921875 -0.0748291015625 0.19927978515625
-0.6930389404296875 -0.11798095703125 0.0704193115234375
0.30487060546875 -0.21051025390625 -0.7590179443359375
0.3394317626953125 -0.10162353515625 -0.780731201171875
0.376312255859375 -0.19696044921875 -0.7202911376953125
0.26812744140625 -0.30731201171875 -0.72515869140625
0.2248382568359375 -0.224609375 -0.790252685546875
0.2564849853515625 -0.1165771484375 -0.816375732421875
0.4129180908203125 -0.09234619140625 -0.7383880615234375
0.3379058837890625 -0.29290771484375 -0.691070556640625
0.1903228759765625 -0.3232421875 -0.7519378662109375
-0.0482177734375 -0.274169921875 -0.7868804931640625
-0.13604736328125 -0.29010009765625 -0.7583465576171875
-0.0315704345703125 -0.17669677734375 -0.8238372802734375
0.0443878173828125 -0.257080078125 -0.80450439453125
-0.0666351318359375 -0.36138916015625 -0.737823486328125
-0.1481170654296875 -0.37054443359375 -0.7083587646484375
-0.12542724609375 -0.1995849609375 -0.798828125
0.067047119140625 -0.1561279296875 -0.8387603759765625
0.0196075439453125 -0.35101318359375 -0.7586822509765625
0.179595947265625 0.7098388671875 -0.1979522705078125
0.1546783447265625 0.70819091796875 -0.121429443359375
0.2692413330078125 0.717529296875 -0.1719512939453125
0.208770751953125 0.6990966796875 -0.27349853515625
0.08514404296875 0.69189453125 -0.2288818359375
0.0590057373046875 0.6912841796875 -0.1495819091796875
0.246551513671875 0.7156982421875 -0.10015869140625
0.2961883544921875 0.70635986328125 -0.2437896728515625
0.1162261962890625 0.67852783203125 -0.3082427978515625
-0.195343017578125 0.59063720703125 -0.332122802734375
-0.276580810546875 0.546142578125 -0.363739013671875
-0.22235107421875 0.5926513671875 -0.2506256103515625
-0.105438232421875 0.63177490234375 -0.2979888916015625
-0.1648406982421875 0.5770263671875 -0.4105987548828125
-0.247802734375 0.53338623046875 -0.439849853515625
-0.3026580810546875 0.54730224609375 -0.2855682373046875
-0.1327972412109375 0.63311767578125 -0.2160797119140625
-0.07391357421875 0.61724853515625 -0.378814697265625
0.306793212890625 0.59490966796875 -0.4989776611328125
0.27410888671875 0.641357421875 -0.4252166748046875
0.38665771484375 0.608642578125 -0.45623779296875
0.336273193359375 0.533447265625 -0.570281982421875
0.2191009521484375 0.57061767578125 -0.5438079833984375
0.1848297119140625 0.61907958984375 -0.4665679931640625
0.3568878173828125 0.65399169921875 -0.3862457275390625
0.4139556884765625 0.5487060546875 -0.5229644775390625
0.2500457763671875 0.50921630859375 -0.6176300048828125
-0.0677947998046875 0.47406005859375 -0.6352081298828125
-0.158203125 0.43634033203125 -0.6494598388671875
-0.09930419921875 0.51934814453125 -0.5638427734375
0.0288848876953125 0.5074462890625 -0.6140899658203125
-0.04034423828125 0.41455078125 -0.699951171875
-0.1345977783203125 0.3797607421875 -0.7090301513671875
-0.1871185302734375 0.47967529296875 -0.5839691162109375
-0.004608154296875 0.555908203125 -0.5377197265625
0.058685302734375 0.44677734375 -0.6846160888671875
0.3833160400390625 0.24896240234375 -0.73822021484375
0.3762359619140625 0.35955810546875 -0.6918792724609375
0.4591217041015625 0.260986328125 -0.6878509521484375
0.3805999755859375 0.131591796875 -0.7708892822265625
0.297454833984375 0.22955322265625 -0.7848968505859375
0.29107666015625 0.33648681640625 -0.7399139404296875
0.45208740234375 0.37371826171875 -0.6410675048828125
0.4562530517578125 0.14251708984375 -0.7224578857421875
0.2943878173828125 0.1142578125 -0.81439208984375
-0.005340576171875 0.1455078125 -0.83331298828125
-0.1055908203125 0.11474609375 -0.8228912353515625
-0.0086669921875 0.249755859375 -0.8017578125
0.0994110107421875 0.176025390625 -0.83343505859375
-0.0084228515625 0.03668212890625 -0.84930419921875
-0.1092987060546875 0.007568359375 -0.8328399658203125
-0.1074371337890625 0.21624755859375 -0.7974853515625
0.0943603515625 0.2799072265625 -0.7962188720703125
0.0963287353515625 0.06573486328125 -0.854705810546875
0.58929443359375 0.47100830078125 0.272735595703125
0.5925140380859375 0.48712158203125 0.31109619140625
0.617584228515625 0.45281982421875 0.2709197998046875
0.5883941650390625 0.4620361328125 0.23162841796875
0.558349609375 0.48358154296875 0.2713775634765625
0.5598602294921875 0.5001220703125 0.3112030029296875
0.6210479736328125 0.466796875 0.3081207275390625
0.6162567138671875 0.44378662109375 0.231231689453125
0.558013916015625 0.4747314453125 0.228729248046875
-0.681304931640625 0.19482421875 0.0893402099609375
-0.700714111328125 0.1724853515625 0.0926055908203125
-0.700103759765625 0.20648193359375 0.1253204345703125
-0.657470703125 0.21551513671875 0.0874176025390625
-0.664154052734375 0.187744140625 0.0454254150390625
-0.685089111328125 0.164306640625 0.0498809814453125
-0.718597412109375 0.18328857421875 0.1282196044921875
-0.6764984130859375 0.22796630859375 0.12506103515625
-0.639862060546875 0.20819091796875 0.0420379638671875
0.60638427734375 0.49786376953125 0.090301513671875
0.5964508056640625 0.47637939453125 0.1402435302734375
0.637237548828125 0.4737548828125 0.097076416015625
0.6190643310546875 0.51983642578125 0.038787841796875
0.5732269287109375 0.5159912109375 0.0807647705078125
0.564971923828125 0.4915771484375 0.1326751708984375
0.6260833740234375 0.455322265625 0.1442718505859375
0.6507568359375 0.493408203125 0.048370361328125
0.5841217041015625 0.5418701171875 0.0271759033203125
-0.633209228515625 0.20306396484375 -0.144134521484375
-0.6608428955078125 0.17327880859375 -0.13140869140625
-0.6403656005859375 0.19329833984375 -0.0723114013671875
-0.6035308837890625 0.2308349609375 -0.155242919921875
-0.626190185546875 0.21392822265625 -0.2199859619140625
-0.6562652587890625 0.18121337890625 -0.2037811279296875
-0.665771484375 0.16595458984375 -0.063018798828125
-0.6132659912109375 0.21649169921875 -0.0807342529296875
-0.594207763671875 0.24530029296875 -0.23333740234375
0.662994384765625 0.54132080078125 -0.12091064453125
0.6476593017578125 0.54510498046875 -0.0672454833984375
0.693939208984375 0.50994873046875 -0.1056976318359375
0.679046630859375 0.52911376953125 -0.1744384765625
0.6277923583984375 0.5689697265625 -0.137603759765625
0.611602783203125 0.5711669921875 -0.082855224609375
0.679718017578125 0.51348876953125 -0.0533294677734375
0.708221435546875 0.4974365234375 -0.157745361328125
0.6447906494140625 0.55718994140625 -0.192718505859375
-0.5899200439453125 0.21136474609375 -0.4264678955078125
-0.6246185302734375 0.172607421875 -0.4032135009765625
-0.60479736328125 0.2191162109375 -0.3628387451171875
-0.55181884765625 0.24957275390625 -0.445526123046875
-0.573211669921875 0.19744873046875 -0.4855194091796875
-0.6090240478515625 0.15826416015625 -0.4604644775390625
-0.6383819580078125 0.181396484375 -0.341033935546875
-0.568695068359375 0.25628662109375 -0.3806915283203125
-0.5340423583984375 0.235595703125 -0.5055999755859375
0.72613525390625 0.44110107421875 -0.331878662109375
0.711395263671875 0.4793701171875 -0.281219482421875
0.7498626708984375 0.40948486328125 -0.312957763671875
0.737152099609375 0.39208984375 -0.3774566650390625
0.6962890625 0.46795654296875 -0.352294921875
0.6799163818359375 0.5069580078125 -0.300537109375
0.737640380859375 0.44708251953125 -0.263397216796875
0.7577362060546875 0.3660888671875 -0.3568115234375
0.7093048095703125 0.41729736328125 -0.39959716796875
-0.527496337890625 0.11505126953125 -0.630157470703125
-0.565399169921875 0.0782470703125 -0.60205078125
-0.5410308837890625 0.14837646484375 -0.5887908935546875
-0.485076904296875 0.152587890625 -0.6535186767578125
-0.5166168212890625 0.0736083984375 -0.6610565185546875
-0.5529632568359375 0.042724609375 -0.632293701171875
-0.578857421875 0.10980224609375 -0.561676025390625
-0.49951171875 0.18701171875 -0.6109161376953125
-0.4741668701171875 0.10772705078125 -0.686187744140625
0.7413482666015625 0.17462158203125 -0.471282958984375
0.729583740234375 0.08575439453125 -0.4864959716796875
0.7147216796875 0.1837158203125 -0.5020599365234375
0.74591064453125 0.2579345703125 -0.448333740234375
0.76348876953125 0.17327880859375 -0.4368743896484375
0.7553558349609375 0.09063720703125 -0.450714111328125
0.702239990234375 0.08966064453125 -0.5198822021484375
0.719940185546875 0.2728271484375 -0.4761810302734375
0.7649688720703125 0.24847412109375 -0.4187469482421875
-0.5138092041015625 -0.10174560546875 -0.6652069091796875
-0.469818115234375 -0.0836181640625 -0.6975860595703125
-0.5166778564453125 -0.1708984375 -0.640167236328125
-0.553436279296875 -0.1119384765625 -0.629730224609375
-0.5106353759765625 -0.03594970703125 -0.67889404296875
-0.467437744140625 -0.01220703125 -0.7089080810546875
-0.4724273681640625 -0.15692138671875 -0.6749114990234375
-0.55889892578125 -0.1763916015625 -0.6039276123046875
-0.547607421875 -0.05279541015625 -0.645843505859375
0.618316650390625 0.239013671875 -0.5776214599609375
0.5757598876953125 0.25555419921875 -0.60577392578125
0.6168670654296875 0.34515380859375 -0.5397186279296875
0.6537933349609375 0.21807861328125 -0.5535430908203125
0.6104736328125 0.1268310546875 -0.6059722900390625
0.5698699951171875 0.1397705078125 -0.6374359130859375
0.5721282958984375 0.366455078125 -0.56329345703125
0.6550750732421875 0.3193359375 -0.5199737548828125
0.6436309814453125 0.112548828125 -0.5776519775390625
-0.3267364501953125 0.00811767578125 -0.7724609375
-0.3250732421875 0.0987548828125 -0.767913818359375
-0.267242431640625 0.044189453125 -0.7906646728515625
-0.33050537109375 -0.0855712890625 -0.7635040283203125
-0.3773651123046875 -0.02606201171875 -0.751373291015625
-0.3753204345703125 0.0587158203125 -0.753204345703125
-0.266632080078125 0.14105224609375 -0.7790069580078125
-0.271331787109375 -0.0556640625 -0.787750244140625
-0.3812103271484375 -0.1134033203125 -0.7367401123046875
0.5745086669921875 0.56390380859375 -0.3885955810546875
0.5207977294921875 0.59100341796875 -0.4001922607421875
0.5522308349609375 0.6041259765625 -0.3313751220703125
0.620635986328125 0.530517578125 -0.380279541015625
0.5933685302734375 0.50933837890625 -0.442840576171875
0.542724609375 0.53546142578125 -0.458831787109375
0.496124267578125 0.63275146484375 -0.3400421142578125
0.600982666015625 0.56939697265625 -0.3251495361328125
0.6371002197265625 0.47760009765625 -0.4314727783203125
-0.35406494140625 0.29345703125 -0.6766510009765625
-0.37420654296875 0.33087158203125 -0.6250152587890625
-0.3020477294921875 0.34576416015625 -0.670440673828125
-0.338165283203125 0.24395751953125 -0.7188873291015625
-0.399200439453125 0.2410888671875 -0.6770172119140625
-0.4169769287109375 0.27703857421875 -0.629302978515625
-0.3248748779296875 0.38397216796875 -0.6151580810546875
-0.2834320068359375 0.29443359375 -0.71759033203125
-0.3852386474609375 0.19384765625 -0.7149810791015625
0.4854583740234375 0.6639404296875 -0.150726318359375
0.4235382080078125 0.6929931640625 -0.1495361328125
0.4671630859375 0.66265869140625 -0.0899658203125
0.5397186279296875 0.62982177734375 -0.1529541015625
0.5067596435546875 0.6531982421875 -0.211456298828125
0.4458465576171875 0.6837158203125 -0.2135772705078125
0.403533935546875 0.69049072265625 -0.0862579345703125
0.5222320556640625 0.6300048828125 -0.0942535400390625
0.5596160888671875 0.61932373046875 -0.211029052734375
-0.443115234375 0.39117431640625 -0.440582275390625
-0.4645843505859375 0.39434814453125 -0.369659423828125
-0.4000396728515625 0.446044921875 -0.419586181640625
-0.4199676513671875 0.3790283203125 -0.506591796875
-0.479400634765625 0.33856201171875 -0.4537506103515625
-0.4995574951171875 0.3436279296875 -0.385101318359375
-0.423095703125 0.44720458984375 -0.34619140625
-0.375030517578125 0.4339599609375 -0.489013671875
-0.45819091796875 0.3255615234375 -0.51690673828125
0.4378509521484375 0.58343505859375 0.090606689453125
0.3751068115234375 0.60577392578125 0.1029205322265625
0.4348907470703125 0.54913330078125 0.1462554931640625
0.4908447265625 0.5584716796875 0.0794525146484375
0.4436798095703125 0.61859130859375 0.03118896484375
0.379608154296875 0.6435546875 0.0412445068359375
0.3731842041015625 0.56903076171875 0.1594390869140625
0.486480712890625 0.52716064453125 0.1342010498046875
0.497802734375 0.59039306640625 0.0220794677734375
-0.512237548828125 0.33941650390625 -0.131011962890625
-0.5245819091796875 0.3135986328125 -0.053741455078125
-0.472320556640625 0.3846435546875 -0.103302001953125
-0.498809814453125 0.3663330078125 -0.2125091552734375
-0.544464111328125 0.29718017578125 -0.150665283203125
-0.556854248046875 0.275390625 -0.07305908203125
-0.484222412109375 0.35552978515625 -0.0264129638671875
-0.459259033203125 0.41436767578125 -0.185546875
-0.5317535400390625 0.3204345703125 -0.231109619140625
0.430328369140625 0.52593994140625 0.2838134765625
0.427947998046875 0.5430908203125 0.3203887939453125
0.4808197021484375 0.5101318359375 0.2761383056640625
0.4322967529296875 0.51824951171875 0.24322509765625
0.3713836669921875 0.5389404296875 0.293304443359375
0.368133544921875 0.5574951171875 0.326904296875
0.47882080078125 0.527587890625 0.3153839111328125
0.48211669921875 0.50146484375 0.2333526611328125
0.372802734375 0.533203125 0.255157470703125
-0.5677947998046875 0.29742431640625 0.1107025146484375
-0.6019439697265625 0.26513671875 0.097259521484375
-0.5839691162109375 0.31170654296875 0.14483642578125
-0.525604248046875 0.33148193359375 0.1305389404296875
-0.5520172119140625 0.2911376953125 0.06817626953125
-0.5851287841796875 0.25836181640625 0.05181884765625
-0.61907958984375 0.27923583984375 0.1340179443359375
-0.5416412353515625 0.34521484375 0.1601409912109375
-0.5103302001953125 0.32647705078125 0.091400146484375
0.1164093017578125 0.62408447265625 0.10675048828125
0.114593505859375 0.58428955078125 0.1761016845703125
0.2129669189453125 0.62799072265625 0.112701416015625
0.12274169921875 0.6622314453125 0.0319976806640625
0.014434814453125 0.61083984375 0.0941314697265625
0.0100555419921875 0.57147216796875 0.1738128662109375
0.2122344970703125 0.58843994140625 0.175811767578125
0.2179718017578125 0.66680908203125 0.0439453125
0.0237884521484375 0.64788818359375 0.0125885009765625
-0.2739410400390625 0.51947021484375 0.004180908203125
-0.354156494140625 0.47613525390625 -0.0336151123046875
-0.285003662109375 0.483154296875 0.08319091796875
-0.18377685546875 0.55767822265625 0.041168212890625
-0.2613372802734375 0.5537109375 -0.0807647705078125
-0.3410491943359375 0.50946044921875 -0.117401123046875
-0.3654632568359375 0.4422607421875 0.0428314208984375
-0.193878173828125 0.5191650390625 0.1255340576171875
-0.1714019775390625 0.5921630859375 -0.045166015625
0.11962890625 0.61376953125 0.3522796630859375
0.073822021484375 0.5963134765625 0.3567047119140625
0.101898193359375 0.646240234375 0.3504486083984375
0.162139892578125 0.63421630859375 0.35430908203125
0.134613037109375 0.58197021484375 0.3540496826171875
0.07696533203125 0.5595703125 0.359588623046875
0.0666046142578125 0.631591796875 0.353759765625
0.134796142578125 0.660888671875 0.3530426025390625
0.191986083984375 0.60516357421875 0.3554229736328125
-0.3712921142578125 0.48822021484375 0.2412567138671875
-0.37652587890625 0.520263671875 0.235931396484375
-0.32647705078125 0.4949951171875 0.2660675048828125
-0.365325927734375 0.45721435546875 0.2473297119140625
-0.4184722900390625 0.485595703125 0.222381591796875
-0.4130859375 0.5174560546875 0.221832275390625
-0.341400146484375 0.524658203125 0.256866455078125
-0.3069000244140625 0.4652099609375 0.277801513671875
-0.4261322021484375 0.45159912109375 0.2227020263671875
0.138885498046875 0.53125 0.313995361328125
0.14501953125 0.53790283203125 0.3370513916015625
0.2222137451171875 0.54315185546875 0.30865478515625
0.1281280517578125 0.53515625 0.281219482421875
0.0587615966796875 0.5147705078125 0.32073974609375
0.0708465576171875 0.51617431640625 0.343902587890625
0.2234039306640625 0.55621337890625 0.334228515625
0.21844482421875 0.54376220703125 0.2744903564453125
0.0360107421875 0.520751953125 0.288848876953125
-0.3301544189453125 0.41961669921875 0.2229156494140625
-0.405120849609375 0.394287109375 0.1876678466796875
-0.345062255859375 0.42041015625 0.2412261962890625
-0.256439208984375 0.4393310546875 0.260009765625
-0.313018798828125 0.43017578125 0.193603515625
-0.390625 0.39788818359375 0.1548919677734375
-0.4199066162109375 0.40301513671875 0.20880126953125
-0.27313232421875 0.43450927734375 0.2772369384765625
-0.2315826416015625 0.45635986328125 0.236328125
-0.058074951171875 0.46240234375 0.347137451171875
-0.0552520751953125 0.454833984375 0.361724853515625
-0.042633056640625 0.475830078125 0.338592529296875
-0.0760040283203125 0.4593505859375 0.340057373046875
-0.0757904052734375 0.44482421875 0.3603363037109375
-0.0291290283203125 0.47271728515625 0.3582000732421875
-0.0681610107421875 0.47833251953125 0.31878662109375
-0.1355743408203125 0.44415283203125 0.33349609375
-0.1546478271484375 0.44989013671875 0.3184356689453125
-0.1363983154296875 0.435791015625 0.34820556640625
-0.117156982421875 0.4495849609375 0.3329925537109375
-0.1302032470703125 0.46429443359375 0.307830810546875
-0.1678619384765625 0.439697265625 0.3333740234375
-0.1130828857421875 0.4366455078125 0.3543243408203125
0.69549560546875 0.32183837890625 0.2183990478515625
0.691375732421875 0.33294677734375 0.2631072998046875
0.71295166015625 0.25823974609375 0.1939697265625
0.7023468017578125 0.31451416015625 0.1719207763671875
0.6714935302734375 0.37823486328125 0.2427978515625
0.671295166015625 0.39019775390625 0.28314208984375
0.7037811279296875 0.26959228515625 0.244293212890625
0.72369384765625 0.24981689453125 0.1430816650390625
0.6745147705078125 0.37017822265625 0.2005767822265625
-0.7256317138671875 0.04962158203125 0.093719482421875
-0.72021484375 -0.0020751953125 0.0982666015625
-0.732421875 0.06280517578125 0.142791748046875
-0.7237091064453125 0.09912109375 0.094085693359375
-0.7212066650390625 0.03851318359375 0.04107666015625
-0.7207794189453125 -0.0155029296875 0.03912353515625
-0.7213134765625 0.01312255859375 0.1536712646484375
-0.735504150390625 0.11102294921875 0.1363677978515625
-0.714599609375 0.090087890625 0.0467529296875
0.7307586669921875 0.33001708984375 0.046478271484375
0.7550506591796875 0.259521484375 0.0149993896484375
0.7414703369140625 0.3406982421875 0.00738525390625
0.7005157470703125 0.390869140625 0.07489013671875
0.7203826904296875 0.31939697265625 0.085540771484375
0.745513916015625 0.251708984375 0.0530853271484375
0.7644500732421875 0.26715087890625 -0.022735595703125
0.71270751953125 0.40496826171875 0.032806396484375
0.689117431640625 0.3785400390625 0.1166839599609375
-0.71722412109375 0.0328369140625 -0.128265380859375
-0.71527099609375 0.03411865234375 -0.18463134765625
-0.72314453125 -0.02801513671875 -0.129669189453125
-0.7179718017578125 0.0308837890625 -0.0716400146484375
-0.7042236328125 0.08807373046875 -0.1242218017578125
-0.7019805908203125 0.09112548828125 -0.18560791015625
-0.72174072265625 -0.02850341796875 -0.1818084716796875
-0.72320556640625 -0.02777099609375 -0.076416015625
-0.7054901123046875 0.08575439453125 -0.0635986328125
0.7660369873046875 0.3450927734375 -0.1161651611328125
0.7827606201171875 0.27764892578125 -0.1357421875
0.7724761962890625 0.33111572265625 -0.1608123779296875
0.745086669921875 0.410888671875 -0.101654052734375
0.759124755859375 0.35009765625 -0.0733642578125
0.7781829833984375 0.27880859375 -0.0971832275390625
0.787445068359375 0.264892578125 -0.1770477294921875
0.754608154296875 0.39697265625 -0.150634765625
0.7355804443359375 0.417236328125 -0.0550994873046875
-0.6902008056640625 0.02178955078125 -0.341888427734375
-0.6766510009765625 0.0074462890625 -0.3896484375
-0.69873046875 -0.0347900390625 -0.328887939453125
-0.7020263671875 0.02984619140625 -0.291015625
-0.67572021484375 0.078369140625 -0.3586883544921875
-0.6610107421875 0.06304931640625 -0.4105224609375
-0.68682861328125 -0.0478515625 -0.3727874755859375
-0.70953369140625 -0.030517578125 -0.2817535400390625
-0.688262939453125 0.08758544921875 -0.3033905029296875
0.7874755859375 0.24505615234375 -0.3070220947265625
0.7864990234375 0.21075439453125 -0.3543853759765625
0.779632568359375 0.3095703125 -0.3002471923828125
0.7844085693359375 0.2789306640625 -0.2576751708984375
0.793975830078125 0.18341064453125 -0.31671142578125
0.78863525390625 0.14306640625 -0.3651123046875
0.781341552734375 0.275390625 -0.344757080078125
0.77313232421875 0.34490966796875 -0.2509613037109375
0.7945404052734375 0.216796875 -0.26812744140625
-0.6317138671875 -0.06591796875 -0.51995849609375
-0.6168212890625 -0.01336669921875 -0.5447998046875
-0.612396240234375 -0.09283447265625 -0.5573577880859375
-0.642822265625 -0.11553955078125 -0.4991302490234375
-0.64794921875 -0.0391845703125 -0.4793853759765625
-0.6322174072265625 0.0152587890625 -0.504425048828125
-0.5996551513671875 -0.03936767578125 -0.5794219970703125
-0.62225341796875 -0.1468505859375 -0.534423828125
-0.6596832275390625 -0.0894775390625 -0.4583282470703125
0.3405914306640625 -0.4464111328125 0.0126495361328125
0.29803466796875 -0.48663330078125 0.0250396728515625
0.345428466796875 -0.46917724609375 -0.07366943359375
0.382415771484375 -0.4034423828125 0.0021820068359375
0.3362579345703125 -0.41705322265625 0.09674072265625
0.2945556640625 -0.46063232421875 0.114471435546875
0.3028564453125 -0.5081787109375 -0.0667266845703125
0.386199951171875 -0.42974853515625 -0.08135986328125
0.37811279296875 -0.369384765625 0.08514404296875
-0.2722015380859375 -0.49371337890625 0.101715087890625
-0.291259765625 -0.52215576171875 0.0157928466796875
-0.229400634765625 -0.524658203125 0.109130859375
-0.2519073486328125 -0.46307373046875 0.1830291748046875
-0.314453125 -0.4630126953125 0.0933990478515625
-0.32952880859375 -0.49383544921875 0.00970458984375
-0.2512969970703125 -0.5498046875 0.018890380859375
-0.2058563232421875 -0.49554443359375 0.196136474609375
-0.297454833984375 -0.4287109375 0.17279052734375
0.5269012451171875 -0.2955322265625 -0.034912109375
0.53656005859375 -0.25244140625 0.0315399169921875
0.4760589599609375 -0.32745361328125 -0.02105712890625
0.5186767578125 -0.32989501953125 -0.1003875732421875
0.57568359375 -0.2666015625 -0.04864501953125
0.592376708984375 -0.22021484375 0.0096282958984375
0.4791107177734375 -0.28631591796875 0.0540313720703125
0.472991943359375 -0.35955810546875 -0.09503173828125
0.5631561279296875 -0.30401611328125 -0.106536865234375
-0.4620819091796875 -0.39971923828125 0.0568695068359375
-0.4100189208984375 -0.41510009765625 0.070648193359375
-0.46685791015625 -0.35968017578125 0.11895751953125
-0.5111541748046875 -0.38720703125 0.04180908203125
-0.4572296142578125 -0.43304443359375 -0.007568359375
-0.412384033203125 -0.4483642578125 -0.002288818359375
-0.4053497314453125 -0.3760986328125 0.14288330078125
-0.525146484375 -0.34747314453125 0.093414306640625
