# XYZ point cloud file
1.0554962158203125 0.19970703125 -0.3448638916015625
1.1229400634765625 0.2030029296875 -0.3712310791015625
1.12481689453125 0.24871826171875 -0.34857177734375
-0.8909454345703125 -0.22064208984375 -0.58636474609375
-0.8917083740234375 -0.23724365234375 -0.58551025390625
-0.86376953125 -0.20758056640625 -0.561370849609375
-0.890472412109375 -0.20391845703125 -0.5908355712890625
-0.9196014404296875 -0.2347412109375 -0.6055755615234375
-0.9195556640625 -0.25091552734375 -0.603790283203125
-0.8651885986328125 -0.22540283203125 -0.56170654296875
-0.862274169921875 -0.1905517578125 -0.564178466796875
-0.9202728271484375 -0.21868896484375 -0.61065673828125
0.964630126953125 0.195068359375 -0.289947509765625
0.959686279296875 0.21490478515625 -0.2778472900390625
0.942352294921875 0.18231201171875 -0.2782745361328125
0.9701995849609375 0.1746826171875 -0.303802490234375
0.9903411865234375 0.2049560546875 -0.303314208984375
0.9863128662109375 0.22674560546875 -0.2915496826171875
0.93603515625 0.202392578125 -0.26654052734375
0.9483795166015625 0.1636962890625 -0.2919158935546875
0.9947357177734375 0.18408203125 -0.31695556640625
-0.8002166748046875 -0.1905517578125 -0.4812774658203125
-0.784515380859375 -0.189453125 -0.4560394287109375
-0.7962646484375 -0.17266845703125 -0.479827880859375
-0.8175811767578125 -0.19329833984375 -0.507843017578125
-0.8030242919921875 -0.2073974609375 -0.485198974609375
-0.7880859375 -0.2059326171875 -0.4605560302734375
-0.779937744140625 -0.1722412109375 -0.454345703125
-0.814788818359375 -0.17633056640625 -0.507537841796875
-0.820037841796875 -0.2099609375 -0.510986328125
0.6790313720703125 -0.20135498046875 -0.0942840576171875
0.657867431640625 -0.218017578125 -0.0758514404296875
0.670745849609375 -0.2314453125 -0.1218109130859375
0.693023681640625 -0.1884765625 -0.112060546875
0.694580078125 -0.16009521484375 -0.0665130615234375
0.677337646484375 -0.1707763671875 -0.03741455078125
0.64599609375 -0.253662109375 -0.11328125
0.689666748046875 -0.2135009765625 -0.1352386474609375
0.704193115234375 -0.15179443359375 -0.090972900390625
-0.592803955078125 -0.376220703125 -0.009246826171875
-0.5849151611328125 -0.40057373046875 -0.0292205810546875
-0.5729827880859375 -0.38262939453125 0.0150604248046875
-0.608489990234375 -0.3466796875 0.005950927734375
-0.605682373046875 -0.37200927734375 -0.03485107421875
-0.602386474609375 -0.39276123046875 -0.050567626953125
-0.5613861083984375 -0.411376953125 -0.01507568359375
-0.592254638671875 -0.3475341796875 0.042236328125
-0.616973876953125 -0.345947265625 -0.02545166015625
0.71514892578125 -0.269775390625 -0.15679931640625
0.698150634765625 -0.2900390625 -0.1613006591796875
0.7491302490234375 -0.2723388671875 -0.1625823974609375
0.733917236328125 -0.2509765625 -0.161712646484375
0.688446044921875 -0.26416015625 -0.1525115966796875
0.6662750244140625 -0.28729248046875 -0.15557861328125
0.7360382080078125 -0.2911376953125 -0.1678466796875
0.7648162841796875 -0.25439453125 -0.16644287109375
0.7100372314453125 -0.242431640625 -0.1591949462890625
-0.63092041015625 -0.44342041015625 -0.041259765625
-0.6652374267578125 -0.45477294921875 -0.038330078125
-0.6151275634765625 -0.45550537109375 -0.0402374267578125
-0.6041107177734375 -0.433349609375 -0.045867919921875
-0.648193359375 -0.4337158203125 -0.0532989501953125
-0.679595947265625 -0.4451904296875 -0.0494537353515625
-0.6533966064453125 -0.4664306640625 -0.03765869140625
-0.582794189453125 -0.44677734375 -0.0437164306640625
-0.6240234375 -0.422607421875 -0.0604705810546875
0.7581939697265625 0.03289794921875 -0.026580810546875
0.751434326171875 0.03338623046875 0.010955810546875
0.73736572265625 -0.0416259765625 -0.033111572265625
0.761016845703125 0.03167724609375 -0.0585174560546875
0.7718505859375 0.11212158203125 -0.0198822021484375
0.764923095703125 0.11016845703125 0.0176239013671875
0.7282257080078125 -0.04229736328125 0.00518798828125
0.74090576171875 -0.04132080078125 -0.0644989013671875
0.77642822265625 0.11260986328125 -0.0537567138671875
-0.6790008544921875 -0.217529296875 -0.04443359375
-0.6544342041015625 -0.2674560546875 -0.0120086669921875
-0.67596435546875 -0.21185302734375 0.001922607421875
-0.6993865966796875 -0.1617431640625 -0.0790252685546875
-0.6776885986328125 -0.22222900390625 -0.08477783203125
-0.6556854248046875 -0.271728515625 -0.0504302978515625
-0.64764404296875 -0.260498046875 0.03466796875
-0.6983642578125 -0.15753173828125 -0.0312042236328125
-0.697845458984375 -0.166015625 -0.1227874755859375
0.8562164306640625 0.1900634765625 -0.2364044189453125
0.840362548828125 0.1732177734375 -0.22991943359375
0.86260986328125 0.17987060546875 -0.235595703125
0.8755950927734375 0.20965576171875 -0.2419586181640625
0.8509063720703125 0.19500732421875 -0.2440185546875
0.8341522216796875 0.18310546875 -0.2347259521484375
0.8466033935546875 0.16021728515625 -0.231048583984375
0.8814697265625 0.1998291015625 -0.240142822265625
0.8705902099609375 0.2138671875 -0.2505645751953125
-0.7155914306640625 -0.14837646484375 -0.399688720703125
-0.723419189453125 -0.15814208984375 -0.3927459716796875
-0.70458984375 -0.15472412109375 -0.379608154296875
-0.706756591796875 -0.1435546875 -0.411773681640625
-0.7294158935546875 -0.14166259765625 -0.42095947265625
-0.7374420166015625 -0.151123046875 -0.4131622314453125
-0.7117919921875 -0.16619873046875 -0.3740386962890625
-0.695953369140625 -0.14569091796875 -0.39080810546875
-0.7206268310546875 -0.13751220703125 -0.4339447021484375
0.789337158203125 -0.22186279296875 -0.207855224609375
0.8124237060546875 -0.2239990234375 -0.207550048828125
0.8038482666015625 -0.22210693359375 -0.2264404296875
0.7719879150390625 -0.21929931640625 -0.213104248046875
0.7721405029296875 -0.22637939453125 -0.1898193359375
0.797698974609375 -0.2296142578125 -0.190826416015625
0.8253326416015625 -0.22119140625 -0.2249298095703125
0.7885284423828125 -0.2208251953125 -0.2330474853515625
0.7523040771484375 -0.22052001953125 -0.193115234375
-0.699676513671875 -0.43182373046875 -0.11419677734375
-0.71337890625 -0.43603515625 -0.1356201171875
-0.723175048828125 -0.43792724609375 -0.1080169677734375
-0.6837158203125 -0.42864990234375 -0.092559814453125
-0.68170166015625 -0.42620849609375 -0.1261444091796875
-0.6972808837890625 -0.4326171875 -0.1472625732421875
-0.73480224609375 -0.4404296875 -0.12957763671875
-0.7095794677734375 -0.43756103515625 -0.0869293212890625
-0.6632537841796875 -0.41937255859375 -0.10400390625
0.757110595703125 -0.1959228515625 -0.231201171875
0.760101318359375 -0.18389892578125 -0.2357177734375
0.737884521484375 -0.18878173828125 -0.21087646484375
0.7567138671875 -0.2066650390625 -0.226043701171875
0.77642822265625 -0.203369140625 -0.2504730224609375
0.7797393798828125 -0.19171142578125 -0.2541351318359375
0.7408294677734375 -0.1727294921875 -0.2162628173828125
0.7363433837890625 -0.2022705078125 -0.204742431640625
0.7755584716796875 -0.2122802734375 -0.2466583251953125
-0.662872314453125 -0.406494140625 -0.164764404296875
-0.644287109375 -0.39385986328125 -0.1474761962890625
-0.6636810302734375 -0.39752197265625 -0.177398681640625
-0.681427001953125 -0.41827392578125 -0.1816864013671875
-0.6641845703125 -0.414306640625 -0.1525726318359375
-0.64453125 -0.4027099609375 -0.1326751708984375
-0.6451263427734375 -0.38275146484375 -0.162261962890625
-0.6829833984375 -0.4110107421875 -0.19189453125
-0.6821136474609375 -0.42425537109375 -0.171875
0.7721710205078125 -0.146240234375 -0.25946044921875
0.75933837890625 -0.134521484375 -0.251617431640625
0.768341064453125 -0.15765380859375 -0.2493896484375
0.7870635986328125 -0.15338134765625 -0.268829345703125
0.7750396728515625 -0.13690185546875 -0.269622802734375
0.76483154296875 -0.1275634765625 -0.2651519775390625
0.752288818359375 -0.144775390625 -0.2368011474609375
0.78582763671875 -0.166259765625 -0.26300048828125
0.7872467041015625 -0.14385986328125 -0.2754974365234375
-0.6673431396484375 -0.37481689453125 -0.226409912109375
-0.6666259765625 -0.38140869140625 -0.2083282470703125
-0.654022216796875 -0.36224365234375 -0.2244720458984375
-0.66748046875 -0.36944580078125 -0.243804931640625
-0.6824493408203125 -0.38525390625 -0.231781005859375
-0.68402099609375 -0.3939208984375 -0.216888427734375
-0.6502532958984375 -0.3658447265625 -0.20166015625
-0.65625 -0.35980224609375 -0.24481201171875
-0.6802978515625 -0.3785400390625 -0.2459716796875
0.7688140869140625 -0.0648193359375 -0.246307373046875
0.7848663330078125 -0.03363037109375 -0.24853515625
0.761322021484375 -0.05853271484375 -0.22698974609375
0.7572174072265625 -0.09405517578125 -0.244964599609375
0.7771148681640625 -0.0682373046875 -0.262969970703125
0.79302978515625 -0.04132080078125 -0.2642059326171875
0.77777099609375 -0.021484375 -0.230621337890625
0.748321533203125 -0.09454345703125 -0.2253265380859375
0.7653656005859375 -0.09368896484375 -0.2618408203125
-0.655609130859375 -0.311767578125 -0.25860595703125
-0.651458740234375 -0.30340576171875 -0.239654541015625
-0.6674652099609375 -0.29229736328125 -0.278228759765625
-0.660736083984375 -0.318359375 -0.27557373046875
-0.6475067138671875 -0.330322265625 -0.240936279296875
-0.642547607421875 -0.3262939453125 -0.21771240234375
-0.663543701171875 -0.2803955078125 -0.26324462890625
-0.6727752685546875 -0.30316162109375 -0.2927398681640625
-0.6526336669921875 -0.334228515625 -0.260772705078125
0.8300323486328125 0.04925537109375 -0.25323486328125
0.821746826171875 0.06512451171875 -0.239715576171875
0.816802978515625 0.02386474609375 -0.2528228759765625
0.8386383056640625 0.03509521484375 -0.2657470703125
0.8431243896484375 0.072021484375 -0.253631591796875
0.8343963623046875 0.08831787109375 -0.241485595703125
0.8090667724609375 0.04022216796875 -0.2370452880859375
0.824981689453125 0.01165771484375 -0.26593017578125
0.8520660400390625 0.05731201171875 -0.2657623291015625
-0.7021026611328125 -0.24542236328125 -0.3319244384765625
-0.69158935546875 -0.259521484375 -0.315948486328125
-0.6960601806640625 -0.2291259765625 -0.32452392578125
-0.7122039794921875 -0.2322998046875 -0.347076416015625
-0.70867919921875 -0.25909423828125 -0.3399810791015625
-0.697784423828125 -0.2725830078125 -0.3253631591796875
-0.6864776611328125 -0.243408203125 -0.306732177734375
-0.70526123046875 -0.2164306640625 -0.3412322998046875
-0.7189178466796875 -0.24676513671875 -0.354095458984375
0.8868560791015625 0.134033203125 -0.25860595703125
0.8780059814453125 0.1500244140625 -0.247711181640625
0.8709259033203125 0.114013671875 -0.2556915283203125
0.8950347900390625 0.11785888671875 -0.27081298828125
0.9036102294921875 0.152587890625 -0.2631378173828125
0.895843505859375 0.1695556640625 -0.251861572265625
0.8621063232421875 0.12994384765625 -0.245025634765625
0.879669189453125 0.0985107421875 -0.2681427001953125
0.9112701416015625 0.1348876953125 -0.2756500244140625
-0.745086669921875 -0.20208740234375 -0.3941650390625
-0.73333740234375 -0.21038818359375 -0.3775177001953125
-0.738067626953125 -0.1865234375 -0.3907928466796875
-0.7575531005859375 -0.1953125 -0.4127197265625
-0.751007080078125 -0.21783447265625 -0.4000091552734375
-0.7395477294921875 -0.22576904296875 -0.38311767578125
-0.7256622314453125 -0.194580078125 -0.374053955078125
-0.7514801025390625 -0.17901611328125 -0.409637451171875
-0.762603759765625 -0.2113037109375 -0.4182281494140625
0.810302734375 0.13946533203125 -0.190765380859375
0.80206298828125 0.12152099609375 -0.1746978759765625
0.81231689453125 0.1094970703125 -0.2082061767578125
0.8179168701171875 0.15008544921875 -0.2063446044921875
0.8071441650390625 0.17620849609375 -0.17193603515625
0.801666259765625 0.16497802734375 -0.14715576171875
0.80206298828125 0.08740234375 -0.1986083984375
0.822021484375 0.12664794921875 -0.2174072265625
0.81280517578125 0.1778564453125 -0.19757080078125
-0.6938934326171875 -0.16680908203125 -0.30731201171875
-0.6922760009765625 -0.1907958984375 -0.3118896484375
-0.69195556640625 -0.17645263671875 -0.2779541015625
-0.6955108642578125 -0.13702392578125 -0.30548095703125
-0.6947021484375 -0.16229248046875 -0.333953857421875
-0.6968841552734375 -0.18231201171875 -0.3338165283203125
-0.6866455078125 -0.202880859375 -0.287353515625
-0.6989288330078125 -0.14215087890625 -0.269012451171875
-0.6913299560546875 -0.139404296875 -0.3384552001953125
0.7564697265625 -0.0093994140625 -0.149444580078125
0.758819580078125 0.01129150390625 -0.1194000244140625
0.7384490966796875 -0.06475830078125 -0.14825439453125
0.7548675537109375 -0.0301513671875 -0.178497314453125
0.77490234375 0.04583740234375 -0.1538238525390625
0.7775115966796875 0.07843017578125 -0.120697021484375
0.7394561767578125 -0.0533447265625 -0.1204681396484375
0.73858642578125 -0.0792236328125 -0.1757354736328125
0.7728729248046875 0.01751708984375 -0.1834716796875
-0.6588134765625 -0.259033203125 -0.1734771728515625
-0.6433563232421875 -0.29473876953125 -0.1411285400390625
-0.6661376953125 -0.2425537109375 -0.147796630859375
-0.6744842529296875 -0.2237548828125 -0.2094268798828125
-0.6530303955078125 -0.27655029296875 -0.1966552734375
-0.6398773193359375 -0.3079833984375 -0.16717529296875
-0.648223876953125 -0.28411865234375 -0.1138153076171875
-0.6841583251953125 -0.19757080078125 -0.1878662109375
-0.66693115234375 -0.2467041015625 -0.22918701171875
0.7107086181640625 -0.16326904296875 -0.1550445556640625
0.7067718505859375 -0.17041015625 -0.14404296875
0.71282958984375 -0.17230224609375 -0.1699066162109375
0.7138671875 -0.145263671875 -0.1516876220703125
0.7117767333984375 -0.14422607421875 -0.131744384765625
0.7089691162109375 -0.1861572265625 -0.161865234375
0.7173309326171875 -0.15142822265625 -0.1734161376953125
-0.6195220947265625 -0.3623046875 -0.096527099609375
-0.6209869384765625 -0.370361328125 -0.109527587890625
-0.6168365478515625 -0.3653564453125 -0.0798797607421875
-0.621978759765625 -0.3494873046875 -0.1019439697265625
-0.6238555908203125 -0.35650634765625 -0.124267578125
-0.6188507080078125 -0.3795166015625 -0.092620849609375
-0.621856689453125 -0.34637451171875 -0.078125
0.912353515625 0.0806884765625 -0.308074951171875
0.9076995849609375 0.09088134765625 -0.295806884765625
0.897308349609375 0.06329345703125 -0.3041839599609375
0.917694091796875 0.0701904296875 -0.3192291259765625
0.927886962890625 0.09576416015625 -0.313934326171875
0.923095703125 0.10687255859375 -0.3016204833984375
0.892730712890625 0.0733642578125 -0.2926483154296875
0.902496337890625 0.0535888671875 -0.3152313232421875
0.933349609375 0.0849609375 -0.32537841796875
-0.759857177734375 -0.25433349609375 -0.424072265625
-0.7496185302734375 -0.2603759765625 -0.40765380859375
-0.7578277587890625 -0.24359130859375 -0.4158172607421875
-0.7711029052734375 -0.24884033203125 -0.441497802734375
-0.7632293701171875 -0.26434326171875 -0.430938720703125
-0.752593994140625 -0.270751953125 -0.4152069091796875
-0.7474212646484375 -0.25115966796875 -0.398895263671875
-0.768798828125 -0.2384033203125 -0.4332275390625
-0.7747039794921875 -0.25970458984375 -0.448486328125
0.8564453125 0.0067138671875 -0.3012237548828125
0.8517608642578125 0.01483154296875 -0.2897491455078125
0.8423004150390625 -0.014404296875 -0.30096435546875
0.8614501953125 -0.00225830078125 -0.311126708984375
0.8699493408203125 0.02630615234375 -0.3015289306640625
0.865386962890625 0.0355224609375 -0.2900390625
0.837860107421875 -0.0068359375 -0.2901153564453125
0.8470916748046875 -0.0223388671875 -0.31121826171875
0.8747711181640625 0.0169677734375 -0.311492919921875
-0.720062255859375 -0.28839111328125 -0.3670501708984375
-0.7094879150390625 -0.29986572265625 -0.354583740234375
-0.7175750732421875 -0.2801513671875 -0.3578033447265625
-0.7297515869140625 -0.27838134765625 -0.3796844482421875
-0.723114013671875 -0.29766845703125 -0.374114990234375
-0.7127685546875 -0.30767822265625 -0.3619537353515625
-0.7068328857421875 -0.292236328125 -0.3453369140625
-0.7276458740234375 -0.26934814453125 -0.37109375
-0.7330169677734375 -0.2880859375 -0.386749267578125
0.7944488525390625 -0.0799560546875 -0.3005523681640625
0.7900238037109375 -0.0758056640625 -0.2895355224609375
0.782379150390625 -0.09906005859375 -0.299896240234375
0.7996673583984375 -0.0850830078125 -0.30950927734375
0.8105316162109375 -0.05865478515625 -0.3011474609375
0.805938720703125 -0.05316162109375 -0.2901458740234375
0.7774200439453125 -0.09649658203125 -0.2889251708984375
0.78790283203125 -0.10137939453125 -0.308258056640625
0.81561279296875 -0.064453125 -0.3099822998046875
-0.6720428466796875 -0.3358154296875 -0.3158721923828125
-0.6628875732421875 -0.346435546875 -0.3045196533203125
-0.6690521240234375 -0.330322265625 -0.304931640625
-0.68450927734375 -0.324462890625 -0.3288116455078125
-0.6758270263671875 -0.3414306640625 -0.3239593505859375
-0.6674652099609375 -0.35076904296875 -0.3128814697265625
-0.6600494384765625 -0.34161376953125 -0.29302978515625
-0.6814727783203125 -0.3177490234375 -0.3182373046875
-0.6880950927734375 -0.33050537109375 -0.336578369140625
0.7844390869140625 -0.1307373046875 -0.2997894287109375
0.7808837890625 -0.130126953125 -0.2903900146484375
0.7945556640625 -0.1365966796875 -0.2998809814453125
0.7899932861328125 -0.13116455078125 -0.3079376220703125
0.777374267578125 -0.1241455078125 -0.2995758056640625
0.773193359375 -0.123291015625 -0.28924560546875
0.790435791015625 -0.13629150390625 -0.291351318359375
0.799957275390625 -0.137451171875 -0.3081512451171875
0.7833251953125 -0.12371826171875 -0.3074493408203125
-0.670928955078125 -0.3701171875 -0.2847747802734375
-0.6821441650390625 -0.3778076171875 -0.2808074951171875
-0.66888427734375 -0.36749267578125 -0.273284912109375
-0.662567138671875 -0.3631591796875 -0.28924560546875
-0.6747894287109375 -0.37335205078125 -0.2949981689453125
-0.6859283447265625 -0.38043212890625 -0.2904815673828125
-0.679443359375 -0.3751220703125 -0.270477294921875
-0.66009521484375 -0.3603515625 -0.2772064208984375
-0.6669769287109375 -0.365966796875 -0.2989654541015625
0.81719970703125 -0.16900634765625 -0.2980804443359375
0.8105621337890625 -0.16448974609375 -0.2886505126953125
0.81951904296875 -0.18341064453125 -0.297607421875
0.82354736328125 -0.17059326171875 -0.307464599609375
0.8123626708984375 -0.1556396484375 -0.2988128662109375
0.8065185546875 -0.15216064453125 -0.290740966796875
0.812164306640625 -0.17919921875 -0.286773681640625
0.825958251953125 -0.18499755859375 -0.3070526123046875
0.818267822265625 -0.15692138671875 -0.3075714111328125
-0.7106170654296875 -0.4072265625 -0.2577362060546875
-0.715728759765625 -0.41925048828125 -0.2475128173828125
-0.70489501953125 -0.4010009765625 -0.248077392578125
-0.703277587890625 -0.39593505859375 -0.267333984375
-0.716033935546875 -0.4114990234375 -0.2671966552734375
-0.72125244140625 -0.423828125 -0.257598876953125
-0.7090606689453125 -0.41265869140625 -0.237274169921875
-0.698638916015625 -0.3919677734375 -0.2581787109375
-0.7080230712890625 -0.39996337890625 -0.2767791748046875
0.8096923828125 -0.22039794921875 -0.2942047119140625
0.80291748046875 -0.2159423828125 -0.2825927734375
0.806488037109375 -0.22711181640625 -0.291168212890625
0.815643310546875 -0.221923828125 -0.3032989501953125
0.8144073486328125 -0.21014404296875 -0.2960357666015625
0.807281494140625 -0.20635986328125 -0.2844085693359375
0.8001708984375 -0.2230224609375 -0.279449462890625
0.812164306640625 -0.22857666015625 -0.299468994140625
0.82086181640625 -0.21142578125 -0.3053131103515625
-0.7128143310546875 -0.4444580078125 -0.222320556640625
-0.7109527587890625 -0.4486083984375 -0.2144775390625
-0.7064666748046875 -0.43817138671875 -0.21075439453125
-0.7157745361328125 -0.4384765625 -0.2298583984375
-0.718017578125 -0.44793701171875 -0.2313079833984375
-0.716094970703125 -0.4517822265625 -0.22296142578125
-0.7050323486328125 -0.442626953125 -0.20281982421875
-0.709136962890625 -0.43157958984375 -0.218536376953125
-0.7211151123046875 -0.4422607421875 -0.2395782470703125
0.826202392578125 -0.2275390625 -0.2723846435546875
0.821868896484375 -0.22576904296875 -0.259033203125
0.84466552734375 -0.22406005859375 -0.270599365234375
0.8300018310546875 -0.22808837890625 -0.2835235595703125
0.81365966796875 -0.2305908203125 -0.278533935546875
0.808685302734375 -0.22808837890625 -0.2662811279296875
0.8409271240234375 -0.22265625 -0.257232666015625
0.8479766845703125 -0.22344970703125 -0.28277587890625
0.8182220458984375 -0.23101806640625 -0.2881011962890625
-0.7330780029296875 -0.45050048828125 -0.1860504150390625
-0.7516326904296875 -0.45306396484375 -0.181610107421875
-0.729248046875 -0.446044921875 -0.1715850830078125
-0.7198333740234375 -0.45062255859375 -0.195037841796875
-0.7358856201171875 -0.453369140625 -0.1994476318359375
-0.75384521484375 -0.4552001953125 -0.196502685546875
-0.7487335205078125 -0.4490966796875 -0.1664276123046875
-0.715576171875 -0.4459228515625 -0.181365966796875
-0.723785400390625 -0.453125 -0.2059783935546875
0.9857940673828125 0.13043212890625 -0.3438568115234375
0.980438232421875 0.1427001953125 -0.3319244384765625
0.9642333984375 0.120849609375 -0.331787109375
0.9913177490234375 0.11944580078125 -0.3538818359375
1.0094757080078125 0.13861083984375 -0.35650634765625
1.004425048828125 0.1505126953125 -0.34478759765625
0.959197998046875 0.13287353515625 -0.319427490234375
0.970306396484375 0.11004638671875 -0.3423614501953125
1.0149688720703125 0.12799072265625 -0.3665618896484375
-0.810302734375 -0.2459716796875 -0.50665283203125
-0.7957305908203125 -0.2449951171875 -0.4831390380859375
-0.807769775390625 -0.23553466796875 -0.4992218017578125
-0.827301025390625 -0.2506103515625 -0.5301666259765625
-0.814239501953125 -0.25665283203125 -0.5123443603515625
-0.7995758056640625 -0.25543212890625 -0.4895172119140625
-0.7934417724609375 -0.23468017578125 -0.4754638671875
-0.8245697021484375 -0.2396240234375 -0.5235137939453125
-0.831024169921875 -0.26025390625 -0.53509521484375
1.0994110107421875 0.1572265625 -0.39520263671875
1.0957794189453125 0.1695556640625 -0.38458251953125
1.0675201416015625 0.15325927734375 -0.3826141357421875
1.1021881103515625 0.14727783203125 -0.403167724609375
1.130645751953125 0.1558837890625 -0.406707763671875
1.1277618408203125 0.16778564453125 -0.39654541015625
1.0628814697265625 0.16510009765625 -0.3716888427734375
1.0717010498046875 0.143310546875 -0.3912506103515625
1.1320037841796875 0.14556884765625 -0.4138641357421875
-0.8966064453125 -0.2757568359375 -0.5982513427734375
-0.8705596923828125 -0.26544189453125 -0.576934814453125
-0.8946075439453125 -0.26519775390625 -0.592987060546875
-0.923370361328125 -0.28826904296875 -0.61322021484375
-0.8983612060546875 -0.283935546875 -0.601226806640625
-0.873016357421875 -0.2740478515625 -0.580657958984375
-0.8684844970703125 -0.25408935546875 -0.5711212158203125
-0.9218597412109375 -0.27813720703125 -0.6087646484375
-0.923980712890625 -0.2960205078125 -0.614959716796875
1.195281982421875 0.1075439453125 -0.428619384765625
1.1935882568359375 0.11724853515625 -0.41973876953125
1.1799468994140625 0.13153076171875 -0.4231414794921875
1.1933746337890625 0.09930419921875 -0.4336700439453125
1.2042388916015625 0.07757568359375 -0.432708740234375
1.202880859375 0.0865478515625 -0.4239349365234375
1.1783905029296875 0.14239501953125 -0.4138336181640625
1.1785736083984375 0.12164306640625 -0.428680419921875
1.202117919921875 0.0701904296875 -0.437591552734375
-0.99468994140625 -0.34405517578125 -0.6039886474609375
-0.9734649658203125 -0.32293701171875 -0.6163482666015625
-0.9941558837890625 -0.3370361328125 -0.600311279296875
-1.011932373046875 -0.36846923828125 -0.584716796875
-0.9930572509765625 -0.34967041015625 -0.603851318359375
-0.9723663330078125 -0.329345703125 -0.616058349609375
-0.9729461669921875 -0.314208984375 -0.6127166748046875
-1.0113983154296875 -0.3604736328125 -0.580474853515625
-1.0097808837890625 -0.37310791015625 -0.585174560546875
1.18994140625 -0.039306640625 -0.4437255859375
1.1885986328125 -0.03497314453125 -0.43585205078125
1.2014312744140625 0.00213623046875 -0.4403228759765625
1.18743896484375 -0.04168701171875 -0.4475250244140625
1.171722412109375 -0.08172607421875 -0.444183349609375
1.1704254150390625 -0.078125 -0.436676025390625
1.2001953125 0.00885009765625 -0.4324493408203125
1.199066162109375 -0.00140380859375 -0.4445648193359375
1.1693115234375 -0.08197021484375 -0.44775390625
-1.0307464599609375 -0.44427490234375 -0.5011138916015625
-1.0307769775390625 -0.418701171875 -0.532379150390625
-1.0304718017578125 -0.439453125 -0.4946746826171875
-1.024322509765625 -0.466552734375 -0.4676361083984375
-1.0276947021484375 -0.44537353515625 -0.5043487548828125
-1.02789306640625 -0.42108154296875 -0.5345916748046875
-1.0304412841796875 -0.4134521484375 -0.5266876220703125
-1.0241241455078125 -0.462890625 -0.460479736328125
-1.021087646484375 -0.466552734375 -0.4721527099609375
1.0823974609375 -0.18023681640625 -0.4202423095703125
1.080902099609375 -0.1787109375 -0.4114990234375
1.1166534423828125 -0.15386962890625 -0.433380126953125
1.0812225341796875 -0.17755126953125 -0.425384521484375
1.0449371337890625 -0.200927734375 -0.4024658203125
1.0432891845703125 -0.19970703125 -0.393035888671875
1.115234375 -0.15216064453125 -0.4250030517578125
1.114990234375 -0.151611328125 -0.4376678466796875
1.0446929931640625 -0.19775390625 -0.4087677001953125
-0.965576171875 -0.50323486328125 -0.36737060546875
-0.9913787841796875 -0.49658203125 -0.4010162353515625
-0.965118408203125 -0.5008544921875 -0.35650634765625
-0.93560791015625 -0.50518798828125 -0.3330841064453125
-0.9627838134765625 -0.5015869140625 -0.376678466796875
-0.9882965087890625 -0.49530029296875 -0.4086151123046875
-0.991180419921875 -0.493896484375 -0.3917694091796875
-0.935211181640625 -0.5025634765625 -0.3213958740234375
-0.9334259033203125 -0.50372314453125 -0.343963623046875
0.9319610595703125 -0.223388671875 -0.320068359375
0.929290771484375 -0.22314453125 -0.3078765869140625
0.96826171875 -0.22076416015625 -0.350341796875
0.9338836669921875 -0.22161865234375 -0.330718994140625
0.8983001708984375 -0.22222900390625 -0.2946014404296875
0.89520263671875 -0.221435546875 -0.282012939453125
0.965972900390625 -0.220703125 -0.3386688232421875
0.9696502685546875 -0.2186279296875 -0.35955810546875
0.900970458984375 -0.22113037109375 -0.3059844970703125
-0.835357666015625 -0.4810791015625 -0.2305450439453125
-0.869110107421875 -0.49249267578125 -0.2633209228515625
-0.83392333984375 -0.4783935546875 -0.215545654296875
-0.803741455078125 -0.468505859375 -0.20428466796875
-0.83563232421875 -0.48150634765625 -0.2452239990234375
-0.8686676025390625 -0.49212646484375 -0.27716064453125
-0.868011474609375 -0.49017333984375 -0.2487640380859375
-0.8016357421875 -0.465576171875 -0.1884918212890625
-0.8050689697265625 -0.46954345703125 -0.219879150390625
0.8588409423828125 -0.15496826171875 -0.32611083984375
0.843902587890625 -0.16363525390625 -0.32147216796875
0.8622894287109375 -0.168701171875 -0.3253631591796875
0.8757781982421875 -0.1429443359375 -0.3302154541015625
0.852264404296875 -0.1416015625 -0.3256378173828125
0.837921142578125 -0.15093994140625 -0.321258544921875
0.8466949462890625 -0.17755126953125 -0.3206329345703125
0.88006591796875 -0.15753173828125 -0.3292999267578125
0.8686370849609375 -0.13006591796875 -0.329803466796875
-0.745697021484375 -0.412109375 -0.2960052490234375
-0.7525482177734375 -0.42327880859375 -0.28558349609375
-0.733154296875 -0.41436767578125 -0.2862548828125
-0.73638916015625 -0.39984130859375 -0.3047027587890625
-0.7605438232421875 -0.4090576171875 -0.306640625
-0.7677764892578125 -0.41986083984375 -0.2959136962890625
-0.7390594482421875 -0.42529296875 -0.2761383056640625
-0.72442626953125 -0.40283203125 -0.2956085205078125
-0.750244140625 -0.39666748046875 -0.315460205078125
0.9286651611328125 -0.0986328125 -0.3446197509765625
0.9111175537109375 -0.114501953125 -0.33941650390625
0.9354705810546875 -0.11419677734375 -0.34674072265625
0.94512939453125 -0.0816650390625 -0.350616455078125
0.919769287109375 -0.08447265625 -0.342010498046875
0.90264892578125 -0.1011962890625 -0.337677001953125
0.9170379638671875 -0.12969970703125 -0.3398895263671875
0.952972412109375 -0.09814453125 -0.353912353515625
0.93609619140625 -0.0667724609375 -0.3471527099609375
-0.8016510009765625 -0.39227294921875 -0.349700927734375
-0.811614990234375 -0.40570068359375 -0.34063720703125
-0.788665771484375 -0.39886474609375 -0.3337860107421875
-0.7900848388671875 -0.37939453125 -0.3569793701171875
-0.8142242431640625 -0.38568115234375 -0.36712646484375
-0.825286865234375 -0.400634765625 -0.358978271484375
-0.7978057861328125 -0.41064453125 -0.3238372802734375
-0.7776947021484375 -0.3861083984375 -0.3415069580078125
-0.80230712890625 -0.3720703125 -0.37347412109375
0.9924163818359375 -0.028564453125 -0.36431884765625
0.977264404296875 -0.04693603515625 -0.3605194091796875
1.0031890869140625 -0.0455322265625 -0.370208740234375
1.0073394775390625 -0.01190185546875 -0.36798095703125
0.982421875 -0.01416015625 -0.3600311279296875
0.96728515625 -0.03143310546875 -0.3563232421875
0.9871063232421875 -0.0633544921875 -0.36602783203125
1.018707275390625 -0.02886962890625 -0.3738250732421875
0.9972686767578125 0.0023193359375 -0.363739013671875
-0.847259521484375 -0.364990234375 -0.4190673828125
-0.8611602783203125 -0.38134765625 -0.4129180908203125
-0.8369598388671875 -0.371826171875 -0.4018096923828125
-0.83441162109375 -0.3505859375 -0.4242706298828125
-0.857879638671875 -0.3577880859375 -0.4346160888671875
-0.87225341796875 -0.374267578125 -0.42926025390625
-0.849945068359375 -0.3887939453125 -0.3958282470703125
-0.82440185546875 -0.35693359375 -0.407440185546875
-0.84466552734375 -0.34368896484375 -0.4405059814453125
1.0530853271484375 0.030029296875 -0.3760528564453125
1.037017822265625 0.017578125 -0.3732452392578125
1.064483642578125 0.01629638671875 -0.3813629150390625
1.070709228515625 0.04229736328125 -0.38067626953125
1.0442962646484375 0.04443359375 -0.373687744140625
1.02752685546875 0.03173828125 -0.369873046875
1.049041748046875 0.00244140625 -0.37890625
1.08087158203125 0.02874755859375 -0.3855743408203125
1.062896728515625 0.0562744140625 -0.3784332275390625
-0.89215087890625 -0.3443603515625 -0.47454833984375
-0.9061279296875 -0.35845947265625 -0.4698028564453125
-0.879852294921875 -0.34710693359375 -0.46136474609375
-0.8800201416015625 -0.33001708984375 -0.482177734375
-0.9053497314453125 -0.3424072265625 -0.489471435546875
-0.91766357421875 -0.355712890625 -0.4842071533203125
-0.8946075439453125 -0.36199951171875 -0.456939697265625
-0.8672943115234375 -0.33355712890625 -0.4683685302734375
-0.8938751220703125 -0.3297119140625 -0.4980316162109375
1.0162506103515625 0.0853271484375 -0.369781494140625
1.006591796875 0.09765625 -0.366790771484375
0.9972686767578125 0.072998046875 -0.3622589111328125
1.0262908935546875 0.072509765625 -0.3712615966796875
1.0365142822265625 0.09613037109375 -0.3777313232421875
1.0281982421875 0.107666015625 -0.376922607421875
0.986572265625 0.0867919921875 -0.357696533203125
1.0081329345703125 0.06005859375 -0.3654632568359375
1.0459136962890625 0.08331298828125 -0.378173828125
-0.8420562744140625 -0.291015625 -0.5076141357421875
-0.8282318115234375 -0.2926025390625 -0.489471435546875
-0.8303070068359375 -0.2789306640625 -0.512969970703125
-0.856689453125 -0.2926025390625 -0.526336669921875
-0.8550262451171875 -0.304931640625 -0.500244140625
-0.8419647216796875 -0.30609130859375 -0.483612060546875
-0.815765380859375 -0.27911376953125 -0.4930419921875
-0.845550537109375 -0.28155517578125 -0.533538818359375
-0.869293212890625 -0.3050537109375 -0.517608642578125
0.9464874267578125 0.03045654296875 -0.3451080322265625
0.931304931640625 0.01348876953125 -0.3409576416015625
0.9591827392578125 0.01544189453125 -0.3509979248046875
0.9623565673828125 0.04632568359375 -0.3498992919921875
0.9341583251953125 0.04522705078125 -0.337982177734375
0.919342041015625 0.02935791015625 -0.333892822265625
0.9440460205078125 -0.00213623046875 -0.3469390869140625
0.9747467041015625 0.03057861328125 -0.355560302734375
0.9506988525390625 0.060546875 -0.3428955078125
-0.793182373046875 -0.30548095703125 -0.436737060546875
-0.8074188232421875 -0.3204345703125 -0.433746337890625
-0.782135009765625 -0.31201171875 -0.4205169677734375
-0.7800750732421875 -0.2896728515625 -0.4378204345703125
-0.8038787841796875 -0.29925537109375 -0.4537811279296875
-0.81787109375 -0.31500244140625 -0.450653076171875
-0.7969970703125 -0.3280029296875 -0.4169769287109375
-0.768951416015625 -0.29730224609375 -0.421844482421875
-0.7911224365234375 -0.284423828125 -0.4550628662109375
0.8867645263671875 -0.0391845703125 -0.33172607421875
0.876190185546875 -0.0244140625 -0.326416015625
0.8713531494140625 -0.05682373046875 -0.3290557861328125
0.89813232421875 -0.05450439453125 -0.336029052734375
0.9017486572265625 -0.02166748046875 -0.3346710205078125
0.890411376953125 -0.0067138671875 -0.328155517578125
0.861358642578125 -0.043212890625 -0.3245849609375
0.882171630859375 -0.0716552734375 -0.332733154296875
0.91387939453125 -0.0374755859375 -0.339263916015625
-0.7502593994140625 -0.33514404296875 -0.375152587890625
-0.7387237548828125 -0.343505859375 -0.361572265625
-0.7381439208984375 -0.320556640625 -0.3782806396484375
-0.760955810546875 -0.3270263671875 -0.38946533203125
-0.763641357421875 -0.3499755859375 -0.369842529296875
-0.7518768310546875 -0.3575439453125 -0.355621337890625
-0.7271575927734375 -0.32989501953125 -0.365631103515625
-0.748321533203125 -0.3116455078125 -0.3918304443359375
-0.775146484375 -0.34283447265625 -0.3846588134765625
0.823394775390625 -0.10784912109375 -0.3227691650390625
0.8336639404296875 -0.11810302734375 -0.3239288330078125
0.839111328125 -0.09197998046875 -0.32476806640625
0.8138427734375 -0.09906005859375 -0.32012939453125
0.8094635009765625 -0.12060546875 -0.319488525390625
0.8194122314453125 -0.12847900390625 -0.3204345703125
0.849273681640625 -0.10369873046875 -0.3265533447265625
0.8296356201171875 -0.08160400390625 -0.3217315673828125
0.801422119140625 -0.11199951171875 -0.317718505859375
-0.70098876953125 -0.3663330078125 -0.3255615234375
-0.713653564453125 -0.359619140625 -0.33660888671875
-0.7131805419921875 -0.3768310546875 -0.3200531005859375
-0.6895904541015625 -0.37139892578125 -0.31512451171875
-0.6904754638671875 -0.35638427734375 -0.3289337158203125
-0.7027740478515625 -0.3485107421875 -0.34033203125
-0.726043701171875 -0.37158203125 -0.3305511474609375
-0.7014312744140625 -0.38055419921875 -0.31036376953125
-0.6805877685546875 -0.36309814453125 -0.318359375
0.8496246337890625 -0.2086181640625 -0.31097412109375
0.8417510986328125 -0.21826171875 -0.3030548095703125
0.868560791015625 -0.20025634765625 -0.313201904296875
0.8572998046875 -0.1961669921875 -0.3176727294921875
0.8345489501953125 -0.21575927734375 -0.31005859375
0.8284912109375 -0.22344970703125 -0.303558349609375
0.860137939453125 -0.21185302734375 -0.3037261962890625
0.8760833740234375 -0.1864013671875 -0.3208465576171875
0.841400146484375 -0.2044677734375 -0.3154754638671875
-0.749298095703125 -0.4476318359375 -0.243865966796875
-0.766448974609375 -0.44708251953125 -0.2492218017578125
-0.7439422607421875 -0.45184326171875 -0.2282867431640625
-0.7352142333984375 -0.44952392578125 -0.2414093017578125
-0.75360107421875 -0.44146728515625 -0.259521484375
-0.770355224609375 -0.43988037109375 -0.2670135498046875
-0.7614593505859375 -0.452880859375 -0.2305908203125
-0.731231689453125 -0.45281982421875 -0.2286376953125
-0.7393951416015625 -0.44329833984375 -0.2532806396484375
0.940399169921875 -0.17730712890625 -0.347320556640625
0.9670257568359375 -0.1673583984375 -0.36529541015625
0.9413604736328125 -0.15423583984375 -0.3485870361328125
0.91461181640625 -0.18536376953125 -0.3307342529296875
0.9382476806640625 -0.19805908203125 -0.3444366455078125
0.9690399169921875 -0.19140625 -0.3665618896484375
0.9638671875 -0.1422119140625 -0.3619842529296875
0.9187164306640625 -0.1649169921875 -0.3355560302734375
0.9095001220703125 -0.2021484375 -0.323883056640625
-0.8303680419921875 -0.4530029296875 -0.2965087890625
-0.8260955810546875 -0.43731689453125 -0.3136444091796875
-0.8535308837890625 -0.45648193359375 -0.321807861328125
-0.83331298828125 -0.4676513671875 -0.2783050537109375
-0.8080291748046875 -0.45068359375 -0.2753448486328125
-0.8072662353515625 -0.43756103515625 -0.2944793701171875
-0.8448944091796875 -0.43707275390625 -0.3361053466796875
-0.8605499267578125 -0.47442626953125 -0.306671142578125
-0.8070068359375 -0.46063232421875 -0.255523681640625
1.0488739013671875 -0.12127685546875 -0.4058685302734375
1.0742034912109375 -0.09954833984375 -0.4131927490234375
1.0316162109375 -0.0933837890625 -0.3921356201171875
1.0221099853515625 -0.140869140625 -0.3960723876953125
1.064361572265625 -0.14764404296875 -0.4177703857421875
1.093353271484375 -0.1239013671875 -0.4267578125
1.0532379150390625 -0.07318115234375 -0.3976287841796875
1.0094146728515625 -0.11273193359375 -0.3845977783203125
1.0330657958984375 -0.16778564453125 -0.405181884765625
-0.9196014404296875 -0.451416015625 -0.396575927734375
-0.8979949951171875 -0.42523193359375 -0.4016571044921875
-0.938446044921875 -0.4437255859375 -0.4198760986328125
-0.939605712890625 -0.4749755859375 -0.3906707763671875
-0.89923095703125 -0.455322265625 -0.37237548828125
-0.881561279296875 -0.43096923828125 -0.381011962890625
-0.9138031005859375 -0.41778564453125 -0.4219512939453125
-0.961822509765625 -0.46783447265625 -0.4179840087890625
-0.915069580078125 -0.47796630859375 -0.36334228515625
1.132476806640625 -0.02374267578125 -0.4203643798828125
1.144012451171875 0.00201416015625 -0.4201812744140625
1.1053009033203125 -0.0113525390625 -0.404876708984375
1.1163787841796875 -0.05010986328125 -0.4198760986328125
1.1579437255859375 -0.03485107421875 -0.435150146484375
1.1693267822265625 -0.00238037109375 -0.4337615966796875
1.117950439453125 0.0081787109375 -0.406158447265625
1.090240478515625 -0.0318603515625 -0.403533935546875
1.1414031982421875 -0.06683349609375 -0.434814453125
-0.974090576171875 -0.41180419921875 -0.4860076904296875
-0.9482879638671875 -0.393310546875 -0.47613525390625
-0.977752685546875 -0.39813232421875 -0.5057373046875
-0.9986724853515625 -0.42962646484375 -0.4955291748046875
-0.9661865234375 -0.42425537109375 -0.46453857421875
-0.9390869140625 -0.4013671875 -0.458953857421875
-0.954376220703125 -0.3843994140625 -0.4933319091796875
-1.001007080078125 -0.4112548828125 -0.5202484130859375
-0.991241455078125 -0.44586181640625 -0.470367431640625
1.1437225341796875 0.07342529296875 -0.414215087890625
1.1346282958984375 0.09173583984375 -0.4113311767578125
1.1174774169921875 0.0631103515625 -0.400482177734375
1.1494293212890625 0.0513916015625 -0.4168548583984375
1.167388916015625 0.08197021484375 -0.4256591796875
1.1561126708984375 0.1029052734375 -0.42236328125
1.109375 0.0789794921875 -0.3984527587890625
1.12371826171875 0.046142578125 -0.403411865234375
1.1737823486328125 0.05712890625 -0.428497314453125
-0.9576568603515625 -0.3504638671875 -0.5563812255859375
-0.9390411376953125 -0.34619140625 -0.5308074951171875
-0.94342041015625 -0.33441162109375 -0.5679779052734375
-0.9747314453125 -0.3526611328125 -0.58050537109375
-0.9693603515625 -0.36724853515625 -0.5418853759765625
-0.9495086669921875 -0.3607177734375 -0.520355224609375
-0.9265594482421875 -0.331787109375 -0.5416412353515625
-0.9579315185546875 -0.33465576171875 -0.5923614501953125
-0.9880523681640625 -0.37200927734375 -0.563629150390625
1.09637451171875 0.12017822265625 -0.4033203125
1.0796051025390625 0.115234375 -0.396240234375
1.1086578369140625 0.11566162109375 -0.4061431884765625
1.1003265380859375 0.12841796875 -0.4065399169921875
1.076141357421875 0.12481689453125 -0.397247314453125
1.08856201171875 0.10552978515625 -0.3963775634765625
1.1221160888671875 0.12591552734375 -0.413360595703125
-0.8998260498046875 -0.3001708984375 -0.5793609619140625
-0.9122161865234375 -0.3082275390625 -0.580657958984375
-0.887054443359375 -0.29669189453125 -0.565399169921875
-0.8999481201171875 -0.296142578125 -0.591033935546875
-0.9195556640625 -0.3057861328125 -0.5986328125
-0.8990478515625 -0.30645751953125 -0.5584869384765625
-0.880401611328125 -0.28875732421875 -0.57403564453125
0.875457763671875 -0.33514404296875 -0.3185882568359375
0.8744049072265625 -0.3294677734375 -0.2875213623046875
0.821014404296875 -0.33428955078125 -0.2862396240234375
0.8797149658203125 -0.31964111328125 -0.3501739501953125
0.933624267578125 -0.32623291015625 -0.355987548828125
0.9319915771484375 -0.3221435546875 -0.325439453125
0.8194732666015625 -0.32879638671875 -0.25262451171875
0.826507568359375 -0.320556640625 -0.3207550048828125
0.937591552734375 -0.3106689453125 -0.3851318359375
-0.7971649169921875 -0.54791259765625 -0.1681976318359375
-0.7421112060546875 -0.53204345703125 -0.1390380859375
-0.7968292236328125 -0.53857421875 -0.131072998046875
-0.853240966796875 -0.5601806640625 -0.2061309814453125
-0.7956390380859375 -0.54296875 -0.218475341796875
-0.7425994873046875 -0.52764892578125 -0.1919403076171875
-0.7416229248046875 -0.52325439453125 -0.0996246337890625
-0.8531036376953125 -0.5521240234375 -0.170257568359375
-0.850433349609375 -0.55462646484375 -0.254638671875
1.1166534423828125 -0.24444580078125 -0.4381103515625
1.1117706298828125 -0.2420654296875 -0.41534423828125
1.056121826171875 -0.2818603515625 -0.4188995361328125
1.1214447021484375 -0.22845458984375 -0.4594879150390625
1.1729736328125 -0.196533203125 -0.4501800537109375
1.16656494140625 -0.19451904296875 -0.4293212890625
1.0528717041015625 -0.279296875 -0.3936767578125
1.0602569580078125 -0.265869140625 -0.442230224609375
1.1785430908203125 -0.18280029296875 -0.468841552734375
-1.015045166015625 -0.55975341796875 -0.335968017578125
-0.964752197265625 -0.56842041015625 -0.2920684814453125
-1.01287841796875 -0.55389404296875 -0.3073577880859375
-1.0579681396484375 -0.54510498046875 -0.3809661865234375
-1.0111846923828125 -0.55316162109375 -0.3770294189453125
-0.9608917236328125 -0.56109619140625 -0.336151123046875
-0.96343994140625 -0.5611572265625 -0.260009765625
-1.054931640625 -0.53826904296875 -0.3549346923828125
-1.0550689697265625 -0.53973388671875 -0.4178466796875
1.284088134765625 -0.00537109375 -0.4424285888671875
1.275726318359375 0.00042724609375 -0.425933837890625
1.2582550048828125 -0.07464599609375 -0.45013427734375
1.2887420654296875 -0.004150390625 -0.457794189453125
1.2989959716796875 0.06378173828125 -0.4323577880859375
1.2913360595703125 0.07147216796875 -0.4166259765625
1.250244140625 -0.07086181640625 -0.4334869384765625
1.263641357421875 -0.06787109375 -0.466522216796875
1.3017730712890625 0.05792236328125 -0.44769287109375
-1.1191864013671875 -0.45159912109375 -0.522613525390625
-1.1109771728515625 -0.48944091796875 -0.474151611328125
-1.1148223876953125 -0.44378662109375 -0.5052032470703125
-1.1156158447265625 -0.4110107421875 -0.570770263671875
-1.1178436279296875 -0.45343017578125 -0.544921875
-1.1093597412109375 -0.48828125 -0.5013427734375
-1.106964111328125 -0.48248291015625 -0.454833984375
-1.1118011474609375 -0.40234375 -0.55584716796875
-1.113800048828125 -0.41656494140625 -0.5867462158203125
1.2819366455078125 0.2301025390625 -0.4156036376953125
1.273468017578125 0.24481201171875 -0.3974761962890625
1.29742431640625 0.184326171875 -0.4181365966796875
1.2870025634765625 0.20587158203125 -0.4348297119140625
1.2564544677734375 0.265380859375 -0.41424560546875
1.2478790283203125 0.28265380859375 -0.393646240234375
1.28985595703125 0.19659423828125 -0.401397705078125
1.300628662109375 0.166015625 -0.4351959228515625
1.262939453125 0.2352294921875 -0.4353179931640625
-1.0471038818359375 -0.29278564453125 -0.6981353759765625
-1.0777130126953125 -0.3291015625 -0.6611785888671875
-1.043701171875 -0.2791748046875 -0.6851043701171875
-1.010589599609375 -0.260498046875 -0.7243499755859375
-1.05059814453125 -0.31231689453125 -0.702972412109375
-1.0785369873046875 -0.34368896484375 -0.6684112548828125
-1.0745849609375 -0.31732177734375 -0.6482086181640625
-1.0076904296875 -0.24493408203125 -0.7108306884765625
-1.015777587890625 -0.2840576171875 -0.7275543212890625
1.13360595703125 0.29193115234375 -0.396240234375
1.1262054443359375 0.3154296875 -0.37042236328125
1.1811065673828125 0.295166015625 -0.4057769775390625
1.1395111083984375 0.2506103515625 -0.4234619140625
1.084564208984375 0.28131103515625 -0.3855743408203125
1.0782470703125 0.30517578125 -0.3577728271484375
1.173004150390625 0.317138671875 -0.380889892578125
1.1874847412109375 0.25555419921875 -0.4312744140625
1.0891876220703125 0.23760986328125 -0.4137420654296875
-0.889434814453125 -0.1947021484375 -0.7101898193359375
-0.9298095703125 -0.21112060546875 -0.73028564453125
-0.8896484375 -0.17498779296875 -0.6932220458984375
-0.850677490234375 -0.18194580078125 -0.6815643310546875
-0.8936309814453125 -0.2271728515625 -0.7128753662109375
-0.93505859375 -0.24127197265625 -0.7319183349609375
-0.928741455078125 -0.19183349609375 -0.714599609375
-0.8523101806640625 -0.16058349609375 -0.6637725830078125
-0.8527679443359375 -0.21624755859375 -0.6852569580078125
0.9532623291015625 0.2344970703125 -0.3468780517578125
0.951751708984375 0.2591552734375 -0.318878173828125
0.992828369140625 0.25048828125 -0.360260009765625
0.9516448974609375 0.1898193359375 -0.3732147216796875
0.9175567626953125 0.2149658203125 -0.334716796875
0.9182281494140625 0.240234375 -0.306640625
0.9896240234375 0.27587890625 -0.33203125
0.993682861328125 0.20562744140625 -0.38763427734375
0.9141998291015625 0.17047119140625 -0.36065673828125
-0.7531280517578125 -0.1600341796875 -0.5793609619140625
-0.7817230224609375 -0.164306640625 -0.6129150390625
-0.7601776123046875 -0.14019775390625 -0.561065673828125
-0.7277679443359375 -0.158203125 -0.5483856201171875
-0.748779296875 -0.19415283203125 -0.58343505859375
-0.77978515625 -0.1986083984375 -0.6172332763671875
-0.7869720458984375 -0.14422607421875 -0.5942535400390625
-0.7366180419921875 -0.13934326171875 -0.52972412109375
-0.72125244140625 -0.190673828125 -0.5528564453125
0.919036865234375 -0.088623046875 -0.40545654296875
0.9687347412109375 -0.07440185546875 -0.4283447265625
0.90277099609375 -0.192626953125 -0.3966827392578125
0.872467041015625 -0.096923828125 -0.3865509033203125
0.9342041015625 0.0225830078125 -0.4045867919921875
0.98150634765625 0.037109375 -0.424224853515625
0.956207275390625 -0.1810302734375 -0.4235687255859375
0.8538818359375 -0.19757080078125 -0.373443603515625
0.8909149169921875 0.01025390625 -0.3887786865234375
-0.7684783935546875 -0.38848876953125 -0.44232177734375
-0.7804412841796875 -0.4603271484375 -0.361846923828125
-0.811737060546875 -0.39739990234375 -0.4755859375
-0.757080078125 -0.3125 -0.5137939453125
-0.7275238037109375 -0.38043212890625 -0.4158172607421875
-0.7348785400390625 -0.449462890625 -0.335601806640625
-0.8289337158203125 -0.47100830078125 -0.394805908203125
-0.7956085205078125 -0.319091796875 -0.547698974609375
-0.7214813232421875 -0.3067626953125 -0.4853973388671875
1.13763427734375 -0.00909423828125 -0.477020263671875
1.1414337158203125 0.09356689453125 -0.4666290283203125
1.1899261474609375 0.016357421875 -0.48272705078125
1.1322784423828125 -0.10845947265625 -0.4804534912109375
1.0810089111328125 -0.03436279296875 -0.4663848876953125
1.087127685546875 0.0733642578125 -0.45672607421875
1.1917266845703125 0.11181640625 -0.4717254638671875
1.186767578125 -0.0728759765625 -0.486907958984375
1.073272705078125 -0.13916015625 -0.4679412841796875
-0.9519195556640625 -0.4111328125 -0.5770416259765625
-0.9949951171875 -0.409423828125 -0.602386474609375
-0.9259033203125 -0.3388671875 -0.644134521484375
-0.9050750732421875 -0.40911865234375 -0.5460052490234375
-0.977691650390625 -0.47796630859375 -0.5017242431640625
-1.02203369140625 -0.469970703125 -0.5332489013671875
-0.968475341796875 -0.34417724609375 -0.666259765625
