# XYZ point cloud file
0.0077013308182358742 -0.052588485181331635 0.63858819007873535
-0.00042453350033611059 -0.049938224256038666 0.63906180858612061
-0.0074227279983460903 -0.047524817287921906 0.63957595825195312
-0.013271061703562737 -0.046472728252410889 0.63988983631134033
-0.014228275045752525 -0.04750138521194458 0.63965350389480591
-0.014650573953986168 -0.048795372247695923 0.63930702209472656
-0.0027879476547241211 -0.030694287270307541 0.63672727346420288
-0.0019558691419661045 -0.031121697276830673 0.63716399669647217
-0.00050133303739130497 -0.032440148293972015 0.63772362470626831
0.0070484466850757599 -0.034055698662996292 0.63770598173141479
0.008986378088593483 -0.031857866793870926 0.63729220628738403
0.010113390162587166 -0.029845051467418671 0.63694596290588379
0.0092532187700271606 -0.027263553813099861 0.63646477460861206
0.0075713563710451126 -0.02608753927052021 0.63616800308227539
0.0060866172425448895 -0.025447644293308258 0.63589990139007568
-0.021507089957594872 -0.02037397027015686 0.63784056901931763
-0.02162088081240654 -0.020498873665928841 0.63834893703460693
-0.021361464634537697 -0.021189659833908081 0.63884443044662476
-0.018035320565104485 -0.02398354560136795 0.63914644718170166
-0.013332459144294262 -0.027066858485341072 0.63898837566375732
-0.0071309488266706467 -0.030917037278413773 0.6387404203414917
0.013719013892114162 -0.028942696750164032 0.63660460710525513
0.017936414107680321 -0.030035365372896194 0.63644689321517944
0.022531377151608467 -0.031830701977014542 0.63622903823852539
0.026571357622742653 -0.032973021268844604 0.63561958074569702
0.026763167232275009 -0.032469727098941803 0.63503557443618774
0.026682423427700996 -0.032364673912525177 0.63445639610290527
-0.038028400391340256 -0.020058115944266319 0.6396363377571106
-0.036852709949016571 -0.020002497360110283 0.64033794403076172
-0.034954648464918137 -0.020583964884281158 0.64084655046463013
-0.030822459608316422 -0.020903477445244789 0.64076387882232666
-0.027571002021431923 -0.020746219903230667 0.64025723934173584
-0.023944156244397163 -0.021272467449307442 0.63967037200927734
0.02926243469119072 -0.036170110106468201 0.63633310794830322
0.033255044370889664 -0.039910439401865005 0.63677948713302612
0.037186592817306519 -0.044107798486948013 0.63727676868438721
0.045663673430681229 -0.05010015144944191 0.63724356889724731
0.049053862690925598 -0.051745317876338959 0.63650697469711304
0.050842266529798508 -0.053190547972917557 0.63558685779571533
-0.035584427416324615 -0.034446630626916885 0.64165395498275757
-0.033774174749851227 -0.033669367432594299 0.64242476224899292
-0.030778499320149422 -0.033257145434617996 0.64276218414306641
-0.029268352314829826 -0.029525335878133774 0.64245855808258057
-0.031385645270347595 -0.026019342243671417 0.64210468530654907
-0.032604947686195374 -0.02319062128663063 0.64157623052597046
0.041908089071512222 -0.051690377295017242 0.63771247863769531
0.042157482355833054 -0.05457305908203125 0.63750141859054565
0.04146634042263031 -0.056880451738834381 0.63721746206283569
-0.015454360283911228 -0.04350532591342926 0.64056515693664551
-0.019394414499402046 -0.040365438908338547 0.64133840799331665
-0.02309427410364151 -0.0369400754570961 0.64206498861312866
0.014273363165557384 -0.040185578167438507 0.63794529438018799
0.024078540503978729 -0.043326772749423981 0.63780933618545532
0.032947126775979996 -0.04597950354218483 0.6377907395362854
-0.020626941695809364 -0.033822298049926758 0.64165067672729492
-0.013802310451865196 -0.034604873508214951 0.64052009582519531
-0.0063076717779040337 -0.035410627722740173 0.63941317796707153
0.0067934179678559303 -0.042113590985536575 0.63836795091629028
0.010338791646063328 -0.047106355428695679 0.63828808069229126
0.013469846919178963 -0.051395859569311142 0.63823109865188599
-0.02424921840429306 0.0098367221653461456 0.63238120079040527
-0.018811492249369621 -0.0037459433078765869 0.6349189281463623
-0.013917899690568447 -0.013830874115228653 0.63641941547393799
0.023611143231391907 -0.030728926882147789 0.63375896215438843
0.023687547072768211 -0.02738909050822258 0.63336747884750366
0.025689098984003067 -0.023450668901205063 0.63272523880004883
-0.049462683498859406 -0.012187009677290916 0.63850647211074829
-0.043131161481142044 -0.01686989888548851 0.63796132802963257
-0.039353962987661362 -0.020492235198616982 0.637725830078125
0.05576038733124733 -0.060426857322454453 0.63256156444549561
0.059982139617204666 -0.062479164451360703 0.63219833374023438
0.065372005105018616 -0.065199919044971466 0.63168054819107056
0.062457937747240067 -0.059900648891925812 0.63135302066802979
0.052508920431137085 -0.049592778086662292 0.63150441646575928
0.042749848216772079 -0.037462614476680756 0.63137763738632202
-0.056426107883453369 -0.021585317328572273 0.63819479942321777
-0.054468140006065369 -0.030792504549026489 0.63800859451293945
-0.053715504705905914 -0.03805214911699295 0.63803505897521973
-0.047831851989030838 -0.042163953185081482 0.63833075761795044
-0.043336652219295502 -0.041062578558921814 0.63839948177337646
-0.03991086408495903 -0.040344800800085068 0.63837194442749023
0.070478811860084534 -0.081836685538291931 0.63259810209274292
0.081704512238502502 -0.086708776652812958 0.63168197870254517
0.092782117426395416 -0.091712385416030884 0.63060092926025391
0.094377383589744568 -0.08957180380821228 0.62957990169525146
0.086879082024097443 -0.082926958799362183 0.63000565767288208
0.079624637961387634 -0.076211363077163696 0.63046962022781372
-0.052586369216442108 -0.04892934113740921 0.63784152269363403
-0.051423005759716034 -0.053278852254152298 0.63765841722488403
-0.049963060766458511 -0.057465627789497375 0.63747936487197876
-0.038875482976436615 -0.060374043881893158 0.63799691200256348
-0.029975080862641335 -0.059413313865661621 0.63816440105438232
-0.021585261449217796 -0.058807317167520523 0.63809049129486084
0.14272476732730865 -0.1265316903591156 0.62822449207305908
0.12721878290176392 -0.11515416204929352 0.62862902879714966
0.11398441344499588 -0.10528223216533661 0.62889742851257324
-0.046365644782781601 -0.066796265542507172 0.6371912956237793
-0.044049862772226334 -0.072267279028892517 0.63705605268478394
-0.041078507900238037 -0.078254230320453644 0.63681942224502563
0.16445598006248474 -0.14012342691421509 0.6218339204788208
0.14880794286727905 -0.129470095038414 0.62232440710067749
0.1353003978729248 -0.12012562155723572 0.62279057502746582
0.12318090349435806 -0.10999858379364014 0.62434983253479004
0.11888888478279114 -0.10649062693119049 0.62575823068618774
0.11198604106903076 -0.10192084312438965 0.62746381759643555
-0.058258745819330215 -0.064170114696025848 0.63587683439254761
-0.068394958972930908 -0.067279301583766937 0.63379698991775513
-0.078152887523174286 -0.071097277104854584 0.6313178539276123
-0.087913587689399719 -0.079155407845973969 0.62846624851226807
-0.089047320187091827 -0.083365306258201599 0.62846732139587402
-0.089631050825119019 -0.088116750121116638 0.6285671591758728
0.11504210531711578 -0.10496844351291656 0.62374681234359741
0.1075013130903244 -0.098630405962467194 0.62419915199279785
0.10079382359981537 -0.092627868056297302 0.62462347745895386
0.091175355017185211 -0.083039700984954834 0.62669354677200317
0.085677027702331543 -0.07835698127746582 0.62837588787078857
0.078852251172065735 -0.073347404599189758 0.62984561920166016
-0.060091983526945114 -0.047077376395463943 0.63705193996429443
-0.067588590085506439 -0.051257334649562836 0.63535594940185547
-0.0752735435962677 -0.056191638112068176 0.63298076391220093
-0.083483286201953888 -0.064883142709732056 0.62977302074432373
-0.08457028865814209 -0.068364530801773071 0.62932902574539185
-0.085580989718437195 -0.071801625192165375 0.62893939018249512
0.087713561952114105 -0.080061979591846466 0.62545835971832275
0.082711838185787201 -0.073953166604042053 0.62566357851028442
0.081001982092857361 -0.06908465176820755 0.62532341480255127
-0.083333142101764679 -0.049489922821521759 0.63113558292388916
-0.080508120357990265 -0.052959121763706207 0.63119727373123169
-0.080626837909221649 -0.057036060839891434 0.63082259893417358
0.19213798642158508 -0.176484614610672 0.62469106912612915
0.19483880698680878 -0.17675849795341492 0.62524294853210449
0.1986401379108429 -0.17773157358169556 0.62527167797088623
0.14469490945339203 -0.15908744931221008 0.628307044506073
0.14576159417629242 -0.16032087802886963 0.62779229879379272
0.14572890102863312 -0.16131004691123962 0.62709885835647583
0.15800294280052185 -0.16641472280025482 0.62565481662750244
0.16990160942077637 -0.16999518871307373 0.62495911121368408
0.18043777346611023 -0.17330257594585419 0.62434381246566772
0.10479860007762909 -0.14834225177764893 0.628123939037323
0.11646094918251038 -0.15238370001316071 0.62765014171600342
0.13033080101013184 -0.15731365978717804 0.62705898284912109
0.087763726711273193 -0.14147429168224335 0.6314932107925415
0.093457356095314026 -0.14351968467235565 0.63081365823745728
0.096239618957042694 -0.14493954181671143 0.62977129220962524
0.21509923040866852 -0.19005914032459259 0.62280815839767456
0.22067819535732269 -0.19232477247714996 0.62325823307037354
0.22763875126838684 -0.19546316564083099 0.62300622463226318
0.1975448876619339 -0.1801636815071106 0.62327826023101807
0.20378947257995605 -0.1835269033908844 0.62276995182037354
0.20804202556610107 -0.18633848428726196 0.62229281663894653
0.099640011787414551 -0.15055540204048157 0.6276058554649353
0.095325440168380737 -0.14769746363162994 0.62812322378158569
0.094061605632305145 -0.1459847092628479 0.6284257173538208
0.10055666416883469 -0.15345902740955353 0.62962490320205688
0.10482284426689148 -0.15399980545043945 0.62924391031265259
0.10648501664400101 -0.15417003631591797 0.62830519676208496
0.20153471827507019 -0.18914461135864258 0.62225800752639771
0.2066156417131424 -0.19153746962547302 0.6227949857711792
0.21241149306297302 -0.19432014226913452 0.62281531095504761
0.20925946533679962 -0.18911197781562805 0.62158811092376709
0.20642988383769989 -0.18901790678501129 0.62141019105911255
0.20202301442623138 -0.18821984529495239 0.62135791778564453
0.13012528419494629 -0.16486410796642303 0.62490665912628174
0.12157765030860901 -0.16130782663822174 0.62556439638137817
0.11343337595462799 -0.15766516327857971 0.62626612186431885
0.13796737790107727 -0.16978098452091217 0.62655460834503174
0.14045611023902893 -0.16976290941238403 0.62610238790512085
0.14054961502552032 -0.16920092701911926 0.62529635429382324
0.17346957325935364 -0.18072910606861115 0.62342214584350586
0.17579537630081177 -0.18211890757083893 0.62396001815795898
0.17737627029418945 -0.18336643278598785 0.62411057949066162
0.19063177704811096 -0.18534500896930695 0.62164610624313354
0.18422959744930267 -0.18349595367908478 0.62193334102630615
0.17742033302783966 -0.18141737580299377 0.62227779626846313
0.162820965051651 -0.17672456800937653 0.62301784753799438
0.15508633852005005 -0.1741194874048233 0.62340402603149414
0.14705854654312134 -0.17129990458488464 0.62382727861404419
0.15624520182609558 -0.17383883893489838 0.62218409776687622
0.16126009821891785 -0.1755184531211853 0.62169736623764038
0.16606384515762329 -0.17735341191291809 0.6219213604927063
0.19116805493831635 -0.18470688164234161 0.62070786952972412
0.18586231768131256 -0.18267473578453064 0.62049537897109985
0.18117767572402954 -0.18103024363517761 0.62094682455062866
0.17210480570793152 -0.17847557365894318 0.62226629257202148
0.1658385694026947 -0.17672508955001831 0.62262248992919922
0.15890686213970184 -0.17473213374614716 0.62299787998199463
0.14350435137748718 -0.17010635137557983 0.62375408411026001
0.13540831208229065 -0.16755093634128571 0.62408870458602905
0.12737062573432922 -0.16491150856018066 0.62435430288314819
0.12575110793113708 -0.16398806869983673 0.62354844808578491
0.13112802803516388 -0.16558243334293365 0.623146653175354
0.13552892208099365 -0.16701018810272217 0.62345117330551147
0.20440942049026489 -0.18664206564426422 0.62096458673477173
0.1989920437335968 -0.18521435558795929 0.62061303853988647
0.19421789050102234 -0.18402260541915894 0.62085616588592529
0.18904690444469452 -0.18288734555244446 0.62135714292526245
0.18612772226333618 -0.18219925463199615 0.62146520614624023
0.18230597674846649 -0.18121412396430969 0.62166625261306763
0.11239766329526901 -0.15965554118156433 0.62463623285293579
0.10608428716659546 -0.15722092986106873 0.62468892335891724
0.10104529559612274 -0.15502375364303589 0.62475061416625977
0.099138140678405762 -0.15338724851608276 0.62463730573654175
0.10127744078636169 -0.15347516536712646 0.62478774785995483
0.10391221940517426 -0.15373671054840088 0.62558823823928833
0.18652965128421783 -0.1769087016582489 0.62295854091644287
0.18325434625148773 -0.17740622162818909 0.62264895439147949
0.18020683526992798 -0.17805829644203186 0.62297928333282471
0.18312351405620575 -0.18042023479938507 0.6229056715965271
0.18701523542404175 -0.18176080286502838 0.62227481603622437
0.18951804935932159 -0.18268610537052155 0.62171179056167603
0.094306051731109619 -0.15198834240436554 0.62508320808410645
0.09160265326499939 -0.15075139701366425 0.62544071674346924
0.092229142785072327 -0.15072916448116302 0.62587785720825195
0.094886027276515961 -0.14988315105438232 0.62605851888656616
0.095112957060337067 -0.14819036424160004 0.62621396780014038
0.096108734607696533 -0.14695970714092255 0.62706595659255981
0.14304350316524506 -0.1634235680103302 0.62587696313858032
0.14127229154109955 -0.16485705971717834 0.62595558166503906
0.14003366231918335 -0.16650871932506561 0.62654131650924683
0.15143907070159912 -0.17169944941997528 0.62652313709259033
0.16173519194126129 -0.17450948059558868 0.62559616565704346
0.17051756381988525 -0.17679156363010406 0.62458944320678711
0.10432913899421692 -0.15526588261127472 0.62700247764587402
0.11501059681177139 -0.15943457186222076 0.62745332717895508
0.12726116180419922 -0.16395856440067291 0.62755000591278076
0.14117822051048279 -0.16974908113479614 0.62727868556976318
0.14368031919002533 -0.17083311080932617 0.62649625539779663
0.1471412181854248 -0.17161351442337036 0.62502199411392212
0.17563758790493011 -0.17957095801830292 0.62313735485076904
0.17512357234954834 -0.17945387959480286 0.62398266792297363
0.17592684924602509 -0.17923559248447418 0.6241334080696106
0.10057134926319122 -0.15504562854766846 0.62676358222961426
0.10640654712915421 -0.15786896646022797 0.62659871578216553
0.11295185983181 -0.16024921834468842 0.62574982643127441
-0.0043974868021905422 0.11871984601020813 0.60041409730911255
-0.0062807286158204079 0.11744923889636993 0.60129714012145996
-0.0089036431163549423 0.11595287919044495 0.60231554508209229
0.0017597503028810024 0.078409150242805481 0.61310690641403198
0.0036559938453137875 0.082153230905532837 0.61173802614212036
0.0048230071552097797 0.084612026810646057 0.61083173751831055
0.0028872187249362469 0.093752525746822357 0.6081048846244812
0.00052194762974977493 0.10173133760690689 0.60577481985092163
-0.0014119921252131462 0.11040584743022919 0.60292333364486694
-0.075953409075737 0.08559069037437439 0.62146520614624023
-0.077149070799350739 0.078895628452301025 0.62347209453582764
-0.078527458012104034 0.072671040892601013 0.62524217367172241
-0.078884303569793701 0.066040024161338806 0.62691706418991089
-0.076980933547019958 0.0646686851978302 0.62686127424240112
-0.074038416147232056 0.062539368867874146 0.6268082857131958
-0.067761525511741638 0.093902319669723511 0.61793977022171021
-0.070937499403953552 0.093325801193714142 0.61860901117324829
-0.073239251971244812 0.092998497188091278 0.61902916431427002
-0.0050884000957012177 0.16812135279178619 0.57711273431777954
-0.0071660727262496948 0.16876804828643799 0.57719296216964722
-0.0098434332758188248 0.16963091492652893 0.57728821039199829
-0.0038578114472329617 0.13033285737037659 0.59509885311126709
-0.0042848191224038601 0.1417696475982666 0.58991461992263794
-0.0041303727775812149 0.15423500537872314 0.5838204026222229
-0.072122879326343536 0.11746892333030701 0.60999602079391479
-0.072973251342773438 0.10878077149391174 0.61341732740402222
-0.073896333575248718 0.10052836686372757 0.61647486686706543
-0.06333218514919281 0.13582895696163177 0.60168349742889404
-0.066659599542617798 0.13186240196228027 0.60367757081985474
-0.069336399435997009 0.12880674004554749 0.60521042346954346
0.0045529850758612156 0.23282697796821594 0.53792530298233032
0.0034820190630853176 0.23789885640144348 0.53482824563980103
0.0021035866811871529 0.24307249486446381 0.53185141086578369
-0.0020055766217410564 0.18226635456085205 0.56881505250930786
-3.7980731576681137e-05 0.19749809801578522 0.55999600887298584
0.0024949307553470135 0.21302826702594757 0.55047512054443359
-0.069984003901481628 0.15351900458335876 0.59375321865081787
-0.070223525166511536 0.14485818147659302 0.59797775745391846
-0.070708446204662323 0.13573022186756134 0.60219293832778931
-0.061221703886985779 0.18131396174430847 0.57896006107330322
-0.064537815749645233 0.17373913526535034 0.58307600021362305
-0.067573539912700653 0.16700443625450134 0.586769700050354
0.024619411677122116 0.048681162297725677 0.61674851179122925
0.024519279599189758 0.05410325899720192 0.61532878875732422
0.024558385834097862 0.057487357407808304 0.61451816558837891
0.017908532172441483 0.066549673676490784 0.61363381147384644
0.012763671576976776 0.073066696524620056 0.61286407709121704
0.0088209081441164017 0.079580865800380707 0.61164075136184692
-0.082036204636096954 0.061611227691173553 0.62831884622573853
-0.084517635405063629 0.056441362947225571 0.62969708442687988
-0.087884344160556793 0.051042269915342331 0.63095468282699585
-0.091404736042022705 0.043602447956800461 0.63205504417419434
-0.089978374540805817 0.041275683790445328 0.63204896450042725
-0.087988294661045074 0.03776048868894577 0.63231289386749268
0.075132347643375397 0.017911538481712341 0.6139405369758606
0.071474991738796234 0.024138621985912323 0.61323785781860352
0.068569168448448181 0.029415834695100784 0.61253339052200317
0.055472999811172485 0.038545548915863037 0.61275750398635864
0.044271741062402725 0.045009948313236237 0.61340099573135376
0.033739279955625534 0.052314449101686478 0.61379611492156982
-0.098613835871219635 0.038308024406433105 0.63298851251602173
-0.10597792267799377 0.031563051044940948 0.63368856906890869
-0.11409662663936615 0.025531098246574402 0.63410788774490356
-0.12267986685037613 0.018244154751300812 0.63435256481170654
-0.12304798513650894 0.015055876225233078 0.63437807559967041
-0.12359211593866348 0.011255722492933273 0.63435518741607666
0.10428395867347717 0.029067061841487885 0.60056459903717041
0.099139511585235596 0.034712407737970352 0.60057336091995239
0.094876699149608612 0.040107894688844681 0.60022300481796265
0.087301760911941528 0.037518046796321869 0.6041182279586792
0.082043513655662537 0.033259980380535126 0.60758137702941895
0.075086593627929688 0.032057076692581177 0.61006295680999756
-0.12998934090137482 0.017595868557691574 0.63380712270736694
-0.13695132732391357 0.015747550874948502 0.63302445411682129
-0.14328353106975555 0.014848452061414719 0.63185781240463257
-0.15085268020629883 0.0117667056620121 0.63026940822601318
-0.15300853550434113 0.0081345848739147186 0.6299099326133728
-0.15587954223155975 0.0038208216428756714 0.62927389144897461
0.1065632700920105 0.099151283502578735 0.56765007972717285
0.10286828875541687 0.10062608122825623 0.5690799355506897
0.099313728511333466 0.10279525816440582 0.56981831789016724
0.096903033554553986 0.086446799337863922 0.57882213592529297
0.096305973827838898 0.069689899682998657 0.58678174018859863
0.094317145645618439 0.055723458528518677 0.59371519088745117
-0.15445022284984589 0.014675263315439224 0.62848836183547974
-0.15925276279449463 0.015378452837467194 0.6263810396194458
-0.16338229179382324 0.017157129943370819 0.6240617036819458
-0.16966427862644196 0.017596371471881866 0.62111049890518188
-0.17300957441329956 0.014056682586669922 0.6202472448348999
-0.17688608169555664 0.0099317356944084167 0.6189841628074646
0.087798744440078735 0.19832761585712433 0.51318460702896118
0.086091868579387665 0.19295443594455719 0.51955121755599976
0.084220290184020996 0.18952751159667969 0.52423542737960815
0.086010865867137909 0.16709539294242859 0.53883653879165649
0.08982732892036438 0.14626030623912811 0.54986071586608887
0.09331551194190979 0.12547262012958527 0.56025642156600952
-0.1682395339012146 0.025301083922386169 0.61918717622756958
-0.16830404102802277 0.031373351812362671 0.6168476939201355
-0.16684645414352417 0.03818906843662262 0.61459779739379883
-0.16664746403694153 0.042933233082294464 0.61158162355422974
-0.1690213680267334 0.039721362292766571 0.61041885614395142
-0.17133750021457672 0.036143608391284943 0.60897862911224365
0.073123171925544739 0.27902287244796753 0.46256086230278015
0.071446575224399567 0.26903489232063293 0.47296419739723206
0.069809488952159882 0.26052328944206238 0.48192325234413147
0.072403140366077423 0.24002309143543243 0.4959462583065033
0.075829438865184784 0.22410058975219727 0.50523996353149414
0.079017229378223419 0.20641818642616272 0.51601231098175049
-0.16051265597343445 0.052518881857395172 0.6103280782699585
-0.1559779942035675 0.060332171618938446 0.6083483099937439
-0.15051648020744324 0.06948351114988327 0.60648202896118164
-0.14453475177288055 0.079679235816001892 0.60358238220214844
-0.14457188546657562 0.078432030975818634 0.60226088762283325
-0.14447721838951111 0.077236920595169067 0.60089796781539917
0.052071951329708099 0.32112103700637817 0.44618287682533264
0.049684155732393265 0.30542474985122681 0.46145239472389221
0.047574043273925781 0.29288968443870544 0.47362974286079407
0.051275558769702911 0.27825063467025757 0.48274669051170349
0.057198669761419296 0.27221730351448059 0.4832482635974884
0.063087597489356995 0.26430431008338928 0.48501712083816528
-0.13635618984699249 0.093785881996154785 0.60293102264404297
-0.12791317701339722 0.10784998536109924 0.60101288557052612
-0.11938954889774323 0.1216665655374527 0.59876173734664917
-0.109995037317276 0.13715313374996185 0.59359115362167358
-0.10785950720310211 0.1409699022769928 0.59028393030166626
-0.10504588484764099 0.14640301465988159 0.58622175455093384
0.038916654884815216 0.33892536163330078 0.44084653258323669
0.036631837487220764 0.32230877876281738 0.45688197016716003
0.034790981560945511 0.30932670831680298 0.46914994716644287
0.035950977355241776 0.29778879880905151 0.4781031608581543
0.03863389790058136 0.2941378653049469 0.47937512397766113
0.041846301406621933 0.28912472724914551 0.48112562298774719
-0.10403543710708618 0.14545354247093201 0.5925711989402771
-0.097411155700683594 0.15496836602687836 0.58876758813858032
-0.091547310352325439 0.16304832696914673 0.58499395847320557
-0.084197103977203369 0.17542637884616852 0.57784146070480347
-0.080888733267784119 0.18310496211051941 0.57253819704055786
-0.076432056725025177 0.19339820742607117 0.56545019149780273
0.022980721667408943 0.31053650379180908 0.47373330593109131
0.021887907758355141 0.29778572916984558 0.48494711518287659
0.021009711548686028 0.28740048408508301 0.49392369389533997
0.024026652798056602 0.28758770227432251 0.49262401461601257
0.027432672679424286 0.29396811127662659 0.48586678504943848
0.030563332140445709 0.29795566201210022 0.480976402759552
-0.082591161131858826 0.17443002760410309 0.57954543828964233
-0.079440973699092865 0.1774599552154541 0.57843726873397827
-0.076936058700084686 0.17873078584671021 0.57836669683456421
-0.072189629077911377 0.18517614901065826 0.57487630844116211
-0.068728886544704437 0.19388867914676666 0.5691642165184021
-0.064493119716644287 0.20505653321743011 0.56180864572525024
0.0089974654838442802 0.24291276931762695 0.53023815155029297
0.012728174217045307 0.25640907883644104 0.52003264427185059
0.016575327143073082 0.2685549259185791 0.51011717319488525
-0.073120839893817902 0.17633675038814545 0.58082807064056396
-0.071696177124977112 0.17280250787734985 0.58316582441329956
-0.070673763751983643 0.16776697337627411 0.58616453409194946
0.020221292972564697 0.262076735496521 0.51241731643676758
0.020096860826015472 0.26678785681724548 0.50954890251159668
0.020123422145843506 0.2723139226436615 0.50585764646530151
0.0066390717402100563 0.22499461472034454 0.54183346033096313
0.007821306586265564 0.22252355515956879 0.54241800308227539
0.0090572107583284378 0.22070857882499695 0.54253458976745605
0.012763116508722305 0.23053412139415741 0.53498613834381104
0.015245959162712097 0.24077111482620239 0.52786976099014282
0.017794249579310417 0.24988575279712677 0.5211634635925293
-0.07867741584777832 0.15891307592391968 0.58910930156707764
-0.0773516446352005 0.15622289478778839 0.59053689241409302
-0.076324023306369781 0.15254348516464233 0.59240704774856567
-0.074490673840045929 0.15043440461158752 0.59397226572036743
-0.073333553969860077 0.15330314636230469 0.59304988384246826
-0.071938216686248779 0.15683680772781372 0.5917208194732666
-0.076818674802780151 0.17274877429008484 0.58237200975418091
-0.078226134181022644 0.16812914609909058 0.58471471071243286
-0.079322472214698792 0.16415159404277802 0.58654618263244629
0.0317704938352108 0.28025084733963013 0.49311640858650208
0.03203485906124115 0.28533199429512024 0.48952683806419373
0.032535582780838013 0.29150503873825073 0.48481202125549316
0.023187091574072838 0.26441118121147156 0.50904089212417603
0.026007328182458878 0.26967629790306091 0.50382816791534424
0.028838474303483963 0.27349242568016052 0.49946507811546326
-0.086994633078575134 0.15807002782821655 0.58793723583221436
-0.084345072507858276 0.16015464067459106 0.58744847774505615
-0.082143604755401611 0.16096003353595734 0.58753365278244019
-0.088081091642379761 0.16489312052726746 0.58447802066802979
-0.089037097990512848 0.16100296378135681 0.58641940355300903
-0.089677304029464722 0.15768617391586304 0.58786070346832275
0.044362109154462814 0.27082529664039612 0.49201709032058716
0.044509027153253555 0.2733113169670105 0.49064642190933228
0.044992890208959579 0.27732110023498535 0.4877951443195343
0.034349638968706131 0.27629217505455017 0.4941277801990509
0.037221431732177734 0.27527490258216858 0.49305853247642517
0.040493853390216827 0.27284583449363708 0.49267074465751648
-0.10379639267921448 0.13655690848827362 0.59548330307006836
-0.098575234413146973 0.14404734969139099 0.59303778409957886
-0.094049826264381409 0.15004552900791168 0.59082221984863281
-0.11163309216499329 0.13212954998016357 0.59735631942749023
-0.11121822893619537 0.13018733263015747 0.59795856475830078
-0.11049839109182358 0.12861435115337372 0.59807324409484863
0.065582901239395142 0.24203215539455414 0.49921420216560364
0.066217824816703796 0.24482178688049316 0.49690881371498108
0.067124642431735992 0.24856334924697876 0.49370360374450684
0.049308653920888901 0.26445728540420532 0.49309542775154114
0.05472496896982193 0.2582666277885437 0.49439215660095215
0.060197629034519196 0.25012317299842834 0.49699121713638306
-0.13209682703018188 0.091794177889823914 0.6041296124458313
-0.1243659108877182 0.10414378345012665 0.60229122638702393
-0.11673282831907272 0.11629128456115723 0.60023170709609985
-0.14291200041770935 0.080660387873649597 0.60539257526397705
-0.14152160286903381 0.080445483326911926 0.60575973987579346
-0.14019814133644104 0.080209687352180481 0.60587054491043091
0.07786211371421814 0.18431949615478516 0.53093916177749634
0.079054594039916992 0.1848432719707489 0.53037929534912109
0.080549471080303192 0.1858159601688385 0.52934300899505615
0.069014810025691986 0.22757574915885925 0.50712698698043823
0.072062656283378601 0.21398648619651794 0.5144728422164917
0.074609369039535522 0.1994168609380722 0.52269947528839111
-0.1523774266242981 0.054821036756038666 0.61107814311981201
-0.14906366169452667 0.06197812408208847 0.60925787687301636
-0.14471867680549622 0.070301935076713562 0.60751122236251831
-0.16141580045223236 0.046639271080493927 0.61292684078216553
-0.15885177254676819 0.047309719026088715 0.61313408613204956
-0.15663604438304901 0.047792501747608185 0.61311888694763184
0.087034210562705994 0.11392974108457565 0.56728804111480713
0.089662343263626099 0.11085159331560135 0.5684359073638916
0.092637136578559875 0.10800347477197647 0.56936991214752197
0.079323276877403259 0.16816398501396179 0.54002529382705688
0.081580191850662231 0.15162670612335205 0.54873812198638916
0.083480790257453918 0.13459330797195435 0.55744844675064087
-0.15767338871955872 0.031486302614212036 0.61880409717559814
-0.15768389403820038 0.03657609224319458 0.61677879095077515
-0.15668685734272003 0.042265564203262329 0.61484122276306152
-0.1635957807302475 0.02244393527507782 0.62173759937286377
-0.16086915135383606 0.024047330021858215 0.62161600589752197
-0.15851378440856934 0.025545299053192139 0.6213221549987793
0.082623876631259918 0.055526427924633026 0.59624427556991577
0.085107654333114624 0.052365459501743317 0.59743821620941162
0.087978817522525787 0.048939097672700882 0.59857583045959473
0.08503790944814682 0.099753126502037048 0.57462996244430542
0.084373034536838531 0.083525776863098145 0.5824776291847229
0.082826972007751465 0.06958828866481781 0.58935385942459106
-0.14755704998970032 0.020254284143447876 0.62712353467941284
-0.15123945474624634 0.021580003201961517 0.62524056434631348
-0.15429385006427765 0.023849137127399445 0.62314045429229736
-0.14731231331825256 0.016446437686681747 0.63012373447418213
-0.14571675658226013 0.017704073339700699 0.62972068786621094
-0.14437414705753326 0.018685422837734222 0.62923294305801392
0.061401210725307465 0.043620016425848007 0.60831302404403687
0.06269526481628418 0.04068240150809288 0.60952931642532349
0.064291141927242279 0.037505019456148148 0.61069697141647339
0.077345862984657288 0.05120990052819252 0.59951293468475342
0.073093235492706299 0.046868953853845596 0.60287642478942871
0.067471332848072052 0.045383330434560776 0.60535472631454468
-0.12786516547203064 0.022458598017692566 0.63159048557281494
-0.13358111679553986 0.020626477897167206 0.63095003366470337
-0.13870698213577271 0.019755896180868149 0.62999641895294189
-0.12201602756977081 0.022431511431932449 0.63373303413391113
-0.1217007040977478 0.023617658764123917 0.63314551115036011
-0.12151459604501724 0.024552185088396072 0.6325109601020813
0.025616554543375969 0.065682210028171539 0.6106724739074707
0.025232978165149689 0.063705310225486755 0.61190557479858398
0.024938978254795074 0.061767667531967163 0.613028883934021
0.051682021468877792 0.050160706043243408 0.60828989744186401
0.042537417262792587 0.055339857935905457 0.60903489589691162
0.033769331872463226 0.061390921473503113 0.60941940546035767
-0.10075186938047409 0.041362695395946503 0.63082444667816162
-0.10734911262989044 0.035327833145856857 0.63148987293243408
-0.11444628238677979 0.029887963086366653 0.63186198472976685
-0.09322386234998703 0.045998815447092056 0.63172405958175659
-0.093833789229393005 0.04655754566192627 0.63116788864135742
-0.094424791634082794 0.046993643045425415 0.63052815198898315
0.0084545500576496124 0.09179956465959549 0.6060643196105957
0.0074623143300414085 0.089869797229766846 0.6075289249420166
0.0065346313640475273 0.088101208209991455 0.60888856649398804
0.020148307085037231 0.074122115969657898 0.60893166065216064
0.01559889130294323 0.080510608851909637 0.60793864727020264
0.012148071080446243 0.08708731085062027 0.6064724326133728
-0.085285261273384094 0.06376020610332489 0.62621062994003296
-0.087637424468994141 0.058520831167697906 0.62757033109664917
-0.090830422937870026 0.053160693496465683 0.6288144588470459
-0.08110421895980835 0.067473985254764557 0.6264718770980835
-0.081908032298088074 0.067919448018074036 0.62593340873718262
-0.082685567438602448 0.068405419588088989 0.6253354549407959
-0.0017768684774637222 0.16769787669181824 0.57598453760147095
-0.00026136916130781174 0.16801150143146515 0.57485878467559814
0.0012091151438653469 0.16866797208786011 0.57356667518615723
0.0039493963122367859 0.18196079134941101 0.56536173820495605
0.0057561271823942661 0.19458103179931641 0.55796408653259277
0.0079369023442268372 0.2071509063243866 0.55024343729019165
-0.07511158287525177 0.14252299070358276 0.59738337993621826
-0.074896275997161865 0.13636858761310577 0.60032320022583008
-0.074952326714992523 0.12962441146373749 0.60340160131454468
-0.074554443359375 0.1228768527507782 0.60672098398208618
-0.073762908577919006 0.12362523376941681 0.60683023929595947
-0.07276240736246109 0.12479971349239349 0.6067192554473877
-0.0013653389178216457 0.12109310179948807 0.59803581237792969
0.00017375592142343521 0.12246066331863403 0.59642398357391357
0.0017501977272331715 0.12408976256847382 0.59471619129180908
0.0025336630642414093 0.13584001362323761 0.58879983425140381
0.0020573604851961136 0.14643675088882446 0.58394569158554077
0.0020683296024799347 0.15772074460983276 0.57842671871185303
-0.076011039316654205 0.11487436294555664 0.60959011316299438
-0.076944917440414429 0.10726938396692276 0.61250513792037964
-0.077995836734771729 0.099837630987167358 0.61518770456314087
-0.078057803213596344 0.09248216450214386 0.61807441711425781
-0.077124640345573425 0.092416062951087952 0.6185569167137146
-0.076123893260955811 0.092549033463001251 0.61895579099655151
0.0074093709699809551 0.10114250332117081 0.6023561954498291
0.0057408972643315792 0.10879803448915482 0.59972333908081055
0.0044201025739312172 0.11704452335834503 0.59663057327270508
-0.08002559095621109 0.086283847689628601 0.61967766284942627
-0.081019304692745209 0.080224908888339996 0.62153249979019165
-0.082152523100376129 0.074507370591163635 0.62320989370346069
-0.0039809346199035645 0.28218173980712891 0.49055567383766174
-0.0088473111391067505 0.27147191762924194 0.50387334823608398
-0.013048773631453514 0.26192575693130493 0.51447737216949463
0.01559373177587986 0.34799054265022278 0.43939220905303955
0.021833419799804688 0.36311289668083191 0.42267906665802002
0.029760295525193214 0.37943193316459656 0.40229120850563049
0.023536553606390953 0.35362553596496582 0.42187315225601196
0.012877717614173889 0.3233693540096283 0.45000365376472473
0.006364092230796814 0.30638834834098816 0.46471899747848511
-0.0016175489872694016 0.2935817539691925 0.47616362571716309
-0.004396071657538414 0.29539176821708679 0.47527757287025452
-0.006034262478351593 0.30497270822525024 0.46714362502098083
-0.0086187347769737244 0.31788158416748047 0.46215671300888062
-0.010312307626008987 0.31373196840286255 0.47086107730865479
-0.012752234935760498 0.30641365051269531 0.4803396463394165
0.097737431526184082 0.58695954084396362 0.15887290239334106
0.10543535649776459 0.59996712207794189 0.13797961175441742
0.10950610041618347 0.60300701856613159 0.13042718172073364
0.098523050546646118 0.56688660383224487 0.1749502420425415
0.080533452332019806 0.51732099056243896 0.23886048793792725
0.060888450592756271 0.46083328127861023 0.30763694643974304
-0.002942502498626709 0.35417979955673218 0.42118385434150696
0.0081382729113101959 0.39394700527191162 0.37957781553268433
0.02096475288271904 0.43237066268920898 0.33628448843955994
0.034146454185247421 0.47172757983207703 0.29384565353393555
0.036154191941022873 0.47791048884391785 0.29031816124916077
0.033632971346378326 0.47119176387786865 0.30212154984474182
0.14506012201309204 0.68010079860687256 0.025353023782372475
0.15044274926185608 0.69029343128204346 0.0097616743296384811
0.15033185482025146 0.68768042325973511 0.011879479512572289
0.14351272583007812 0.67131936550140381 0.032295353710651398
0.13534143567085266 0.65458202362060547 0.055376939475536346
0.122706338763237 0.62703686952590942 0.093800082802772522
0.033310022205114365 0.46927905082702637 0.29050520062446594
0.033360481262207031 0.47368711233139038 0.28214716911315918
0.028086483478546143 0.46695232391357422 0.2877686619758606
0.021933224052190781 0.4703027606010437 0.28720322251319885
0.021426752209663391 0.48019474744796753 0.28155696392059326
0.018592935055494308 0.47694265842437744 0.29104909300804138
0.12643036246299744 0.59598588943481445 0.12956906855106354
0.13199000060558319 0.6066775918006897 0.11306950449943542
0.13358956575393677 0.60834157466888428 0.10874992609024048
0.13222472369670868 0.62077122926712036 0.094905368983745575
0.13822543621063232 0.64597797393798828 0.064058348536491394
0.14392170310020447 0.66631466150283813 0.038227792829275131
0.01041885744780302 0.42500549554824829 0.33025667071342468
-0.0065368181094527245 0.37875965237617493 0.37507998943328857
-0.028308037668466568 0.32676473259925842 0.42199918627738953
-0.063204996287822723 0.27050966024398804 0.46698841452598572
-0.067216619849205017 0.27179908752441406 0.47114720940589905
-0.06927761435508728 0.2706369161605835 0.47844269871711731
0.11971701681613922 0.49361518025398254 0.23195077478885651
0.12537170946598053 0.50922232866287231 0.21028457581996918
0.13154877722263336 0.52371960878372192 0.19117732346057892
0.13933560252189636 0.56005311012268066 0.15216997265815735
0.13830730319023132 0.57783401012420654 0.13600286841392517
0.13533355295658112 0.59133642911911011 0.12376211583614349
-0.089406177401542664 0.2184273898601532 0.49159029126167297
-0.1163216233253479 0.17025253176689148 0.51028043031692505
-0.13877877593040466 0.12531396746635437 0.52283692359924316
-0.15558277070522308 0.087566167116165161 0.5403296947479248
-0.15375795960426331 0.090318590402603149 0.54855930805206299
-0.15357275307178497 0.093450106680393219 0.55598986148834229
0.13198789954185486 0.3756105899810791 0.33920484781265259
0.1318601667881012 0.38789629936218262 0.32159760594367981
0.13245534896850586 0.40170508623123169 0.30363970994949341
0.13630935549736023 0.46473067998886108 0.24103312194347382
0.13698729872703552 0.49647226929664612 0.21084986627101898
0.13767819106578827 0.52007132768630981 0.18837772309780121
-0.17900080978870392 0.054573148488998413 0.53239905834197998
-0.19921049475669861 0.027856543660163879 0.5319557785987854
-0.21778440475463867 0.0015356764197349548 0.53074944019317627
-0.23202762007713318 -0.021067135035991669 0.5400390625
-0.23308107256889343 -0.012848339974880219 0.54812377691268921
-0.23431491851806641 -0.003879547119140625 0.55556493997573853
0.17026130855083466 0.08832385390996933 0.53430020809173584
0.16610026359558105 0.094360843300819397 0.52877795696258545
0.16140082478523254 0.10631947964429855 0.52013492584228516
0.14797067642211914 0.19982175529003143 0.45859062671661377
0.13934566080570221 0.2801627516746521 0.40000706911087036
0.13547167181968689 0.35642102360725403 0.33792629837989807
-0.24981707334518433 -0.060244012624025345 0.52656644582748413
-0.26652202010154724 -0.088926635682582855 0.5209963321685791
-0.28083765506744385 -0.11037909984588623 0.51568162441253662
-0.27518564462661743 -0.10743254423141479 0.53720277547836304
-0.26981660723686218 -0.095671944320201874 0.55037832260131836
-0.26715439558029175 -0.085243389010429382 0.55975115299224854
0.18725460767745972 -0.04647565633058548 0.59684258699417114
0.18402662873268127 -0.043801873922348022 0.59476655721664429
0.18199023604393005 -0.038990508764982224 0.59169274568557739
0.1836896687746048 -0.011570397764444351 0.57624936103820801
0.1790517121553421 0.020800933241844177 0.5610998272895813
0.1707213819026947 0.065709993243217468 0.5388641357421875
-0.28483933210372925 -0.12775532901287079 0.52340126037597656
-0.27540293335914612 -0.12470265477895737 0.53640925884246826
-0.26253899931907654 -0.11709408462047577 0.55110806226730347
-0.23110727965831757 -0.091353833675384521 0.58286350965499878
-0.22216174006462097 -0.080974221229553223 0.59333878755569458
-0.21794618666172028 -0.072938255965709686 0.60017597675323486
0.14818568527698517 -0.07059575617313385 0.61360758543014526
0.1473076194524765 -0.070165187120437622 0.61245608329772949
0.14501674473285675 -0.068879403173923492 0.61112993955612183
0.15967966616153717 -0.066494166851043701 0.60477340221405029
0.17186126112937927 -0.060415871441364288 0.60002678632736206
0.18000702559947968 -0.050214298069477081 0.59445947408676147
-0.23157307505607605 -0.099365800619125366 0.57730042934417725
-0.21344950795173645 -0.091197997331619263 0.58794832229614258
-0.19311003386974335 -0.082846395671367645 0.59761714935302734
-0.16527272760868073 -0.067006528377532959 0.61247557401657104
-0.16228324174880981 -0.062532439827919006 0.61637532711029053
-0.15920738875865936 -0.057944841682910919 0.61968547105789185
0.052207272499799728 -0.1568988561630249 0.6084941029548645
0.031803272664546967 -0.15657998621463776 0.6064644455909729
0.011424311436712742 -0.15622958540916443 0.60448926687240601
-0.015798319131135941 -0.15188884735107422 0.60222214460372925
-0.023093918338418007 -0.14952933788299561 0.60071468353271484
-0.030720362439751625 -0.14828586578369141 0.59841471910476685
-0.014634457416832447 -0.14841663837432861 0.59785181283950806
0.0092996405437588692 -0.14833293855190277 0.60011237859725952
0.032445512712001801 -0.14754195511341095 0.60246378183364868
0.057910226285457611 -0.14758475124835968 0.60678070783615112
0.061818540096282959 -0.1501581072807312 0.60815578699111938
0.066325902938842773 -0.15335814654827118 0.60935616493225098
-0.081564582884311676 -0.14183670282363892 0.59973406791687012
-0.092369206249713898 -0.14111466705799103 0.59701418876647949
-0.10394494980573654 -0.14150938391685486 0.59330081939697266
-0.10380929708480835 -0.14664016664028168 0.58760422468185425
-0.085837036371231079 -0.14806443452835083 0.58913439512252808
-0.063483871519565582 -0.14832362532615662 0.59209913015365601
-0.027060620486736298 -0.15347464382648468 0.60203260183334351
-0.043977614492177963 -0.15070556104183197 0.60160905122756958
-0.059014610946178436 -0.1473492830991745 0.60145503282546997
0.099383674561977386 -0.18395915627479553 0.60757350921630859
0.078175731003284454 -0.18234342336654663 0.60561907291412354
0.056328814476728439 -0.18067435920238495 0.60394823551177979
0.02039773017168045 -0.1726212203502655 0.60216623544692993
0.0090174265205860138 -0.16636711359024048 0.60217195749282837
-0.00043870136141777039 -0.16042879223823547 0.60266363620758057
0.081193834543228149 -0.16356256604194641 0.61040723323822021
0.09267020970582962 -0.17101441323757172 0.60998284816741943
0.10602299869060516 -0.17905959486961365 0.60941106081008911
-0.053700219839811325 -0.15655422210693359 0.60292530059814453
-0.05962207168340683 -0.15197077393531799 0.60267436504364014
-0.065457247197628021 -0.14744162559509277 0.60233616828918457
0.011936768889427185 -0.17421212792396545 0.60338836908340454
-0.009088560938835144 -0.16943734884262085 0.60398536920547485
-0.028601080179214478 -0.16454285383224487 0.60411447286605835
0.1724802553653717 -0.20378695428371429 0.61034387350082397
0.15338325500488281 -0.20023593306541443 0.61029058694839478
0.13195048272609711 -0.19594502449035645 0.61049038171768188
0.088243164122104645 -0.18729290366172791 0.60897326469421387
0.068675175309181213 -0.18443568050861359 0.60713773965835571
0.050290346145629883 -0.18182067573070526 0.60511738061904907
0.13569232821464539 -0.191672682762146 0.60941958427429199
0.15261481702327728 -0.19622835516929626 0.60966259241104126
0.17138360440731049 -0.20157936215400696 0.60987627506256104
-0.014257789589464664 -0.16457971930503845 0.60689622163772583
-0.026726365089416504 -0.16319975256919861 0.60531282424926758
-0.037648517638444901 -0.16212189197540283 0.60423290729522705
0.080409668385982513 -0.18421444296836853 0.61149352788925171
0.052340365946292877 -0.17767819762229919 0.61165207624435425
0.024933915585279465 -0.17148831486701965 0.6109548807144165
0.20888270437717438 -0.21204549074172974 0.61147278547286987
0.22450393438339233 -0.21475802361965179 0.61248898506164551
0.23734195530414581 -0.2164599746465683 0.61331504583358765
0.15138375759124756 -0.1936996728181839 0.61667829751968384
0.13941168785095215 -0.19361940026283264 0.6150897741317749
0.12474635243415833 -0.19270221889019012 0.61312472820281982
0.038092866539955139 -0.16430762410163879 0.61686140298843384
0.025813153013586998 -0.16550104320049286 0.61461639404296875
0.012717240490019321 -0.16639532148838043 0.61202901601791382
0.27532902359962463 -0.23630936443805695 0.60869872570037842
0.2924497127532959 -0.24158585071563721 0.60954964160919189
0.30475455522537231 -0.24359054863452911 0.61093729734420776
0.21086649596691132 -0.21393947303295135 0.61020559072494507
0.23135527968406677 -0.22165049612522125 0.60950911045074463
0.24871094524860382 -0.22761781513690948 0.60880869626998901
-0.061021894216537476 -0.16163584589958191 0.60642099380493164
-0.045684758573770523 -0.16238632798194885 0.60622680187225342
-0.024975063279271126 -0.16327016055583954 0.60728174448013306
-0.046272791922092438 -0.1544099748134613 0.61672770977020264
-0.058927465230226517 -0.15772008895874023 0.61327868700027466
-0.066659368574619293 -0.15978798270225525 0.60972887277603149
0.24170471727848053 -0.2133258581161499 0.6116631031036377
0.26538747549057007 -0.21778072416782379 0.61263841390609741
0.28754055500030518 -0.22375309467315674 0.61258107423782349
0.25381159782409668 -0.22759166359901428 0.60818362236022949
0.2433478832244873 -0.22215847671031952 0.60838890075683594
0.2299359142780304 -0.21529868245124817 0.60926163196563721
-0.093792647123336792 -0.15552759170532227 0.60479778051376343
-0.087940901517868042 -0.1584564745426178 0.60501402616500854
-0.078889235854148865 -0.16000926494598389 0.60599684715270996
-0.077103391289710999 -0.13616941869258881 0.6146584153175354
-0.088308170437812805 -0.14032876491546631 0.61143761873245239
-0.095807187259197235 -0.14661036431789398 0.60863488912582397
0.18951289355754852 -0.17861852049827576 0.61504524946212769
0.21811984479427338 -0.18849983811378479 0.61594092845916748
0.24349655210971832 -0.19830700755119324 0.61630553007125854
0.20375470817089081 -0.20095454156398773 0.61076557636260986
0.18989595770835876 -0.19139182567596436 0.61164939403533936
0.17509597539901733 -0.18071407079696655 0.6128343939781189
-0.10308646410703659 -0.13663525879383087 0.60785901546478271
-0.10197398811578751 -0.14269699156284332 0.60714447498321533
-0.10022881627082825 -0.14804744720458984 0.6063273549079895
-0.08729255199432373 -0.12147854268550873 0.62100511789321899
-0.095877252519130707 -0.12356255203485489 0.61671227216720581
-0.10191353410482407 -0.12683725357055664 0.61254507303237915
0.19089794158935547 -0.20240704715251923 0.6094895601272583
0.16573801636695862 -0.19598454236984253 0.6096041202545166
0.1422058641910553 -0.19040983915328979 0.60970085859298706
0.092301025986671448 -0.15879645943641663 0.61155587434768677
0.11303455382585526 -0.16103047132492065 0.61250025033950806
0.13558079302310944 -0.16469135880470276 0.61325544118881226
-0.10117198526859283 -0.13421227037906647 0.60535675287246704
-0.094252437353134155 -0.13740624487400055 0.60311943292617798
-0.084347657859325409 -0.14051739871501923 0.60191494226455688
-0.064188316464424133 -0.15760543942451477 0.60197055339813232
-0.079598382115364075 -0.15614371001720428 0.60143256187438965
-0.091407626867294312 -0.15485656261444092 0.60262602567672729
0.072884634137153625 -0.14218518137931824 0.60846900939941406
0.089611582458019257 -0.13887646794319153 0.61166244745254517
0.10512100905179977 -0.1367577463388443 0.61450624465942383
0.12883435189723969 -0.14421407878398895 0.61635768413543701
0.13795286417007446 -0.15230575203895569 0.61572551727294922
0.14845052361488342 -0.16092933714389801 0.61496508121490479
-0.10561929643154144 -0.12538823485374451 0.60933578014373779
-0.1073584109544754 -0.1205793172121048 0.61008429527282715
-0.1089063286781311 -0.11610320210456848 0.61072969436645508
-0.11447605490684509 -0.11958831548690796 0.60519540309906006
-0.11834193021059036 -0.1280522495508194 0.59871172904968262
-0.11951198428869247 -0.13631251454353333 0.59275645017623901
