# XYZ point cloud file
-0.449005126953125 -0.847381591796875 -0.3132781982421875
-0.460662841796875 -0.86255645751953125 -0.32242965698242188
-0.56587982177734375 -0.8134002685546875 -0.35767364501953125
-0.5390625 -0.81353759765625 -0.34661865234375
-0.4796142578125 -0.82232666015625 -0.3281097412109375
-0.4290618896484375 -0.86266326904296875 -0.2947235107421875
-0.51985931396484375 -0.83322906494140625 -0.34692192077636719
-0.6168212890625 -0.7865447998046875 -0.36382293701171875
0.7347869873046875 -0.36407470703125 0.672119140625
0.807708740234375 -0.266143798828125 0.657989501953125
0.7878570556640625 -0.4822235107421875 0.6177978515625
0.6582183837890625 -0.4449615478515625 0.683746337890625
0.6556549072265625 -0.25771331787109375 0.718780517578125
0.719512939453125 -0.19390487670898438 0.7036285400390625
0.869171142578125 -0.380035400390625 0.5955963134765625
0.697662353515625 -0.569549560546875 0.632965087890625
0.5873870849609375 -0.31496429443359375 0.7290496826171875
-0.790618896484375 -0.47493743896484375 -0.03302001953125
-0.6742095947265625 -0.55176544189453125 -0.062408447265625
-0.814117431640625 -0.443115234375 0.044921875
-0.8657684326171875 -0.3857421875 -0.008148193359375
-0.74591064453125 -0.5130767822265625 -0.09674072265625
-0.6207275390625 -0.57942581176757812 -0.11529541015625
-0.708404541015625 -0.53150177001953125 -0.012176513671875
-0.85455322265625 -0.33802032470703125 0.10015869140625
-0.8395843505859375 -0.4397430419921875 -0.089447021484375
0.8395843505859375 -0.41656494140625 0.46484375
0.8915863037109375 -0.309600830078125 0.488739013671875
0.8650054931640625 -0.32452392578125 0.428375244140625
0.7736968994140625 -0.548492431640625 0.461578369140625
0.8268280029296875 -0.50164794921875 0.515350341796875
0.89398193359375 -0.3768768310546875 0.51922607421875
0.9033203125 -0.228057861328125 0.45770263671875
0.812652587890625 -0.460693359375 0.4295654296875
0.7412567138671875 -0.6274261474609375 0.5196533203125
-0.3576202392578125 -0.62368011474609375 -0.10430908203125
-0.30902099609375 -0.65830612182617188 -0.1270751953125
-0.3497772216796875 -0.61684989929199219 -0.088623046875
-0.4389190673828125 -0.6171875 -0.097991943359375
-0.3567657470703125 -0.64554882049560547 -0.14678955078125
-0.3231964111328125 -0.67224884033203125 -0.16241455078125
-0.303619384765625 -0.65474700927734375 -0.117767333984375
-0.4398345947265625 -0.60741424560546875 -0.076751708984375
-0.417694091796875 -0.63835811614990234 -0.14373779296875
0.3055267333984375 0.133453369140625 0.5988006591796875
0.33766937255859375 0.00627899169921875 0.7038726806640625
0.40886688232421875 -0.14356231689453125 0.72281646728515625
0.3012542724609375 0.214263916015625 0.47733306884765625
0.26718902587890625 0.5460662841796875 0.40476799011230469
0.26476287841796875 0.4703369140625 0.56679534912109375
0.4869384765625 -0.27641105651855469 0.75658130645751953
0.3612518310546875 -0.052337646484375 0.670684814453125
0.2891998291015625 0.571075439453125 0.2313385009765625
-0.9279022216796875 -0.13889694213867188 0.040863037109375
-0.910888671875 -0.2590179443359375 0.0255126953125
-0.831634521484375 -0.22266387939453125 0.211822509765625
-0.938934326171875 -0.024592399597167969 0.059356689453125
-0.9649505615234375 -0.15014839172363281 -0.1290283203125
-0.9326934814453125 -0.28549957275390625 -0.10430908203125
-0.844512939453125 -0.27915191650390625 0.16326904296875
-0.840240478515625 -0.1216583251953125 0.252593994140625
-0.98089599609375 -0.045940399169921875 -0.127471923828125
0.28985595703125 0.822509765625 -0.290130615234375
0.340301513671875 0.77691650390625 -0.30206298828125
0.2991180419921875 0.79107666015625 -0.28753662109375
0.2336883544921875 0.877655029296875 -0.278564453125
0.28167724609375 0.85577392578125 -0.297454833984375
0.3387451171875 0.813323974609375 -0.31243896484375
0.3414154052734375 0.75018310546875 -0.29425048828125
0.2530517578125 0.8409423828125 -0.279144287109375
0.2198944091796875 0.91326904296875 -0.281280517578125
-0.433135986328125 -0.74069976806640625 -0.26424407958984375
-0.4300079345703125 -0.75591278076171875 -0.25550079345703125
-0.4385986328125 -0.720794677734375 -0.291107177734375
-0.4229736328125 -0.725372314453125 -0.28132247924804688
-0.4298553466796875 -0.77297210693359375 -0.245941162109375
-0.4279937744140625 -0.78964996337890625 -0.24249267578125
-0.4293365478515625 -0.735809326171875 -0.2785797119140625
-0.4400787353515625 -0.70351409912109375 -0.30939483642578125
-0.421112060546875 -0.75531005859375 -0.25721359252929688
0.63201904296875 -0.705657958984375 0.54229736328125
0.677734375 -0.661224365234375 0.543731689453125
0.630706787109375 -0.6673583984375 0.5919189453125
0.589019775390625 -0.722930908203125 0.563720703125
0.654205322265625 -0.703521728515625 0.500762939453125
0.705108642578125 -0.646331787109375 0.49420166015625
0.6649169921875 -0.63189697265625 0.5946044921875
0.59600830078125 -0.669891357421875 0.6090087890625
0.6037445068359375 -0.7374267578125 0.53411865234375
-0.407440185546875 -0.681976318359375 -0.26849365234375
-0.4532318115234375 -0.6812286376953125 -0.29559326171875
-0.45013427734375 -0.6739349365234375 -0.27197265625
-0.3722076416015625 -0.67852020263671875 -0.235107421875
-0.381378173828125 -0.686248779296875 -0.26617431640625
-0.42198562622070312 -0.6856689453125 -0.2921142578125
-0.50555038452148438 -0.66680908203125 -0.29736328125
-0.39361572265625 -0.68120574951171875 -0.23968505859375
-0.364532470703125 -0.67916107177734375 -0.2308349609375
0.449859619140625 -0.561187744140625 0.61566162109375
0.39801025390625 -0.44451904296875 0.617431640625
0.4425811767578125 -0.565338134765625 0.62261962890625
0.49981689453125 -0.647705078125 0.60797119140625
0.4771575927734375 -0.522003173828125 0.63934326171875
0.4308929443359375 -0.429412841796875 0.63330078125
0.38397216796875 -0.4139404296875 0.63690185546875
0.500518798828125 -0.670074462890625 0.6048583984375
0.5224151611328125 -0.592071533203125 0.6375732421875
-0.38410568237304688 -0.664947509765625 -0.2403564453125
-0.3610076904296875 -0.6656951904296875 -0.21533203125
-0.41102886199951172 -0.652557373046875 -0.2301025390625
-0.44390201568603516 -0.6587982177734375 -0.26568603515625
-0.36839675903320312 -0.6761627197265625 -0.2496337890625
-0.3564453125 -0.67291259765625 -0.2213134765625
-0.3702239990234375 -0.6594696044921875 -0.2078857421875
-0.48150444030761719 -0.642486572265625 -0.25360107421875
-0.41883659362792969 -0.671966552734375 -0.27630615234375
0.29296875 0.027252197265625 0.59735107421875
0.2916259765625 0.130706787109375 0.6195068359375
0.313262939453125 -0.136810302734375 0.60693359375
0.3063201904296875 -0.0274658203125 0.58795166015625
0.286407470703125 0.169647216796875 0.58624267578125
0.286590576171875 0.2701416015625 0.60400390625
0.30401611328125 -0.043701171875 0.6326904296875
0.3367462158203125 -0.174102783203125 0.605224609375
0.293182373046875 0.102447509765625 0.574462890625
-0.48293304443359375 -0.63690185546875 -0.21240234375
-0.4680938720703125 -0.6365966796875 -0.2138671875
-0.3931884765625 -0.6680908203125 -0.20697021484375
-0.48793792724609375 -0.640380859375 -0.21575927734375
-0.5755157470703125 -0.61175537109375 -0.22100830078125
-0.55858612060546875 -0.615509033203125 -0.228515625
-0.38385009765625 -0.66357421875 -0.2027587890625
-0.40234375 -0.669342041015625 -0.21563720703125
-0.5738067626953125 -0.6143798828125 -0.219482421875
0.26226806640625 0.659332275390625 0.468505859375
0.2572174072265625 0.738800048828125 0.2926025390625
0.273681640625 0.62420654296875 0.48785400390625
0.2772979736328125 0.495758056640625 0.58953857421875
0.26287841796875 0.680206298828125 0.4420166015625
0.2548828125 0.73681640625 0.28173828125
0.27146148681640625 0.721832275390625 0.289306640625
0.288818359375 0.404510498046875 0.62603759765625
0.27685546875 0.559600830078125 0.555908203125
-0.347442626953125 -0.74383544921875 -0.247314453125
-0.35950851440429688 -0.74737548828125 -0.2535400390625
-0.38409423828125 -0.7421875 -0.26922607421875
-0.3639984130859375 -0.72723388671875 -0.24945068359375
-0.322967529296875 -0.728729248046875 -0.22442626953125
-0.334014892578125 -0.7230377197265625 -0.22052001953125
-0.391143798828125 -0.75311279296875 -0.28192138671875
-0.40380859375 -0.71929931640625 -0.26373291015625
-0.3364410400390625 -0.72027587890625 -0.23358154296875
0.30682373046875 0.705535888671875 -0.14691162109375
0.3292083740234375 0.698974609375 -0.1658935546875
0.283599853515625 0.726715087890625 -0.03985595703125
0.30048370361328125 0.705169677734375 -0.1361083984375
0.326080322265625 0.692962646484375 -0.2186279296875
0.343597412109375 0.69207763671875 -0.23126220703125
0.3084259033203125 0.717041015625 -0.06231689453125
0.27718353271484375 0.723175048828125 -0.02996826171875
0.3236236572265625 0.692962646484375 -0.20855712890625
-0.4205474853515625 -0.713287353515625 -0.291656494140625
-0.420562744140625 -0.71826171875 -0.2911376953125
-0.4099273681640625 -0.728790283203125 -0.305419921875
-0.41790771484375 -0.715850830078125 -0.2874755859375
-0.4452362060546875 -0.6925048828125 -0.2857666015625
-0.4447784423828125 -0.695098876953125 -0.28204345703125
-0.41400146484375 -0.733154296875 -0.3072509765625
-0.4063720703125 -0.7279815673828125 -0.2978515625
-0.4398651123046875 -0.698699951171875 -0.285308837890625
0.33785247802734375 0.7264404296875 -0.288238525390625
0.3234710693359375 0.7420654296875 -0.287078857421875
0.3441619873046875 0.703155517578125 -0.28106689453125
0.35347747802734375 0.7158203125 -0.28851318359375
0.32407379150390625 0.755706787109375 -0.291168212890625
0.3003692626953125 0.778961181640625 -0.2877197265625
0.3411865234375 0.713714599609375 -0.28448486328125
0.3547515869140625 0.69866943359375 -0.27789306640625
0.3431854248046875 0.738861083984375 -0.291839599609375
-0.414825439453125 -0.7711944580078125 -0.272613525390625
-0.4139862060546875 -0.744537353515625 -0.274383544921875
-0.412994384765625 -0.773956298828125 -0.261077880859375
-0.4173583984375 -0.8023223876953125 -0.2785797119140625
-0.4240570068359375 -0.761474609375 -0.288177490234375
-0.4264068603515625 -0.734100341796875 -0.284942626953125
-0.409210205078125 -0.7484893798828125 -0.271240234375
-0.4152679443359375 -0.807037353515625 -0.2608795166015625
-0.427764892578125 -0.7905120849609375 -0.29644775390625
0.41748046875 0.67047119140625 -0.263092041015625
0.4140777587890625 0.63330078125 -0.209716796875
0.3976593017578125 0.669158935546875 -0.23065185546875
0.406951904296875 0.705810546875 -0.2911376953125
0.4074554443359375 0.70367431640625 -0.288055419921875
0.3903961181640625 0.6722412109375 -0.2337646484375
0.3892364501953125 0.647369384765625 -0.1600341796875
0.39093017578125 0.692535400390625 -0.269744873046875
0.41046142578125 0.7388916015625 -0.3143310546875
-0.58292388916015625 -0.64178466796875 -0.33428955078125
-0.4923553466796875 -0.697113037109375 -0.33367919921875
-0.6562652587890625 -0.5858917236328125 -0.34326171875
-0.69113540649414062 -0.55902862548828125 -0.318115234375
-0.5103302001953125 -0.683349609375 -0.32757568359375
-0.4560394287109375 -0.71356201171875 -0.320648193359375
-0.5321197509765625 -0.676422119140625 -0.344329833984375
-0.79399490356445312 -0.46384429931640625 -0.30096435546875
-0.57686614990234375 -0.63353729248046875 -0.3339996337890625
0.3212890625 0.395416259765625 0.38909912109375
0.3256683349609375 0.3184967041015625 0.3582763671875
0.3324432373046875 0.1818084716796875 0.632171630859375
0.307342529296875 0.485931396484375 0.4434814453125
0.3559417724609375 0.512725830078125 0.102294921875
0.3660125732421875 0.49871826171875 0.0586090087890625
0.34014892578125 0.10479736328125 0.6220703125
0.31939697265625 0.247650146484375 0.6490478515625
0.328155517578125 0.59051513671875 0.181121826171875
-0.69183349609375 -0.532257080078125 -0.32733154296875
-0.6638641357421875 -0.552886962890625 -0.2679443359375
-0.833526611328125 -0.38311004638671875 -0.3236083984375
-0.71310043334960938 -0.5162353515625 -0.36737060546875
-0.54047012329101562 -0.65118408203125 -0.30084228515625
-0.5150146484375 -0.63970947265625 -0.2479248046875
-0.80108642578125 -0.44968414306640625 -0.2581787109375
-0.859466552734375 -0.3346099853515625 -0.354736328125
-0.56117057800292969 -0.6537322998046875 -0.34130859375
0.4950714111328125 -0.44573974609375 0.72271728515625
0.5361175537109375 -0.4814300537109375 0.712860107421875
0.4846038818359375 -0.49774169921875 0.7008056640625
0.45989990234375 -0.328704833984375 0.74725341796875
0.490966796875 -0.3394622802734375 0.749237060546875
0.5425262451171875 -0.58319091796875 0.670562744140625
0.4309539794921875 -0.336578369140625 0.728515625
-0.5809478759765625 -0.59634590148925781 -0.18365478515625
-0.49626922607421875 -0.62578964233398438 -0.18731689453125
-0.6310882568359375 -0.57662725448608398 -0.169677734375
-0.6109161376953125 -0.5842132568359375 -0.19415283203125
-0.4911346435546875 -0.6269683837890625 -0.1956787109375
-0.52154541015625 -0.618896484375 -0.17633056640625
-0.7120361328125 -0.53890848159790039 -0.1796875
0.39354705810546875 0.7122802734375 -0.29046630859375
0.380767822265625 0.711029052734375 -0.28900146484375
0.38921356201171875 0.703338623046875 -0.27490234375
0.40958404541015625 0.714447021484375 -0.29144287109375
0.38397979736328125 0.723419189453125 -0.293365478515625
0.37176513671875 0.723388671875 -0.291656494140625
0.3780517578125 0.699859619140625 -0.2747802734375
0.405517578125 0.705474853515625 -0.27337646484375
0.39966583251953125 0.72698974609375 -0.296539306640625
-0.4716796875 -0.72064208984375 -0.315887451171875
-0.4617919921875 -0.70159912109375 -0.30926513671875
-0.449981689453125 -0.735321044921875 -0.3101806640625
-0.4980926513671875 -0.736236572265625 -0.323150634765625
-0.509521484375 -0.7064208984375 -0.31939697265625
-0.49383544921875 -0.68914794921875 -0.3123779296875
-0.44720458984375 -0.7120361328125 -0.30206298828125
-0.4670257568359375 -0.7546844482421875 -0.31829833984375
-0.5431671142578125 -0.7183837890625 -0.3271484375
0.33071136474609375 0.69757080078125 -0.1136474609375
0.31890869140625 0.699981689453125 -0.121826171875
0.3077239990234375 0.70294189453125 -0.01177978515625
0.34307861328125 0.690338134765625 -0.10516357421875
0.355682373046875 0.69561767578125 -0.1893310546875
0.34311676025390625 0.69525146484375 -0.19561767578125
0.2947998046875 0.708709716796875 -0.0194091796875
0.31964111328125 0.6871337890625 -0.00341796875
0.3686981201171875 0.69293212890625 -0.18218994140625
-0.484771728515625 -0.657135009765625 -0.29229736328125
-0.49224853515625 -0.65264892578125 -0.28631591796875
-0.4747772216796875 -0.665435791015625 -0.28887939453125
-0.47381591796875 -0.66778564453125 -0.298065185546875
-0.510955810546875 -0.64703369140625 -0.2939453125
-0.5203857421875 -0.64093017578125 -0.28759765625
-0.4795379638671875 -0.6629638671875 -0.283203125
-0.46429443359375 -0.675750732421875 -0.292816162109375
-0.4993896484375 -0.65765380859375 -0.30145263671875
0.2886199951171875 0.67340087890625 0.39324951171875
0.277679443359375 0.686798095703125 0.4036865234375
0.29913330078125 0.612579345703125 0.492919921875
0.292449951171875 0.646881103515625 0.38177490234375
0.2832183837890625 0.702728271484375 0.25860595703125
0.27105712890625 0.71783447265625 0.2611083984375
0.2900238037109375 0.61358642578125 0.510986328125
0.3008880615234375 0.595306396484375 0.47308349609375
0.292694091796875 0.675140380859375 0.25628662109375
-0.442230224609375 -0.67041015625 -0.26727294921875
-0.4192352294921875 -0.671722412109375 -0.259521484375
-0.412933349609375 -0.687774658203125 -0.26251220703125
-0.4708404541015625 -0.66265869140625 -0.27490234375
-0.4840240478515625 -0.650970458984375 -0.26910400390625
-0.4650115966796875 -0.6534423828125 -0.26220703125
-0.38543701171875 -0.68902587890625 -0.25286865234375
-0.4473876953125 -0.677947998046875 -0.2703857421875
-0.50726318359375 -0.646026611328125 -0.2767333984375
0.303131103515625 0.359832763671875 0.5577392578125
0.2944183349609375 0.33197021484375 0.5679931640625
0.301483154296875 0.2781982421875 0.551513671875
0.307159423828125 0.37530517578125 0.54193115234375
0.3058319091796875 0.44207763671875 0.5634765625
0.300018310546875 0.418121337890625 0.57769775390625
0.295928955078125 0.252197265625 0.55810546875
0.3085479736328125 0.29534912109375 0.5394287109375
0.3089752197265625 0.450286865234375 0.54046630859375
-0.525970458984375 -0.629913330078125 -0.24017333984375
-0.5993194580078125 -0.6134033203125 -0.237548828125
-0.501190185546875 -0.637908935546875 -0.23272705078125
-0.460113525390625 -0.649200439453125 -0.2449951171875
-0.56103515625 -0.6214599609375 -0.24615478515625
-0.6287689208984375 -0.60845947265625 -0.24322509765625
-0.577239990234375 -0.61761474609375 -0.23046875
-0.430755615234375 -0.659942626953125 -0.2364501953125
-0.502197265625 -0.636322021484375 -0.25140380859375
0.370697021484375 -0.02264404296875 0.6207275390625
0.3515625 -0.04071044921875 0.60772705078125
0.418792724609375 -0.1258544921875 0.6617431640625
0.3798828125 0.00433349609375 0.625732421875
0.334197998046875 0.085205078125 0.5828857421875
0.322418212890625 0.06964111328125 0.57769775390625
0.400177001953125 -0.15509033203125 0.64410400390625
0.428497314453125 -0.0894775390625 0.6690673828125
0.343475341796875 0.1058349609375 0.58270263671875
-0.70208740234375 -0.60443115234375 -0.255126953125
-0.679443359375 -0.61907958984375 -0.2698974609375
-0.68215179443359375 -0.598297119140625 -0.24359130859375
-0.6976470947265625 -0.597564697265625 -0.2430419921875
-0.7183685302734375 -0.611724853515625 -0.2623291015625
-0.6951751708984375 -0.6292724609375 -0.27716064453125
-0.6622161865234375 -0.609954833984375 -0.25787353515625
-0.6756591796875 -0.59588623046875 -0.23431396484375
-0.718017578125 -0.601043701171875 -0.2498779296875
0.5523681640625 -0.34002685546875 0.72662353515625
0.53863525390625 -0.396240234375 0.70709228515625
0.581329345703125 -0.3890380859375 0.73052978515625
0.558441162109375 -0.2938232421875 0.73834228515625
0.516937255859375 -0.28350830078125 0.71722412109375
0.50054931640625 -0.33099365234375 0.69757080078125
0.57073974609375 -0.448486328125 0.71002197265625
0.58447265625 -0.341552734375 0.7403564453125
0.523284912109375 -0.236328125 0.7271728515625
-0.56900787353515625 -0.663848876953125 -0.30816650390625
-0.5429534912109375 -0.671356201171875 -0.31634521484375
-0.54200363159179688 -0.658477783203125 -0.2989501953125
-0.6028289794921875 -0.65350341796875 -0.29974365234375
-0.59091949462890625 -0.669342041015625 -0.3140869140625
-0.56603240966796875 -0.6746826171875 -0.32012939453125
-0.5135955810546875 -0.668975830078125 -0.30908203125
-0.580108642578125 -0.64483642578125 -0.28961181640625
-0.62244415283203125 -0.661102294921875 -0.3056640625
0.6527099609375 -0.470703125 0.71246337890625
0.64892578125 -0.534423828125 0.6815185546875
0.6776123046875 -0.4481201171875 0.70892333984375
0.64794921875 -0.40985107421875 0.730712890625
0.631256103515625 -0.46160888671875 0.72015380859375
0.624755859375 -0.5244140625 0.6939697265625
0.674835205078125 -0.509765625 0.67987060546875
0.66864013671875 -0.38287353515625 0.72955322265625
0.627532958984375 -0.4063720703125 0.7357177734375
-0.53817367553710938 -0.68701171875 -0.333984375
-0.58022880554199219 -0.68231201171875 -0.3372802734375
-0.51937389373779297 -0.6837158203125 -0.32666015625
-0.51993179321289062 -0.685455322265625 -0.3287353515625
-0.5575103759765625 -0.689117431640625 -0.33648681640625
-0.5933837890625 -0.689056396484375 -0.3414306640625
-0.56864738464355469 -0.67388916015625 -0.32977294921875
-0.49478530883789062 -0.684356689453125 -0.32305908203125
-0.54295730590820312 -0.685546875 -0.33087158203125
0.286712646484375 0.775726318359375 -0.266693115234375
0.27839279174804688 0.78302001953125 -0.269775390625
0.32813262939453125 0.754638671875 -0.2789306640625
0.30121231079101562 0.775360107421875 -0.2696533203125
0.240997314453125 0.800445556640625 -0.2548828125
0.2329559326171875 0.810760498046875 -0.258819580078125
0.31842803955078125 0.759918212890625 -0.280303955078125
0.3435211181640625 0.75604248046875 -0.282440185546875
0.2559814453125 0.797698974609375 -0.2585296630859375
-0.686431884765625 -0.729644775390625 -0.3551025390625
-0.6103057861328125 -0.74066162109375 -0.343780517578125
-0.6378326416015625 -0.75250244140625 -0.354248046875
-0.7552490234375 -0.719573974609375 -0.36920166015625
-0.735565185546875 -0.7126007080078125 -0.3573455810546875
-0.6636810302734375 -0.7205047607421875 -0.345458984375
-0.562225341796875 -0.7653656005859375 -0.3418426513671875
-0.714813232421875 -0.735015869140625 -0.367828369140625
-0.7920074462890625 -0.71002197265625 -0.3712005615234375
0.169403076171875 0.899749755859375 -0.263824462890625
0.15906524658203125 0.9168701171875 -0.2636871337890625
0.17227935791015625 0.866729736328125 -0.24993896484375
0.186798095703125 0.88916015625 -0.27011871337890625
0.18996429443359375 0.91876220703125 -0.2833099365234375
0.1788177490234375 0.93389892578125 -0.281158447265625
0.1627960205078125 0.882965087890625 -0.252197265625
0.18926239013671875 0.8582763671875 -0.25594329833984375
0.20589447021484375 0.907989501953125 -0.28946685791015625
-0.72977447509765625 -0.84246826171875 -0.4137725830078125
-0.78253555297851562 -0.76513671875 -0.39892578125
-0.7423248291015625 -0.8165283203125 -0.408355712890625
-0.6712799072265625 -0.93255615234375 -0.4277191162109375
-0.7223358154296875 -0.861236572265625 -0.418365478515625
-0.78415298461914062 -0.779571533203125 -0.40277099609375
-0.77959060668945312 -0.7513427734375 -0.3948211669921875
-0.6883392333984375 -0.905487060546875 -0.4236907958984375
-0.66640472412109375 -0.946533203125 -0.4300537109375
0.2746124267578125 0.8818359375 -0.31431007385253906
0.2649993896484375 0.869537353515625 -0.30598545074462891
0.2480010986328125 0.904052734375 -0.30841064453125
0.288848876953125 0.88751220703125 -0.32207489013671875
0.3101654052734375 0.8521728515625 -0.3212738037109375
0.299957275390625 0.83203125 -0.311248779296875
0.2384796142578125 0.9027099609375 -0.30417633056640625
0.2604522705078125 0.903106689453125 -0.31536293029785156
0.325042724609375 0.8625640869140625 -0.33060455322265625
-0.71666717529296875 -1.026031494140625 -0.44329833984375
-0.6653900146484375 -1.0296630859375 -0.4416351318359375
-0.71675872802734375 -1.024200439453125 -0.4446563720703125
-0.77629470825195312 -1.01153564453125 -0.446197509765625
-0.7212066650390625 -1.02166748046875 -0.4426422119140625
-0.6693878173828125 -1.02801513671875 -0.442047119140625
-0.67063140869140625 -1.019989013671875 -0.442413330078125
-0.77315139770507812 -1.013641357421875 -0.448150634765625
-0.77933120727539062 -1.00677490234375 -0.446197509765625
0.401031494140625 0.503570556640625 -0.276885986328125
0.400054931640625 0.489837646484375 -0.2666015625
0.39459228515625 0.68756103515625 -0.3294677734375
0.4058380126953125 0.51898193359375 -0.277557373046875
0.379608154296875 0.2758331298828125 -0.1424560546875
0.379547119140625 0.26275634765625 -0.135009765625
0.389007568359375 0.6697235107421875 -0.318328857421875
0.4029998779296875 0.6980438232421875 -0.333648681640625
0.38348388671875 0.29852294921875 -0.1429443359375
-0.8912506103515625 -1.00775146484375 -0.47845458984375
-0.86493301391601562 -1.007080078125 -0.46868896484375
-0.88268280029296875 -1.0179443359375 -0.4822998046875
-0.90506744384765625 -0.990509033203125 -0.47723388671875
-0.89133453369140625 -1.00079345703125 -0.4761962890625
-0.86631393432617188 -1.001220703125 -0.46728515625
-0.85712051391601562 -1.01483154296875 -0.47100830078125
-0.8975067138671875 -1.000823974609375 -0.481781005859375
-0.90314483642578125 -0.984100341796875 -0.47412109375
0.53509521484375 -0.086761474609375 0.367706298828125
0.545166015625 -0.096710205078125 0.364898681640625
0.424774169921875 -0.04241943359375 0.2421875
0.516357421875 -0.07147216796875 0.3587646484375
0.6614990234375 -0.0882568359375 0.441925048828125
0.68115234375 -0.094451904296875 0.4383544921875
0.4286956787109375 -0.055816650390625 0.243896484375
0.4185028076171875 -0.01910400390625 0.2318115234375
0.630340576171875 -0.078948974609375 0.4366455078125
-0.7957763671875 -0.936248779296875 -0.4232177734375
-0.86798095703125 -0.9311065673828125 -0.440185546875
-0.792388916015625 -0.9440765380859375 -0.43206787109375
-0.693756103515625 -0.9662017822265625 -0.41656494140625
-0.7870635986328125 -0.9329833984375 -0.41754150390625
-0.8614959716796875 -0.928131103515625 -0.43572998046875
-0.86236572265625 -0.9409942626953125 -0.447540283203125
-0.6974029541015625 -0.9651947021484375 -0.42425537109375
-0.681732177734375 -0.96551513671875 -0.41064453125
0.788116455078125 -0.151123046875 0.681671142578125
0.796905517578125 -0.19097900390625 0.68023681640625
0.796783447265625 -0.0863037109375 0.59963226318359375
0.760284423828125 -0.11785888671875 0.6782684326171875
0.748931884765625 -0.26629638671875 0.719696044921875
0.75469970703125 -0.32177734375 0.70782470703125
0.814361572265625 -0.109375 0.602752685546875
0.7625732421875 -0.070098876953125 0.5955963134765625
0.7342529296875 -0.21478271484375 0.724517822265625
-0.62640380859375 -0.81005859375 -0.38360595703125
-0.58746337890625 -0.917633056640625 -0.40386962890625
-0.6586456298828125 -0.7681884765625 -0.376708984375
-0.65370559692382812 -0.720977783203125 -0.362060546875
-0.601531982421875 -0.841064453125 -0.3873291015625
-0.561920166015625 -0.941436767578125 -0.4034423828125
-0.6209869384765625 -0.87921142578125 -0.40045166015625
-0.66967391967773438 -0.69012451171875 -0.35400390625
-0.64058685302734375 -0.746795654296875 -0.366455078125
0.365203857421875 0.110107421875 0.54913330078125
0.3763427734375 0.072509765625 0.59375
0.406097412109375 0.034912109375 0.60760498046875
0.35211181640625 0.15118408203125 0.48370361328125
0.3369598388671875 0.1927490234375 0.49395751953125
0.3424224853515625 0.1591796875 0.543212890625
0.420318603515625 -0.00653076171875 0.6458740234375
0.38885498046875 0.077392578125 0.5478515625
0.3289337158203125 0.22967529296875 0.42279052734375
-0.7893524169921875 -0.634307861328125 -0.28070068359375
-0.7621002197265625 -0.65704345703125 -0.294677734375
-0.76397705078125 -0.626861572265625 -0.2735595703125
-0.7991790771484375 -0.61407470703125 -0.2681884765625
-0.8106231689453125 -0.64349365234375 -0.29150390625
-0.783447265625 -0.6666259765625 -0.304443359375
-0.7378082275390625 -0.64739990234375 -0.28887939453125
-0.77093505859375 -0.60931396484375 -0.26251220703125
-0.822998046875 -0.619781494140625 -0.27960205078125
0.346649169921875 0.320526123046875 0.18670654296875
0.33819580078125 0.25244140625 0.29498291015625
0.350311279296875 0.240447998046875 0.259857177734375
0.3621673583984375 0.400177001953125 0.076507568359375
0.3459014892578125 0.395355224609375 0.120819091796875
0.3292236328125 0.3275146484375 0.23028564453125
0.35675048828125 0.17584228515625 0.368133544921875
0.3537750244140625 0.31524658203125 0.15032958984375
0.37664794921875 0.471649169921875 0.014556884765625
-0.81903076171875 -0.693450927734375 -0.345458984375
-0.7845611572265625 -0.730194091796875 -0.3583984375
-0.8260955810546875 -0.672698974609375 -0.3245849609375
-0.8367767333984375 -0.66082763671875 -0.3294677734375
-0.8098907470703125 -0.71600341796875 -0.36346435546875
-0.77069091796875 -0.757232666015625 -0.37701416015625
-0.79644775390625 -0.703277587890625 -0.337646484375
-0.8422393798828125 -0.64190673828125 -0.31134033203125
-0.82855224609375 -0.6805419921875 -0.34869384765625
0.457427978515625 0.6468505859375 -0.175262451171875
0.4247894287109375 0.5714111328125 -0.1100616455078125
0.4267425537109375 0.57550048828125 -0.1241302490234375
0.4820098876953125 0.70367431640625 -0.22210693359375
0.477691650390625 0.691131591796875 -0.21527099609375
0.4474029541015625 0.627227783203125 -0.156890869140625
0.394622802734375 0.49090576171875 -0.0479583740234375
0.4575958251953125 0.64666748046875 -0.17873382568359375
0.4976348876953125 0.73785400390625 -0.2544403076171875
-0.8241729736328125 -0.7587890625 -0.3951416015625
-0.784027099609375 -0.806610107421875 -0.41156005859375
-0.8101959228515625 -0.749542236328125 -0.38848876953125
-0.8403167724609375 -0.724090576171875 -0.37982177734375
-0.8440093994140625 -0.76544189453125 -0.40032958984375
-0.8069000244140625 -0.813568115234375 -0.4176025390625
-0.7684326171875 -0.796630859375 -0.4031982421875
-0.827728271484375 -0.71343994140625 -0.372802734375
-0.858856201171875 -0.73077392578125 -0.38427734375
0.484222412109375 0.766876220703125 -0.27132415771484375
0.49578857421875 0.759796142578125 -0.265380859375
0.48443603515625 0.740203857421875 -0.25304412841796875
0.46039581298828125 0.764984130859375 -0.27823638916015625
0.4724884033203125 0.78118896484375 -0.28802490234375
0.49275970458984375 0.777984619140625 -0.28497314453125
0.48797607421875 0.7254638671875 -0.23811721801757812
0.46905517578125 0.74554443359375 -0.26451873779296875
0.44045257568359375 0.778289794921875 -0.28900527954101562
-0.8965911865234375 -0.792510986328125 -0.418243408203125
-0.8638153076171875 -0.838348388671875 -0.434783935546875
-0.884124755859375 -0.77947998046875 -0.41143798828125
-0.915191650390625 -0.75579833984375 -0.40264892578125
-0.89849853515625 -0.810394287109375 -0.425079345703125
-0.8679656982421875 -0.85308837890625 -0.43878173828125
-0.85009765625 -0.827301025390625 -0.42889404296875
-0.9017791748046875 -0.744598388671875 -0.395782470703125
-0.917999267578125 -0.774139404296875 -0.410919189453125
0.3899383544921875 0.784515380859375 -0.29425048828125
0.35680389404296875 0.780548095703125 -0.286529541015625
0.4302215576171875 0.776641845703125 -0.302520751953125
0.421905517578125 0.78662109375 -0.2987060546875
0.3448028564453125 0.792022705078125 -0.286590576171875
0.31024169921875 0.7952880859375 -0.276763916015625
0.3966217041015625 0.768310546875 -0.295806884765625
0.45906829833984375 0.783721923828125 -0.30322265625
0.37834930419921875 0.789581298828125 -0.2933807373046875
-0.8771820068359375 -0.696441650390625 -0.36993408203125
-0.8421173095703125 -0.6915283203125 -0.359161376953125
-0.833648681640625 -0.69488525390625 -0.363861083984375
-0.8928680419921875 -0.709259033203125 -0.380889892578125
-0.907196044921875 -0.70703125 -0.377288818359375
-0.882843017578125 -0.699432373046875 -0.369049072265625
-0.7855682373046875 -0.694000244140625 -0.35272216796875
-0.861480712890625 -0.70489501953125 -0.376495361328125
-0.91522216796875 -0.72186279296875 -0.3875732421875
0.47808074951171875 0.73260498046875 -0.285614013671875
0.46630859375 0.70458984375 -0.25311279296875
0.4918365478515625 0.732940673828125 -0.27020263671875
0.477752685546875 0.75347900390625 -0.302154541015625
0.456512451171875 0.7264404296875 -0.292083740234375
0.447357177734375 0.708740234375 -0.26654052734375
0.471923828125 0.692596435546875 -0.229644775390625
0.49631500244140625 0.759307861328125 -0.294189453125
0.4511260986328125 0.742889404296875 -0.30316162109375
-0.732635498046875 -0.67376708984375 -0.3369140625
-0.797454833984375 -0.680206298828125 -0.35009765625
-0.716278076171875 -0.660369873046875 -0.32965087890625
-0.649322509765625 -0.679718017578125 -0.329437255859375
-0.7617950439453125 -0.683258056640625 -0.344451904296875
-0.8216400146484375 -0.68804931640625 -0.355438232421875
-0.78411865234375 -0.66729736328125 -0.34185791015625
-0.631134033203125 -0.664703369140625 -0.32177734375
-0.6835174560546875 -0.68988037109375 -0.3358154296875
0.368560791015625 0.590972900390625 -0.03973388671875
0.365814208984375 0.63751220703125 -0.07232666015625
0.337982177734375 0.5540771484375 0.0648193359375
0.3682861328125 0.531646728515625 0.00579833984375
0.4051666259765625 0.6309814453125 -0.129638671875
0.396453857421875 0.66253662109375 -0.1558837890625
0.336578369140625 0.61529541015625 0.02886962890625
0.334136962890625 0.480194091796875 0.11163330078125
0.4018707275390625 0.586639404296875 -0.08880615234375
-0.72509765625 -0.613861083984375 -0.2969970703125
-0.729644775390625 -0.604400634765625 -0.28369140625
-0.640289306640625 -0.621734619140625 -0.295166015625
-0.716949462890625 -0.62799072265625 -0.30828857421875
-0.79296875 -0.6170654296875 -0.30352783203125
-0.796875 -0.605255126953125 -0.28814697265625
-0.6484375 -0.613372802734375 -0.2840576171875
-0.63165283203125 -0.634674072265625 -0.30450439453125
-0.786407470703125 -0.6339111328125 -0.31854248046875
0.2996826171875 0.4578857421875 0.3837890625
0.3050079345703125 0.37042236328125 0.4072265625
0.3039398193359375 0.48980712890625 0.28594970703125
0.2999114990234375 0.536895751953125 0.3729248046875
0.3054962158203125 0.42425537109375 0.45904541015625
0.308685302734375 0.339111328125 0.472900390625
0.3090362548828125 0.40325927734375 0.321533203125
0.304168701171875 0.567840576171875 0.26580810546875
0.304443359375 0.498199462890625 0.45233154296875
-0.6808624267578125 -0.60302734375 -0.2576904296875
-0.7093353271484375 -0.599945068359375 -0.26361083984375
-0.7430267333984375 -0.59771728515625 -0.25787353515625
-0.6441192626953125 -0.608062744140625 -0.25494384765625
-0.60906982421875 -0.6163330078125 -0.26324462890625
-0.633819580078125 -0.61163330078125 -0.26861572265625
-0.772491455078125 -0.596466064453125 -0.263671875
-0.7061767578125 -0.6009521484375 -0.25244140625
-0.579864501953125 -0.621124267578125 -0.25933837890625
0.556610107421875 -0.18768310546875 0.732666015625
0.600128173828125 -0.26708984375 0.744384765625
0.554534912109375 -0.1483154296875 0.71380615234375
0.506866455078125 -0.10821533203125 0.70452880859375
0.558685302734375 -0.22100830078125 0.7412109375
0.591461181640625 -0.2891845703125 0.74676513671875
0.606658935546875 -0.23162841796875 0.73712158203125
0.491455078125 -0.06988525390625 0.669677734375
0.51812744140625 -0.149658203125 0.72265625
-0.65224456787109375 -0.688201904296875 -0.323974609375
-0.6811065673828125 -0.696075439453125 -0.3289794921875
-0.61597442626953125 -0.688995361328125 -0.330322265625
-0.6282958984375 -0.682525634765625 -0.32049560546875
-0.6894683837890625 -0.68524169921875 -0.31646728515625
-0.716400146484375 -0.694122314453125 -0.3221435546875
-0.64544677734375 -0.694915771484375 -0.33526611328125
-0.596343994140625 -0.6842041015625 -0.3275146484375
-0.6639556884765625 -0.6766357421875 -0.3121337890625
0.518280029296875 -0.00555419921875 0.54754638671875
0.48162841796875 0.021728515625 0.454864501953125
0.4276123046875 0.0638427734375 0.4534912109375
0.53558349609375 -0.049560546875 0.625244140625
0.61859130859375 -0.05401611328125 0.620574951171875
0.59381103515625 -0.029144287109375 0.5322265625
0.398345947265625 0.10638427734375 0.3513031005859375
0.4534912109375 0.02032470703125 0.5439453125
0.621124267578125 -0.1094970703125 0.684844970703125
-0.63043212890625 -0.83819580078125 -0.38323974609375
-0.681793212890625 -0.80670166015625 -0.37738037109375
-0.5767669677734375 -0.9105224609375 -0.4012451171875
-0.59771728515625 -0.857147216796875 -0.38653564453125
-0.682159423828125 -0.765625 -0.35955810546875
-0.719482421875 -0.7523193359375 -0.3536376953125
-0.63995361328125 -0.861175537109375 -0.39691162109375
-0.5443572998046875 -0.94189453125 -0.40325927734375
-0.6533660888671875 -0.7696533203125 -0.36309814453125
0.3683319091796875 0.150146484375 0.155242919921875
0.3672332763671875 0.250457763671875 0.053863525390625
0.3602294921875 0.31170654296875 0.0444488525390625
0.3952484130859375 0.0819091796875 0.254730224609375
0.41741943359375 0.027587890625 0.255859375
0.38092041015625 0.1145172119140625 0.14111328125
0.38360595703125 0.410552978515625 -0.0401458740234375
0.355499267578125 0.224700927734375 0.14037322998046875
0.48162841796875 -0.01385498046875 0.34881591796875
-0.6295166015625 -0.9813232421875 -0.43121337890625
-0.6499176025390625 -0.940338134765625 -0.43328857421875
-0.6861114501953125 -0.9862060546875 -0.4449462890625
-0.6772918701171875 -0.975677490234375 -0.422119140625
-0.5793609619140625 -0.975799560546875 -0.42071533203125
-0.6221923828125 -0.9268798828125 -0.422607421875
-0.688507080078125 -0.94793701171875 -0.44439697265625
-0.749969482421875 -0.975677490234375 -0.43939208984375
-0.5968475341796875 -0.98699951171875 -0.4132080078125
0.4434967041015625 0.600494384765625 -0.21923828125
0.445770263671875 0.68365478515625 -0.271240234375
0.4585113525390625 0.64727783203125 -0.2172698974609375
0.4214630126953125 0.4932098388671875 -0.142364501953125
0.430084228515625 0.5661163330078125 -0.238677978515625
0.4318695068359375 0.6909027099609375 -0.299896240234375
0.45672607421875 0.69329833984375 -0.2532501220703125
0.4438018798828125 0.5858154296875 -0.1712646484375
0.403778076171875 0.4087066650390625 -0.1329345703125
-0.791229248046875 -1.004669189453125 -0.47430419921875
-0.78827667236328125 -0.95965576171875 -0.464447021484375
-0.80191802978515625 -0.99871826171875 -0.47235107421875
-0.830047607421875 -1.01458740234375 -0.477325439453125
-0.7695465087890625 -1.002899169921875 -0.470001220703125
-0.762115478515625 -0.959014892578125 -0.46075439453125
-0.80582427978515625 -0.957305908203125 -0.46478271484375
-0.82363128662109375 -1.012115478515625 -0.47332763671875
-0.8234405517578125 -1.00653076171875 -0.47283935546875
0.3583984375 0.802978515625 -0.31534576416015625
0.320068359375 0.820068359375 -0.31116867065429688
0.3904876708984375 0.7738037109375 -0.3003692626953125
0.3967437744140625 0.779815673828125 -0.3128814697265625
0.3325042724609375 0.8446044921875 -0.32623291015625
0.2946624755859375 0.8602294921875 -0.31861114501953125
0.35495758056640625 0.7880859375 -0.3014984130859375
0.41864013671875 0.754730224609375 -0.29241943359375
0.3727569580078125 0.819671630859375 -0.329986572265625
-0.79253768920898438 -0.94586181640625 -0.45111083984375
-0.84483718872070312 -0.8883056640625 -0.443511962890625
-0.78419113159179688 -0.92205810546875 -0.4429931640625
-0.74912834167480469 -0.991241455078125 -0.451324462890625
-0.79963302612304688 -0.96734619140625 -0.4591064453125
-0.83065032958984375 -0.921600341796875 -0.4532470703125
-0.8533477783203125 -0.855499267578125 -0.433013916015625
-0.72149658203125 -0.980560302734375 -0.4460906982421875
-0.78037261962890625 -0.997314453125 -0.4573974609375
0.2482757568359375 0.841339111328125 -0.2844696044921875
0.26439666748046875 0.824127197265625 -0.2818603515625
0.2593841552734375 0.840972900390625 -0.29293060302734375
0.2275390625 0.860076904296875 -0.28158187866210938
0.23714447021484375 0.8377685546875 -0.2720947265625
0.2895660400390625 0.813140869140625 -0.28993606567382812
0.2392120361328125 0.870758056640625 -0.29433441162109375
-0.79281234741210938 -0.834320068359375 -0.4186859130859375
-0.78132820129394531 -0.863555908203125 -0.4259033203125
-0.83767318725585938 -0.78656005859375 -0.408599853515625
-0.75775909423828125 -0.854248046875 -0.420379638671875
-0.71994781494140625 -0.9134521484375 -0.4309844970703125
-0.84960556030273438 -0.80157470703125 -0.41400146484375
-0.8140869140625 -0.786651611328125 -0.4073944091796875
0.8768310546875 -0.347412109375 0.620697021484375
0.88580322265625 -0.272369384765625 0.6131591796875
0.88238525390625 -0.341156005859375 0.611328125
0.85028076171875 -0.31060791015625 0.6527099609375
0.8946533203125 -0.352630615234375 0.60198974609375
0.891815185546875 -0.30279541015625 0.6041717529296875
0.914886474609375 -0.2457275390625 0.581634521484375
0.817901611328125 -0.36468505859375 0.664947509765625
0.890899658203125 -0.27001953125 0.609466552734375
-0.87698936462402344 -0.6636962890625 -0.36334228515625
-0.71766185760498047 -0.66650390625 -0.345947265625
-0.76407432556152344 -0.7451629638671875 -0.3770751953125
-0.917816162109375 -0.7340240478515625 -0.3875732421875
-0.81717681884765625 -0.7086639404296875 -0.38043212890625
-0.74567413330078125 -0.651519775390625 -0.361572265625
-0.59463882446289062 -0.7647857666015625 -0.339111328125
-0.81892204284667969 -0.7689666748046875 -0.39495849609375
-0.83470916748046875 -0.7988433837890625 -0.4036865234375
0.679412841796875 -0.10845947265625 0.4918212890625
0.665863037109375 -0.154449462890625 0.458984375
0.8992156982421875 -0.133453369140625 0.504302978515625
0.6466827392578125 -0.0900726318359375 0.48199462890625
0.4176025390625 -0.2181854248046875 0.2764892578125
0.3846435546875 -0.276763916015625 0.2822265625
0.897216796875 -0.159637451171875 0.46734619140625
0.860443115234375 -0.08978271484375 0.533233642578125
0.4338531494140625 -0.15027618408203125 0.20843505859375
-0.82712554931640625 -0.9165802001953125 -0.44415283203125
-0.86806488037109375 -0.8890380859375 -0.4481201171875
-0.74059295654296875 -0.9887237548828125 -0.45452880859375
-0.7810211181640625 -0.9698486328125 -0.4473876953125
-0.949554443359375 -0.7949676513671875 -0.415985107421875
-0.9586334228515625 -0.7795562744140625 -0.408905029296875
-0.73815155029296875 -0.968994140625 -0.4593505859375
-0.755889892578125 -0.9899749755859375 -0.442169189453125
-0.88446807861328125 -0.89666748046875 -0.445770263671875
0.32025146484375 0.4529876708984375 -0.403350830078125
0.31842041015625 0.392852783203125 -0.418060302734375
0.314727783203125 0.04621124267578125 -0.410919189453125
0.319091796875 0.542327880859375 -0.35528564453125
0.2808837890625 0.734161376953125 -0.30815505981445312
0.304901123046875 0.6971893310546875 -0.33682632446289062
0.29669189453125 -0.0278778076171875 -0.400054931640625
0.342437744140625 0.19332122802734375 -0.39422607421875
0.2581787109375 0.772552490234375 -0.2656097412109375
-0.954193115234375 -0.931060791015625 -0.4705047607421875
-0.88787078857421875 -0.985595703125 -0.47265625
-0.965789794921875 -0.877838134765625 -0.442657470703125
-0.97343254089355469 -0.902923583984375 -0.4609832763671875
-0.94994735717773438 -0.958587646484375 -0.485107421875
-0.90699005126953125 -0.9959716796875 -0.48675537109375
-0.9027252197265625 -0.940093994140625 -0.44671630859375
-0.98115634918212891 -0.85113525390625 -0.43707275390625
-0.96743202209472656 -0.928497314453125 -0.472137451171875
0.458160400390625 1.011444091796875 -0.42333984375
0.513092041015625 1.041290283203125 -0.4415130615234375
0.377716064453125 0.931396484375 -0.3619232177734375
0.3347320556640625 0.967010498046875 -0.3722381591796875
0.482666015625 1.084503173828125 -0.4505615234375
0.453826904296875 1.116363525390625 -0.4504241943359375
0.46728515625 0.94024658203125 -0.391265869140625
0.2664031982421875 0.916107177734375 -0.31024169921875
0.4013214111328125 1.0267333984375 -0.413238525390625
-0.793914794921875 -0.99951171875 -0.4475860595703125
-0.87036895751953125 -0.991058349609375 -0.4389190673828125
-0.7496185302734375 -1.03363037109375 -0.4588470458984375
-0.7943572998046875 -0.9339447021484375 -0.46476602554321289
-0.86913299560546875 -0.929595947265625 -0.43546676635742188
-0.91302490234375 -0.945404052734375 -0.4349212646484375
-0.8472900390625 -0.998382568359375 -0.4427337646484375
-0.754669189453125 -0.961090087890625 -0.46749114990234375
-0.8465576171875 -0.8926544189453125 -0.45330619812011719
0.49738311767578125 1.16009521484375 -0.47320556640625
0.45215225219726562 1.129791259765625 -0.4548797607421875
0.47649383544921875 1.133880615234375 -0.46373748779296875
0.40277862548828125 1.1328125 -0.4339141845703125
0.46957588195800781 1.18194580078125 -0.4730224609375
0.49703598022460938 1.1656494140625 -0.4779815673828125
0.36933135986328125 1.11767578125 -0.4340667724609375
0.4464263916015625 1.109649658203125 -0.44329833984375
0.31654739379882812 1.119049072265625 -0.4027099609375
-0.8553009033203125 -0.713897705078125 -0.3494720458984375
-0.9117279052734375 -0.7586517333984375 -0.4034423828125
-0.8698577880859375 -0.65229034423828125 -0.3070526123046875
-0.72552490234375 -0.70478057861328125 -0.33475494384765625
-0.7437744140625 -0.83154296875 -0.39048385620117188
-0.8132171630859375 -0.85064697265625 -0.43049812316894531
-0.9273529052734375 -0.7132720947265625 -0.36634063720703125
-0.715667724609375 -0.65837860107421875 -0.29779052734375
-0.66826629638671875 -0.7970733642578125 -0.37622833251953125
0.14867782592773438 1.08966064453125 -0.3248291015625
0.16950225830078125 1.147125244140625 -0.356597900390625
0.24000930786132812 1.134307861328125 -0.3877716064453125
0.14072418212890625 0.96820068359375 -0.280242919921875
0.119232177734375 1.038970947265625 -0.280517578125
0.1211700439453125 1.09368896484375 -0.300628662109375
0.28659439086914062 1.180389404296875 -0.4241943359375
0.16109848022460938 1.01318359375 -0.31317138671875
0.15116500854492188 0.93017578125 -0.26849365234375
-0.489715576171875 -0.7783966064453125 -0.3311614990234375
-0.52598190307617188 -0.766326904296875 -0.352752685546875
-0.44371795654296875 -0.80402374267578125 -0.304656982421875
-0.466705322265625 -0.75616455078125 -0.30443572998046875
-0.56103515625 -0.74822998046875 -0.35131072998046875
-0.59489059448242188 -0.7600860595703125 -0.37857818603515625
-0.4778900146484375 -0.77826690673828125 -0.323455810546875
-0.4334564208984375 -0.7875213623046875 -0.28131103515625
-0.514007568359375 -0.7194061279296875 -0.32102584838867188
0.37017822265625 0.462860107421875 -0.02557373046875
0.4053955078125 0.569091796875 -0.1339874267578125
0.392059326171875 0.06097412109375 0.50787353515625
0.3496246337890625 0.43316650390625 0.10003662109375
0.5314178466796875 0.842864990234375 -0.3641357421875
0.5740203857421875 0.954864501953125 -0.3986663818359375
0.386077880859375 0.046783447265625 0.3973236083984375
0.387969970703125 0.0640869140625 0.58184814453125
0.45825958251953125 0.743194580078125 -0.28704833984375
-0.869781494140625 -0.72808837890625 -0.334228515625
-0.6110687255859375 -0.88153076171875 -0.37030029296875
-0.86590576171875 -0.7838134765625 -0.38983154296875
-0.885589599609375 -0.67919921875 -0.320465087890625
-0.85430908203125 -0.659576416015625 -0.291748046875
-0.756500244140625 -0.749908447265625 -0.32080078125
-0.50567626953125 -0.95672607421875 -0.40234375
-0.963348388671875 -0.72149658203125 -0.371917724609375
-0.742645263671875 -0.65423583984375 -0.28985595703125
0.5481719970703125 0.89862060546875 -0.364532470703125
0.411590576171875 0.9725494384765625 -0.403106689453125
0.4605712890625 0.9438323974609375 -0.3975830078125
0.40252685546875 0.3190765380859375 -0.02178955078125
0.5379180908203125 0.818511962890625 -0.281494140625
0.5069122314453125 0.9868011474609375 -0.40543365478515625
0.3002777099609375 0.9776611328125 -0.37514114379882812
0.4159698486328125 0.50055694580078125 -0.25067138671875
0.3795623779296875 0.1560821533203125 0.179962158203125
-0.83870697021484375 -0.884735107421875 -0.458251953125
-0.87311172485351562 -0.85821533203125 -0.427978515625
-0.65190887451171875 -1.010498046875 -0.4462127685546875
-0.84148406982421875 -0.859649658203125 -0.46563720703125
-0.91188812255859375 -0.814788818359375 -0.422119140625
-0.97791290283203125 -0.827728271484375 -0.430877685546875
-0.6982269287109375 -0.97857666015625 -0.4282073974609375
-0.74789047241210938 -0.93023681640625 -0.4497833251953125
-0.756195068359375 -0.84088134765625 -0.40618896484375
0.1722259521484375 0.90386962890625 -0.21533966064453125
0.12066650390625 0.9153289794921875 -0.2166290283203125
0.2305145263671875 0.8301239013671875 -0.2261505126953125
0.211181640625 0.92181396484375 -0.25778961181640625
0.13372802734375 0.94317626953125 -0.25983810424804688
0.160400390625 0.8849945068359375 -0.19594955444335938
0.308837890625 0.7472076416015625 -0.3084716796875
-0.98790359497070312 -0.80279541015625 -0.4206695556640625
-0.98272275924682617 -0.8541259765625 -0.44561767578125
-0.9880523681640625 -0.802032470703125 -0.41835784912109375
-0.97800445556640625 -0.78204345703125 -0.4083251953125
-0.98009490966796875 -0.85186767578125 -0.4376220703125
-0.98528289794921875 -0.85284423828125 -0.4399871826171875
-0.94136810302734375 -0.8033447265625 -0.40927886962890625
0.20794677734375 0.89306640625 -0.283477783203125
0.218994140625 0.8978271484375 -0.2764892578125
0.2442169189453125 0.90570068359375 -0.301513671875
0.18076324462890625 0.923919677734375 -0.2791748046875
0.1982269287109375 0.853759765625 -0.24566650390625
