# XYZ point cloud file
0.71032428741455078 -0.35750198364257812 0.6881866455078125
0.71088504791259766 -0.35822296142578125 0.69609832763671875
0.72227764129638672 -0.37142181396484375 0.68903350830078125
0.72370338439941406 -0.38061141967773438 0.68215179443359375
0.71498680114746094 -0.3663482666015625 0.68316650390625
0.70577049255371094 -0.35489273071289062 0.69379425048828125
0.71909713745117188 -0.36849594116210938 0.695587158203125
0.5608978271484375 -0.4703369140625 0.402313232421875
0.49115180969238281 -0.43894195556640625 0.3520965576171875
0.56989669799804688 -0.5299835205078125 0.4316253662109375
0.62169456481933594 -0.49190902709960938 0.4554595947265625
0.53993034362792969 -0.4133758544921875 0.369873046875
0.47541618347167969 -0.38198471069335938 0.321197509765625
0.50014686584472656 -0.50633621215820312 0.3867034912109375
0.62956047058105469 -0.54231643676757812 0.47922515869140625
0.60020637512207031 -0.44405364990234375 0.42429351806640625
0.71598434448242188 -0.38383865356445312 0.681854248046875
0.72420120239257812 -0.38669967651367188 0.67627716064453125
0.722808837890625 -0.408355712890625 0.67690277099609375
0.70738601684570312 -0.38277816772460938 0.6885986328125
0.71092414855957031 -0.36897659301757812 0.6842498779296875
0.71800613403320312 -0.37360382080078125 0.6796722412109375
0.731597900390625 -0.40886688232421875 0.67017364501953125
0.71325111389160156 -0.40797042846679688 0.6847991943359375
0.70425605773925781 -0.36684417724609375 0.6898956298828125
0.29833889007568359 -0.3255462646484375 0.26949310302734375
0.27632522583007812 -0.31516265869140625 0.27259063720703125
0.30625724792480469 -0.39779281616210938 0.32452392578125
0.34957313537597656 -0.3593597412109375 0.2816009521484375
0.29527759552001953 -0.26706314086914062 0.22705841064453125
0.27661037445068359 -0.2609710693359375 0.22615814208984375
0.28459548950195312 -0.38338470458984375 0.33078765869140625
0.35707664489746094 -0.43174362182617188 0.32877349853515625
0.34485626220703125 -0.30220413208007812 0.246612548828125
0.72116851806640625 -0.53383636474609375 0.60153961181640625
0.72877311706542969 -0.54190826416015625 0.5937652587890625
0.69561576843261719 -0.5693817138671875 0.54425048828125
0.71327018737792969 -0.52518463134765625 0.61135101318359375
0.72969436645507812 -0.48661422729492188 0.64168548583984375
0.73829269409179688 -0.48920440673828125 0.6332244873046875
0.70173454284667969 -0.58544921875 0.539337158203125
0.69046592712402344 -0.55376815795898438 0.55324554443359375
0.72042465209960938 -0.48346710205078125 0.65116119384765625
0.45517730712890625 -0.478179931640625 0.34027099609375
0.55942916870117188 -0.54573822021484375 0.400482177734375
0.45781707763671875 -0.52210617065429688 0.36844635009765625
0.35829353332519531 -0.39893722534179688 0.30280303955078125
0.4617919921875 -0.444549560546875 0.32354736328125
0.56275558471679688 -0.51775741577148438 0.397064208984375
0.56214141845703125 -0.58107757568359375 0.41327667236328125
0.36240005493164062 -0.45121002197265625 0.3467559814453125
0.36470603942871094 -0.35971450805664062 0.27092742919921875
0.72115135192871094 -0.47838211059570312 0.646209716796875
0.71574211120605469 -0.49711990356445312 0.60684967041015625
0.73112964630126953 -0.4532470703125 0.65918731689453125
0.71783828735351562 -0.45238876342773438 0.67317962646484375
0.71246147155761719 -0.500457763671875 0.6335906982421875
0.7010040283203125 -0.52080535888671875 0.5848236083984375
0.73037624359130859 -0.47182464599609375 0.6287994384765625
0.72574615478515625 -0.43058013916015625 0.68022918701171875
0.71303939819335938 -0.46938705444335938 0.66656494140625
0.60242080688476562 -0.45639419555664062 0.41815185546875
0.65767669677734375 -0.46625900268554688 0.48114776611328125
0.65825843811035156 -0.49018096923828125 0.48876190185546875
0.54013824462890625 -0.44130706787109375 0.3616790771484375
0.5368804931640625 -0.40619659423828125 0.35211181640625
0.60848331451416016 -0.43611907958984375 0.42279815673828125
0.69562721252441406 -0.48181533813476562 0.5383453369140625
0.61574172973632812 -0.495208740234375 0.441802978515625
0.4587249755859375 -0.371612548828125 0.2933197021484375
0.70092105865478516 -0.38504409790039062 0.70074462890625
0.70406150817871094 -0.39966964721679688 0.69863128662109375
0.70166301727294922 -0.37239837646484375 0.702362060546875
0.69830226898193359 -0.38381576538085938 0.69966888427734375
0.70235252380371094 -0.40671157836914062 0.69586944580078125
0.70863628387451172 -0.386688232421875 0.700439453125
0.69855785369873047 -0.36838531494140625 0.69988250732421875
0.41070270538330078 -0.29053115844726562 0.25363922119140625
0.45149993896484375 -0.31658554077148438 0.28450775146484375
0.42926597595214844 -0.30745697021484375 0.26578521728515625
0.35620975494384766 -0.25439071655273438 0.22122955322265625
0.39705181121826172 -0.28535842895507812 0.24864959716796875
0.50237751007080078 -0.35492324829101562 0.32389068603515625
0.35478401184082031 -0.26246261596679688 0.22088623046875
-0.106903076171875 0.29405975341796875 0.7623443603515625
-0.11626434326171875 0.2880401611328125 0.76139450073242188
-0.1089630126953125 0.28975677490234375 0.75994110107421875
-0.10089111328125 0.2967987060546875 0.76272010803222656
-0.10201263427734375 0.29544830322265625 0.76489067077636719
-0.10825347900390625 0.290069580078125 0.76369285583496094
-0.12145233154296875 0.28273773193359375 0.75877189636230469
-0.10164642333984375 0.29291534423828125 0.76029777526855469
-0.09845733642578125 0.29795074462890625 0.76544761657714844
-0.33588790893554688 0.0428009033203125 0.76756095886230469
-0.34763717651367188 0.006252288818359375 0.76807785034179688
-0.32718276977539062 0.044219970703125 0.76670646667480469
-0.32323074340820312 0.089328765869140625 0.76682090759277344
-0.34205245971679688 0.04207611083984375 0.76785087585449219
-0.35335922241210938 0.007625579833984375 0.76833534240722656
-0.3391571044921875 0.003772735595703125 0.76733779907226562
-0.31450271606445312 0.09558868408203125 0.76584625244140625
-0.329803466796875 0.08525848388671875 0.76717185974121094
-0.1089935302734375 0.3106842041015625 0.77377176284790039
-0.11199951171875 0.31299591064453125 0.77212774753570557
-0.10097503662109375 0.3012847900390625 0.77079248428344727
-0.10758209228515625 0.3096466064453125 0.77456045150756836
-0.12255859375 0.3258514404296875 0.77645468711853027
-0.1277008056640625 0.33274078369140625 0.77479457855224609
-0.103240966796875 0.29986572265625 0.76928019523620605
-0.100006103515625 0.3021697998046875 0.77142906188964844
-0.11952972412109375 0.32225799560546875 0.7775421142578125
-0.28581619262695312 0.27176284790039062 0.76196861267089844
-0.29770660400390625 0.20654678344726562 0.764251708984375
-0.27696609497070312 0.29161834716796875 0.76064872741699219
-0.27565383911132812 0.3350677490234375 0.75899505615234375
-0.29343795776367188 0.25748825073242188 0.76248741149902344
-0.30488967895507812 0.19524765014648438 0.7646942138671875
-0.28881454467773438 0.22313690185546875 0.76293563842773438
-0.26707839965820312 0.3560791015625 0.75779151916503906
-0.28321456909179688 0.31911468505859375 0.75954532623291016
-0.1549835205078125 0.3997039794921875 0.77828598022460938
-0.16194915771484375 0.41255950927734375 0.77515697479248047
-0.1507415771484375 0.37213897705078125 0.77933979034423828
-0.14917755126953125 0.38983154296875 0.78014373779296875
-0.147216796875 0.42840576171875 0.77464580535888672
-0.15048980712890625 0.44028472900390625 0.77069950103759766
-0.15898895263671875 0.38448333740234375 0.77701187133789062
-0.14478302001953125 0.36358642578125 0.78086376190185547
-0.14363861083984375 0.41785049438476562 0.77760219573974609
-0.2681121826171875 0.47600555419921875 0.74541187286376953
-0.265716552734375 0.43950271606445312 0.75078487396240234
-0.25769424438476562 0.48361587524414062 0.74593830108642578
-0.27623748779296875 0.5025482177734375 0.73921442031860352
-0.2765960693359375 0.46597671508789062 0.74518728256225586
-0.2740020751953125 0.4257049560546875 0.75088214874267578
-0.25617218017578125 0.45368194580078125 0.75047683715820312
-0.26569747924804688 0.50428390502929688 0.74057912826538086
-0.28514862060546875 0.4970703125 0.73865509033203125
-0.06720733642578125 0.23921966552734375 0.75395965576171875
-0.07762908935546875 0.22434234619140625 0.75292587280273438
-0.0249176025390625 0.19830322265625 0.75294876098632812
-0.059814453125 0.24768829345703125 0.75424575805664062
-0.09186553955078125 0.264434814453125 0.755767822265625
-0.105743408203125 0.25322723388671875 0.75482177734375
-0.0284576416015625 0.1786041259765625 0.7518310546875
-0.02103424072265625 0.2109527587890625 0.752899169921875
-0.08356475830078125 0.27020263671875 0.75632095336914062
-0.3788299560546875 -0.0482330322265625 0.76992416381835938
-0.3901824951171875 -0.05184173583984375 0.77090835571289062
-0.37049102783203125 -0.052631378173828125 0.76996612548828125
-0.3684844970703125 -0.03802490234375 0.76921844482421875
-0.3844146728515625 -0.04462432861328125 0.77008628845214844
-0.39583587646484375 -0.048736572265625 0.77087974548339844
-0.38231277465820312 -0.054538726806640625 0.77117347717285156
-0.36010360717773438 -0.043506622314453125 0.76895713806152344
-0.37414169311523438 -0.03475189208984375 0.76944923400878906
0.19167327880859375 -0.0578460693359375 0.76557159423828125
0.2031707763671875 -0.08802032470703125 0.76906585693359375
0.21726608276367188 -0.11446762084960938 0.77518463134765625
0.18084716796875 -0.02880096435546875 0.76238250732421875
0.1237640380859375 0.0373992919921875 0.75759124755859375
0.13640594482421875 0.00542449951171875 0.75885009765625
0.22031402587890625 -0.13507461547851562 0.7799835205078125
0.21065139770507812 -0.09021759033203125 0.77068328857421875
0.11484527587890625 0.0628814697265625 0.75579833984375
-0.41721725463867188 -0.04599761962890625 0.77821922302246094
-0.42154693603515625 -0.057567596435546875 0.78022003173828125
-0.41495895385742188 -0.045131683349609375 0.77989768981933594
-0.4116058349609375 -0.0460968017578125 0.77511215209960938
-0.41913223266601562 -0.045734405517578125 0.77706527709960938
-0.4211578369140625 -0.0557861328125 0.77896499633789062
-0.42249107360839844 -0.059795379638671875 0.78169822692871094
-0.406524658203125 -0.044582366943359375 0.77640151977539062
-0.41541290283203125 -0.045269012451171875 0.77428054809570312
0.18917942047119141 -0.1124725341796875 0.78466033935546875
0.18482446670532227 -0.10910415649414062 0.78662109375
0.1911170482635498 -0.11333084106445312 0.7847747802734375
0.19284248352050781 -0.10667800903320312 0.78069305419921875
0.195037841796875 -0.11880111694335938 0.7841796875
0.18930625915527344 -0.1169891357421875 0.7869415283203125
0.18828916549682617 -0.1141510009765625 0.78771209716796875
0.19438552856445312 -0.10496139526367188 0.779998779296875
0.198394775390625 -0.11079025268554688 0.77967071533203125
-0.4617156982421875 -0.12985610961914062 0.76999759674072266
-0.48350906372070312 -0.14577388763427734 0.76332283020019531
-0.47293472290039062 -0.14324569702148438 0.76711845397949219
-0.44248580932617188 -0.10685920715332031 0.77572441101074219
-0.45504474639892578 -0.119110107421875 0.77134799957275391
-0.47634696960449219 -0.13250160217285156 0.76562786102294922
-0.49550151824951172 -0.16161060333251953 0.75889492034912109
-0.45096206665039062 -0.11713790893554688 0.77458572387695312
-0.43759727478027344 -0.099115371704101562 0.77596855163574219
0.21075820922851562 -0.065334320068359375 0.7617340087890625
0.20802879333496094 -0.087047815322875977 0.77142333984375
0.20959663391113281 0.0054533481597900391 0.740142822265625
0.21296310424804688 -0.040369033813476562 0.752532958984375
0.20554542541503906 -0.10317134857177734 0.776458740234375
0.20213127136230469 -0.11986732482910156 0.78511810302734375
0.20822525024414062 -0.015945911407470703 0.74903106689453125
0.2106781005859375 0.029346704483032227 0.732269287109375
0.208648681640625 -0.082000732421875 0.76806640625
-0.52684545516967773 -0.14806926250457764 0.7459416389465332
-0.53945159912109375 -0.14036679267883301 0.74228549003601074
-0.52613162994384766 -0.16675126552581787 0.74182605743408203
-0.5170893669128418 -0.15311765670776367 0.75048017501831055
-0.52905464172363281 -0.1317751407623291 0.74869060516357422
-0.54429340362548828 -0.12546706199645996 0.74431991577148438
-0.53507804870605469 -0.15755236148834229 0.73948121070861816
-0.52164363861083984 -0.17192614078521729 0.7454686164855957
-0.51526069641113281 -0.13663315773010254 0.75368452072143555
0.1546173095703125 0.31522750854492188 0.69866943359375
0.15207290649414062 0.31448936462402344 0.7026824951171875
0.12818145751953125 0.39970970153808594 0.701751708984375
0.15516281127929688 0.32021999359130859 0.696075439453125
0.17970657348632812 0.21193313598632812 0.703887939453125
0.17815399169921875 0.20307350158691406 0.70888519287109375
0.12544631958007812 0.40485382080078125 0.70526885986328125
0.12900543212890625 0.39786529541015625 0.699951171875
0.179534912109375 0.22426509857177734 0.7000579833984375
-0.61640739440917969 -0.10378456115722656 0.723114013671875
-0.64718818664550781 -0.086353302001953125 0.71462154388427734
-0.60979652404785156 -0.11527252197265625 0.72220611572265625
-0.58561515808105469 -0.11851882934570312 0.7310481071472168
-0.62198829650878906 -0.0940093994140625 0.72375154495239258
-0.65082550048828125 -0.078348159790039062 0.71502685546875
-0.64185333251953125 -0.095569610595703125 0.71445083618164062
-0.57863044738769531 -0.1319727897644043 0.72984933853149414
-0.59194183349609375 -0.10705089569091797 0.73202753067016602
0.070224761962890625 0.51013565063476562 0.72396087646484375
0.068202972412109375 0.52036666870117188 0.72278594970703125
0.060680389404296875 0.51409339904785156 0.72599029541015625
0.072658538818359375 0.49966526031494141 0.72505950927734375
0.08498382568359375 0.49366569519042969 0.71829986572265625
0.082904815673828125 0.50373268127441406 0.7196044921875
0.05804443359375 0.52371406555175781 0.721649169921875
0.063968658447265625 0.50295066833496094 0.7291259765625
0.08670806884765625 0.48445415496826172 0.71779632568359375
-0.69384765625 -0.014524459838867188 0.69504928588867188
-0.68466567993164062 0.01918792724609375 0.69017982482910156
-0.69495391845703125 -0.0164031982421875 0.6966552734375
-0.68883132934570312 -0.042278289794921875 0.7002410888671875
-0.69061279296875 -0.013647079467773438 0.69443511962890625
-0.67964553833007812 0.016696929931640625 0.68969917297363281
-0.6880340576171875 0.02075958251953125 0.69202613830566406
-0.68747711181640625 -0.04685211181640625 0.70151329040527344
-0.68775558471679688 -0.038881301879882812 0.69994926452636719
0.085944175720214844 0.50320053100585938 0.7118377685546875
0.084146499633789062 0.52420282363891602 0.6954193115234375
0.099621772766113281 0.51522731781005859 0.70426177978515625
0.08880615234375 0.48400497436523438 0.723358154296875
0.06800079345703125 0.50286614894866943 0.71919631958007812
0.064336776733398438 0.51709771156311035 0.70705413818359375
0.10013389587402344 0.54347991943359375 0.68507766723632812
0.10071080923080444 0.49045753479003906 0.71757125854492188
0.0724639892578125 0.48834085464477539 0.72800827026367188
-0.52367019653320312 0.183135986328125 0.68002986907958984
-0.449798583984375 0.26975250244140625 0.68015670776367188
-0.5210113525390625 0.205047607421875 0.67961597442626953
-0.59920120239257812 0.11386489868164062 0.68201446533203125
-0.5236358642578125 0.16354751586914062 0.68127632141113281
-0.45252227783203125 0.24251174926757812 0.68153142929077148
-0.44264984130859375 0.30010986328125 0.67937946319580078
-0.60137557983398438 0.126861572265625 0.682281494140625
-0.59560775756835938 0.10132598876953125 0.68261051177978516
0.063320159912109375 0.59050178527832031 0.69846916198730469
0.060949325561523438 0.62776565551757812 0.67820262908935547
0.04065704345703125 0.61041259765625 0.69842338562011719
0.064943313598632812 0.55863189697265625 0.71405029296875
0.084402084350585938 0.56439018249511719 0.69851112365722656
0.08329010009765625 0.60168838500976562 0.67834281921386719
0.0393218994140625 0.64541053771972656 0.67808055877685547
0.0426025390625 0.5797271728515625 0.71356296539306641
0.08524322509765625 0.53299903869628906 0.71411323547363281
-0.358978271484375 0.51720428466796875 0.68683743476867676
-0.3579254150390625 0.56371307373046875 0.69054442644119263
-0.350372314453125 0.5488128662109375 0.68889689445495605
-0.36790847778320312 0.44986343383789062 0.68378520011901855
-0.36067962646484375 0.48725509643554688 0.68680548667907715
-0.36082077026367188 0.53971481323242188 0.6896173357963562
-0.34888076782226562 0.58696746826171875 0.69396305084228516
-0.36053848266601562 0.48624038696289062 0.68433713912963867
-0.37099838256835938 0.41601181030273438 0.68451905250549316
-0.0096588134765625 0.61035537719726562 0.70843219757080078
0.00019073486328125 0.636199951171875 0.68900918960571289
-0.02215576171875 0.59342193603515625 0.71739435195922852
-0.01230621337890625 0.58635330200195312 0.72334110736846924
0.003574371337890625 0.62003707885742188 0.70235651731491089
0.00928497314453125 0.64925193786621094 0.68178844451904297
-0.008663177490234375 0.61586761474609375 0.69957160949707031
-0.026897430419921875 0.57201385498046875 0.73053216934204102
0.002994537353515625 0.59374618530273438 0.71742820739746094
-0.3592071533203125 0.60264205932617188 0.70048356056213379
-0.35597610473632812 0.59720993041992188 0.7036595344543457
-0.34570693969726562 0.60334014892578125 0.70555639266967773
-0.3606414794921875 0.60193634033203125 0.69733476638793945
-0.3641357421875 0.59444427490234375 0.69843935966491699
-0.3606719970703125 0.59235382080078125 0.70184516906738281
-0.34183502197265625 0.59364700317382812 0.70824933052062988
-0.34826278686523438 0.60892486572265625 0.7025611400604248
-0.36536026000976562 0.589508056640625 0.69543933868408203
-0.07814788818359375 0.51528167724609375 0.75016403198242188
-0.0645599365234375 0.52818679809570312 0.74137496948242188
-0.10387420654296875 0.4859619140625 0.76029872894287109
-0.08461761474609375 0.50209808349609375 0.75760269165039062
-0.05525970458984375 0.54407501220703125 0.7392425537109375
-0.03908538818359375 0.5596466064453125 0.72737026214599609
-0.09521484375 0.49729537963867188 0.75351142883300781
-0.10803985595703125 0.47436904907226562 0.76571369171142578
-0.062519073486328125 0.52851486206054688 0.74872589111328125
-0.32316207885742188 0.55823898315429688 0.71822118759155273
-0.30668258666992188 0.54157257080078125 0.72520625591278076
-0.31105422973632812 0.55132293701171875 0.72070741653442383
-0.33794021606445312 0.5737152099609375 0.71213793754577637
-0.32997512817382812 0.55907058715820312 0.71727025508880615
-0.31425857543945312 0.541473388671875 0.72429013252258301
-0.29465866088867188 0.53582000732421875 0.72741830348968506
-0.32525634765625 0.5670318603515625 0.71515536308288574
-0.34335708618164062 0.5733489990234375 0.71113014221191406
-0.090381622314453125 0.46955490112304688 0.76713156700134277
-0.0897216796875 0.47878265380859375 0.76552486419677734
-0.10688018798828125 0.44558334350585938 0.77267599105834961
-0.0899658203125 0.46178436279296875 0.7685401439666748
-0.07204437255859375 0.49145126342773438 0.76122164726257324
-0.069599151611328125 0.501861572265625 0.75902271270751953
-0.1085052490234375 0.45374679565429688 0.77129173278808594
-0.1042327880859375 0.43896484375 0.7740098237991333
-0.0736541748046875 0.48220062255859375 0.76295053958892822
-0.34575271606445312 0.55224609375 0.71649259328842163
-0.33394241333007812 0.53651046752929688 0.72302448749542236
-0.33990859985351562 0.55348587036132812 0.71662908792495728
-0.35467529296875 0.563568115234375 0.71068716049194336
-0.35118865966796875 0.55144500732421875 0.71678423881530762
-0.33960342407226562 0.53642654418945312 0.72328561544418335
-0.32664871215820312 0.53697586059570312 0.72333645820617676
-0.3506011962890625 0.56554031372070312 0.71066856384277344
-0.3596038818359375 0.56149673461914062 0.71104192733764648
-0.020473480224609375 0.53522109985351562 0.7429962158203125
-0.016689300537109375 0.54911041259765625 0.73933911323547363
-0.036594390869140625 0.52492904663085938 0.74896359443664551
-0.024265289306640625 0.52330398559570312 0.74586677551269531
-0.003692626953125 0.53985595703125 0.73828887939453125
9.1552734375e-05 0.55400848388671875 0.73418664932250977
-0.03310394287109375 0.53808212280273438 0.74534845352172852
-0.040103912353515625 0.51369476318359375 0.75158071517944336
-0.007877349853515625 0.52828598022460938 0.74096107482910156
-0.37234115600585938 0.56951141357421875 0.69811582565307617
-0.36819839477539062 0.57267379760742188 0.7015986442565918
-0.36834335327148438 0.57570266723632812 0.69777965545654297
-0.37334060668945312 0.55920028686523438 0.69522380828857422
-0.3756256103515625 0.564849853515625 0.69878888130187988
-0.37198638916015625 0.56876754760742188 0.70215392112731934
-0.3649749755859375 0.57794189453125 0.70137596130371094
-0.369384765625 0.56615447998046875 0.69488120079040527
-0.37769699096679688 0.553802490234375 0.6960899829864502
0.054981231689453125 0.50858306884765625 0.73139381408691406
0.061231613159179688 0.51860809326171875 0.72904777526855469
0.034942626953125 0.52625274658203125 0.73242568969726562
0.048313140869140625 0.5025177001953125 0.73216819763183594
0.07280731201171875 0.48767280578613281 0.73074913024902344
0.080211639404296875 0.49554252624511719 0.72883415222167969
0.03961181640625 0.53826141357421875 0.72943210601806641
0.029178619384765625 0.51753616333007812 0.73421669006347656
0.064683914184570312 0.48404121398925781 0.731536865234375
-0.37296676635742188 0.44542312622070312 0.68932229280471802
-0.37109756469726562 0.49919891357421875 0.69088572263717651
-0.36613845825195312 0.44919204711914062 0.68852275609970093
-0.38378143310546875 0.37732315063476562 0.68816971778869629
-0.380157470703125 0.44686126708984375 0.69029897451400757
-0.37731170654296875 0.49702835083007812 0.69175124168395996
-0.36576461791992188 0.50564956665039062 0.69031232595443726
-0.3769989013671875 0.37785720825195312 0.68711280822753906
-0.39025497436523438 0.38330841064453125 0.68898499011993408
0.07561492919921875 0.45549392700195312 0.7401275634765625
0.083718776702880859 0.46007537841796875 0.73605728149414062
0.084745883941650391 0.45708656311035156 0.73464202880859375
0.06630396842956543 0.45436477661132812 0.74385833740234375
0.063141822814941406 0.46319293975830078 0.743682861328125
0.070032119750976562 0.46811676025390625 0.73918533325195312
0.093944549560546875 0.46181869506835938 0.73163604736328125
0.074850559234619141 0.4560089111328125 0.7373199462890625
0.056051254272460938 0.46100521087646484 0.74821853637695312
-0.51690673828125 0.15445327758789062 0.68659400939941406
-0.45734786987304688 0.22385406494140625 0.68655300140380859
-0.5200042724609375 0.14807891845703125 0.68461322784423828
-0.5772705078125 0.097675323486328125 0.68762969970703125
-0.51229476928710938 0.16474533081054688 0.68890619277954102
-0.45820236206054688 0.23519515991210938 0.68828773498535156
-0.45542144775390625 0.218353271484375 0.68487262725830078
-0.584747314453125 0.09233856201171875 0.68557357788085938
-0.56833267211914062 0.10565948486328125 0.69007301330566406
0.068929672241210938 0.47519338130950928 0.7334136962890625
0.071424484252929688 0.48252153396606445 0.72979736328125
0.059429168701171875 0.47923874855041504 0.7396087646484375
0.067037582397460938 0.4681704044342041 0.7370147705078125
0.083280563354492188 0.45964789390563965 0.725128173828125
0.085323333740234375 0.46807432174682617 0.7217254638671875
0.063091278076171875 0.48528790473937988 0.73572540283203125
0.056325912475585938 0.47396612167358398 0.74343109130859375
0.082218170166015625 0.45125368237495422 0.72855377197265625
-0.66621780395507812 -0.00669097900390625 0.69770336151123047
-0.65356826782226562 0.020313262939453125 0.69309806823730469
-0.6770782470703125 -0.0103302001953125 0.69591140747070312
-0.66682052612304688 -0.028944015502929688 0.70337390899658203
-0.65302658081054688 -0.0030918121337890625 0.70013809204101562
-0.64044952392578125 0.024547576904296875 0.69551277160644531
-0.6644134521484375 0.016757965087890625 0.69124698638916016
-0.6767425537109375 -0.03252410888671875 0.70169258117675781
-0.65384292602539062 -0.02571868896484375 0.70590019226074219
0.14959907531738281 0.32503581047058105 0.70098876953125
0.15151405334472656 0.32700920104980469 0.69762420654296875
0.12479972839355469 0.38684797286987305 0.70667266845703125
0.14734458923339844 0.32189077138900757 0.70442962646484375
0.17365646362304688 0.24844226241111755 0.70076751708984375
0.17619895935058594 0.24445700645446777 0.698760986328125
0.12656593322753906 0.3926396369934082 0.70296478271484375
0.12340164184570312 0.37994676828384399 0.7104949951171875
0.17117691040039062 0.25035309791564941 0.703125
-0.61753082275390625 -0.077564239501953125 0.72691154479980469
-0.64056396484375 -0.063776016235351562 0.71837806701660156
-0.62298011779785156 -0.081146240234375 0.7254791259765625
-0.59158706665039062 -0.088869094848632812 0.73528766632080078
-0.60917472839355469 -0.075205802917480469 0.72873544692993164
-0.6305389404296875 -0.061120986938476562 0.72042989730834961
-0.6482391357421875 -0.067251205444335938 0.71679925918579102
-0.59568977355957031 -0.092533111572265625 0.7338564395904541
-0.58465003967285156 -0.086585044860839844 0.73721766471862793
0.21716403961181641 0.009288787841796875 0.73812103271484375
0.21582889556884766 -0.00081157684326171875 0.7407684326171875
0.20950889587402344 0.079864501953125 0.7213134765625
0.21766567230224609 0.014904022216796875 0.736541748046875
0.21693944931030273 -0.040956497192382812 0.75383758544921875
0.21391677856445312 -0.047845840454101562 0.756256103515625
0.21060562133789062 0.068905830383300781 0.72309112548828125
0.20898723602294922 0.086628913879394531 0.72049713134765625
0.21970224380493164 -0.038305282592773438 0.75251007080078125
-0.52919816970825195 -0.10720157623291016 0.75439071655273438
-0.54525279998779297 -0.10303163528442383 0.74938344955444336
-0.53131246566772461 -0.11140680313110352 0.75239872932434082
-0.51497364044189453 -0.11071109771728516 0.75872278213500977
-0.52453422546386719 -0.10505914688110352 0.75681304931640625
-0.53970909118652344 -0.10100364685058594 0.75161778926849365
-0.54835414886474609 -0.1070404052734375 0.74738597869873047
-0.51573514938354492 -0.11535167694091797 0.75710582733154297
-0.51240348815917969 -0.10843610763549805 0.7607569694519043
0.20574378967285156 -0.09487152099609375 0.77414703369140625
0.2001953125 -0.093685150146484375 0.77433013916015625
0.20773506164550781 -0.087432861328125 0.77146148681640625
0.21122550964355469 -0.099941253662109375 0.7745208740234375
0.20603561401367188 -0.097049713134765625 0.77408599853515625
0.2025146484375 -0.0959320068359375 0.77437591552734375
0.20250129699707031 -0.087711334228515625 0.77257537841796875
0.21325206756591797 -0.090606689453125 0.7711334228515625
0.2110595703125 -0.102203369140625 0.7750244140625
-0.46159744262695312 -0.10284900665283203 0.77114486694335938
-0.47994899749755859 -0.11040401458740234 0.76732730865478516
-0.45661163330078125 -0.10573768615722656 0.77149581909179688
-0.44597816467285156 -0.090105056762695312 0.77415657043457031
-0.46642875671386719 -0.10155677795410156 0.77100467681884766
-0.4829254150390625 -0.10836219787597656 0.76782512664794922
-0.47675323486328125 -0.114715576171875 0.76696014404296875
-0.440460205078125 -0.0908203125 0.77489471435546875
-0.45177268981933594 -0.090517044067382812 0.77357292175292969
0.1586761474609375 0.0051116943359375 0.76128387451171875
0.1636962890625 0.0032806396484375 0.76010894775390625
0.194793701171875 -0.05757904052734375 0.76696014404296875
0.15531158447265625 0.00090789794921875 0.76352691650390625
0.09838104248046875 0.08647918701171875 0.75656890869140625
0.10263824462890625 0.0875244140625 0.755035400390625
0.19805145263671875 -0.05951690673828125 0.76607513427734375
0.1934356689453125 -0.06069183349609375 0.76879119873046875
0.09627532958984375 0.0810089111328125 0.75873184204101562
-0.42645645141601562 -0.05475616455078125 0.77408409118652344
-0.42929649353027344 -0.0618896484375 0.77557182312011719
-0.42382431030273438 -0.049549102783203125 0.77508544921875
-0.42219161987304688 -0.053264617919921875 0.77218055725097656
-0.42825698852539062 -0.060176849365234375 0.77311325073242188
-0.43348121643066406 -0.066354751586914062 0.77456092834472656
-0.42535781860351562 -0.057870864868164062 0.77666282653808594
-0.420745849609375 -0.048248291015625 0.77309608459472656
-0.4229278564453125 -0.05877685546875 0.77130317687988281
-0.05266571044921875 0.25018310546875 0.75553131103515625
-0.05353546142578125 0.25267791748046875 0.7549285888671875
-0.01732635498046875 0.2160797119140625 0.75416183471679688
-0.0516510009765625 0.245849609375 0.75663375854492188
-0.07489776611328125 0.27223968505859375 0.75705718994140625
-0.07672119140625 0.27349090576171875 0.75646591186523438
-0.01747894287109375 0.21947479248046875 0.7531890869140625
-0.01728057861328125 0.2104339599609375 0.75572586059570312
-0.07269287109375 0.2688140869140625 0.75799560546875
-0.39280319213867188 -0.04430389404296875 0.76885223388671875
-0.404022216796875 -0.051082611083984375 0.76963233947753906
-0.39150238037109375 -0.04309844970703125 0.76961135864257812
-0.38222122192382812 -0.031635284423828125 0.76805305480957031
-0.392822265625 -0.044773101806640625 0.76795005798339844
-0.40400314331054688 -0.05367279052734375 0.76881980895996094
-0.4027252197265625 -0.048282623291015625 0.77040290832519531
-0.38097381591796875 -0.03229522705078125 0.76891326904296875
-0.38164138793945312 -0.02991485595703125 0.76733970642089844
-0.1300506591796875 0.37122344970703125 0.78184854984283447
-0.1370086669921875 0.37583160400390625 0.78139734268188477
-0.126953125 0.34986114501953125 0.78161215782165527
-0.12271881103515625 0.3677520751953125 0.78291553258895874
-0.12792205810546875 0.39527130126953125 0.78041172027587891
-0.13408660888671875 0.40126800537109375 0.77962827682495117
-0.13364410400390625 0.3529205322265625 0.78140735626220703
-0.1195220947265625 0.3476715087890625 0.78256034851074219
-0.12114715576171875 0.39059829711914062 0.78164738416671753
-0.29906463623046875 0.45344161987304688 0.7439422607421875
-0.29360198974609375 0.41156768798828125 0.74972057342529297
-0.29238510131835938 0.45352935791015625 0.74426889419555664
-0.30807876586914062 0.48766708374023438 0.73724365234375
-0.30431747436523438 0.45476150512695312 0.74407291412353516
-0.2977142333984375 0.4142303466796875 0.74988746643066406
-0.28826904296875 0.41102981567382812 0.75008773803710938
-0.30104827880859375 0.48784637451171875 0.73751926422119141
-0.31452560424804688 0.48870086669921875 0.73743963241577148
-0.10327911376953125 0.30954742431640625 0.77423858642578125
-0.10565948486328125 0.30895233154296875 0.77441310882568359
-0.09804534912109375 0.30460357666015625 0.77105426788330078
-0.09958648681640625 0.31012725830078125 0.77535438537597656
-0.11066436767578125 0.3184356689453125 0.77744674682617188
-0.11499786376953125 0.3189239501953125 0.77732944488525391
-0.09954833984375 0.30347442626953125 0.77103424072265625
-0.09514617919921875 0.305877685546875 0.77211380004882812
-0.106109619140625 0.31842803955078125 0.77834320068359375
-0.30630111694335938 0.25168991088867188 0.76109218597412109
-0.316436767578125 0.19376373291015625 0.76309967041015625
-0.30345535278320312 0.248016357421875 0.76165199279785156
-0.29800033569335938 0.3092041015625 0.75829029083251953
-0.30693435668945312 0.25837326049804688 0.761077880859375
-0.31657028198242188 0.2013397216796875 0.7630615234375
-0.31461715698242188 0.18949127197265625 0.76377296447753906
-0.29467010498046875 0.30666351318359375 0.75872135162353516
-0.29987716674804688 0.31455612182617188 0.75833320617675781
-0.0956573486328125 0.2992706298828125 0.76304054260253906
-0.0969085693359375 0.299224853515625 0.76280784606933594
-0.0936279296875 0.294769287109375 0.76086807250976562
-0.09342193603515625 0.2990264892578125 0.76402091979980469
-0.095672607421875 0.3015594482421875 0.76533699035644531
-0.0965423583984375 0.30072021484375 0.76522254943847656
-0.0953826904296875 0.295074462890625 0.76062393188476562
-0.0911865234375 0.29367828369140625 0.76198577880859375
-0.09345245361328125 0.30185699462890625 0.76650810241699219
-0.35050201416015625 0.0495147705078125 0.76620864868164062
-0.361083984375 0.015048980712890625 0.766754150390625
-0.34933853149414062 0.044879913330078125 0.76700401306152344
-0.339324951171875 0.0911407470703125 0.76546859741210938
-0.34965896606445312 0.0561065673828125 0.76578521728515625
-0.3604278564453125 0.020599365234375 0.76625251770019531
-0.36001968383789062 0.011264801025390625 0.767669677734375
-0.3379974365234375 0.0861968994140625 0.76628494262695312
-0.33875656127929688 0.098369598388671875 0.76515769958496094
-0.05506134033203125 0.55733871459960938 0.74121904373168945
-0.06368255615234375 0.54022979736328125 0.7538604736328125
-0.05316925048828125 0.57735443115234375 0.72892284393310547
-0.02637481689453125 0.57598114013671875 0.7259400486946106
-0.06702423095703125 0.552520751953125 0.73983001708984375
-0.08237457275390625 0.53665924072265625 0.75144290924072266
-0.043701171875 0.55693817138671875 0.74658203125
-0.04221343994140625 0.59766006469726562 0.70504987239837646
-0.0342559814453125 0.57106781005859375 0.72676557302474976
-0.1091156005859375 0.54512786865234375 0.74186551570892334
-0.11098480224609375 0.54249954223632812 0.7441706657409668
-0.11440277099609375 0.52699661254882812 0.75383782386779785
-0.09795379638671875 0.55043792724609375 0.73795473575592041
-0.0906829833984375 0.56708145141601562 0.72911548614501953
-0.100982666015625 0.56474685668945312 0.73080730438232422
-0.1112518310546875 0.5227203369140625 0.75636488199234009
-0.10900115966796875 0.53358078002929688 0.74995851516723633
-0.072235107421875 0.570953369140625 0.72555279731750488
-0.1206512451171875 0.82134819030761719 0.35312604904174805
-0.05425262451171875 0.79417800903320312 0.42784786224365234
-0.12313079833984375 0.91367149353027344 0.10178160667419434
-0.20494842529296875 0.84174346923828125 0.26542043685913086
-0.094329833984375 0.7124176025390625 0.55736541748046875
-0.023895263671875 0.68243789672851562 0.61266136169433594
-0.10906219482421875 0.89390182495117188 0.16938638687133789
-0.17023468017578125 0.91732406616210938 0.044695734977722168
-0.1709136962890625 0.74127006530761719 0.48176625370979309
0.00933074951171875 0.71226119995117188 0.65782785415649414
0.0520782470703125 0.792266845703125 0.60030078887939453
0.0047760009765625 0.69256210327148438 0.66916847229003906
-0.0507965087890625 0.62133026123046875 0.70721912384033203
0.006153106689453125 0.72899246215820312 0.64978313446044922
0.048030853271484375 0.79636001586914062 0.6012110710144043
0.04449462890625 0.77899169921875 0.60988235473632812
-0.0507659912109375 0.59841537475585938 0.72046899795532227
-0.05077362060546875 0.645477294921875 0.69329261779785156
0.19356155395507812 0.88574481010437012 -0.33924221992492676
0.01239013671875 0.89015483856201172 -0.37880492210388184
0.34685516357421875 0.831817626953125 -0.33224773406982422
0.2367706298828125 0.88269233703613281 -0.30370903015136719
0.03553009033203125 0.93657064437866211 -0.28317099809646606
-0.097652435302734375 0.92827892303466797 -0.28915023803710938
0.1527099609375 0.85445594787597656 -0.38495355844497681
0.3887481689453125 0.82726669311523438 -0.30137729644775391
0.06241607666015625 0.93268179893493652 -0.25988006591796875
0.075450897216796875 0.86812591552734375 0.50843143463134766
0.079677581787109375 0.85223388671875 0.52787399291992188
0.06935882568359375 0.86071014404296875 0.52352142333984375
0.06922149658203125 0.863525390625 0.51570510864257812
0.0744476318359375 0.860504150390625 0.517791748046875
0.073516845703125 0.84624481201171875 0.53467655181884766
0.07845306396484375 0.83917999267578125 0.54341220855712891
0.060039520263671875 0.85759735107421875 0.5290532112121582
0.071044921875 0.85750579833984375 0.52592039108276367
0.34580230712890625 0.84349441528320312 -0.29743671417236328
0.227783203125 0.88119316101074219 -0.27599620819091797
0.1998748779296875 0.88664817810058594 -0.31484603881835938
0.37966156005859375 0.83130645751953125 -0.31297492980957031
0.43831253051757812 0.80606269836425781 -0.29047012329101562
0.2939910888671875 0.84912300109863281 -0.30475711822509766
0.096950531005859375 0.9176788330078125 -0.256561279296875
0.27630329132080078 0.86286163330078125 -0.33687210083007812
0.45652008056640625 0.7989044189453125 -0.29339885711669922
-0.028156280517578125 0.74480438232421875 0.6596832275390625
-0.099491119384765625 0.73284149169921875 0.67723846435546875
-0.027923583984375 0.71685028076171875 0.66867446899414062
0.0325927734375 0.769805908203125 0.62029266357421875
-0.030254364013671875 0.7572174072265625 0.65476799011230469
-0.097034454345703125 0.7367706298828125 0.67675399780273438
-0.1009368896484375 0.71246337890625 0.68120765686035156
0.0353546142578125 0.74103546142578125 0.6337127685546875
0.024562835693359375 0.78162384033203125 0.61628341674804688
-0.3621673583984375 0.88717079162597656 -0.27560043334960938
-0.39207839965820312 0.88214683532714844 -0.12730789184570312
-0.39587020874023438 0.87782669067382812 -0.132720947265625
-0.24121856689453125 0.88606452941894531 -0.36656570434570312
-0.18934822082519531 0.90070343017578125 -0.33435821533203125
-0.248687744140625 0.91978836059570312 -0.21044921875
-0.40613555908203125 0.84621429443359375 0.02675628662109375
-0.2954559326171875 0.90668869018554688 -0.251983642578125
-0.050977706909179688 0.86887550354003906 -0.38811874389648438
-0.38629150390625 0.429290771484375 0.66671371459960938
-0.50982666015625 0.24755859375 0.672760009765625
-0.38431549072265625 0.43257904052734375 0.67275238037109375
-0.26680755615234375 0.589996337890625 0.66982269287109375
-0.38651657104492188 0.41463470458984375 0.66401290893554688
-0.51012802124023438 0.22825241088867188 0.66501998901367188
-0.512542724609375 0.25884628295898438 0.68066787719726562
-0.264801025390625 0.585968017578125 0.6720733642578125
-0.26274490356445312 0.5810699462890625 0.67221832275390625
0.014186859130859375 0.83661270141601562 0.3954620361328125
0.05419921875 0.79998397827148438 0.49198150634765625
0.098857879638671875 0.79131317138671875 0.50856781005859375
-0.004238128662109375 0.87234878540039062 0.27115631103515625
-0.13135910034179688 0.861724853515625 0.24484634399414062
-0.10078048706054688 0.8205108642578125 0.37751388549804688
0.13873672485351562 0.75271224975585938 0.56646728515625
0.06256866455078125 0.8308563232421875 0.41400146484375
-0.11380386352539062 0.90081787109375 0.10275650024414062
-0.65351104736328125 -0.14665985107421875 0.6869354248046875
-0.62145233154296875 -0.22910308837890625 0.68567276000976562
-0.67313766479492188 -0.109527587890625 0.68224716186523438
-0.65158462524414062 -0.04711151123046875 0.6867523193359375
-0.657684326171875 -0.17432403564453125 0.67708969116210938
-0.63050079345703125 -0.25333404541015625 0.6776885986328125
-0.64260101318359375 -0.19330406188964844 0.67707061767578125
-0.66641998291015625 -0.016109466552734375 0.68859481811523438
-0.6523590087890625 -0.072845458984375 0.67556381225585938
0.13131523132324219 0.49567222595214844 0.70006752014160156
0.15274810791015625 0.44922637939453125 0.68767929077148438
0.21384429931640625 0.30389785766601562 0.65382575988769531
0.11144065856933594 0.55757522583007812 0.68830680847167969
0.10001754760742188 0.64023017883300781 0.66822052001953125
0.12835121154785156 0.58947372436523438 0.67392730712890625
0.23034286499023438 0.26281356811523438 0.6305084228515625
0.20140457153320312 0.37036895751953125 0.66624641418457031
0.068929672241210938 0.69721221923828125 0.63089370727539062
-0.63613128662109375 -0.36899089813232422 0.65415573120117188
-0.69252204895019531 -0.37522315979003906 0.62697029113769531
-0.62643051147460938 -0.37317276000976562 0.65561676025390625
-0.58261489868164062 -0.34961128234863281 0.6766510009765625
-0.65896987915039062 -0.36110877990722656 0.64036178588867188
-0.70516204833984375 -0.37374973297119141 0.61662101745605469
-0.68535041809082031 -0.37752246856689453 0.62709236145019531
-0.58346176147460938 -0.34274101257324219 0.67416000366210938
-0.60655593872070312 -0.34834480285644531 0.66400909423828125
0.58968353271484375 -0.17877960205078125 0.31838226318359375
0.59295272827148438 -0.15496635437011719 0.30533599853515625
0.75926971435546875 -0.24600028991699219 0.4046478271484375
0.572052001953125 -0.19170379638671875 0.33820152282714844
0.42866134643554688 -0.051942825317382812 0.36228847503662109
0.43931961059570312 -0.055999755859375 0.34154129028320312
0.75681304931640625 -0.20628738403320312 0.39058113098144531
0.74582672119140625 -0.27893352508544922 0.41154861450195312
0.41182708740234375 -0.027002334594726562 0.39738178253173828
-0.66281652450561523 -0.37335538864135742 0.6376800537109375
-0.62551236152648926 -0.36899280548095703 0.65357446670532227
-0.65953683853149414 -0.37310194969177246 0.63760662078857422
-0.69355106353759766 -0.37665700912475586 0.61823463439941406
-0.68296146392822266 -0.37714672088623047 0.62485790252685547
-0.65703511238098145 -0.36957406997680664 0.63963651657104492
-0.61728930473327637 -0.36914879083633423 0.65519928932189941
-0.69713115692138672 -0.37260818481445312 0.61553001403808594
-0.69833278656005859 -0.38665103912353516 0.60951137542724609
0.8212890625 -0.32857513427734375 0.4757080078125
0.84468841552734375 -0.30915451049804688 0.44306564331054688
0.66090774536132812 -0.37524032592773438 0.35364532470703125
0.806549072265625 -0.3129119873046875 0.50925445556640625
0.8995819091796875 -0.2921905517578125 0.55169677734375
0.91303253173828125 -0.25981712341308594 0.51539230346679688
0.68483734130859375 -0.37005233764648438 0.3379364013671875
0.64478683471679688 -0.34275436401367188 0.37311172485351562
0.88736724853515625 -0.29893684387207031 0.58089828491210938
-0.57801055908203125 -0.34087342023849487 0.67302417755126953
-0.55058860778808594 -0.33840674161911011 0.67690277099609375
-0.56836247444152832 -0.33195316791534424 0.67569160461425781
-0.5931822657585144 -0.34696513414382935 0.6668095588684082
-0.60125207901000977 -0.34899938106536865 0.66428756713867188
-0.56607389450073242 -0.34715569019317627 0.6724853515625
-0.54376459121704102 -0.32930934429168701 0.67864990234375
-0.58482933044433594 -0.33979332447052002 0.66977977752685547
-0.61912059783935547 -0.35347318649291992 0.65518331527709961
0.0057430267333984375 -0.34797477722167969 0.54666423797607422
-0.10580348968505859 -0.37379264831542969 0.54134750366210938
-0.013650417327880859 -0.34053421020507812 0.55821943283081055
0.12374258041381836 -0.32372283935546875 0.58960103988647461
0.035736083984375 -0.35476493835449219 0.53902655839920044
-0.068665981292724609 -0.37230491638183594 0.52549934387207031
-0.13274335861206055 -0.37332344055175781 0.55651187896728516
0.10228776931762695 -0.31111907958984375 0.59776473045349121
0.1538081169128418 -0.337432861328125 0.5896601676940918
-0.32604646682739258 -0.39011383056640625 0.67215538024902344
-0.36240720748901367 -0.38858795166015625 0.6810150146484375
-0.26940369606018066 -0.39657211303710938 0.62974929809570312
-0.29233694076538086 -0.38846206665039062 0.65957832336425781
-0.37186336517333984 -0.37903594970703125 0.687347412109375
-0.40286588668823242 -0.37830734252929688 0.68362236022949219
-0.30708026885986328 -0.39787673950195312 0.64828109741210938
-0.22820258140563965 -0.39200210571289062 0.60757064819335938
-0.34871697425842285 -0.37728118896484375 0.688385009765625
0.19489431381225586 -0.38497161865234375 0.54325675964355469
0.089625120162963867 -0.35637474060058594 0.49417400360107422
0.13274240493774414 -0.36933708190917969 0.52789402008056641
0.31680977344512939 -0.41184425354003906 0.60851669311523438
0.26581478118896484 -0.41828393936157227 0.57783126831054688
0.15060520172119141 -0.37446022033691406 0.51607322692871094
0.033603958785533905 -0.35881614685058594 0.49143028259277344
0.25088357925415039 -0.38001251220703125 0.59216499328613281
0.39094066619873047 -0.45526790618896484 0.64147567749023438
-0.17440342903137207 -0.37750244140625 0.58224391937255859
-0.2144642174243927 -0.38024711608886719 0.61443996429443359
-0.087192535400390625 -0.35578060150146484 0.51957798004150391
-0.13868570327758789 -0.37800502777099609 0.54477500915527344
-0.26203000545501709 -0.39043998718261719 0.6428370475769043
-0.29611140489578247 -0.38021469116210938 0.66823101043701172
-0.13172522187232971 -0.369293212890625 0.54841458797454834
-0.047007083892822266 -0.35258293151855469 0.49596023559570312
-0.22890615463256836 -0.40255451202392578 0.605682373046875
0.55544757843017578 -0.50326371192932129 0.66811752319335938
0.44768047332763672 -0.47756195068359375 0.62780380249023438
0.45365238189697266 -0.49956387281417847 0.64541435241699219
0.63827896118164062 -0.50811111927032471 0.68549537658691406
0.63686561584472656 -0.48538017272949219 0.68501472473144531
0.54982948303222656 -0.48504734039306641 0.66506385803222656
0.33282279968261719 -0.45509839057922363 0.58600997924804688
0.55985260009765625 -0.52395427227020264 0.68541336059570312
0.69394969940185547 -0.46935272216796875 0.68452835083007812
0.048192977905273438 -0.37091922760009766 0.49561691284179688
-0.036966800689697266 -0.37445735931396484 0.48878860473632812
0.18292522430419922 -0.39826488494873047 0.52408790588378906
0.14327478408813477 -0.38442039489746094 0.52408981323242188
-0.075757980346679688 -0.36451530456542969 0.50335311889648438
-0.14345407485961914 -0.38886833190917969 0.52291297912597656
0.079984664916992188 -0.37900924682617188 0.49031829833984375
0.29256486892700195 -0.42660140991210938 0.57186317443847656
0.00040435791015625 -0.35612678527832031 0.50415802001953125
0.73161745071411133 -0.44853019714355469 0.68307304382324219
0.73633408546447754 -0.43648910522460938 0.67346763610839844
0.70814609527587891 -0.49216461181640625 0.6839599609375
0.71786212921142578 -0.45720005035400391 0.6916961669921875
0.7315516471862793 -0.40307521820068359 0.679443359375
0.72920751571655273 -0.39835357666015625 0.67427635192871094
0.72526431083679199 -0.47441291809082031 0.674591064453125
0.67635822296142578 -0.49682044982910156 0.69107818603515625
0.73170375823974609 -0.41325092315673828 0.68397331237792969
0.39502513408660889 -0.47308731079101562 0.61974716186523438
0.5420793890953064 -0.51212882995605469 0.66055679321289062
0.46354961395263672 -0.46607208251953125 0.64950180053710938
0.22569131851196289 -0.41897201538085938 0.56155014038085938
0.31800436973571777 -0.45612716674804688 0.59094619750976562
0.47362446784973145 -0.500091552734375 0.64300155639648438
0.59556794166564941 -0.4992523193359375 0.67412948608398438
0.30114459991455078 -0.41259002685546875 0.59847259521484375
0.14950263500213623 -0.40428733825683594 0.5354156494140625
0.7156682014465332 -0.36927223205566406 0.68447494506835938
0.70990085601806641 -0.3724980354309082 0.68484258651733398
0.71421289443969727 -0.35977983474731445 0.68038034439086914
0.72349357604980469 -0.36855697631835938 0.6810765266418457
0.7253413200378418 -0.38876676559448242 0.68264079093933105
0.72102546691894531 -0.39420461654663086 0.68033075332641602
0.70814228057861328 -0.3623046875 0.68203353881835938
0.72523307800292969 -0.36536741256713867 0.67573976516723633
0.72599077224731445 -0.37887430191040039 0.68286466598510742
-0.18590301275253296 -0.41246414184570312 0.528900146484375
-0.080221831798553467 -0.38397216796875 0.49708938598632812
-0.12263262271881104 -0.39307785034179688 0.50323486328125
-0.26575911045074463 -0.43286323547363281 0.58699798583984375
-0.23055887222290039 -0.40723800659179688 0.57833099365234375
