# XYZ point cloud file
0.35112524032592773 -0.17516368627548218 0.58213162422180176
0.37917017936706543 -0.17795014381408691 0.58403539657592773
-0.62717270851135254 -0.66016411781311035 -0.30267038941383362
-0.62096154689788818 -0.64693701267242432 -0.29176473617553711
-0.62377941608428955 -0.65384900569915771 -0.29588675498962402
-0.63267052173614502 -0.67091190814971924 -0.31197583675384521
-0.63094300031661987 -0.66519725322723389 -0.30800950527191162
-0.62569892406463623 -0.65405678749084473 -0.29878976941108704
-0.61672854423522949 -0.63798773288726807 -0.2822834849357605
-0.63004153966903687 -0.66642296314239502 -0.30685502290725708
-0.63583296537399292 -0.67417722940444946 -0.31552687287330627
0.392791748046875 -0.14088654518127441 0.5590064525604248
0.40541458129882812 -0.17005372047424316 0.5766143798828125
0.41167980432510376 -0.17248439788818359 0.56080865859985352
0.35210627317428589 -0.067466259002685547 0.5307011604309082
0.34458214044570923 -0.057491779327392578 0.5413975715637207
0.3541221022605896 -0.096530914306640625 0.57472133636474609
0.42347633838653564 -0.19007706642150879 0.56697702407836914
0.37501358985900879 -0.12322735786437988 0.55217695236206055
0.30995273590087891 0.038071393966674805 0.4791414737701416
-0.64338475465774536 -0.68983012437820435 -0.32483488321304321
-0.64068913459777832 -0.68525087833404541 -0.32232311367988586
-0.64220356941223145 -0.68790149688720703 -0.32244700193405151
-0.64562714099884033 -0.69238460063934326 -0.32672017812728882
-0.64499634504318237 -0.6898762583732605 -0.32677996158599854
-0.64317148923873901 -0.68564844131469727 -0.32430189847946167
-0.63907051086425781 -0.68294656276702881 -0.31945601105690002
-0.64463156461715698 -0.69058054685592651 -0.32473361492156982
-0.64626771211624146 -0.69285315275192261 -0.32838869094848633
0.20954036712646484 0.59819555282592773 -0.011542320251464844
0.20603370666503906 0.58339500427246094 0.0095260143280029297
0.2235482931137085 0.36457538604736328 0.23490077257156372
0.21645474433898926 0.63171303272247314 -0.057490110397338867
0.22650468349456787 0.75231343507766724 -0.19390869140625
0.2246699333190918 0.74739336967468262 -0.18659305572509766
0.22141265869140625 0.33491969108581543 0.27274918556213379
0.22271931171417236 0.43537163734436035 0.15376377105712891
0.2311478853225708 0.76093518733978271 -0.20811891555786133
-0.64663851261138916 -0.69374984502792358 -0.32819262146949768
-0.64747005701065063 -0.69342052936553955 -0.328654944896698
-0.64523583650588989 -0.69255119562149048 -0.32681134343147278
-0.64546710252761841 -0.69340580701828003 -0.32729586958885193
-0.64802718162536621 -0.69436407089233398 -0.32952156662940979
-0.64828109741210938 -0.69441312551498413 -0.32986187934875488
-0.64606404304504395 -0.69203943014144897 -0.32715961337089539
-0.64438438415527344 -0.69199162721633911 -0.32616719603538513
-0.6466822624206543 -0.69410121440887451 -0.32848748564720154
0.27636650204658508 0.89694076776504517 -0.32978487014770508
0.27747067809104919 0.89899235963821411 -0.3319404125213623
0.26678675413131714 0.87112468481063843 -0.31504058837890625
0.27491253614425659 0.8892749547958374 -0.32501792907714844
0.28120711445808411 0.91519194841384888 -0.34078240394592285
0.28396213054656982 0.91624802350997925 -0.34281086921691895
0.26708096265792847 0.87240123748779297 -0.3156585693359375
0.26611369848251343 0.86635410785675049 -0.31350898742675781
0.27773088216781616 0.90596473217010498 -0.33197164535522461
-0.64203071594238281 -0.68560588359832764 -0.32470539212226868
-0.6431041955947876 -0.68924397230148315 -0.32556155323982239
-0.6401485800743103 -0.6838303804397583 -0.32268440723419189
-0.6408962607383728 -0.68005728721618652 -0.32432416081428528
-0.64418107271194458 -0.68710213899612427 -0.32705691456794739
-0.64462512731552124 -0.69056326150894165 -0.32706502079963684
-0.64191305637359619 -0.68718796968460083 -0.32443863153457642
-0.63850593566894531 -0.67837059497833252 -0.32127588987350464
-0.64276540279388428 -0.68306100368499756 -0.3266613781452179
0.28188169002532959 0.9296727180480957 -0.35183382034301758
0.28569296002388 0.92803728580474854 -0.35312831401824951
0.28224694728851318 0.92945969104766846 -0.35044574737548828
0.27946767210960388 0.91700005531311035 -0.33471894264221191
0.28094977140426636 0.92778557538986206 -0.35119295120239258
0.28353387117385864 0.92783737182617188 -0.35519182682037354
0.28687313199043274 0.92729783058166504 -0.35016083717346191
0.27814161777496338 0.91886931657791138 -0.33635067939758301
0.27943432331085205 0.91272854804992676 -0.33162665367126465
-0.62958735227584839 -0.6617925763130188 -0.31477159261703491
-0.63443535566329956 -0.66773229837417603 -0.31996205449104309
-0.62738454341888428 -0.65652680397033691 -0.31126922369003296
-0.62482708692550659 -0.65382945537567139 -0.30917400121688843
-0.63198405504226685 -0.67015767097473145 -0.31669062376022339
-0.63586831092834473 -0.67550241947174072 -0.32109177112579346
-0.63216304779052734 -0.66382920742034912 -0.31645545363426208
-0.62251031398773193 -0.64801466464996338 -0.30497580766677856
-0.6283271312713623 -0.66161566972732544 -0.31284451484680176
0.27172881364822388 0.9003288745880127 -0.32519710063934326
0.2711978554725647 0.90436303615570068 -0.32921457290649414
0.27487033605575562 0.91248512268066406 -0.33474516868591309
0.27108317613601685 0.88546085357666016 -0.31835460662841797
0.26886427402496338 0.88836115598678589 -0.32024002075195312
0.2676692008972168 0.89240431785583496 -0.3221513032913208
0.27529719471931458 0.91575533151626587 -0.34028494358062744
0.27380579710006714 0.89616674184799194 -0.32104349136352539
0.26787376403808594 0.87574160099029541 -0.31900382041931152
-0.61055845022201538 -0.62605345249176025 -0.28757596015930176
-0.61511486768722534 -0.63503110408782959 -0.29570043087005615
-0.60841965675354004 -0.62074035406112671 -0.27906584739685059
-0.60652011632919312 -0.61725044250488281 -0.27969321608543396
-0.61483234167098999 -0.63181519508361816 -0.2971724271774292
-0.61932867765426636 -0.64099836349487305 -0.3036189079284668
-0.61290180683135986 -0.62975770235061646 -0.28853625059127808
-0.6041942834854126 -0.61135178804397583 -0.27018925547599792
-0.61112761497497559 -0.62373894453048706 -0.2902260422706604
0.18100392818450928 0.50388622283935547 0.12137556076049805
0.18552911281585693 0.57431435585021973 0.039286613464355469
0.23095571994781494 0.10827851295471191 0.47018146514892578
0.17622017860412598 0.44676756858825684 0.18883228302001953
0.22083389759063721 0.79179298877716064 -0.23607683181762695
0.23267549276351929 0.82430589199066162 -0.2788081169128418
0.22665190696716309 0.16314172744750977 0.42531299591064453
0.22757339477539062 0.07853400707244873 0.49700403213500977
0.20925807952880859 0.75621140003204346 -0.1861414909362793
-0.62681019306182861 -0.66633021831512451 -0.31193935871124268
-0.63149237632751465 -0.66892725229263306 -0.31303027272224426
-0.62898874282836914 -0.67510688304901123 -0.31612527370452881
-0.6282501220703125 -0.6595923900604248 -0.30696344375610352
-0.62471520900726318 -0.65748608112335205 -0.30706852674484253
-0.62793147563934326 -0.66059184074401855 -0.30823951959609985
-0.63485085964202881 -0.67700362205505371 -0.31654533743858337
-0.63158762454986572 -0.66669857501983643 -0.31284609436988831
-0.62523257732391357 -0.65179497003555298 -0.30088269710540771
0.22307895123958588 0.76400178670883179 -0.20285534858703613
0.2749449610710144 0.8668140172958374 -0.33591270446777344
0.23411762714385986 0.79410958290100098 -0.24560356140136719
0.20294724404811859 0.44379305839538574 0.16855478286743164
0.20713409781455994 0.71654129028320312 -0.13667738437652588
0.26410609483718872 0.86278551816940308 -0.33192741870880127
0.27492490410804749 0.86865818500518799 -0.33122444152832031
0.20443776249885559 0.54542970657348633 0.053961649537086487
0.20732766389846802 0.34057211875915527 0.27224230766296387
-0.64716368913650513 -0.6805461049079895 -0.32879841327667236
-0.64754414558410645 -0.68511497974395752 -0.32854241132736206
-0.64292198419570923 -0.67781519889831543 -0.3252214789390564
-0.64128470420837402 -0.68024647235870361 -0.32580405473709106
-0.64893800020217896 -0.68688774108886719 -0.32687550783157349
-0.6486859917640686 -0.69019722938537598 -0.32801210880279541
-0.64226603507995605 -0.68448042869567871 -0.32486748695373535
-0.64067530632019043 -0.67354780435562134 -0.32334330677986145
-0.64497184753417969 -0.68537050485610962 -0.32383084297180176
0.25033503770828247 0.82365190982818604 -0.28694629669189453
0.26456642150878906 0.85407954454421997 -0.31389093399047852
0.23888623714447021 0.77419602870941162 -0.23253345489501953
0.24736988544464111 0.82064312696456909 -0.28369855880737305
0.26750606298446655 0.8658406138420105 -0.32150411605834961
0.25368940830230713 0.82630419731140137 -0.28846168518066406
0.22415304183959961 0.71152603626251221 -0.15456962585449219
-0.64590561389923096 -0.69420397281646729 -0.32857295870780945
-0.64754676818847656 -0.69474279880523682 -0.32968291640281677
-0.64615637063980103 -0.69214564561843872 -0.32892584800720215
-0.64534974098205566 -0.69379818439483643 -0.32798871397972107
-0.64658832550048828 -0.69546747207641602 -0.32890266180038452
-0.64710843563079834 -0.6934775710105896 -0.3293415904045105
-0.64373660087585449 -0.69166946411132812 -0.3270895779132843
0.25208586454391479 0.85721123218536377 -0.30724549293518066
0.24771279096603394 0.85198438167572021 -0.29941749572753906
0.252544105052948 0.85879659652709961 -0.3076930046081543
0.25924909114837646 0.867012619972229 -0.31573426723480225
0.24461442232131958 0.84628373384475708 -0.29775667190551758
0.24018165469169617 0.84248632192611694 -0.28956222534179688
0.24808591604232788 0.85145449638366699 -0.29932260513305664
0.25876617431640625 0.86958605051040649 -0.31540489196777344
0.2538185715675354 0.85670876502990723 -0.31182366609573364
-0.60030102729797363 -0.59761464595794678 -0.26664817333221436
-0.59565895795822144 -0.58672988414764404 -0.25405114889144897
-0.59823942184448242 -0.59117138385772705 -0.26270291209220886
-0.60695964097976685 -0.61056244373321533 -0.27762690186500549
-0.60151767730712891 -0.60270202159881592 -0.26966732740402222
-0.59782397747039795 -0.59412181377410889 -0.25855273008346558
-0.59265005588531494 -0.57716691493988037 -0.24703133106231689
-0.60555720329284668 -0.6071435809135437 -0.27555558085441589
-0.60751020908355713 -0.61306649446487427 -0.28019338846206665
0.16081899404525757 0.38339543342590332 0.26252651214599609
0.18117427825927734 0.66008031368255615 -0.04796600341796875
0.16548871994018555 0.38492035865783691 0.26235079765319824
0.18567776679992676 0.10389184951782227 0.49635457992553711
0.15636700391769409 0.40070509910583496 0.23975062370300293
0.18040579557418823 0.66019296646118164 -0.051421880722045898
0.18717247247695923 0.68356966972351074 -0.079354047775268555
0.20271897315979004 0.080455780029296875 0.50859808921813965
0.16811093688011169 0.13552975654602051 0.47410643100738525
-0.61886966228485107 -0.64401412010192871 -0.29484513401985168
-0.62009036540985107 -0.64628797769546509 -0.29735952615737915
-0.61917960643768311 -0.64004373550415039 -0.28893196582794189
-0.6183086633682251 -0.64320099353790283 -0.29365333914756775
-0.61943870782852173 -0.64522814750671387 -0.29631859064102173
-0.62136858701705933 -0.64832192659378052 -0.29837381839752197
-0.6203538179397583 -0.64163708686828613 -0.29108074307441711
-0.61847859621047974 -0.63963443040847778 -0.28812000155448914
-0.61825078725814819 -0.64329785108566284 -0.2958853542804718
0.28395223617553711 -0.15819242596626282 0.59481352567672729
0.2480977475643158 -0.142237588763237 0.59788894653320312
0.26203048229217529 -0.12870955467224121 0.59113061428070068
0.31869322061538696 -0.17506349086761475 0.59140574932098389
0.30023640394210815 -0.17543718218803406 0.60387885570526123
0.2671051025390625 -0.16011740267276764 0.6046338677406311
0.22651398181915283 -0.11115214228630066 0.59654915332794189
0.29651662707328796 -0.14639037847518921 0.58487176895141602
0.33327668905258179 -0.19146183133125305 0.60202133655548096
-0.6082082986831665 -0.6167062520980835 -0.26236116886138916
-0.61519545316696167 -0.63155698776245117 -0.27698135375976562
-0.60649752616882324 -0.61377829313278198 -0.25735902786254883
-0.60108393430709839 -0.59866297245025635 -0.23909008502960205
-0.61084437370300293 -0.62287867069244385 -0.2700570821762085
-0.61735707521438599 -0.63527405261993408 -0.2819398045539856
-0.61388087272644043 -0.63080775737762451 -0.2748839259147644
-0.59810972213745117 -0.59155857563018799 -0.22904995083808899
-0.60474318265914917 -0.60783058404922485 -0.25104928016662598
0.039290852844715118 0.11981123685836792 0.63664489984512329
0.03222956508398056 0.11895300447940826 0.63772052526473999
0.026072202250361443 0.1182396337389946 0.63875555992126465
0.028979292139410973 0.096042916178703308 0.64255285263061523
0.035381738096475601 0.076805368065834045 0.64497995376586914
0.040018059313297272 0.06060965359210968 0.6473272442817688
0.050585512071847916 0.039484754204750061 0.64837616682052612
0.062417585402727127 0.028050005435943604 0.64732778072357178
0.076619662344455719 0.014804735779762268 0.64601564407348633
0.085655301809310913 0.02062273770570755 0.64217841625213623
0.0751141756772995 0.047433428466320038 0.64023584127426147
0.061420019716024399 0.081224486231803894 0.63824987411499023
-0.21469303965568542 0.018165841698646545 0.67410451173782349
-0.21476444602012634 0.010878697037696838 0.67412853240966797
-0.21306110918521881 0.0065889507532119751 0.67415440082550049
-0.20374239981174469 0.012006297707557678 0.67506492137908936
-0.19848459959030151 0.018914446234703064 0.67563986778259277
-0.19408375024795532 0.024983612820506096 0.67602556943893433
-0.19324211776256561 0.032203719019889832 0.67615687847137451
-0.19402526319026947 0.0358770452439785 0.67603111267089844
-0.19356735050678253 0.041121959686279297 0.6759294867515564
-0.19519460201263428 0.044502954930067062 0.67561405897140503
-0.20009900629520416 0.040071651339530945 0.67520177364349365
-0.20610296726226807 0.034822374582290649 0.67460477352142334
0.06273353099822998 0.13405874371528625 0.62310630083084106
0.058129191398620605 0.1277933269739151 0.62910962104797363
0.052676569670438766 0.12361551821231842 0.63285791873931885
0.10542307794094086 -0.011093840003013611 0.64269495010375977
0.11825176328420639 -0.022087834775447845 0.64113223552703857
0.13035042583942413 -0.032051920890808105 0.63970041275024414
0.12949511408805847 -0.016347624361515045 0.63822740316390991
0.110092394053936 0.022124305367469788 0.63679903745651245
0.087587304413318634 0.075175881385803223 0.63060975074768066
-0.24229906499385834 -0.012967474758625031 0.66837531328201294
-0.24203155934810638 -0.021570593118667603 0.66891103982925415
-0.23911631107330322 -0.025588527321815491 0.66939342021942139
-0.22679093480110168 -0.018289223313331604 0.67132836580276489
-0.22058297693729401 -0.01060841977596283 0.672435462474823
-0.21482835710048676 -0.0029996521770954132 0.67340826988220215
-0.21892611682415009 0.022504210472106934 0.67311471700668335
-0.2253391295671463 0.015794679522514343 0.67198866605758667
-0.23184514045715332 0.008550494909286499 0.67023706436157227
0.091823041439056396 -0.01082591712474823 0.64675647020339966
0.08645862340927124 -0.016206562519073486 0.64909279346466064
0.076018527150154114 -0.015908144414424896 0.65131652355194092
0.071883782744407654 -0.021666824817657471 0.6524810791015625
0.081982076168060303 -0.031047090888023376 0.65116828680038452
0.091920912265777588 -0.039275988936424255 0.64943361282348633
0.12370588630437851 -0.055206760764122009 0.64352083206176758
0.13884133100509644 -0.058414757251739502 0.64044314622879028
0.14531373977661133 -0.054620318114757538 0.63872438669204712
-0.22467851638793945 -0.024388134479522705 0.6705513596534729
-0.21249037981033325 -0.021347913891077042 0.67107939720153809
-0.19791075587272644 -0.017306657508015633 0.67149162292480469
-0.17962542176246643 -0.0071678087115287781 0.67286562919616699
-0.17759151756763458 -0.0018488690257072449 0.67367804050445557
-0.17608150839805603 0.0037593729794025421 0.67442923784255981
-0.18532514572143555 0.0066809654235839844 0.67516183853149414
-0.19496268033981323 0.004829850047826767 0.67493230104446411
-0.20317384600639343 0.0040976032614707947 0.67458605766296387
0.04157266765832901 0.039208441972732544 0.65130817890167236
0.038199298083782196 0.034198738634586334 0.65275800228118896
0.03248131275177002 0.032664839178323746 0.65384751558303833
0.031043950468301773 0.025607064366340637 0.65440773963928223
0.039801031351089478 0.014278486371040344 0.65437626838684082
0.050285004079341888 0.0016550719738006592 0.6541513204574585
-0.17408423125743866 0.01615789532661438 0.67560458183288574
-0.17313893139362335 0.022390563040971756 0.67584466934204102
-0.17227090895175934 0.028021983802318573 0.67596435546875
-0.17749452590942383 0.030255498364567757 0.67637354135513306
-0.18286754190921783 0.028994590044021606 0.67644697427749634
-0.18752878904342651 0.028874833136796951 0.67640924453735352
0.015828885138034821 0.038741469383239746 0.65534210205078125
0.0060826940461993217 0.045474182814359665 0.65601092576980591
-0.0037657381035387516 0.054089315235614777 0.6567571759223938
-0.012444810941815376 0.059493318200111389 0.65788459777832031
-0.011616275645792484 0.053402956575155258 0.65886223316192627
-0.010846668854355812 0.046776145696640015 0.66007882356643677
0.0066129923798143864 0.024323068559169769 0.65970849990844727
0.025025717914104462 0.010201886296272278 0.65781104564666748
0.043803796172142029 -0.0017648041248321533 0.65567106008529663
-0.16466240584850311 0.01427692174911499 0.67478787899017334
-0.15488290786743164 0.020342050120234489 0.67431473731994629
-0.14612177014350891 0.028122290968894958 0.67389726638793945
-0.14247696101665497 0.042266719043254852 0.67388951778411865
-0.14587536454200745 0.046383395791053772 0.67413681745529175
-0.14866454899311066 0.04993131011724472 0.67437547445297241
-0.15534327924251556 0.046435955911874771 0.6749337911605835
-0.16046704351902008 0.040853969752788544 0.67533797025680542
-0.16600960493087769 0.036228910088539124 0.67578136920928955
-0.0096024628728628159 0.034591466188430786 0.66199779510498047
-0.0089096734300255775 0.029573038220405579 0.66220301389694214
-0.0080157844349741936 0.025064945220947266 0.66137713193893433
0.01869661919772625 0.00056993216276168823 0.65700268745422363
0.047008611261844635 -0.017845019698143005 0.6539873480796814
0.075495779514312744 -0.033890888094902039 0.65067112445831299
-0.16621869802474976 -0.0062961969524621964 0.67242312431335449
-0.15112519264221191 0.0011710487306118011 0.67315214872360229
-0.13766327500343323 0.010617168620228767 0.67374539375305176
-0.12917889654636383 0.025955351069569588 0.6739652156829834
-0.13203755021095276 0.029538720846176147 0.67380338907241821
-0.13521306216716766 0.033501110970973969 0.67362326383590698
-0.024497328326106071 0.058021709322929382 0.66216939687728882
-0.035710111260414124 0.077540189027786255 0.66228246688842773
-0.04355829581618309 0.098986886441707611 0.6609574556350708
-0.049955334514379501 0.12352140247821808 0.65738075971603394
-0.051335353404283524 0.12450485676527023 0.65653526782989502
-0.052336413413286209 0.12571308016777039 0.6551593542098999
-0.049538925290107727 0.095794625580310822 0.65626108646392822
-0.041300456970930099 0.068319834768772125 0.65862190723419189
-0.027175616472959518 0.043522909283638 0.65965253114700317
-0.11785769462585449 0.038212709128856659 0.67251706123352051
-0.11127213388681412 0.057358264923095703 0.67011380195617676
-0.10617952048778534 0.080164603888988495 0.6665184497833252
-0.10727115720510483 0.10395868122577667 0.66424167156219482
-0.11228534579277039 0.10148782283067703 0.66621899604797363
-0.11734849959611893 0.098882153630256653 0.66829377412796021
-0.12504051625728607 0.078858233988285065 0.67229580879211426
-0.12842842936515808 0.063238322734832764 0.67327523231506348
-0.13289742171764374 0.049514804035425186 0.67357051372528076
-0.02172418124973774 0.076193317770957947 0.65814900398254395
-0.029000367969274521 0.089509382843971252 0.65829288959503174
-0.034743849188089371 0.10425481200218201 0.65762096643447876
-0.040453560650348663 0.12084868550300598 0.65605455636978149
-0.042852457612752914 0.12148880213499069 0.6568455696105957
-0.045550145208835602 0.1221386194229126 0.65757906436920166
-0.12769271433353424 0.093066327273845673 0.67211508750915527
-0.13242655992507935 0.090044841170310974 0.6733238697052002
-0.13638947904109955 0.087475970387458801 0.67399728298187256
-0.14126726984977722 0.076709337532520294 0.67454278469085693
-0.14376296103000641 0.068074882030487061 0.67456209659576416
-0.14693042635917664 0.06010715663433075 0.67455720901489258
-0.041117731481790543 0.13782691955566406 0.65295553207397461
-0.04185660183429718 0.15609496831893921 0.64923769235610962
-0.041224759072065353 0.17448985576629639 0.64510166645050049
-0.039973050355911255 0.20056718587875366 0.63869231939315796
-0.040650226175785065 0.21233972907066345 0.63637089729309082
-0.041111402213573456 0.22648680210113525 0.63357412815093994
-0.045768264681100845 0.20995977520942688 0.63952529430389404
-0.048679519444704056 0.17850565910339355 0.64681637287139893
-0.049589388072490692 0.1492498517036438 0.6528853178024292
-0.12065264582633972 0.11428739130496979 0.66764950752258301
-0.11936888098716736 0.13245722651481628 0.66469269990921021
-0.11873385310173035 0.1493351012468338 0.66189616918563843
-0.12494520097970963 0.14951401948928833 0.66365855932235718
-0.13031807541847229 0.13709408044815063 0.66721850633621216
-0.13486474752426147 0.12716612219810486 0.66977852582931519
-0.13757546246051788 0.11325171589851379 0.67224454879760742
-0.13755631446838379 0.10463211685419083 0.67315584421157837
-0.1381867527961731 0.095322184264659882 0.67388582229614258
-0.040301632136106491 0.25957280397415161 0.62532007694244385
-0.038797475397586823 0.27861136198043823 0.61835485696792603
-0.036342047154903412 0.29976841807365417 0.60744321346282959
-0.043790969997644424 0.26322498917579651 0.62508177757263184
-0.050171125680208206 0.20964691042900085 0.64176899194717407
-0.053047865629196167 0.16448681056499481 0.64893829822540283
-0.099304854869842529 0.13578201830387115 0.65801596641540527
-0.096968360245227814 0.16715964674949646 0.65394365787506104
-0.095199227333068848 0.19846777617931366 0.64924138784408569
-0.10118018835783005 0.2090960294008255 0.64819282293319702
-0.10731270909309387 0.19313237071037292 0.6517835259437561
-0.11321984231472015 0.17801505327224731 0.65547299385070801
-0.034781813621520996 0.27375933527946472 0.61715102195739746
-0.027395119890570641 0.30220991373062134 0.60100746154785156
-0.019668515771627426 0.32536220550537109 0.58371973037719727
-0.0043482892215251923 0.37894260883331299 0.53471672534942627
0.0064938627183437347 0.42090350389480591 0.48839840292930603
0.020341336727142334 0.46635466814041138 0.42877897620201111
0.021942893043160439 0.48425734043121338 0.40597212314605713
0.002899243263527751 0.43910461664199829 0.47116026282310486
-0.0164007768034935 0.38357833027839661 0.53727442026138306
-0.095685198903083801 0.24707804620265961 0.63825857639312744
-0.098563157021999359 0.2577233612537384 0.63457685708999634
-0.10317087918519974 0.25638997554779053 0.634033203125
-0.11722905933856964 0.22153744101524353 0.64421272277832031
-0.1233438104391098 0.20300373435020447 0.64910072088241577
-0.12917676568031311 0.18623362481594086 0.6533806324005127
-0.1285761296749115 0.17762014269828796 0.65672439336776733
-0.12395652383565903 0.17846262454986572 0.65680110454559326
-0.12079542875289917 0.1735222339630127 0.65777748823165894
-0.036726765334606171 0.20754987001419067 0.63664954900741577
-0.033327817916870117 0.2203647643327713 0.63251715898513794
-0.02946433424949646 0.22974321246147156 0.62865960597991943
-0.024047806859016418 0.25142949819564819 0.6195528507232666
-0.021910857409238815 0.27525925636291504 0.60985434055328369
-0.018257949501276016 0.30539268255233765 0.5939173698425293
-0.14018645882606506 0.15587443113327026 0.6618344783782959
-0.14466774463653564 0.14265128970146179 0.66562926769256592
-0.14816683530807495 0.13196726143360138 0.66853797435760498
-0.1463184654712677 0.12784668803215027 0.67003071308135986
-0.14273130893707275 0.12805768847465515 0.67009603977203369
-0.14007860422134399 0.12552446126937866 0.67054414749145508
-0.020912740379571915 0.23505118489265442 0.62354093790054321
-0.016365509480237961 0.23008999228477478 0.62320369482040405
-0.011574998497962952 0.22007653117179871 0.62452447414398193
-0.0047189891338348389 0.21859297156333923 0.62301945686340332
-0.002356410026550293 0.23791214823722839 0.61644673347473145
0.00093644112348556519 0.26269304752349854 0.60564905405044556
0.0015298649668693542 0.3206232488155365 0.57317095994949341
-0.0021268799901008606 0.33855324983596802 0.56335169076919556
-0.0066143423318862915 0.34520745277404785 0.56181609630584717
-0.1430777907371521 0.15793810784816742 0.659371018409729
-0.15323024988174438 0.1407957524061203 0.66170382499694824
-0.16486532986164093 0.1208784431219101 0.66437917947769165
-0.17679890990257263 0.096915431320667267 0.66957473754882812
-0.17591290175914764 0.093874335289001465 0.67157977819442749
-0.17499762773513794 0.091242305934429169 0.67301511764526367
-0.16829988360404968 0.10065559297800064 0.67287218570709229
-0.16203723847866058 0.11060045659542084 0.67190223932266235
-0.15610884130001068 0.1188434362411499 0.67102062702178955
0.011691957712173462 0.32483586668968201 0.5632476806640625
0.019937910139560699 0.36113378405570984 0.52794629335403442
0.030612729489803314 0.40110737085342407 0.48064613342285156
0.047976657748222351 0.49157789349555969 0.36936867237091064
0.04985770583152771 0.51910382509231567 0.33703607320785522
0.046770442277193069 0.5266461968421936 0.33169883489608765
-0.12193195521831512 0.21734394133090973 0.64330470561981201
-0.13736441731452942 0.1843290776014328 0.64902991056442261
-0.15552394092082977 0.14696034789085388 0.65328603982925415
-0.17599336802959442 0.10678102076053619 0.65926694869995117
-0.1767180860042572 0.10466897487640381 0.66193121671676636
-0.17714858055114746 0.10235051065683365 0.66463136672973633
0.011248677968978882 0.25454893708229065 0.60512340068817139
0.019964057952165604 0.2110840380191803 0.61937975883483887
0.031951971352100372 0.16540932655334473 0.62932348251342773
0.050819572061300278 0.22078901529312134 0.5832255482673645
0.042524177581071854 0.30257746577262878 0.5372154712677002
0.040955983102321625 0.37960198521614075 0.48046556115150452
-0.19486083090305328 0.073077529668807983 0.66036772727966309
-0.2135298103094101 0.042942866683006287 0.66372555494308472
-0.22873310744762421 0.018965810537338257 0.6661650538444519
-0.20764344930648804 0.042886741459369659 0.67331528663635254
-0.19973181188106537 0.059803400188684464 0.67201632261276245
-0.18925586342811584 0.079035639762878418 0.66990488767623901
-0.00049328058958053589 0.18609507381916046 0.63061290979385376
0.0062093138694763184 0.16409435868263245 0.6340717077255249
0.013681061565876007 0.14078868925571442 0.63722091913223267
-0.18910637497901917 0.056817200034856796 0.6756129264831543
-0.18517298996448517 0.067004233598709106 0.67523765563964844
-0.18024550378322601 0.078162670135498047 0.67463004589080811
0.016423225402832031 0.1169130951166153 0.64440667629241943
0.017786197364330292 0.1170666441321373 0.64302390813827515
0.019127370789647102 0.11727891862392426 0.64149153232574463
-0.0073315873742103577 0.1984127014875412 0.62994563579559326
-0.0079490020871162415 0.19456532597541809 0.63217675685882568
-0.0084755979478359222 0.19076712429523468 0.6343039870262146
-0.0036290884017944336 0.16963735222816467 0.6384425163269043
0.0021932907402515411 0.15310780704021454 0.64060091972351074
0.0080358907580375671 0.13494408130645752 0.64302939176559448
-0.18627649545669556 0.063587471842765808 0.67557346820831299
-0.18355067074298859 0.071687974035739899 0.67521405220031738
-0.17975401878356934 0.080410756170749664 0.6748010516166687
-0.17570808529853821 0.090322703123092651 0.67410933971405029
-0.17537738382816315 0.09006422758102417 0.67407989501953125
-0.17480754852294922 0.089535735547542572 0.67405694723129272
-0.19071529805660248 0.050723083317279816 0.67584908008575439
-0.19039459526538849 0.052789837121963501 0.6758388876914978
-0.18990997970104218 0.054595191031694412 0.6758430004119873
-0.026177454739809036 0.22667354345321655 0.62918424606323242
-0.026868268847465515 0.22236910462379456 0.63211160898208618
-0.027332913130521774 0.21810470521450043 0.6348608136177063
-0.02325902134180069 0.21042507886886597 0.63584721088409424
-0.018871631473302841 0.20663675665855408 0.63489663600921631
-0.014220032840967178 0.1973283588886261 0.6353076696395874
-0.17065683007240295 0.098583713173866272 0.67365288734436035
-0.16591167449951172 0.10669904947280884 0.67300248146057129
-0.16124866902828217 0.11268804967403412 0.67251068353652954
-0.15551775693893433 0.11994770169258118 0.67169308662414551
-0.15416300296783447 0.12096289545297623 0.67144381999969482
-0.15266169607639313 0.12185856699943542 0.67112934589385986
-0.039535384625196457 0.18772073090076447 0.64306998252868652
-0.039848387241363525 0.1854618638753891 0.64528250694274902
-0.03990386426448822 0.18311595916748047 0.64730954170227051
-0.037191525101661682 0.19149810075759888 0.64577233791351318
-0.034582771360874176 0.20191547274589539 0.64274108409881592
-0.031254693865776062 0.20785635709762573 0.6400597095489502
-0.15297725796699524 0.11956444382667542 0.67193996906280518
-0.14973717927932739 0.1199808269739151 0.67198836803436279
-0.14740584790706635 0.11733375489711761 0.67241263389587402
-0.14377045631408691 0.11554671078920364 0.67264854907989502
-0.1422351747751236 0.116611048579216 0.6723639965057373
-0.1406150758266449 0.11764466017484665 0.6720048189163208
-0.038322381675243378 0.12029881030321121 0.65674203634262085
-0.038349378854036331 0.12046016752719879 0.65816581249237061
-0.038189612329006195 0.12065272778272629 0.65943890810012817
-0.039711326360702515 0.13539330661296844 0.65793222188949585
-0.040883634239435196 0.15045437216758728 0.65530878305435181
-0.040521491318941116 0.16485394537448883 0.65219616889953613
-0.14449773728847504 0.10740724205970764 0.67365562915802002
-0.14396335184574127 0.10111534595489502 0.674277663230896
-0.14439013600349426 0.093798615038394928 0.67480111122131348
-0.14377862215042114 0.086559191346168518 0.67510640621185303
-0.14254540205001831 0.086119212210178375 0.67488229274749756
-0.14126041531562805 0.085649855434894562 0.6746135950088501
-0.01373514998704195 0.067172512412071228 0.65815585851669312
-0.01411336287856102 0.068974018096923828 0.65924954414367676
-0.014400255866348743 0.070778265595436096 0.66031157970428467
-0.022090647369623184 0.083583049476146698 0.66147065162658691
-0.028467101976275444 0.094561547040939331 0.66177457571029663
-0.033449005335569382 0.10693559050559998 0.66126787662506104
-0.147001713514328 0.079261526465415955 0.67547488212585449
-0.14913241565227509 0.072658836841583252 0.67572671175003052
-0.1521022766828537 0.06639406830072403 0.67594808340072632
-0.1544678658246994 0.058815926313400269 0.67610365152359009
-0.15339213609695435 0.057099465280771255 0.67565131187438965
-0.15224789083003998 0.055173516273498535 0.67511838674545288
0.021918421611189842 0.038933467119932175 0.655597984790802
0.020530665293335915 0.041590537875890732 0.65687745809555054
0.019172292202711105 0.044215969741344452 0.65808266401290894
0.0093565396964550018 0.051791910082101822 0.65931230783462524
0.0016753724776208401 0.056863125413656235 0.65981018543243408
-0.0065690521150827408 0.06443941593170166 0.66030293703079224
-0.15964268147945404 0.054949302226305008 0.67675447463989258
-0.16391310095787048 0.050122670829296112 0.67727416753768921
-0.16843686997890472 0.046275503933429718 0.67763328552246094
-0.1730397641658783 0.040532484650611877 0.6777193546295166
-0.17251299321651459 0.038294054567813873 0.67721253633499146
-0.17195224761962891 0.035873036831617355 0.67661446332931519
0.038215525448322296 0.052454717457294464 0.65091907978057861
0.036139462143182755 0.055029511451721191 0.6524580717086792
0.033959344029426575 0.057536959648132324 0.65374171733856201
0.029813738539814949 0.053594518452882767 0.6561514139175415
0.027755824849009514 0.048516124486923218 0.65745371580123901
0.022908575832843781 0.047295544296503067 0.65825480222702026
-0.1778283566236496 0.040796730667352676 0.677939772605896
-0.18216158449649811 0.039456218481063843 0.67785471677780151
-0.18557320535182953 0.039579246193170547 0.6775515079498291
-0.18954037129878998 0.038027741014957428 0.67713767290115356
-0.18985176086425781 0.035755734890699387 0.67689782381057739
-0.19003592431545258 0.033274121582508087 0.67659229040145874
0.020146794617176056 0.099616169929504395 0.64800405502319336
0.0254038255661726 0.084428772330284119 0.65036213397979736
0.028506878763437271 0.071889892220497131 0.65250205993652344
-0.19000044465065002 0.042781896889209747 0.67683351039886475
-0.190744549036026 0.045856982469558716 0.67648756504058838
-0.18998096883296967 0.0504656583070755 0.67616301774978638
0.0096268262714147568 0.11632856726646423 0.64648300409317017
0.003556394949555397 0.11595036089420319 0.64737540483474731
-0.0038497187197208405 0.11585411429405212 0.64864248037338257
0.00044956430792808533 0.093951210379600525 0.65244758129119873
0.012007597833871841 0.080064289271831512 0.65350824594497681
0.022159786894917488 0.069308340549468994 0.65433192253112793
-0.17371271550655365 0.065604306757450104 0.67532283067703247
-0.17977172136306763 0.061750009655952454 0.67572498321533203
-0.18480458855628967 0.058808300644159317 0.67588168382644653
-0.18485090136528015 0.044978372752666473 0.67691135406494141
-0.17992608249187469 0.050721418112516403 0.67632573843002319
-0.173819899559021 0.058494128286838531 0.6755530834197998
-0.0043951552361249924 0.086915478110313416 0.65552252531051636
0.0038397088646888733 0.06979621946811676 0.65760338306427002
0.011082690209150314 0.057232186198234558 0.65869921445846558
-0.17233094573020935 0.047115989029407501 0.67734831571578979
-0.17073388397693634 0.052352890372276306 0.6764148473739624
-0.16849987208843231 0.059385210275650024 0.67542862892150879
-0.015327503904700279 0.096980951726436615 0.65648531913757324
-0.015245880931615829 0.086306288838386536 0.65907806158065796
-0.014972741715610027 0.078715145587921143 0.66051363945007324
-0.15730611979961395 0.062328275293111801 0.67599976062774658
-0.15921106934547424 0.064424686133861542 0.67543375492095947
-0.16146698594093323 0.067095212638378143 0.67488384246826172
-0.024511566385626793 0.11805002391338348 0.65472352504730225
-0.030269639566540718 0.11919385194778442 0.65718138217926025
-0.034485328942537308 0.12011897563934326 0.65909707546234131
-0.14822523295879364 0.084726311266422272 0.67499524354934692
-0.15198789536952972 0.081924401223659515 0.67467308044433594
-0.15690407156944275 0.078145056962966919 0.67443728446960449
-0.026735899969935417 0.14089328050613403 0.65082681179046631
-0.03289373591542244 0.15703396499156952 0.65062767267227173
-0.036900624632835388 0.16976821422576904 0.65011215209960938
-0.14869549870491028 0.106880784034729 0.67349338531494141
-0.15251526236534119 0.09827074408531189 0.67390620708465576
-0.15726122260093689 0.087570853531360626 0.67419171333312988
-0.022037209942936897 0.1512489914894104 0.64707052707672119
-0.025185737758874893 0.17564797401428223 0.64398527145385742
-0.026819538325071335 0.19577658176422119 0.64093208312988281
-0.15843634307384491 0.10996317863464355 0.67296159267425537
-0.16006883978843689 0.10000614821910858 0.67377859354019165
-0.16194723546504974 0.08807198703289032 0.67431014776229858
-0.013054493814706802 0.14059768617153168 0.64612644910812378
-0.011537216603755951 0.15816561877727509 0.64258784055709839
-0.010193761438131332 0.17315360903739929 0.63949000835418701
-0.17383946478366852 0.086861319839954376 0.67463409900665283
-0.1714928150177002 0.082829765975475311 0.67490160465240479
-0.16871894896030426 0.078105464577674866 0.6748841404914856
0.33451461791992188 -0.25352543592453003 0.61947339773178101
0.36953079700469971 -0.26636326313018799 0.61630862951278687
0.39880985021591187 -0.27690878510475159 0.61367195844650269
0.43233627080917358 -0.28894612193107605 0.61108827590942383
0.4358055591583252 -0.29003530740737915 0.61102825403213501
0.43491989374160767 -0.28925105929374695 0.61133158206939697
0.40837517380714417 -0.27791938185691833 0.61385589838027954
0.38250842690467834 -0.26756137609481812 0.61617732048034668
0.35173842310905457 -0.2555062472820282 0.61897790431976318
0.3140275776386261 -0.24219098687171936 0.62219327688217163
0.30982944369316101 -0.24185605347156525 0.62237590551376343
0.30301499366760254 -0.24067588150501251 0.62271231412887573
0.27743235230445862 -0.2276502400636673 0.62570661306381226
0.23763087391853333 -0.21344166994094849 0.62932151556015015
0.19955205917358398 -0.20024998486042023 0.63279217481613159
0.14785113930702209 -0.18452993035316467 0.6369432806968689
0.13159999251365662 -0.18103227019309998 0.6377829909324646
0.11556024104356766 -0.17783564329147339 0.63849121332168579
0.14493744075298309 -0.18885041773319244 0.63579541444778442
0.19459199905395508 -0.20477005839347839 0.63178694248199463
0.24506573379039764 -0.22164879739284515 0.62742310762405396
0.4483083188533783 -0.29556015133857727 0.6098334789276123
0.47044914960861206 -0.30538636445999146 0.60846912860870361
0.48951888084411621 -0.31472209095954895 0.60730648040771484
0.50384724140167236 -0.32047209143638611 0.60672891139984131
0.49881842732429504 -0.31697198748588562 0.6071927547454834
0.48963764309883118 -0.31189918518066406 0.60777086019515991
0.47037851810455322 -0.30340749025344849 0.60917621850967407
0.46041423082351685 -0.29950246214866638 0.60985678434371948
0.44689419865608215 -0.29385387897491455 0.61076903343200684
0.13633313775062561 -0.17934398353099823 0.63873213529586792
0.1117430254817009 -0.17145182192325592 0.64112895727157593
0.090678319334983826 -0.16443182528018951 0.64309698343276978
0.04429226741194725 -0.15304334461688995 0.64662623405456543
0.016233250498771667 -0.14955030381679535 0.64851605892181396
-0.011077685281634331 -0.1472100168466568 0.64998197555541992
-0.010677902027964592 -0.14982138574123383 0.64795130491256714
0.02084040455520153 -0.15533165633678436 0.64495295286178589
0.057317048311233521 -0.16351518034934998 0.6420784592628479
0.51040101051330566 -0.32406792044639587 0.60562503337860107
0.51042336225509644 -0.32211506366729736 0.60538852214813232
0.50459116697311401 -0.31731626391410828 0.605690598487854
0.50228798389434814 -0.31585249304771423 0.60617727041244507
0.50002181529998779 -0.31492990255355835 0.60673761367797852
0.48976263403892517 -0.30988705158233643 0.60782551765441895
0.47735995054244995 -0.30395343899726868 0.60873210430145264
0.47985270619392395 -0.30542197823524475 0.60837125778198242
0.47980132699012756 -0.30601233243942261 0.60836130380630493
0.056265957653522491 -0.15154090523719788 0.64595729112625122
0.042078368365764618 -0.145901158452034 0.64730161428451538
0.029668040573596954 -0.14106316864490509 0.64882403612136841
-0.0098602995276451111 -0.13283899426460266 0.65216857194900513
-0.038531262427568436 -0.12989325821399689 0.65354728698730469
-0.065842822194099426 -0.12751610577106476 0.6540868878364563
-0.082438215613365173 -0.13030849397182465 0.65343374013900757
-0.071659624576568604 -0.13604137301445007 0.65331417322158813
-0.056822102516889572 -0.14136892557144165 0.65256190299987793
0.48292350769042969 -0.30698877573013306 0.60759484767913818
0.47056183218955994 -0.30237188935279846 0.60877746343612671
0.45636662840843201 -0.29567503929138184 0.61005449295043945
0.44721305370330811 -0.28888514637947083 0.61131006479263306
0.44517290592193604 -0.28701862692832947 0.61193674802780151
0.43311122059822083 -0.28082674741744995 0.61328446865081787
0.43725046515464783 -0.28347262740135193 0.61302858591079712
0.45384752750396729 -0.29196158051490784 0.61150950193405151
0.46508967876434326 -0.29774704575538635 0.61033713817596436
0.0096266195178031921 -0.13306652009487152 0.6520237922668457
0.0009933914989233017 -0.12897768616676331 0.65338563919067383
-0.0078272167593240738 -0.12412901222705841 0.65457630157470703
-0.044135101139545441 -0.11477430164813995 0.6574212908744812
-0.069385118782520294 -0.11311435699462891 0.65879464149475098
-0.092288494110107422 -0.1126326322555542 0.65946048498153687
-0.10618987679481506 -0.11697759479284286 0.65781146287918091
-0.10127942264080048 -0.11967727541923523 0.6561540961265564
-0.0962686687707901 -0.12192948162555695 0.65459036827087402
0.40995848178863525 -0.27031999826431274 0.61442184448242188
0.37679362297058105 -0.25329092144966125 0.61779671907424927
0.3415505588054657 -0.23547795414924622 0.62134760618209839
0.31077805161476135 -0.21889612078666687 0.6248624324798584
0.30371195077896118 -0.21534508466720581 0.62604814767837524
0.28881856799125671 -0.2082693874835968 0.62807255983352661
0.30521336197853088 -0.21827065944671631 0.62644606828689575
0.34382298588752747 -0.23774690926074982 0.62202912569046021
0.38132983446121216 -0.25595879554748535 0.61810833215713501
-0.029027240350842476 -0.11047381162643433 0.65696954727172852
-0.040803097188472748 -0.10236697643995285 0.65857958793640137
-0.051732849329710007 -0.09465654194355011 0.66050279140472412
-0.081686317920684814 -0.085739016532897949 0.66312021017074585
-0.10110898315906525 -0.085382632911205292 0.66377937793731689
-0.11840034276247025 -0.086527660489082336 0.66412538290023804
-0.12931449711322784 -0.09401702880859375 0.66287100315093994
-0.12437541782855988 -0.10001212358474731 0.66170632839202881
-0.11821624636650085 -0.10652221739292145 0.66046059131622314
0.061133600771427155 -0.068837136030197144 0.65402901172637939
0.086662434041500092 -0.085355736315250397 0.65102493762969971
0.1065637469291687 -0.098168745636940002 0.64860492944717407
0.13548420369625092 -0.11115750670433044 0.64547598361968994
0.15923550724983215 -0.11802820861339569 0.64314901828765869
0.18779478967189789 -0.12616339325904846 0.63894283771514893
0.20358389616012573 -0.12574553489685059 0.6352696418762207
0.18533907830715179 -0.11284735798835754 0.63765758275985718
0.16495528817176819 -0.097637839615345001 0.64059364795684814
0.11777055263519287 -0.073283247649669647 0.64712440967559814
0.087773546576499939 -0.063387401401996613 0.65039652585983276
0.057196080684661865 -0.053420048207044601 0.65420997142791748
-0.13137044012546539 -0.012050564400851727 0.67379516363143921
-0.15239877998828888 -0.013051635585725307 0.67424547672271729
-0.17219986021518707 -0.015579513274133205 0.67431932687759399
-0.19593077898025513 -0.027475854381918907 0.67232495546340942
-0.20197752118110657 -0.036279164254665375 0.67068213224411011
-0.20887097716331482 -0.044820424169301987 0.66935569047927856
-0.19492760300636292 -0.049118947237730026 0.66887754201889038
-0.17388609051704407 -0.047535628080368042 0.66903620958328247
-0.15422344207763672 -0.047554720193147659 0.66893845796585083
-0.130740687251091 -0.042475320398807526 0.6695513129234314
-0.12268809974193573 -0.035016726702451706 0.67004930973052979
-0.11491560935974121 -0.026344453915953636 0.67071151733398438
0.23997971415519714 -0.14171630144119263 0.6302686333656311
0.25637054443359375 -0.14533379673957825 0.62969392538070679
0.2655065655708313 -0.14342877268791199 0.63030719757080078
0.25471514463424683 -0.12557470798492432 0.63094198703765869
0.23466885089874268 -0.11151636391878128 0.63307994604110718
0.21223390102386475 -0.094285339117050171 0.63475263118743896
0.18946588039398193 -0.086541712284088135 0.63713634014129639
0.1812748908996582 -0.089659079909324646 0.63811492919921875
0.16621854901313782 -0.087557792663574219 0.64030379056930542
-0.20874688029289246 -0.023076742887496948 0.67333471775054932
-0.2247340977191925 -0.026531662791967392 0.67259043455123901
-0.2385341078042984 -0.029562152922153473 0.67182278633117676
-0.25836223363876343 -0.041396670043468475 0.66931831836700439
-0.26673239469528198 -0.050565239042043686 0.66724753379821777
-0.27448844909667969 -0.059326212853193283 0.66490936279296875
-0.26650813221931458 -0.062799409031867981 0.66496014595031738
-0.25095373392105103 -0.059272918850183487 0.66657882928848267
-0.23402917385101318 -0.055840060114860535 0.66762608289718628
0.2635529637336731 -0.11717855185270309 0.62251383066177368
0.25005847215652466 -0.090923838317394257 0.61542952060699463
0.22409632802009583 -0.051502969115972519 0.61365944147109985
0.17204821109771729 0.016009032726287842 0.61601138114929199
0.15377378463745117 0.025990672409534454 0.61892229318618774
0.13710406422615051 0.036524645984172821 0.62253105640411377
0.15007860958576202 -4.6978006139397621e-05 0.62917286157608032
0.17061513662338257 -0.034469716250896454 0.6315346360206604
0.18432962894439697 -0.059670314192771912 0.63411831855773926
-0.2588936984539032 -0.03513682633638382 0.66985815763473511
-0.26648896932601929 -0.036396034061908722 0.66854101419448853
-0.27253159880638123 -0.035083003342151642 0.66705721616744995
-0.2871825098991394 -0.043993666768074036 0.66347694396972656
-0.30113530158996582 -0.057533465325832367 0.65966427326202393
-0.31614276766777039 -0.070148736238479614 0.65416383743286133
-0.32124453783035278 -0.083483666181564331 0.65256750583648682
-0.30841058492660522 -0.080459408462047577 0.65649574995040894
-0.2946002185344696 -0.074048079550266266 0.65968406200408936
0.14065764844417572 0.097556993365287781 0.60534316301345825
0.10410302877426147 0.20337261259555817 0.5715019702911377
0.083539679646492004 0.3086605966091156 0.51476997137069702
0.070394366979598999 0.37028366327285767 0.47898337244987488
0.06226789578795433 0.33991158008575439 0.50864958763122559
0.054971508681774139 0.30822902917861938 0.53637236356735229
0.058793328702449799 0.22405309975147247 0.58317190408706665
0.074912235140800476 0.16277807950973511 0.60455322265625
0.09792221337556839 0.10084573924541473 0.61897182464599609
-0.2732202410697937 -0.024362638592720032 0.66541409492492676
-0.26640927791595459 -0.015693679451942444 0.6663019061088562
-0.2575935423374176 -0.0042930543422698975 0.66770410537719727
-0.25762540102005005 0.0046869069337844849 0.66696637868881226
-0.2685660719871521 -0.000779762864112854 0.66368335485458374
-0.28144952654838562 -0.0055633485317230225 0.65835177898406982
-0.30335015058517456 -0.039200007915496826 0.65184646844863892
-0.31542289257049561 -0.060672104358673096 0.64884495735168457
-0.32607492804527283 -0.073882251977920532 0.64656656980514526
0.075345367193222046 0.45720762014389038 0.39332425594329834
0.073790848255157471 0.49783939123153687 0.34685009717941284
0.073045097291469574 0.52740299701690674 0.3073570728302002
0.061910040676593781 0.5147937536239624 0.33712160587310791
0.050060868263244629 0.47214594483375549 0.40387466549873352
0.040498770773410797 0.43037223815917969 0.46135720610618591
0.037699289619922638 0.36914369463920593 0.51692098379135132
0.041809409856796265 0.34535679221153259 0.52838516235351562
0.045355536043643951 0.31650614738464355 0.54170334339141846
-0.24356420338153839 0.026400476694107056 0.66796368360519409
-0.23685267567634583 0.043565034866333008 0.66714566946029663
-0.2277788519859314 0.06238972395658493 0.66624408960342407
-0.21392105519771576 0.085606925189495087 0.66501790285110474
-0.21005710959434509 0.085007309913635254 0.66491097211837769
-0.20700901746749878 0.084698684513568878 0.66350853443145752
-0.23048253357410431 0.057154357433319092 0.66060554981231689
-0.25574588775634766 0.035688206553459167 0.65745502710342407
-0.27739062905311584 0.014342814683914185 0.65420436859130859
