# XYZ point cloud file
-0.76978099937612665 -0.59908882961162924 -0.42841932122309889
-0.23788654613926608 -0.37015123175473219 0.60308152987106922
0.3506750995981206 -0.085767412687265843 0.7285855070418934
0.16229044533264614 -0.027186598816203666 0.78070914829950688
-0.59671985488643187 -0.91064264755478375 -0.37230638041662434
0.32961276484662211 1.0318453751899472 -0.37770152398877949
0.75041763340015499 -0.50245295286284164 0.67885169050996275
0.15989266740067959 0.46730409459602029 0.64567727774635242
0.8324261608632515 -0.48103836580675924 0.52315313452205103
-0.10821242088136246 0.74304624352219406 0.68599703082983732
0.39038037100818179 -0.43088724515651577 0.36715541063746954
0.093436331565052239 -0.31228368690412689 0.49871405837193433
0.19610395997390867 -0.1822345717375472 0.76994291914653412
0.23728560035261614 -0.38473687423899583 0.28083881027832613
0.051696663096283069 0.59173872631900293 0.6749874764025745
0.012067875110700066 0.94333467134306637 0.019889721076424394
0.30346024481632994 0.58664500607493797 0.48664731457099114
-0.34160636178128945 -0.096292853449469806 0.81272110324691982
-0.15104759366784221 -0.16405925665742704 0.66748081599599851
-0.20730971256047059 -0.49497706570524413 0.4168338445852281
-0.45623943089653785 -0.79966268516977612 -0.24641183478304568
-0.1950429983445367 0.65457329945408849 0.75846995863017075
-0.2179345704723234 0.40734481715378301 0.77703067346637678
-0.75508656212336311 -0.23467448952093739 0.56161100916154516
0.55769829960378781 0.88043232019265549 -0.47258920701508494
0.23968109701055965 0.0047488481265630655 0.79834252102594672
0.27487362598473641 -0.34483818429487667 0.70213455140762138
0.1090403291930355 -0.14477769884168845 0.7957425306164263
0.22871915559497502 0.91706952539918274 -0.37519452688446298
-0.065815160457728838 0.12450695185293359 0.74498754858669469
0.5205300571175675 -0.30911119504112305 0.74063450859897351
0.27073456646443683 0.97808441407951208 -0.34185484745241879
0.43341033988857308 -0.55407475593933908 0.66415158951297437
0.012384747574890442 0.6552240127101403 0.67401069441392214
0.24686964350434459 0.77013538153955752 -0.02564020353007751
0.22507108672865273 1.2073901243548741 -0.40112214468217933
0.17846208870168662 -0.37469096357398091 0.36297489752737372
0.095042669646816125 -0.12067313748689157 0.78356074531324027
0.32877069393319069 0.65516460955458344 -0.031467997470657261
-0.21096733938592055 -0.32716568491953946 0.637814950703536
-0.011638517206934651 0.32988883031389649 0.80967274013046009
-0.54151643653817016 -0.16143438410743416 0.72604886135902924
0.49282589880142735 -0.2630279908487414 0.30794823005624627
0.4931266509483852 -0.66487912947168104 0.51820171828482309
-0.47315281457866365 -0.21000607696444717 0.7794336061357976
-0.56708945973499014 0.5060131757513775 -0.59366345812065247
-0.9893508738347645 -0.83104617623622667 -0.4822278496705521
-0.56740811709990169 -0.041079127576651331 0.64619144368457748
0.058485018300323904 -0.29408742882238248 0.5159092066099602
0.51325506736589355 -0.043851480682647104 0.35528735843863507
-0.63490889939393336 0.0077957981464860104 0.77581536631221937
0.36515428084001283 0.95953698396605236 -0.37688634375167557
-0.96957465660162023 -0.62919039444773595 -0.43355032530639642
0.66866983344633979 -0.45186416738591595 0.68360399288817852
0.37695854692488751 0.72540793020922101 -0.29262029131202827
-0.20101622628603791 -0.3375072873405851 0.61275557891728982
-0.44749809738573676 0.17801147157451047 0.61142279961601131
0.26900433101340038 0.76736444133552872 -0.28976923743505673
0.32823896937586111 -0.14516008851095097 0.73598643725632362
0.39091434035858541 0.89139461935970732 -0.36616422656398417
0.37665356662413152 0.67316871775197673 -0.22774370688237461
0.41223706700140644 0.72466494503275081 -0.28422646789002676
0.76116049412177067 -0.38477132853497231 0.66709620344423182
0.14967476951438707 1.0446737569511706 -0.34837764840451729
0.040539942159293296 0.90877905665808512 0.10185490743388809
0.47607871493325349 -0.53907254757774581 0.40396290988926981
-0.13398517808795651 1.0040944757827674 -0.20431990159467539
0.75831836685973697 -0.29087783890850094 0.70400563517130954
-0.76205489731190079 -0.32839008350016052 0.52910170711713311
-0.62541404305102311 -0.1978808541255459 0.60443929128587892
-0.66702925973091443 -0.27279620474756094 0.68603395969228609
0.20963386447947854 0.033746893173873138 0.73953490101091757
-0.49335168698529464 -0.53696051659215538 0.54141911534516196
0.31551364768500728 0.082433353978778601 0.52344393717265725
-0.36088694105800706 0.18027083883901307 0.78795301565519926
-0.41624227604571606 0.16590051706693454 0.74462609243759992
0.77407837066348717 -0.38466248378133328 0.69299440646102461
0.13733509720217299 -0.32642202372051965 0.57071770074982875
0.83766601515980499 -0.47667782216605648 0.55031896642618161
0.4894229158051967 0.82557053195782981 -0.32961946980793949
-0.38855060730700558 -0.50127107462679854 0.5897768999827091
0.37402513781979196 0.0015117049377523228 0.68825137004673742
-0.82070480870796025 -0.92265545562339923 -0.4816121335715548
0.65054369762116382 -0.091636772295160651 0.37622758098097386
0.34677218332379678 0.64307794977540256 -0.18520083427634393
-0.72557488482526966 -0.26129835549714686 0.35819474929322326
-0.11289059798152924 -0.27789207160985119 -0.6120516092445113
-0.72108586936390129 -0.5181183272963259 -0.32874490487999741
-0.24037329058403378 0.74983327866529637 0.35014939455159816
0.27464974159879152 1.0993537991132152 -0.39323131812480544
-0.64926902964409683 -0.055488894830047375 0.53733223940335439
-0.64758492018181624 -0.9757991061825706 -0.3487794155578216
0.36434342981048712 1.1575545328025325 -0.44446658933239858
-0.68817897809998607 -0.12055267266598357 0.51319653754815775
0.47827842948713828 1.1598199045455124 -0.42180208382503281
-0.1235289529931882 -0.029277116657238311 0.74513211739135243
-0.5985258285467121 -0.23018054711827762 0.69707427408475864
-0.19006599001607588 0.31686826430955994 0.77431480991285173
0.036647293151033877 0.83649013789658488 0.5993710470146244
0.43641982610984725 -0.11226452220435268 0.21137710804470111
0.53901929359366585 -0.47714914206419456 0.73402097079530826
-0.46244937631748645 0.54996467789773207 0.70564767708164178
0.62742696839040113 -0.37592269247415178 0.74073154777386452
0.11766739953349017 -0.11088466303517219 0.8021083458760605
0.25536387909151548 0.023856846118854858 0.7343727703035714
-0.44324502840796198 -0.088515307247342578 0.80081332061056121
-0.48690577673366947 -0.55222813039090068 -0.42342545380086771
-0.62429305329333706 -0.65901981647345487 -0.31709607821358055
-0.24735954269568783 0.44194814533787774 0.77306120273052825
0.13865604853780283 -0.15750611865976449 0.8067656486708763
-0.20033126223002845 -0.38365259382151695 0.65605325951219151
-0.38402697754975806 0.90343340890253776 -0.33331927253488691
0.45543555818339709 0.82047061492930895 -0.35586847387624077
-0.64563009931898163 -0.85788835017177112 -0.45545194952810847
0.34316899566500481 0.29160287891697334 -0.21154919917769116
0.71670603685237622 -0.49477703094001207 0.70725637975397504
0.15609157487710101 1.1339796042663837 -0.28230187437809651
0.11166206050040842 0.73409650505565316 -0.46327012017485025
0.20706813181078812 0.042429343088401739 0.74096354652065188
-0.18427641545418194 0.56949910709295848 0.75606680922906044
0.2427360103812104 1.2346444293931815 -0.36803908648285322
0.48318632178761883 -0.64393606216332544 0.4806812256774653
0.22318081122103173 0.26494884909929661 0.66548386212602273
-0.5261246398518522 0.087929196321406611 0.80904185302987952
-0.52055175057501857 -0.34607471895424391 -0.5450614371968564
0.39095698100799453 0.67715529139711383 -0.22180694686044422
-0.28118011186490754 -0.16574078039114304 0.80023805856959984
0.25796771598959201 0.77909810632384602 -0.26251178103211265
0.18523509056113421 -0.032871560636949182 0.80131811645000628
0.036480698319705518 0.40942037040552581 0.79166906233434897
0.6445592141593669 -0.44218320872860112 0.72634209747898337
-0.41514547732352913 0.015165613022689373 0.77441183595337915
-0.033766732883701189 0.96949085915081024 -0.26619760929108205
0.34956310470809138 -0.38436135421594841 0.32482827850371232
0.2314607898260011 0.93596324872186087 -0.29757561442238323
-0.42007158776233805 0.33090534642539149 0.70292121610751057
0.063483142489889011 0.35891877375522563 0.77104693569954796
0.14453019995868088 0.46127897888946334 0.67004508546303865
-0.70110651629137211 -0.96219978355898017 -0.38401350668378109
-0.45733319743930662 0.23337753409136974 0.59359983241841663
-0.7616038328403264 -0.23217134688941643 0.59128732157073882
0.31147718867329416 0.42537452134917952 0.53836574694001049
0.30387070268105398 0.26418811544886711 0.48848196307483838
-0.72599844571203997 -0.45703133590633915 0.41661220540177757
0.17731452533624659 -0.064908997239021549 0.80254393847988115
0.21331824746192235 0.99470029423348694 -0.28947540487963835
0.28826047072522637 0.11340732298403311 0.49305585039221128
0.1032961047264393 0.8270933764798658 0.26668837486898689
-0.22519536072001362 0.40761629682704359 0.77878812967083411
0.39587361647317137 0.69284153627081824 -0.24241414456409216
0.15793873538883241 -0.063741049883206946 0.75554865288674589
0.89254491622705401 -0.27745849001249606 0.400890260247875
-0.92150265280959964 -0.74089820194548928 -0.46378176768273122
-0.54356447910905237 -0.24865666557072785 0.69078554094708067
0.22858569094585873 1.0885470188615829 -0.42224548183649202
-0.24259944188350283 -0.63812568340856823 -0.21295700341338353
-0.94740538964850207 -0.59953109311565678 -0.44990804889264135
0.0022551048144577313 0.60371190539807862 0.68625246733807954
-0.079079805645682844 0.87931593850154299 0.23671302407846018
-0.63358706124901942 -0.5972223429257868 -0.22854480316661374
0.53147834383223835 -0.11750770006691702 0.70800441578243989
-0.23739194862289603 -0.37606923436215034 -0.56314046030971054
-0.30475186688148281 -0.21629163284439934 0.79961399541872402
0.3966660030986579 0.79208286774990655 -0.33017713687488243
-0.29440590771729569 0.52040199337204651 0.79713687464946725
-0.65408824888165495 -0.75316962108148799 -0.35577613182233248
0.27189069809099775 -0.088292538118496355 0.78527782133852408
-0.39435281064883709 0.59120045794988818 0.66717959856285891
0.4997319322959472 0.86475727347595877 -0.37624905408887066
-0.73069677127877819 -0.37983551625675105 0.36621668263081003
-0.12228267366226561 0.4239070772339657 0.81277639242160538
0.64051619475830246 -0.68791118653957417 0.54206143549207686
-0.48655803568864425 0.14646522315041599 0.6872828198801475
0.57932626522215203 -0.34954347629663363 0.74180414739736622
0.65811248363464858 -0.23813564219267891 0.71894254438714777
-0.2627250889705316 -0.25967141441953712 0.73305172018081599
-0.77552439097128023 -0.40227082072479181 0.53232643829571846
0.12768694098714128 0.47824124797371148 0.68687268896144971
-0.0017385878385468567 0.49805493684918345 0.76898733602346625
0.13750518513726018 0.40013626423449677 0.70646231177041874
-0.23912310345777116 0.30151298918359792 0.70687100814537607
-0.17936218467937065 0.7111968435489715 0.43391652405373327
0.12022769577068043 0.5948550015091838 0.56235940196505785
-0.48293415114927091 0.44721029276778612 0.71335734792235228
-0.36630150228466551 -0.65449419342099113 0.028413285445098135
0.15076041032843554 -0.088242088231261673 0.80516561024296407
-0.96365600657836392 -0.71228614341278407 -0.45116833529510392
0.65544781297488108 -0.44795313354063737 0.67267055341959392
0.49012861682830411 0.6619140214813114 -0.31318216265921944
0.31874856655027911 1.2232468621816364 -0.3773212867204821
0.40507751915342943 -0.25760023879105098 0.24233919160024547
0.38579118925250788 1.0337762998653814 -0.40309268536672938
-0.62256486165341718 0.35598141642243486 0.4323239871491939
0.56331910242913963 -0.24598928324943825 0.73052178193548367
-0.48792645894575759 -0.56778267943665828 0.48505350274279263
0.37282245753128418 -0.1907739496759433 0.73784906216970114
-0.32573867015371305 0.79253735051426766 -0.49312709999931287
-0.27785475168499274 -0.28108965751685799 0.72613878933473153
-0.6760711958080402 -0.92903397837601664 -0.42271480939184525
0.91961005354917424 -0.20907610319942932 0.45165554959420073
0.36487490566600578 1.2446003637345335 -0.40094452285629928
0.54899944314190774 1.0195301640311532 -0.51701754554962387
0.6313592006428993 -0.68466708909231377 0.51334110190154525
-0.18559195403413636 0.32045478754645007 0.76923175499284613
-0.65654126274706526 -0.59331133868831287 -0.23345437794681378
-0.94417961312709853 -0.64446153882457957 -0.41107582165169398
0.45440690330376959 1.2088965896025334 -0.51063950805843272
0.47737435275988827 -0.41393439558043732 0.35366297754933546
-0.67271354083268387 0.072266775733748956 0.79616010359087319
-0.20082008352093983 0.48491048050939178 0.76697483327531812
-0.088860651919404537 0.26198508740308668 0.74933812836116021
0.41656694401457739 0.93017929195771498 -0.39743632609624052
0.2504006318055671 0.83425790460459925 -0.28600195029933528
-0.58092092391028771 -0.64042922639941802 -0.28094566894262268
0.30588324429561087 -0.02505759221258419 0.73710559665220099
-0.50847650359148566 -0.67573098231584416 -0.30229539587880266
0.62937992695390776 -0.39848954130739939 0.7177985415614796
-0.47889828244051164 -0.10940879752020471 0.78664935500504285
-0.41501957105095183 -0.35288073235642603 0.67203495974582927
-0.71305611950974379 -0.94705473633549508 -0.44057052142459491
-0.37855672810401703 0.25212463936275498 0.7770966531487038
0.60422147209288768 -0.41300333143541168 0.74430485113795875
0.73357011919296866 -0.59633192987954131 0.59799863272536424
0.29427770947069898 0.51210696378844234 -0.3682919005892103
-0.31383931383159852 0.19530326653351882 0.81011113937197754
-0.5987611461792508 0.07577564553184013 0.8029644789456547
-0.30109473409979393 -0.24622678671653153 0.7682776410580594
0.82159842279802842 -0.19516715489650993 0.37397540788254091
-0.58922061201150289 -0.30856974673988269 0.66886663174320637
0.26782510555922373 1.0756656209864905 -0.38334085206657681
0.60224877624766582 -0.67009318991605071 0.65184243674733133
0.26091106643247752 0.81197915723380376 -0.29796579388881678
0.19144578081145189 -0.17519689158193297 0.78630052921720717
0.66920015755401374 -0.51223441904578881 0.72076193342875694
0.046044951357733122 0.31252446263562239 0.76021485505711472
0.13425915567220187 -0.16461958695782863 0.80094608700242487
0.87640309399401317 -0.18221992232885853 0.41921595592161276
0.045832259747221472 -0.28204111213978089 0.58528012851967892
0.71959484429568554 -0.42379977117782297 0.38382975007618586
-0.40898455343368445 0.42449749956866767 0.83425045713063362
0.14054829159302173 0.77768520360518711 0.57057725163784911
0.33708303153789676 0.90185718435696605 -0.34764563171499685
-0.29396495515159493 -0.057061425820617018 0.75792111519574501
0.3444531895679197 0.50782291813755887 -0.30079057714745883
-0.38200695899358889 -0.5211358339526635 0.56623828318481517
-0.39775050085814928 -0.80164722459339877 -0.15561031576865431
-0.39514807425180215 0.19680959126973097 0.63778831167700911
0.47108119294732209 0.80073550733964449 -0.31085712249207453
-0.26474484648708885 0.66735787909521904 0.68068968803134733
0.1146423042724555 -0.16366570679428838 0.77347964617451481
-0.34787946790594515 0.11270029879514154 0.80435287464962524
-0.37546367145831494 -0.23076664065706765 0.79587689990831612
-0.1865799731302589 -0.17764372548079921 0.74544770223741841
0.014841700348453793 -0.43583675603745031 -0.39330527706456253
-0.10578114715094139 0.99567876219207196 -0.088006879618330258
-0.7574099138035737 -0.62051589910062077 -0.2999833230982043
0.78668055822836014 -0.25791092076826722 0.68104901452733413
0.86535631031472537 -0.38485820393315584 0.61290700336721649
-0.65092328163002811 -0.54225849140133286 -0.38421740111341851
-0.76364761453326524 -0.8133023411650917 -0.50125547268079629
-0.60433554468251538 0.76104705587185628 -0.2959178421944606
0.15292286643573066 0.80811538788126647 0.49448889842121502
-0.39382221621094332 0.37469601563880683 0.64981015543107912
0.50999216301258221 0.90010865140487073 -0.40313137130914134
-0.48353721717443054 -0.56994213268836802 0.39834156619874622
-0.092799238695939007 0.46555621934837688 0.80072660082154457
-0.82650012713675125 -0.9834207489799649 -0.43155026419523362
-0.44219616611181756 -0.41445906582817571 0.64935636796909135
-0.34368051388992382 0.28609309470951683 0.82352337027245293
-0.20471294406656879 -0.13232292029375969 0.73366620503111568
0.20121062012063518 0.77325876825415896 0.24636786159674723
0.79457123266901886 -0.29804821425988232 0.68890454376111576
0.19117838683285354 1.1490811752646395 -0.29423944146464037
-0.11760729273347614 0.63732331292232103 0.73783131922013978
0.84733026113731003 -0.41444245162443377 0.62245936665084134
0.73649989096445523 -0.30643391618074473 0.65397150940738524
0.090220794279558536 0.84379713643018528 0.22053746871796914
0.082761845968301315 -0.47023511741716106 -0.13097679520577737
-0.30355358132067378 -0.75882945167783089 -0.15982515757814936
-0.29071986348329731 0.30777571137156423 0.80111131164849214
-0.22638089800012381 0.45498409871566947 0.77067724019909889
-0.25043541666880248 0.98848456665139461 -0.092156859084717713
-0.60954197207829575 -0.38981464090739015 0.63531805801068564
-0.68805833287089369 -0.27426298699745222 0.68971715915832998
0.060287407031685336 0.47823446254304414 0.74185952123895837
-0.81988654988741305 -0.70671113390884166 -0.43376055418645526
-0.44653184760218656 -0.25875019661236331 0.76479544008745659
-0.23883680064792706 0.34303171143209732 0.72569176051594098
-0.7566149736012916 -0.97742661169949185 -0.40020586701664546
-0.046249137863662304 0.43813392476427926 0.80595324260644108
0.80936286836633375 -0.13073182320598037 0.42284731639269135
-0.48514289836608582 -0.370267980900852 0.66903808358369232
0.65375621400832895 -0.019744337894007313 0.55829768858101514
-0.731404157898497 -0.32184931526529836 0.42502487350892715
0.22593157568189415 -0.059891216644831768 0.8055352340768186
0.061375138824694697 0.38113618779965885 0.78489183236711524
-0.085989190077927019 -0.52818835370577011 -0.18888586935472751
-0.36740933053855312 -0.66243955371192231 -0.060420672112268425
-0.39486831331480904 -0.022002873696724823 0.76701217886974937
-0.74873290375982338 -0.3232469517247365 0.63842138091921086
0.82511406400961596 -0.4423149138446078 0.45486483646667464
0.33059222789495613 0.41110331431535685 -0.26589866261740647
-0.7007727234987271 -0.6931228692060909 -0.35751684467457023
-0.27623256593117951 0.42134140870166159 0.67880125616017239
-0.62523673135660784 -0.23132750303982963 0.69025515849717722
0.55162731529075282 0.022197344777176387 0.56526991311542552
0.18132426512362648 0.68351473847524302 0.5866443127627885
0.32046682252635339 1.1091078885537202 -0.41619178555713626
0.4438264220454205 0.05168413883725953 0.46172323689255412
0.61566788270424477 -0.42360039994210302 0.74204964326652323
0.53442404312231118 -0.20281307815894356 0.72762025425965571
-0.72426587977249646 -0.51116434833489288 -0.17452159658979
-0.62607704866682656 -0.64348485179481729 -0.29700038764443309
-0.098411730836257635 -0.44026729251881502 0.39295502170743163
-0.89427269008209498 -0.098693732229367281 0.0854093725573698
-0.55530680850370118 -0.055159725568123985 0.746893239751663
0.084499232109598255 0.54313107246405168 0.66932138722648382
0.62527941079240257 -0.6328042468141718 0.46023424342902181
-0.11824951153381713 0.86927666396062997 0.24242153742636952
-0.91469203935451726 -0.66668879239792478 -0.41092243138565754
0.27459408981566502 0.66659829100937706 -0.38648463087941554
0.29197561365529467 0.14350698662998307 0.46753505079311569
-0.51488985330285308 -0.31143311326384371 0.6638959224340224
-0.4309750816845288 -0.38873875434083538 0.66824873584641031
0.38283417376949941 0.71615108457232945 -0.29212105771059643
0.45850671714197955 -0.0095020975230919458 0.34800386385149795
0.29396259977930062 1.1204621247623754 -0.41036384415490612
0.09581756998760918 -0.15349320713898351 0.75330656742521718
0.30948048915322685 -0.13553419497519181 0.73837291235689251
0.77831347041954335 -0.35650634083887522 0.69337350197902203
-0.1071445060405444 -0.052604464219538016 0.74862809155546073
-0.36514132068237831 0.46436816800706304 0.5443815902944934
-0.89969597007148006 -0.84051959177644586 -0.48144944048357258
-0.2936863546239854 -0.44290339173507365 0.6324255162583281
-0.68367854097889313 -0.84661971467561958 -0.39692138533217325
0.010495518585063202 0.64174655767774713 0.67822710761844918
0.19904765826500595 -0.34690415228824834 0.64302564290441699
-0.27046432145237964 -0.16665397050074415 0.78479180593067832
0.66167720854839729 -0.64251995160126318 0.64596802851743662
-0.7456779625412423 -0.39130469308891747 -0.39054561161279056
-0.33931380225441315 0.22291446803890747 0.80731522268860312
-0.45968715496888196 -0.81641017640256686 -0.2215836542450666
0.27175535449761007 -0.27224918641280671 0.72789246992546874
-0.83591329080544841 -0.72915903615873212 -0.44912998832871431
0.16999278301865198 0.13165041098867225 -0.58256418953788069
0.68593202574978385 -0.53312111705437637 0.42505578253913917
0.068739127819149315 0.59075562789959357 0.61856528968686542
0.62412727223083508 -0.42316002195631269 0.71978409384482778
-0.20232021903600822 0.30766398759375546 0.78092289480349386
-0.46683014981129456 -0.25142909590670071 0.75818957193252445
0.067151026935460489 0.37989684944673507 0.77945089024193825
-0.37782467927760616 -0.35384698955275962 0.67790544475188563
-0.75303077298899523 -0.43127584270077879 0.46152098606379527
0.15848176923294266 0.79912307970433782 0.27689394482619051
-0.113801970077963 -0.42317708473490856 -0.4955611070009962
-0.23278997524746009 0.49734650908260636 0.68710833595011089
0.39530323855266958 -0.25504888593256336 0.21432067579350064
-0.79042217848966512 -0.44921143308619271 -0.041461517055254804
-0.33973681171415732 0.01901409853271474 0.77346139988414797
0.4579006829541078 -0.56269393905623377 0.41985523881724379
0.0019682659880772557 0.9599380760203946 -0.18007211657384359
0.25606296957628083 0.44021318591979264 -0.41084215767282772
0.35767834644933288 1.1118260236841691 -0.42683922357531373
0.72785858848372031 -0.30440349877387168 0.65633034227531528
0.67089842990452386 -0.59474451445117305 0.68160722880327285
0.37058211839178667 0.53679288264470326 -0.12517156049802808
0.21117536957126759 -0.17261278506150135 0.77526169102529852
0.34041550845903035 0.2261844110102248 0.27328072530337411
-0.33233496886609709 0.87229453025220693 -0.40700848033981618
0.033882222162571085 0.38962517443682665 0.79630332056887043
-0.71242084263961769 0.67114353639058488 -0.12361431942631396
0.083470515635575393 0.5694832897985066 0.67137177761962785
-0.55159110187537375 -0.28736877351196521 0.66907976881260156
-0.77539175561974361 0.35121233186130674 0.28344897183185735
0.027595881187301163 0.62911019736464946 0.67788783886216897
0.30341021226094839 0.11237997156897772 0.46771899103433889
0.23412655986352898 0.027419483543932865 0.74211487121524478
0.41985040696795395 1.1442838116364711 -0.46050326160987837
-0.82065406038068567 -0.64006598125833403 -0.35627871773736541
0.44822153349688065 -0.17749490500671938 0.25649192404101562
0.8410496975136047 -0.19507619629122769 0.62044591968752694
0.58172440745133602 -0.24340580847203197 0.33366098590841431
-0.55408530957585356 -0.38285378119809299 0.64633869169857094
-0.92184928094053298 -0.70057859087915619 -0.53867643157392908
0.56584321239144231 -0.45241012525145197 0.74041849368675972
-0.56252561567650172 -0.36103065608783469 0.6543394781693328
-0.57198140579237389 -0.5514524324359007 -0.40547752841119539
0.68505878380683527 -0.45188274255689126 0.68984906007133273
-0.64508128007217003 -0.33437338266841676 0.65553217048488599
-0.89385397201433081 -0.84960054696833676 -0.4990835220701394
0.6331408407219451 -0.37760003536016906 0.73785512497352423
-0.37479744381734759 -0.66274637045600282 -0.11663569039524602
-0.14059032664715365 0.74354944000339485 0.40894890992340366
-0.5075034463909488 0.4082369882576995 0.48974647607258159
0.31093512352630143 1.1410188144896454 -0.41802388829656267
0.47115180821591873 0.045058335142314609 0.56863330402679724
-0.33120023379602026 -0.08317861068434973 0.78879889411792137
0.11462727595308814 0.48298929512573896 0.68981113880931633
-0.10581400392262208 0.41724769033099385 0.81499578451079402
0.30961418057404821 1.0160831685858933 -0.36806271821522862
-0.18685285340803282 0.4786305708682439 0.76933818370130347
-0.33237705746493423 -0.67379339558033768 -0.10967297314045915
0.52786932968458966 -0.494294083609784 0.3837981474094328
-0.13247961807904415 -0.28599484196249458 0.7055878695804032
0.70364955601232182 -0.3341744470115891 0.66470013945050888
0.038471281979448074 -0.32574389783377966 0.47994612254865299
-0.37572023555820744 -0.38844611460876788 0.62889479902480461
-0.61112505594953825 -0.9378845053642697 -0.33963488943337539
0.30140214825484779 -0.076510032079948109 -0.36512994894405842
-0.81458086929019602 -0.73755826550905157 -0.4310630877226776
0.74861108244032137 -0.37473599003052538 0.64982513159997168
-0.16748759899016546 0.36530193485978013 0.7833985757138302
-0.033459020899075598 0.36560670697828601 -0.66733748372699386
0.14494642248873801 0.37014591055998403 0.70591980413149547
0.13261631870874035 -0.23516975640738702 0.70455139196336092
-0.368111080469948 -0.84826210995577822 -0.22316520307739635
0.12051903933716292 -0.13449737464896649 0.80533912169706434
-0.53251868323234108 -0.11111114412584944 0.7414609193234788
-0.60298763386417065 -0.34045128055648677 0.65172132639291758
0.36990506399272927 0.71827088764482472 -0.27696109183514089
-0.023819010090882053 -0.35090640884520408 0.52538332310418256
-0.75765844136949989 -0.48273029417086599 -0.11207570669547068
-0.72255198419614775 -0.5336339577141529 -0.23178819685519714
-0.41406091222516345 -0.028176895249539591 0.76165772656156172
-0.074522074686116213 0.25265666022062772 0.7545027120991552
0.29108668057242693 0.83868279908208043 -0.32014194737295465
0.038363860847732634 0.82509241980801573 0.62240312827638777
-0.45336764266771934 -0.43086102060679643 0.63861793239944165
-0.64676049917410361 -0.98742872940776083 -0.35137022783530891
-0.62367502445221634 -0.05619808238974211 0.75021187370046272
-0.0039103299386152313 0.49181429672120947 0.77490208814584294
0.41806390963216616 -0.59704927641573302 0.55591292653526625
0.26999377533625418 0.015564932461289094 0.75048999126506877
-0.56403335957202916 -0.24865195483410441 0.69210337747234185
-0.069431170579242141 0.5101220393328052 0.75999182535324106
-0.44404894109632265 -0.80469752135412831 -0.33826082649676054
0.00043201637373130319 0.505212593927994 0.75611843927489797
-0.24600610699748413 -0.26718438595059557 0.73723126582186693
0.11963931699088998 0.40200612892129028 0.70042987565685144
-0.57414053886887562 -0.2255528633041235 0.71052386790607791
-0.51974038972758341 -0.61582050083091033 -0.12704002243334434
0.17724203749620665 0.28085783619851412 0.69220170011898752
0.018983676946557226 0.60255414325622569 0.68172899726947578
-0.78345818445274895 -0.56658740158587984 -0.26318443437206174
0.096439509678583335 0.52264666257076464 0.672545143608963
0.37971602679649841 0.58766853881044434 -0.3208524704442885
-0.16285316949065196 0.72271947218915122 0.61728351024818962
0.30825035761107855 -0.50117115604050189 0.54976280249403287
-0.88225938671148019 -0.085673804006036747 -0.36991480534127458
-0.93534225528588522 -0.92751077984308417 -0.54940601114906895
0.31230000516582096 1.1685989103886061 -0.39473548237736611
0.26881059458912027 -0.0019808189745418314 0.79150728920914581
-0.37516145891796138 -0.4044777814381777 0.60273194250144868
0.19951725527736269 -0.10181193754683326 0.80908684817931853
-0.70530970324896358 -0.99374635027750369 -0.37960036103583655
0.8164176511998017 -0.39493528641834835 0.417913445258699
-0.45180892799171468 -0.3442810482616907 0.67071984521859196
0.50137798191218497 -0.1603052871103553 0.72457471951738972
-0.45311000985952699 -0.35075395589564695 0.67309505048577523
-0.40179720919964967 -0.069166543883944387 0.78608163783851426
-0.45625355490049879 -0.36463107090808311 0.67505321210913172
0.29693659571113051 0.2188555766884076 0.44973448474413358
-0.2604464496007699 0.65296365871730044 0.62146381971293141
0.11111883005966749 0.82651437006325079 0.54939127454459324
0.18343560695993649 0.77520771289827117 0.41303535073810937
-0.37856780637654291 0.23400743079951813 0.69175289689603625
-0.20509051793808902 -0.48050936632035579 0.54814943097652946
-0.16994387672067929 -0.32837712255540796 0.68723625809608468
-0.52901326383615199 -0.35539346108629388 0.66601780261274035
0.095854167393475187 0.58225882290806663 0.66928422064662052
-0.90764378939863766 -0.81570819219746493 -0.49310137629043282
0.032694600463109402 0.32913007172113462 0.78785369731551014
0.46371264746706253 -0.50078061230422033 0.70911362775549724
0.295754228395259 0.75232875386001963 -0.2947687099173264
-0.48832460390518129 -0.0016117412767175932 0.68619189628179278
0.29481695721489476 1.1482635063769622 -0.39239667692554026
0.52321666103791131 1.0146269462636486 -0.42510959905242701
0.1226781840473834 -0.27211137741161573 0.64448059290349002
-0.27388518425890718 0.40830623376718278 0.78114587212696351
-0.6277319105828556 -0.08279982332655611 0.74256433867801341
-0.59846666967322459 -0.16157034070167287 0.71765203302202174
-0.58198217947741304 -0.64497890122409096 -0.29294393578234212
0.5589935713873917 0.80876460172188436 -0.42069089070151688
-0.25462676572610404 -0.25052788704066464 -0.62954199739820604
-0.66334042614154831 -0.52915938078222524 0.44541349607468961
-0.83965922781250146 -0.61505349825311861 -0.33284499183098148
-0.86472042746681743 -0.72618529708787838 -0.47110663072054915
-0.38296840999997034 0.19003610347350963 0.74428224764965378
0.024150421332512773 0.29854835017622072 0.76533944623600281
-0.18002150987705068 -0.36834546250848055 -0.56672229733545632
0.34681758151052011 0.74331993168718813 -0.36637071266556659
0.88331183944151737 -0.25390156875477471 0.60893171745095309
-0.26240924254388182 0.654227025823092 0.73658492715636104
-0.233595354517073 -0.41155709177981548 -0.5310362190054323
0.77099199460765255 -0.30620310071984402 0.70108275041083634
-0.42796062072206636 0.54388962630258519 0.66018833430976964
-0.19959602513069846 0.44441902087481977 0.74944543410907705
-0.26717077234210096 0.0075987245662259006 0.76638450738446928
0.27474535248576726 0.073676113351554107 0.6376286334753215
-0.60464590319053557 -0.19561206739805637 0.70554955867533797
0.70370677197144405 -0.30216343604270546 0.68605662765063213
0.28955611313247387 -0.018883257961439637 0.77296672750443929
-0.59329304074460287 0.23661673001610461 -0.63541932537733414
-0.35815955102536801 -0.083941664510509106 0.80829770664717682
-0.66886984325501242 -0.56101738818882341 -0.17706935161466952
-0.63647710205833163 -0.61044980211357447 -0.38867429234467471
-0.39772661719981511 -0.77620235761223122 -0.16101760534058907
0.38432200396363403 1.0817272652049588 -0.41955485225732148
0.26756992163773141 0.76325889441164607 -0.2780090461079735
-0.16546760356050438 -0.16466930970486948 0.68987801615071187
-0.3124577326493595 0.45479141480409613 0.79592098640388631
-0.69871816215759697 -0.47240702879149943 0.27406763570341824
-0.083111622049763967 0.55681024033741555 0.72681851424730304
0.56041155563552214 -0.14695310531939954 0.33676593000291211
-0.66822341119596995 -0.31125626601702683 0.67100078612582825
0.41588124572688479 -0.55490012888418061 0.43834284247068556
0.12751556111833107 1.0687869204059153 -0.2428719029579024
0.28717969659264259 0.76519340185829132 -0.30778381491136919
-0.28053374146835014 -0.71894066469218298 -0.15879802994447995
0.50142283502130947 0.97701133048154787 -0.4618754500626166
0.17482011015923599 0.46011260787090957 0.66605161716148276
0.16772111211726515 0.95636585140951591 -0.21335203053875262
-0.62803067482393238 0.15899191245097266 0.71438543652239384
-0.50953117988843855 -0.66446572734129528 -0.30099516726441772
-0.72612565345307423 -0.22521046970667569 0.6931740537080644
-0.043185127599688428 0.23856532099208549 0.76130978175537223
0.25201107070300777 0.02489204371730247 0.76934337393383334
0.27989788777863345 0.81332921534367375 -0.36920035006905849
-0.77078726847450163 0.58231856471632826 -0.13778497638289844
0.15078196337787467 -0.29955688596048424 0.63828340375631554
0.18228798566068005 1.0215788499547904 -0.25151984501988933
0.57411474223107595 -0.6922184575077831 0.62816033954089945
0.0097620122828302458 -0.28818519807157872 0.61899156627111818
-0.38564677843922468 -0.659665827670189 -0.12825597725015769
0.87293965715566191 -0.23390970572455522 0.61167533833780419
-0.30810882596506883 -0.01966210336747598 0.77255529335891637
-0.34826337244481537 -0.66236156174018657 -0.035341549731831623
-0.48283358862943176 -0.57125541252641265 0.43179610475082103
0.75219215346489576 -0.31848334896307545 0.66106899791589857
0.39066146631851639 0.86929387577919026 -0.35634255261638331
-0.24652588530928993 0.50503727204559135 0.66502882626395499
-0.34519785504055522 -0.22729444328370896 0.79908727304839655
0.11706926455311273 0.35028141079181996 0.72110591641724875
-0.4211927444498389 0.13363319173281996 0.80506460493531207
-0.84827254599687518 -0.55619067070877648 -0.3171027481465199
-0.16987715105428153 -0.47025778640454385 -0.42821143827864588
-0.39121272938448187 -0.23683078558633053 0.79136575971123102
-0.43439254214420475 -0.10306171492364746 0.808776128169025
-0.37849368939403261 0.27742230648758914 0.64099418297591693
-0.82279756652226821 -0.92020025949480622 -0.46041184685149
-0.34180878105687462 0.17110885989526259 0.80163948306066257
-0.53582274647847505 -0.3373463765763165 0.61297522192519416
0.4802530363891554 -0.65498508340379891 0.55735517454260541
-0.62435387869273362 -0.78879079618919423 -0.35203153639864176
0.23851278843561924 -0.23033275623245841 -0.38111201789051274
0.12784144712785878 0.94255815997572845 -0.3163196771109541
0.13814578634628755 0.8354278365158363 0.17296426341586679
0.16588688968647031 0.97887181928010047 -0.2179819983939551
0.30438551849621509 -0.041565739126040113 0.7462197725816293
0.28901456237848744 0.1016459153620296 0.53128188083365058
-0.63882739711881964 -0.18875386558948914 0.70951424570053878
0.82402960481802445 -0.26985007734021904 0.37386069575927267
0.37895255188269084 0.53140595616975972 -0.15867874065967369
0.18621608963749986 0.47963468359478489 0.59348640748527637
0.69746691368159708 -0.19350508898205354 0.3529500941027166
0.019736045709938532 0.8256690044553705 0.34558662828719988
-0.54911658548271647 -0.60870368704458144 -0.19025504235695428
-0.54908802609480933 -0.14588758785633504 0.73835854512792864
-0.71533347025796434 0.10943268115056393 0.77299385142823507
0.80459156845206947 -0.47577951221536779 0.63998366753811686
-0.33657517692757088 -0.089505973235102676 0.80364627020123514
-0.50061611017461649 -0.040830314289988179 0.76192613784951968
-0.84213382381365631 -0.89601159049688706 -0.48732769164723672
-0.31632885192584015 -0.23188389101621731 0.79492131706050206
0.42147591810993446 0.78399516057177943 -0.32196960626105786
-0.71344980168246175 -0.93515208551010698 -0.44028502807701597
-0.058501634431215838 0.226730622874594 0.76267172328095767
-0.084060168724350404 0.35383728985608709 0.81853149116165791
0.14826509233763535 0.26462544197573712 0.61036256987994131
-0.88943395009868409 -0.8221140178030133 -0.50119679026931352
0.28201992772262552 1.0972753310143426 -0.39960193891653378
0.54690792015260492 -0.065063181494628308 0.35808006335245551
0.67471033223288446 -0.47144809569064949 0.72959951972773185
-0.18390953744418903 0.35988282626087487 0.77202861408144419
-0.58626089180677388 -0.59929074131349624 -0.19750530414957629
0.35889692285645036 0.58750323662174719 -0.096672699884042756
0.38551299073859524 -0.25402972897168308 0.17246046127446613
-0.40240435192997243 0.1752289201747439 0.66018533068762342
-0.68493094229852891 0.062629696136660584 0.60662731451095586
-0.053977550214980796 0.34037524612462966 0.81637877021932148
0.3910188624056673 -0.29925880375885205 0.2641568147895203
0.14412136905221579 -0.055710389166651941 0.74553904182737174
0.7190065305539054 -0.47580432008772044 0.71265614935177646
0.68352135585024076 -0.62348436066732893 0.64440372983805871
-0.54865068413100404 -0.79059635081565149 -0.39454690513158408
0.5646353429082267 -0.1615291640402482 0.71478666917975731
-0.63274728599672347 -0.7526192595666763 -0.34741858616595322
0.42438582297750049 0.7348762129946681 -0.26877146323814771
-0.11928384447399676 0.21442467599422566 0.76433780804416307
0.20309712500868632 0.84858598120868201 -0.20793825078842759
0.071046067347546593 -0.13314999335309219 0.75887575615055214
-0.27734343728161132 0.98370942314540266 -0.2187276750579672
0.36987521070609614 0.91859170587882666 -0.36646416252007508
0.40493030028319266 -0.40857745619319996 0.72215136342467012
0.36466378687852063 0.55716031827797585 -0.081259238086554164
-0.51863563712403549 -0.079076509391302618 0.72992494689512366
0.37421681576469157 0.83336720022815336 -0.33979283522684778
0.026693946406436714 -0.07074683262291015 0.75368581115683064
-0.10575442835136878 0.097812176285503982 0.74801398859578516
0.67371512207094231 -0.42478559306564612 0.66343445731781459
-0.22599992803082788 0.39197739283505562 0.78012563199901641
-0.096112537183053334 -0.32233123214156179 0.66473645827101402
0.15617334526958068 -0.28063742142668158 -0.45196630588409947
-0.089003407210127117 0.25670107790572083 0.755970289203582
-0.21356556850390612 0.69457464423444293 0.6647520493561232
0.48400213563178462 1.0792045790178171 -0.45460671914290285
0.35685043775516501 -0.25479594897574365 0.024322552687672083
-0.49349964970221477 -0.098518926503971871 0.75946392637117799
0.14783446904949077 -0.10045558434750745 0.80861924774352567
-0.81157783371099379 -0.83291977373922021 -0.44524558003600312
-0.38571308553302797 -0.75015089098596488 -0.1617977213932128
0.44162556460452373 0.64344229005474429 -0.32401778405625425
-0.3076025056677929 -0.53495659624966518 0.43694817707647393
-0.15693004848357917 -0.4577818617584376 0.47355786584267423
-0.007238199520600147 0.22328499373041466 0.75378078591491215
-0.19508502721160059 -0.5502782309113543 0.208657529746613
-0.69267767861491913 -0.53204605462641763 0.058754754640193918
-0.55723768778611005 -0.22030875078326861 0.70217331250427861
-0.52217225709009008 -0.081006489754842814 0.74894373806751369
-0.038456286095248288 -0.30137416078327273 0.64779077732214041
-0.22693926350912236 0.99563207711658741 -0.21751535544593203
-0.50256785197079401 -0.40024118956423238 0.64930364095031734
-0.74679581414548013 -0.067626319877195584 0.72063511955280413
0.17519914870601408 0.010407324718613498 0.78174558214943568
-0.43542305536554748 -0.75435096543937652 -0.25978904389749613
-0.81725674648799662 -0.97246585881367276 -0.42346351132561422
0.69490742427860519 -0.31817211168708281 0.68870665567422173
-0.067848221407511955 0.43834097193283017 0.80849009867467903
-0.25841944119269533 -0.3454312444399128 0.69177037142244158
-0.23836683443681583 0.45782663569709126 0.77005270969972861
-0.75917629092987193 -0.52291580132695947 -0.30521493427389723
0.44211675613830431 0.020438539236962927 0.38447050182781878
-0.46425047267881242 -0.61507723699464112 0.16311763032430049
-0.19801311309575165 -0.14655783816303081 0.75606524283855614
0.32803025877841868 -0.073304949539429232 0.73167800332196353
0.43346610613878289 0.76397471063772771 -0.30165560973139488
-0.95022280295920258 -0.68142547478986315 -0.43271849822306302
-0.16263242780396556 0.29500009144524064 0.76624181024743998
-0.45889937628478694 -0.77528482228252393 -0.28509650949111176
0.76941084475888755 -0.39667639887518652 0.69409787867445516
-0.94633341105115754 -0.59996421400957711 -0.42320483144925014
-0.34355232835873578 0.3872624259717905 0.81636039217638967
0.14186506079091765 0.85826545800587595 -0.36196806160389705
-0.53786803871341937 -0.68286631275228649 -0.31267074472237616
-0.68240290221661914 -0.17806313564666687 0.72265449831484363
-0.1478349601442433 0.59568206675467184 0.74264808938204019
-0.83952679010885856 -0.17416723919443022 -0.41201832412282469
0.87679442570723654 -0.37862391564806486 0.45663778111800113
-0.24252617352256248 -0.031529714749751303 0.76260994250189085
-0.16639879350539738 0.5369208324537631 -0.65943095134908147
0.29812181909812085 -0.22672334126471994 0.73756717034165831
0.011099439011834356 -0.3225619963791112 0.5045743491639787
-0.30105536669448191 0.97453137077793239 -0.089604793953117878
-0.41583647609601732 -0.78305566605449695 -0.17852363853834219
0.12120223973551061 -0.38726591924012865 0.31859686562389067
-0.14957310526372131 0.20491493956747364 0.76638224221353046
0.12656564390041364 -0.3312826236998111 0.50998688601383235
0.41101462665455152 0.72935090772110711 -0.29557582679118866
-0.40787600277269709 -0.27505438951359884 0.76269104868803672
0.25086873497481121 -0.050073526974863558 0.79973682097054821
-0.19629226256937238 0.28641201803851035 0.77977192144875596
-0.11897507721458336 0.26825500806329439 0.75985848272781631
0.44011033130743094 0.89616840828135014 -0.39787642770147608
0.078831900083306261 0.65807316037484442 0.65100065899484805
0.053627583285037861 0.27457602819463256 0.7471961214913021
-0.089419613401393927 0.84019601267820754 0.28849366539429505
0.50278226135654625 0.8602323152092024 -0.36277774344051522
-0.91134952693312765 -0.12517979129617718 0.00056371627957124693
-0.28633459388847515 0.70855386854557079 0.38344784631455864
-0.53463284692919455 -0.3132760211889567 0.66285832721172933
0.42914259435274132 1.1565119506920454 -0.41621715609250226
0.56318814734908584 -0.39595901073932938 0.34559682288615823
0.12523467279317624 0.40157436033797345 0.70363223582931544
-0.14122788402158887 0.42928707613807315 0.80566795910344968
0.35559188433592759 -0.29255620476044564 0.7370146166137691
0.53058963740255272 -0.69807207025412255 0.56029334005125453
-0.42228870519820483 -0.89045396014567313 -0.29173313653574523
0.31498917655886671 0.31823837580056835 0.50055229355323183
-0.35527836162388493 0.48879951367561647 0.62149884378037223
-0.048028540855153151 0.50460585408515124 -0.63593691600217583
-0.55112137684464491 -0.89281654614127381 -0.31772499660166931
-0.24073077779560942 -0.20570419231164827 0.74734518864873101
-0.64185935196916144 -0.57376513379530136 -0.10960214931688006
-0.74395644473493938 0.076773019137267973 0.63446588945377513
-0.74080262905005179 0.04111251089656931 0.61439278133847119
0.039112766594405546 0.80752063815147412 0.64150884861976931
-0.29234960431719653 -0.12958123658171372 0.80365512051106736
-0.037486446022487602 0.15695256548814074 0.74573296438162917
-0.56036764788562898 -0.096371904154068044 0.74319702850711244
0.45340876833263866 0.77822429098944368 -0.29630712741913939
0.22616943173589782 -0.018690638926122105 -0.50599004242293666
0.10149600205862983 -0.13287138017923827 0.7928728688683423
0.14565466050179759 1.0989987461134103 -0.33682090827189209
0.26034066598845496 -0.033586628340153024 0.79721937734428161
-0.84492059463383407 -0.70923606381383397 -0.45286685571806284
0.017092462796090946 0.3619110514751247 0.80450617508731026
-0.24758506529030089 -0.30254892235237296 0.71824890302469835
0.14339284751115261 -0.26768929702252242 0.671898794003007
0.041513803483354261 0.34823133651393734 0.79420519658262845
0.014226709170965274 0.67479532761105054 -0.54495547973773284
0.17140087444229923 0.93441959735432012 -0.21079662742007876
-0.33682995085340423 -0.48503968237015416 0.60228389113376668
0.26676273874626888 0.016009231779374855 0.77858682631186404
0.51044977119031087 0.94104519694233346 -0.45088376658268892
-0.25974420605329906 0.3236111947304694 0.78602927262307443
0.29511043409921345 0.2096238917680443 0.51882866902423896
-0.013311874131354762 0.81281075366673283 0.49204990419147759
0.81235735154115152 -0.15881724190666446 0.39215056868629938
0.061112244861552034 -0.35994154958534641 0.41818152990848395
-0.40701582126710251 0.60101060833078335 0.71844565001831939
-0.31415043063385667 -0.75986920399724234 -0.14104482600335655
0.16794265246240409 -0.051923530351399072 0.78618547569069175
-0.94782216557694243 -0.72141095164792168 -0.45174612827778182
-0.55363765194890069 -0.35242041558357129 0.66120353556022426
-0.95066185578406803 -0.75494080590199864 -0.46120587041551675
0.76507394234854986 -0.35883466034429057 0.66619443761536101
0.18840368412718828 -0.013591734223107999 0.79899634731316282
0.030689512362677973 0.64077329089391744 0.6724762565321788
-0.80397528934079876 -0.79173376166702925 -0.42798830058711901
-0.54316635829162363 -0.40469614780924568 0.63855832757656472
-0.72196282648271404 0.59273372846905703 -0.33596479942711077
0.62366098310661022 -0.57089188267885371 0.70763195715458505
0.02516944667958973 0.047900136058188547 0.74250633371055952
-0.36152234175574577 -0.66609442155271514 -0.10137183536313377
0.42200679032969579 -0.15256089974270726 0.16746528619701306
0.39481573912357887 -0.058776557741444524 -0.068931060764324315
-0.46516838152150797 0.022771159448178091 0.7733101596628903
-0.47040316823632217 -0.76430373825404097 -0.2950248749011154
0.18799266729260145 0.0025237607854403654 0.79394700468933088
0.55567567426055098 0.87223970696765707 -0.36971907242553553
-0.50895026971810009 -0.16320170320188288 0.76429734925059467
0.67534071624322389 -0.62305576032520804 0.48567926864858463
-0.87440627637524826 -0.14956289050547689 -0.3655643579263681
0.40942470488033234 0.70254247879518239 -0.23653161548009843
0.094478726849755015 -0.12010440367718689 0.76625357684795969
-0.41491263898264169 0.11786969074469167 0.81163045193204697
-0.74980200857407842 -0.93494437933913033 -0.45520046383786478
-0.043694837486953964 -0.14810161019777401 0.75948145972848713
0.51106792671764167 1.0105127007121004 -0.47319432474126999
0.5085096209244736 -0.40984782798395369 0.74004707678881498
-0.023628594348460125 0.24875745551621931 0.74575612073359965
-0.91378877270107284 -0.13311526612566782 -0.25374423721288802
-0.539207209301516 -0.12755175667358554 0.73872386545587332
-0.85374664203489903 -0.26277654354822122 -0.3410276002215783
0.58019277321718088 -0.45014554534798912 0.36517090352871029
0.058237968887108194 0.36156265460154391 0.78432347826543292
-0.40649907560401422 0.033115582772443641 0.67549713054776939
-0.391748887098475 0.57354953752511562 0.65105545763588413
-0.26432211452754706 -0.49657924037113388 0.56623218319266433
-0.52848211437281201 -0.0041155795904179726 0.76181416586199868
-0.78320447131823023 -1.0201752091244689 -0.4429389047002586
-0.48132165061396703 0.88197669868833994 -0.2590141547818211
0.11325274546499142 0.39591195236496213 0.72210922615446704
-0.011309417997951099 0.2431696470440825 0.76014726254522769
0.46473711778387389 -0.36832782550452137 0.33309305139767054
-0.45209986642478633 -0.14281028432775722 0.80299466640416262
-0.49067827925519542 -0.65682580736435936 -0.27321041765591209
-0.45851973589511996 0.12898800873514382 0.80672647614867554
0.53799070773753055 -0.67547602452854016 0.46918792985604119
0.031949033175693947 0.5737740587598672 -0.57811946622740873
0.2697877183828773 0.6507345303335742 0.34695283309092473
-0.19993225575431484 0.33137609426424186 0.77543541783796455
-0.22565361751739724 -0.15117315421790223 0.76169548552852184
0.14983957265331443 -0.080615011687332316 0.79998588411509364
-0.98157553950916454 -0.76319875505262891 -0.56942851515848503
-0.8431609550529271 -0.65274996037970068 -0.37937988107333709
0.10987463981346987 -0.23650521260990498 0.68693015023548343
-0.19974124690945211 0.77149649635258299 -0.5318631299776968
0.73102823637243397 -0.5024856532073565 0.69437597402011531
0.76540971498066068 -0.39652978682282741 0.68821230429332414
-0.71187425464942145 0.036001600280233914 0.60052865925974297
-0.55393432078211846 -0.32736777258996019 0.66860187267837268
