# XYZ point cloud file
-0.59547877769236346 0.12645921309477948 0.80391058193719911
0.27229042656858293 0.77073287389410972 -0.29895411989079296
-0.24784661305302969 0.24093604721733386 0.7901841945577488
-0.45208790793294729 -0.7689398314703042 -0.28463015087412669
-0.24760873834088404 0.3044375436217468 0.78442537327335393
-0.58217689629448266 -0.32496206534307959 0.66415599526474944
-0.72431517297454906 -0.59027289856173071 -0.25301233287800406
-0.48248488233777448 -0.77169693202910516 -0.29862307294605561
-0.4909052126243329 -0.24358258923828702 0.7416777673546403
-0.71291360917225277 -0.35139211272635107 0.65369813983695901
0.28963726382098098 0.25847088749148261 0.56766440822412867
-0.57069514047101166 0.64003255388468694 -0.50163426516505216
0.66387752725042526 -0.45056318012414659 0.67585760732781663
-0.30477863171626768 -0.044011029274596547 0.76518662792856906
0.17062165450870148 0.49522669825805632 0.65908222344061129
0.33744020724713797 -0.18674202947430829 -0.18355822799631283
0.5795708025284233 0.85953764469451521 -0.42184545272681745
0.47957502474815933 1.0691309482586218 -0.4734281017449361
0.28628523713347859 -0.094852146470189247 0.77287742077577359
0.2732818905942267 0.72168875391497689 -0.099560570945602722
-0.20469554051223393 0.40772477880230107 0.77122699929831406
0.87193964103671617 -0.41386905482490016 0.49793222836000983
-0.13888036277740523 0.35408218349328946 0.80095792954558487
-0.00035751935861334794 0.073497828992327374 -0.68764549865507418
-0.26418995606363344 0.66458625629689649 0.70872815167326353
-0.70447936920734788 -0.95192492429516684 -0.40345145196632282
0.67775261114200902 -0.36212780319991478 0.68150668853979779
0.13271499187712846 -0.073113890608653032 0.76601567527380898
-0.88987840990334488 -0.69024233609396934 -0.42862306544865547
0.276985266931015 0.75324666029633702 -0.29102822529042993
0.32268209390665725 1.1217842416855723 -0.42497070981921925
0.16707800090525887 0.0076282609831763715 0.75754639342916585
0.5075131336454185 1.1844993677579907 -0.50293410583048825
0.53183057817257806 1.0160683508178918 -0.42124191849394249
0.14034133644403157 1.1004813659880917 -0.26186466994210478
0.28459442060575491 0.72341439697979082 -0.23648396365998359
0.28208243853658543 1.2177532501835231 -0.36108806360385937
-0.3327433438139335 0.58319577531062516 0.79975424106199622
0.49527796797167917 -0.13320819969742081 0.30325153747505884
0.26398549791251752 0.63297101870654637 0.53148302609643461
0.15976033254904942 0.64259106556556966 0.61849417669422224
0.75282352731881497 -0.32869480904227427 0.65038858094348018
0.13901001338484281 0.88345877809805717 -0.031496867539265117
-0.59611664351628835 -0.1933376062511003 0.65515960727078726
-0.20184533454383691 0.48242471083004435 0.72632609455932207
-0.20871218558131155 -0.23217905033734976 0.72090471854490579
0.23083357895043277 1.055869956749667 -0.33310650543160908
-0.70629346868690868 -0.57545017761859252 -0.23593766795778137
0.40574007072727425 0.064877284515125644 0.50160337226401475
0.096340679638021759 -0.1181739772751631 0.75838100377033224
-0.88150006990804808 -0.56194181453295755 -0.36360994570090999
0.07000040475672803 0.35684169752677863 0.76094026404668513
0.30668353484815791 0.24213993770017905 0.4228161652437773
-0.41278291195639027 -0.23312004690015775 0.78881584470041743
0.68260580019004791 -0.32857052418994881 0.71433462369842249
-0.39705568858876306 0.39203544173284732 0.83277258246626973
0.74880591970282961 -0.48500964714711359 0.68948178030133644
0.36547064887742642 1.0293458829818753 -0.3905289938029689
0.19630832021672584 1.0179814246185159 -0.2687991293826808
0.226343631942304 1.1656413115404205 -0.32182155019415709
-0.55018365368266209 -0.92940722343086812 -0.28522265189493778
0.918647305133102 -0.31529016575637309 0.45462296598362051
-0.80069716193467522 -0.42749955870499035 -0.14074823207749987
0.58294954076963057 -0.66755759452750796 0.65551866967104189
-0.33014973388736529 -0.68599042328930526 -0.12855868214654459
-0.37888806121911628 0.27099417059707953 0.66531860917451713
0.25751681968328077 0.20301925401736354 0.62125926302637602
0.82906052639944638 -0.22278949074661092 0.64160225551644579
-0.50986448319271727 -0.23857684789304967 -0.5977800934368418
0.41856730835805089 -0.040378098275368202 0.70210952164126095
-0.36827245365738598 -0.78925977898434185 -0.2810764145187995
-0.11422160500276246 0.3183238160450883 0.79094960962455718
0.38853376167147596 0.82432863583419758 -0.33906130370528342
-0.77807854159169176 0.026076766598255974 0.69149457526643887
0.21841156629713154 0.41315870281187683 0.64577227159958817
-0.50595516419783648 -0.72263474917319659 -0.30173031914146803
0.65777036240494002 -0.46713792150171468 0.73414615396377469
0.060238099464616168 0.68781159378755463 0.6548298182825002
-0.21313461428003147 -0.03076777409409992 0.75616045232600859
-0.72875081121544971 0.060865600896427896 0.61423122265641728
-0.81382922033699656 -0.17293915938616866 0.20354967571738386
0.63232173676869996 -0.4334884078713056 0.71820547806690938
0.46273936421635004 1.0947074907831686 -0.47141438851262085
-0.33945255397203289 -0.73411042368328205 -0.134236278056166
-0.42314707854689115 0.39433002363576297 0.82731324092215175
0.65561581510708578 -0.36586019238659712 0.7214135259747767
-0.42805714896020958 0.099526431940315518 -0.70119234032683864
-0.70109731583742463 -0.40022706484376136 0.62601625825679408
0.15784145566377167 -0.066153324637579058 0.76885387690850571
0.41127511518602156 0.61154503430776308 -0.31637737425119605
-0.20099523053646184 0.35039845164445493 0.7712387130012246
-0.048716375297338188 0.55975039539422422 0.70642547565924607
-0.1605694383895056 0.72198652250443485 0.67569432233617566
-0.58380067064910035 -0.081375603506299576 0.73794017358615027
0.04531953783888143 0.44566360742345379 0.77852716009267908
-0.50769262767324741 0.59689197447179732 -0.57924700900764303
0.19959911209641107 0.9346203473957736 -0.24065757890453698
-0.38008584541376439 0.24319515291412452 0.64034958330958469
-0.20912368664507797 -0.089043071961446563 0.7614626053852277
0.4556614789192257 -0.13839289099633123 0.72641486692139967
0.16129907876284094 -0.045035188082265809 0.7661766636645464
0.01189486403246004 0.32638608633781341 0.80187984469680296
0.1667294754857046 -0.060743226874417466 0.78765573589483906
0.27468646344212055 0.72790819358922476 0.09159843711266169
0.19379182861155347 -0.17856333731905649 0.77903736576469318
0.53574443932542126 0.76338869268637244 -0.30801818952194376
0.27884871773895192 1.0340069121538846 -0.36605834612077071
0.65774330461203945 -0.55876744104688281 0.43049373994425544
0.24936172414367597 1.1932528280404351 -0.43246538047888117
0.5471794681816291 -0.52748239110885131 0.72246982093136769
0.3633740252081441 0.21692358833009906 -0.13577164839425448
0.28865370337071572 0.080673354079393023 0.59595966575389392
-0.54835905604617152 -0.32120440263388006 0.66810323735126942
-0.82270244090398492 -0.92459971001982977 -0.47838178373484103
0.73945323823553599 -0.36283661894202029 0.64689737183383222
-0.73767612586503872 -0.35895974387917429 -0.42749153848427557
0.43558931126195055 1.2406751239123632 -0.45902089446123073
0.26797615560741989 -0.041728996521261941 0.79300608504616688
0.38620967947715207 1.0611699832586763 -0.4111734415986612
0.27016641279478576 0.66582104211295123 0.28770046633068014
0.66957580743815304 -0.13904239897561144 0.35896749944512052
0.36794560090858075 0.93823201621689389 -0.3719147624470065
0.8135544188127326 -0.49488390594317144 0.60548347216534437
-0.14056311849728903 0.26005317434003161 0.77416880916566666
-0.71119151490162547 -0.17978605602891928 0.48676969423729238
-0.75327117437828983 -0.39093573084078548 0.60730226795157494
-0.095717961058155637 0.35818824548255912 0.81833277622157174
-0.074448140347291913 0.77698370961268726 0.55072384107649008
0.34172113396416481 1.0682288906595532 -0.39534979786631114
0.11108511886754452 0.9070288361657326 -0.061282749965977934
-0.26109048928072265 -0.58627290854413605 0.19054400663556326
-0.086108512418674565 0.58201839483638329 0.72716380458625141
0.28613738871727945 0.16640563546900078 0.48065787432103513
0.46792718063162858 0.032492985564969046 0.60375217520035662
-0.79743435553677899 -0.71351311604783874 -0.41750468117348566
0.14305115603359186 -0.11393995722488071 0.81068318468567213
-0.14296487780005604 0.035175242827525155 0.74827617018771575
0.11431533837269478 -0.12810252484499607 0.80259233453357026
0.094127833118932025 0.38888326152409913 -0.59837674502206495
-0.15014367024030861 -0.024677034610207871 -0.70839948922793794
-0.57972825736336886 -0.63559656826898969 -0.26771447000894744
-0.087388851475526441 0.99635604255847299 -0.20462830929969456
0.36511207440394644 1.1295011799544206 -0.44081525902562346
0.73654922881252261 -0.2905206972767333 0.6885304310378817
-0.078685125010856949 0.20712324992892839 0.75764541187734546
0.31738233248670372 0.4339018983934646 0.32576405603818254
-0.77583422313574868 -0.019312880374464436 0.67962524669898672
0.35955123989365906 0.075045672645707939 0.48021246691620301
-0.55948936352591616 -0.11899986829581199 0.74466257834134686
0.1288715200591653 0.42580116409901536 0.69661717179464988
0.62759626666265456 -0.69321545046686639 0.59946499695550237
-0.13343857776830315 0.27669008563272479 0.76170002529408376
-0.06652756808452627 -0.52870578204457841 -0.1051760407833483
-0.3923008936907324 -0.17079145780207639 0.81300155668585039
-0.72574616742461273 -0.17051518817537259 0.70967551187723821
0.38235250311974017 -0.12832353904377014 -0.074266331318182444
0.25670737750040312 0.80902125047710238 -0.28738706748992177
0.11532774931947465 0.42396402651326659 0.71629668707525518
0.31918690851656095 0.66792049616583893 -0.061170932007047152
-0.85814645842400383 -0.30868166974944344 0.054690384745906151
0.75834473841202032 -0.19159681788942329 0.36074029318708384
-0.22957120124261485 -0.11299157186100595 0.7639390451434156
0.7929301331244818 -0.33620146872489859 0.69348774842204919
0.75004746343471929 -0.32012784716957388 0.65440735602724542
-0.73121928386256718 -0.77308795762918647 -0.39076293670084217
-0.39962363955283664 0.45096370229036076 0.64156974476165307
-0.050748024316306095 0.57766210412176422 0.68541685499915195
-0.14454868276454583 -0.0084577339856810596 0.74613829135368603
0.26276959431452934 0.78568966736728729 -0.28859875411807012
0.38136240823718626 0.72900496675980131 -0.30512015824877697
-0.50917663522506584 -0.70664504594902633 -0.30229639234381445
-0.20662974715933002 -0.20942128107473557 0.74402371193226835
0.18718217792959529 0.15503639652259249 0.71665811652464972
0.10732747780328311 -0.090208711618325554 0.76465040886521607
0.11472959710400304 0.50270851704520747 0.67836640728146635
-0.82767769351192688 -0.67919507623239239 -0.41883720228603794
0.85404574979209102 -0.38131771918157958 0.63036463816733812
-0.79016897691088483 0.0024996527370304555 0.31537977406293438
-0.36235572418791151 0.49558500653199178 0.82087408831777975
0.407354343495411 0.68595829656341301 -0.21742079655494784
0.30223875678077561 0.68058784142336659 -0.1115738804269405
0.48060479659118016 -0.61966377189507937 0.45042613086365868
0.1264093435084318 0.91501551220179689 -0.31913437485264567
0.39815052624425018 0.0081405789851545229 -0.062079546522193163
-0.51591015877541713 -0.032919256089483095 0.69938744360635086
0.16570174640440222 0.8802611859043068 -0.16970242652204354
-0.35613997296305716 0.22494556798910614 0.79288012908000283
-0.65332347982910377 -0.95673745704157076 -0.35788297475030562
0.19768555872479388 -0.38006467990992066 0.37101928763293612
-0.17098751327559858 0.31154790278570865 0.76173372129244865
0.13072806639359319 -0.1772380671768361 0.75776641618621166
-0.61707051351945097 -0.71246326580315666 -0.33368808817818568
-0.73054659342498074 -0.8190991597785815 -0.40359574837231643
0.14122604051227228 0.55250445962821382 0.65933840281166256
0.14907993179196438 -0.067023257781740675 0.75881010984740205
0.10671147991826838 -0.25535304837992312 0.65275300687228444
0.11494179185814631 -0.31961072667289725 0.51577264175593918
-0.18467596042170803 -0.11966313950938212 0.7548407793493852
-0.49982444798070186 -0.062669537840794431 0.75368699248780502
0.80328289742451542 -0.27476701651844337 0.67655691382680072
-0.17676060303045069 0.47485254764639317 0.76428212606481871
-0.91328015192300482 -0.57902979561072376 -0.39316029922440848
0.22326293405001393 -0.15338035394822991 0.78625584415310601
-0.68411225092304506 -0.57683636345050626 -0.22843500451293253
-0.46837013629298607 -0.63134716228365861 -0.15243001221507563
0.056845353769220563 0.45189325676531866 0.77099184325592318
-0.41404925691464489 -0.33284310999516231 0.69505620461154782
-0.62318125412741254 -0.93283587182267658 -0.36638019949257306
0.0024291971843448945 -0.49529022606942918 -0.20829916588814112
0.20728922425853835 0.65047601072709615 0.58164125887495866
0.44416643824144808 -0.44045698115125564 0.72360633619470482
-1.0062131348802912 -0.84132689486727186 -0.51477155016473297
-0.053519015822016153 0.26707058321968002 0.76303190631806728
0.30916172195685765 0.48592658529240285 0.3713996544929965
-0.42823923502436989 -0.61591200298794502 -0.38132610314186777
-0.58265393944535049 -0.65110015152379219 -0.30330124574596745
-0.59934197334467409 -0.59213432856866866 -0.17323424816420308
0.35042835270721939 -0.3593183905624372 0.29485423255918564
-0.66764493254159196 -0.33998125504119869 0.65776099287912926
-0.32948492623759773 0.25645176095004918 0.8184161480856228
0.35913557494760701 1.1603061497195366 -0.43398074922844354
0.078927316316252272 0.56475303540419686 0.66901641880969998
-0.38611175163438571 -0.28550682684300721 0.75003037481103285
-0.27649262953966791 -0.0070544717169698234 0.76754519785532438
-0.31975865063927317 0.22679768095582298 0.81378456770846264
-0.64075071790971538 -0.47945036345286041 0.57440539162926418
-0.36595177967902348 -0.0099270204938575191 0.73623428029304794
-0.57455820094344479 -0.013884501514813907 0.75725307894156602
-0.54583325354172252 -0.03958822204185819 0.75096427658498377
-0.38801032146630532 -0.26364939596957937 0.77803759799144845
-0.54178964522609951 0.82882472827410214 -0.27514971978487152
0.048888244124078217 0.098081127358630837 0.74894864209102541
0.18065754490059802 -0.32809840095516929 0.6410469663995948
-0.73623191007501443 -0.73648486101305322 -0.38589995485344858
-0.10690106151488232 0.39910694569022898 0.8172434100539091
-0.38813257088854891 0.2804989876783075 0.62221393605353059
0.24776955150552721 1.201892787459137 -0.34071547813129771
0.73001933390829443 -0.43224159305948134 0.67645633025530805
0.56438253583078224 -0.071727917293041732 0.67730523096202888
-0.1010642950660221 0.29564656956862723 0.77932528106228027
-0.10700430329437915 0.059043800309917627 -0.71704089140814808
0.62869591821512516 -0.58362632459329189 0.43491438477738309
0.52703282500357873 -0.12263922357847634 0.32755267293463042
-0.18358759543427861 -0.29025919786242826 0.64725028161628106
0.46355673827578381 0.8851058408109177 -0.40627853414914383
0.84450962767314941 -0.24153052893920213 0.6374479996718625
-0.43900572500960344 0.014884860570172798 0.77328335024745187
0.22377014075054119 0.61951390036691456 -0.43019503065243686
0.40116303468749798 0.56031075361857863 -0.27972948928197416
-0.094429776014002181 0.22324224233745826 0.76431274957999795
0.8006503699584151 -0.21760162200158112 0.36493891141067059
-0.75940469581724401 -0.40848108804787064 -0.34802904483499703
0.27308012318203551 0.47766025752403296 -0.38805137910913773
0.89361638492679996 -0.33308637341472058 0.5948889534829388
-0.22894995149682601 0.35775700045448788 0.7823552704260166
-0.49064296649807509 -0.66929545588089168 -0.27377322522468528
-0.44006288078043021 -0.014874271727548516 0.73096633304388758
0.14339268444918335 0.32094597137511505 0.67339723985457556
0.48325628855094593 1.2060950847242757 -0.49348604252481154
-0.76962906943474862 -0.59962019239651632 -0.42926278094747949
-0.23866850261525124 -0.36933323563228604 0.60375458411457306
0.35113847918685814 -0.085297815214261941 0.72850985804193702
0.16277463654799465 -0.026425791277632893 0.78078581257392943
-0.59723320610120245 -0.91077852308721696 -0.37197866354781545
0.33027777237823408 1.0309500918308769 -0.37761658786381563
0.75049296319272141 -0.50231984771108729 0.67880142502373997
0.16112772330938707 0.46779266673402786 0.6447271403366831
0.8322502032446224 -0.48146608520883943 0.52306186661484377
-0.10644836563105042 0.74415144003308309 0.68482024306733136
0.38994459722072777 -0.43111876419824779 0.36791187339186848
0.093069084348938971 -0.31198566366238767 0.49934878972584462
0.19633096391596253 -0.18145556300432697 0.77032398265172519
0.23678174355250625 -0.38504378869988098 0.28161303547810834
0.053206853635343498 0.59249992477065805 0.67392665862718737
0.013272614133272576 0.94340143682289179 0.018812117687976471
0.3046384169738261 0.58665379709299836 0.4854355284407107
-0.34196366138014267 -0.095125913622205793 0.81302413176565658
-0.15130870739174401 -0.16327671157742851 0.66785848747527643
-0.20824759558784162 -0.49448967770683738 0.41761664644167368
-0.45689739245591926 -0.79992973516036692 -0.24589837766732348
-0.1934938153046184 0.65579606935000356 0.7575144440707049
-0.21697927412755358 0.40843293846848794 0.77645827460272798
-0.75619795374373855 -0.23388795171241528 0.56071274177755459
0.5578236477604559 0.87875657992959033 -0.47181529672903411
0.24032895449903893 0.0054659742501679265 0.79825149377841575
0.27483427921708414 -0.34418275713891222 0.70276806471254338
0.10926383699027542 -0.14388349462693617 0.79615180426670795
0.22930614507595976 0.91616559654514851 -0.3751023282841589
-0.065328523267379091 0.1253454840530408 0.74487450127245414
0.52081218951488806 -0.30866485396881049 0.7407153629444464
0.27139596411640293 0.9772392079701 -0.34187764367859097
0.43321334196512007 -0.55348821155059935 0.664999372460779
0.014016430079719422 0.65608276129136966 0.67288028590789928
0.24754125032280749 0.76942642054745036 -0.026269034467618635
0.22617251444265563 1.2070922776597122 -0.40132898530364547
0.17798427227262742 -0.37474951538753343 0.36372045196864106
0.095278108118232174 -0.11980877589519223 0.78391877289022904
0.32919694940052102 0.65416740481915547 -0.031912092065780273
-0.21163076788659166 -0.32631643849401071 0.63846746165607149
-0.010561128189553071 0.33085525383692782 0.80920820864217402
-0.54233359579669993 -0.16037584384424219 0.72595420050769088
0.49252581255605382 -0.26366589941006513 0.30830692541326965
0.49268490722174824 -0.66462028895202985 0.51923975475558537
-0.47398833719789712 -0.20881510418654048 0.77969651367719506
-0.56608086752275777 0.50552591371961042 -0.59441600726287125
-0.98933244249858499 -0.83107382341342295 -0.48342771561209541
-0.56795843591238515 -0.040229843367121765 0.64566549491860514
0.058127847595416053 -0.29373175334552881 0.51651072379659191
0.51323040285302091 -0.044518886798738277 0.35515719337438439
-0.63553855709684526 0.0089052432532021886 0.77530093538457456
0.36566125924984927 0.95843590912816867 -0.37668587245852558
-0.96937269759692368 -0.62953156556045209 -0.43509418167349651
0.66877118220877219 -0.4516410046398926 0.6836682642029408
0.37719516697817135 0.72402270960541115 -0.2924378410668258
-0.20168928259476027 -0.33671383592833437 0.61340816929298614
-0.44742761244422952 0.1787813351241081 0.61075414013212548
0.26940462336455773 0.76623739863233142 -0.28972556664369992
0.32860411777746373 -0.14461602899989823 0.73608095438846077
0.39129902735114325 0.89013840799004251 -0.36590308688874634
0.37687500941299651 0.67180566809241848 -0.22769217436405798
0.41244068262756112 0.72322404683715946 -0.28403976068668624
0.76131296717556451 -0.38479132729139703 0.66680611791440214
0.15056363552841523 1.0442034472402855 -0.34859883966162231
0.041775870188544728 0.90886302345338921 0.10070168039626642
0.47561202581061274 -0.53921587046601782 0.40482908889275426
-0.13282575772869598 1.0042548411082899 -0.20520644188229747
0.758628745176677 -0.29087578047074769 0.70349416254801933
-0.76332106507854347 -0.32758932729386081 0.52829680592608907
-0.62633769961212094 -0.19704862474348417 0.60395629526326755
-0.66825292881993004 -0.27172361186068539 0.68574199752077925
0.21021192163012759 0.034346315277444917 0.73940314989266875
-0.49474984981022402 -0.53597885832854653 0.54190729996206921
0.31588897662567683 0.08239139251746086 0.52311784196198907
-0.36066024447463779 0.18136257455792104 0.78768025079332316
-0.41614537254346329 0.1669200329340701 0.74423193265560217
0.77428192645093719 -0.38463597996748294 0.69263719836021953
0.13703913285604166 -0.32597706506814372 0.57139939674691809
0.83753795775485984 -0.47704731821624191 0.55016621456252079
0.48963547803429286 0.82406496087354308 -0.32932462029741955
-0.38977975161099249 -0.50027237519280332 0.59049858360769258
0.374569660244918 0.0018181214979589022 0.68795404779574265
-0.82088923910847889 -0.92267904706639881 -0.4819933708463523
0.6504722456752956 -0.092432034340061753 0.37599104372176734
0.34702075828524026 0.64179568794836872 -0.1852508333963509
-0.72642715482686326 -0.26091229143044092 0.35713752188288267
-0.11263012730317568 -0.27946438790121975 -0.61115772243825706
-0.721076970925834 -0.51865366914203337 -0.3295847779567454
-0.23912382105584529 0.75050867657115927 0.34882092722128066
0.2754830985921265 1.0986999641289577 -0.39324502582143006
-0.64987075327118093 -0.054845322165416821 0.53643126054494039
-0.64825003861564967 -0.97571309393490324 -0.34845664645171504
0.36516536434385438 1.1568039109413193 -0.44429695079803178
-0.68892708268935032 -0.11993552362059057 0.51224227935065947
0.47901655445534252 1.1588508876606709 -0.42158622362277176
-0.12343546246258413 -0.028382117551802866 0.74533101120201062
-0.59956213885464804 -0.22913096609726979 0.69691142222173408
-0.18928316393986072 0.317891185214767 0.77388965266201093
0.038595065207406409 0.83736634635786111 0.59793983212899959
0.43617748859836553 -0.11313880949703303 0.21160125375063799
0.53910857123770162 -0.47659396492599559 0.73442864628169313
-0.46157724015874035 0.5511474711715898 0.70460019976243637
0.62769135988276625 -0.37556205726851721 0.74069386599206832
0.1179734716916091 -0.10999960334397729 0.80243643458339187
0.25595202775562498 0.024399799085821461 0.73420128636867754
-0.44376290125546392 -0.087348904555633045 0.80093271348926176
-0.48687413364193022 -0.55304073482456673 -0.42338433146113741
-0.62453865563102995 -0.65945270136288503 -0.31738407971338017
-0.24636870002865796 0.4430670544754256 0.77242419587802913
0.13890840925851955 -0.15660308833051051 0.80718076145176587
-0.20108608600886474 -0.38271773664142283 0.65687323366235306
-0.38294620459870737 0.90366362122290811 -0.33431378625240538
0.45566101247678753 0.81899503290597031 -0.35551621554659302
-0.64584267230230408 -0.85818831296952558 -0.45538445374098752
0.34308685400137467 0.29002472497656639 -0.21120499602436121
0.71683025071048201 -0.49452501354109785 0.70725216926943169
0.15721422727602991 1.1337591101522491 -0.2828174555120026
0.11212989783524541 0.73303421676250879 -0.46293071361479426
0.2076622102056552 0.043032448902792786 0.74081661541688337
-0.18291885992305312 0.57063483102414025 0.75522348762178781
0.24392001477820707 1.2344028913321035 -0.36836801768495164
0.48271172867922363 -0.64378288184908439 0.48171432044057327
0.22407310314165937 0.26534354560139572 0.66484770064584309
-0.52639265456862538 0.089089854694660575 0.8087156507353227
-0.52006677984998484 -0.34712147340705934 -0.5452567276093655
0.39117274293126036 0.67577878106543277 -0.2217655859727613
-0.28158818793391893 -0.16459120143792472 0.80072454712002883
0.25841182248952999 0.77804087675444489 -0.26256161402080436
0.18576413591676413 -0.032081132463251172 0.80138965437250265
0.037761205791124686 0.4103321710518999 0.7910024300498979
0.64473713935073906 -0.44182422466907151 0.72640966464493628
-0.41538106447432033 0.016241313779351119 0.77432971002868334
-0.032784120980737574 0.96931619502073274 -0.26676982455731368
0.349126684577865 -0.38468840519868608 0.32553990640587965
0.23212893530526796 0.93516575760831011 -0.29771810770994289
-0.41962290680378356 0.33190782713035083 0.70220522445111155
0.064642683871533768 0.35974220317475625 0.77043097026678609
0.14579106779073409 0.46183623662939266 0.66912208912936189
-0.70164679210284675 -0.96213729526318437 -0.38390489406170908
-0.4571600317559622 0.23413788814807113 0.59281067551422417
-0.76275833052012443 -0.23132313598435661 0.59041925692166886
0.31244988211834701 0.42540364670914887 0.53738190427616339
0.30447387019765715 0.26407528133199598 0.48783652617260964
-0.72731504681936121 -0.45633742471572081 0.4160024197792821
0.17777738331791523 -0.064095439926766584 0.80269829274418092
0.21410928179237565 0.99405670735511154 -0.28972678631160653
0.28863179535094063 0.11332267270720797 0.49270818046559101
0.10460206861785298 0.82723019716769897 0.26542933961118653
-0.22424789961318581 0.40871243465570961 0.77821666583477089
0.3960871010630253 0.69144608051507306 -0.24232786931864941
0.15831448620350178 -0.06302188529069086 0.75569806454787414
0.89227782699713076 -0.27847032202310273 0.40053253627551189
-0.92140239252189016 -0.74113846857259547 -0.4649266472025721
-0.54455234759349014 -0.24761936642557214 0.69078577426262511
0.22942080238631252 1.087944057397269 -0.42221324065955823
-0.243159090294505 -0.63875646231670435 -0.21219106749327238
-0.9471287290467828 -0.59994775109738563 -0.45140271830474776
0.0037795874326911894 0.60456300274298314 0.68521475614445848
-0.077675085042083869 0.87977960343277828 0.23537464917590045
-0.633929834095462 -0.59759672384846874 -0.22899072816726146
0.53195181344544384 -0.11729188388873635 0.70766332761145267
-0.2371486683834518 -0.3774134688062285 -0.56249786019539649
-0.30530968731851948 -0.21510434862416972 0.80018565763031524
0.39693665882877077 0.79070508981604837 -0.32992856606169441
-0.2932813127522651 0.52164462857569083 0.79641053867996559
-0.65437119421663603 -0.75349616166907118 -0.35598181615557739
0.27238156146684495 -0.087600214314103475 0.78534081139712852
-0.39330469199197671 0.59233494610994897 0.66610408098049989
0.49995389852216215 0.86324249786343887 -0.37583191435724334
-0.73178568259346721 -0.37933385822689725 0.3653607371409886
-0.12112071689766005 0.42500695069602945 0.81221453414525668
0.64018920434842619 -0.68777795092527561 0.54280230294606835
-0.48660938811858356 0.14738491742733295 0.68670571819714965
0.57959727891048529 -0.34913710127896691 0.74183164922250011
0.65849530825070413 -0.23798559958174242 0.71855987609908289
-0.26331513255711958 -0.258625458647749 0.73364426669833249
-0.77696458120158796 -0.40137634057872318 0.5316347824907639
0.12900704911209493 0.47886339285838009 0.68593910716996898
-0.00032797433209907911 0.49900181201281146 0.76818173660112021
0.13869837351177283 0.40075475166580421 0.7056646547696126
-0.23849554245781523 0.30242458043938503 0.70636862660101518
-0.17807188583187067 0.71189385302668073 0.43266898344879512
0.12156805065781318 0.59530002930158843 0.5612326747731855
-0.48232048907620589 0.44832471914653693 0.71241660320107858
-0.3672221097811979 -0.65454638377036245 0.028932087950034324
0.15115332841865678 -0.087388440787541044 0.80540735341182312
-0.96353258459455482 -0.71252213554619304 -0.45253284569238594
0.65552798341207485 -0.44774242904926975 0.67277146852324998
0.49016151863919299 0.6602259419667138 -0.3128040837731193
0.31982773802793762 1.2228003538133869 -0.37751816279365558
0.40472054549267045 -0.25828532883628674 0.24281784249428778
0.3863818698048454 1.03274908588741 -0.40287079071248977
-0.62230168474887426 0.35657940339975069 0.43086008114103763
0.56368339903659748 -0.24567289973802986 0.73037224943842172
-0.48932391098531369 -0.56689154629875094 0.48553312403348153
0.3731562569441676 -0.19024608007929311 0.73796982925882937
-0.32480569565304801 0.7923126543687169 -0.49358057744158951
-0.27851331108288474 -0.2800375329057827 0.72675152882718264
-0.67646584522121389 -0.92912388337200014 -0.42259885523044222
0.91945806538174435 -0.21005300719132602 0.45104142125564362
0.36594103720375726 1.2440889321052344 -0.40105205506993763
0.54932310173033461 1.0180810217693996 -0.51622638989437974
0.63098992087425287 -0.68459751771140187 0.51412521342711415
-0.18479981589655253 0.3214660669806837 0.7687941813647845
-0.65686059380903361 -0.59368071382825294 -0.23398464858463081
-0.94406278605443439 -0.6447755936515418 -0.41251047295300891
0.45520677929551301 1.208041456874779 -0.51022440331815466
0.47697453319276945 -0.41432327095618404 0.35430044177783682
-0.67328238585271416 0.073405799723796905 0.79549231304660861
-0.1996710015871597 0.48601575257229412 0.76627069988021024
-0.088100742398538989 0.26286848176004907 0.74897337211890336
0.41695958595585397 0.9289084424775963 -0.39709022498234714
0.25090876773648962 0.83326813962951918 -0.28605055022399539
-0.58123520390094785 -0.64086951509186996 -0.2811308459692764
0.30642886673702874 -0.0245450711582752 0.73696738508787785
-0.5088261796172544 -0.6762196078242857 -0.302180490350763
0.62957876121391576 -0.39817042189088414 0.71782253895385761
-0.4795221534808059 -0.10825652388219131 0.78671513947428218
-0.41602642352725616 -0.35183866179459211 0.67250273076222677
-0.71342404287693406 -0.94709327468094973 -0.44053220190407688
-0.37819875658931207 0.25321926231048497 0.77667007697463153
0.60444124417520395 -0.41256862281771922 0.74440263930618833
0.73343125379503904 -0.59629248880015229 0.59826735959822386
0.29437558064685554 0.5105461335503132 -0.36781351654019734
-0.31349299903264233 0.19642530836662231 0.80989492548561148
-0.59918813356245737 0.076929180414940568 0.80249031750926936
-0.30171401988352109 -0.24509266010730224 0.76886079178237776
0.82137678482421839 -0.1961811946820276 0.37365986760791914
-0.59038843646570915 -0.30752090830004786 0.66882972948333275
0.2686279926873118 1.0749832214066355 -0.38336127420630645
0.60207246702939066 -0.66963854767515196 0.65254809897595112
0.26137064891177225 0.81092196744246436 -0.29795005560960641
0.19170271831619062 -0.17437842400075576 0.78667938050494135
0.66931421727235096 -0.51185964115542038 0.72091022913066427
0.047070207386836316 0.3133284530361794 0.75969354174127113
0.13448513480998031 -0.16372274716423152 0.80137842219816124
0.87623713606319231 -0.18322129571320367 0.41870089184236914
0.045529373691271413 -0.28151730209674986 0.58589188161408645
0.71925519508577329 -0.42445272041316917 0.38407885222839866
-0.40826027633297818 0.42578582391543485 0.83364771501868029
0.14232756298727528 0.77828555941460931 0.56914835117384022
0.33755305024493948 0.90074073873974347 -0.34750272925910536
-0.29416940098270644 -0.05604574760067127 0.75809689619587162
0.3445103373679933 0.50625650397434407 -0.30043218962401302
-0.38325269837011844 -0.52017099436617253 0.56698167031351021
-0.39859566019599568 -0.80180578698415217 -0.15491152657553958
-0.3949724066611181 0.19761916763531318 0.63721041928157973
0.47129498938963998 0.79925087916551241 -0.31061306316049031
-0.26334028699658946 0.66851461522904065 0.67961781795556009
0.11480999348488474 -0.16281878703496577 0.7739102242614796
-0.3477796977750075 0.11381363537420541 0.80423884540928081
-0.37617707257830568 -0.22955285133568148 0.79638425693920789
-0.18688132951459394 -0.17665575258077504 0.74593918756758182
0.014595092464612131 -0.4372193136672573 -0.39224121454257688
-0.10454276783664673 0.9959125105196327 -0.089067963901156288
-0.75758683713116404 -0.62086985402369388 -0.30080905751561066
0.78697462734191925 -0.25803848082761605 0.68043201848854262
0.86539941278944332 -0.38519064780031081 0.61242686304441574
-0.65086082837424097 -0.54289221780735142 -0.38474832509507062
-0.76362496300586336 -0.81361603314923103 -0.50166510967834621
-0.60333176579211245 0.76128024516524673 -0.29741230134586777
0.15461761171868987 0.80858085237748412 0.49303637217083918
-0.39326015724170449 0.37561740440947955 0.64899086663114469
0.51023524884664861 0.89860464004463392 -0.40264889803793047
-0.48484087991360691 -0.56924803633510934 0.39870126672980566
-0.091517489698089288 0.4666312156160628 0.80006813805025834
-0.82692504112312504 -0.98323842560445507 -0.43181067412867702
-0.44335903562367407 -0.41339745809617634 0.64986849381468603
-0.34316802082244047 0.28727670638824776 0.82315958696385594
-0.20495264232739457 -0.13137455423208677 0.73403165947153748
0.2023318629790461 0.77311919039724686 0.24520950749464343
0.79484361428585948 -0.29813685352630864 0.6883334843029485
0.19229046780488401 1.1488081120856881 -0.29470607471678789
-0.11603259755887463 0.63842614870134473 0.7368520734418349
0.84737296253173611 -0.41469413628938223 0.62206314661719342
0.73669586980694324 -0.30651442232908599 0.65360758136521291
0.091487758094610905 0.84389591112385487 0.21931325754320385
0.082207598678593882 -0.4712079560535668 -0.12995646069010525
-0.30434137646602544 -0.75914931965154775 -0.15896986598327761
-0.29008312132007258 0.3089026579002867 0.80070901881315792
-0.22533254251742896 0.45609377719953348 0.77002133427772312
-0.24915718075839205 0.98895128638910346 -0.093392649184706633
-0.61088064369632367 -0.3887536798094624 0.63533260953900117
-0.68932150213788057 -0.27317688022737419 0.68937410164064561
0.061661474553410811 0.47904985190580673 0.74101359103837661
-0.81984656791453492 -0.70706232840822025 -0.43460892434608989
-0.4474234744236707 -0.25756447315964803 0.76518105702670081
-0.23810137971060963 0.34399951815541963 0.72514620933978569
-0.75712710943225092 -0.9772930438759444 -0.40024519515425061
-0.044968894673283299 0.4391649952883846 0.80531830630065238
0.80927492788759492 -0.13164208906160324 0.42235748726903866
-0.48628860699449739 -0.36919088448017501 0.66939332523704009
0.65407113613836176 -0.020127931683964317 0.55766710935226782
-0.73247230440680045 -0.32128134510508621 0.42413995941464477
0.22646033522451617 -0.059118167277088851 0.80561181262846349
0.062604624827418409 0.38199846168988172 0.784246917594834
-0.086502675168933965 -0.5290420524206878 -0.18799267250094148
-0.36820986630447533 -0.66265241127445562 -0.05991889233245723
-0.39515357543159702 -0.020941692620703556 0.76701379439214201
-0.75012814077390588 -0.32221465286576079 0.63787372772674833
0.82485383078806374 -0.44294193656330644 0.45482768725721373
0.33059729731638088 0.40953203855223652 -0.26555337835109516
-0.70094394432479057 -0.69350033369955377 -0.35799545661103682
-0.27540537415091892 0.42228719293969563 0.67805827434996591
-0.6263105116052281 -0.23028709256781554 0.69000791985499654
0.5520160145700328 0.021962570711746343 0.56472345925419831
0.18292265098820004 0.68399515434834057 0.58531914007016972
0.3212550974489386 1.1083609309371156 -0.41609498650680726
0.44407640826885064 0.051336671315395099 0.46137005587810243
0.61587873371271418 -0.42317760755682338 0.74214161049224803
0.53482398574668766 -0.20249717981980886 0.72744454999880326
-0.72457296425808992 -0.51149335288618758 -0.17543146205938009
-0.62634341592031839 -0.6439077926166592 -0.29732699648492056
-0.099163625798550287 -0.43996384953024348 0.39372927161283156
-0.89450643027769117 -0.098807890438972201 0.083339796990087034
-0.55592330997245376 -0.054099586432440727 0.74661488501354323
0.085907614408010757 0.54380663635101878 0.66831147702659099
0.62487387467661315 -0.63291690525006961 0.46098184391576552
-0.11685719750935192 0.86979392671258871 0.24107200950534319
-0.91461642453285075 -0.66699326013648719 -0.41220676020245395
0.27483773883006579 0.665220870721831 -0.38609313800954437
0.29235592725831816 0.14335596324273403 0.46714097586000614
-0.51595129531801143 -0.31041336154455834 0.66404189981628292
-0.43207835369569281 -0.38766453790615762 0.66876028873995086
0.38305435509052477 0.71474434922193819 -0.29192730161775593
0.45851775225242386 -0.010123444342387211 0.34787068398432897
0.29480445864706661 1.1198006786552255 -0.41033123729064525
0.095956167837585149 -0.15268461814918266 0.75371561460716052
0.30984938611098733 -0.13496980413672144 0.73847602164288784
0.77854265641758791 -0.35650954444179911 0.69295056983769954
-0.10707439338495106 -0.051705040971977922 0.74888224049611685
-0.36440667634542567 0.4651534467222469 0.54336274873920898
-0.89971642132654883 -0.84062127124116337 -0.48230114383380873
-0.29468668865832648 -0.44191733604799432 0.63323977311896107
-0.68399771220434114 -0.84681951289563417 -0.39702558834033885
0.012101391528599292 0.64260398412394182 0.67712064038835207
0.1988527702935417 -0.34632094084965137 0.64373796490237867
-0.27086037165004317 -0.16554323935028492 0.78526217184667813
0.66155181151991915 -0.64219743524458339 0.64646584294656617
-0.7453817698242835 -0.39199605141634875 -0.39159322079734049
-0.33894722806987593 0.22404633918455574 0.80702726757102383
-0.46041895604845262 -0.81660425460218145 -0.22104200256739803
0.27185773652227507 -0.27158389826980989 0.72836552949114242
-0.83586211125202492 -0.7294794600776191 -0.44998832272791595
0.17009846892193814 0.12978831812664837 -0.58151517738988323
0.68556947448564842 -0.53351657208211711 0.42552221457341577
0.070155277062862509 0.59138072378561879 0.61747880537683986
0.62430206078300121 -0.42280632419394143 0.71987138710869769
-0.20156900293926078 0.30870421629257327 0.78052073797740407
-0.4677378497985214 -0.25025810938619486 0.75850642212844355
0.068374023180656107 0.38074133612133121 0.77879851540233291
-0.37878039775130323 -0.35280482401350133 0.67845441814922736
-0.75439303749024211 -0.43050767658930966 0.46083807746804567
0.15972836121337941 0.79914734767172313 0.27565930952540896
-0.11380655234479467 -0.42456053337489719 -0.49465707170009604
-0.23173298733459907 0.49833430374817 0.68628294235445786
0.39492814764689105 -0.25578935185988472 0.21482426644408997
-0.79090397027135262 -0.4493627165045484 -0.042707916336269525
-0.33984207474351269 0.020064553810594354 0.77346957917700154
0.45741813369225809 -0.5627493526705124 0.42078818650032929
0.0029806831010550927 0.95977617896902245 -0.18078130144133903
0.25615043988474206 0.438602252864005 -0.41024917624931095
0.35842646191677974 1.1109991553984151 -0.42666999649874621
0.7280604716242125 -0.30446625367116564 0.6559805667369949
0.67087446057333588 -0.59439226491346719 0.68195207319496975
0.37073786717143831 0.53546223050503461 -0.12524915161966171
0.2114434575869733 -0.17184043730060383 0.77560324113971602
0.34064150613881872 0.22553064789363075 0.27289304123800995
-0.33132728680138906 0.87231211917638296 -0.40771770877749164
0.035122831678571886 0.39054159610722861 0.79567867061998543
-0.71155730997760491 0.67144910010798098 -0.1255567240622768
0.08494155291839145 0.57018215083181789 0.67031947527865055
-0.5526583906816509 -0.28634757977841585 0.6690958034927883
-0.7751844031183861 0.35159183865292931 0.28145407689741664
0.029182907689776549 0.62993583334040171 0.67678799890016228
0.30374553076048094 0.1122174020606731 0.46737609995509988
0.23471731671229501 0.028001873418682766 0.74196595781147923
0.42057740515222058 1.1433766370123983 -0.46019872374145571
-0.82070488998730751 -0.64041831590888121 -0.35728261182994919
0.44795468075340933 -0.1782484966768354 0.25677796616477888
0.84126618312283874 -0.19549468531773684 0.61967193293646616
0.58146993955876713 -0.24411661321569866 0.33385275336553455
-0.55534107186037884 -0.38179283116038776 0.6465097768549245
-0.92149924700698493 -0.70096330979832655 -0.53984393126471941
0.56598984427378773 -0.45189734826708361 0.74070157841159934
-0.56375409289700584 -0.35997154462872594 0.65445636380182626
-0.57193116502502184 -0.55216841169840003 -0.4057186035455862
0.68517757111934929 -0.45166767781412387 0.68986419781549568
-0.64637316443903425 -0.33331564477056719 0.65536628268780395
-0.89384505184469654 -0.84971198489388011 -0.49988513991976641
0.63340062456887347 -0.37725328417521548 0.73780855512968024
-0.37550861425785381 -0.66305695962453126 -0.11616353021384662
-0.1392462641855971 0.74419773182690974 0.40767443966183792
-0.50703818585236859 0.40894473798585373 0.48852945187054225
0.31179606168205015 1.1403620280226594 -0.41797642560472603
0.47157412997897319 0.044934976207938959 0.56816250872817653
-0.33151445310312322 -0.082072814323715049 0.7890417813447046
0.11595602488134699 0.48363586128132452 0.68888267078632914
-0.10464335601493885 0.41833603025365429 0.81444098734017767
0.31027956111726845 1.0152065750735999 -0.36800995914790036
-0.18569755736864449 0.47972621438969187 0.76864637475797815
-0.33312080251562476 -0.67411261696820457 -0.10906462354520585
0.52744407414556838 -0.4946013611867921 0.38451015512796172
-0.1329358500268511 -0.28506083671708315 0.70629458720213489
0.70383619342619907 -0.33415472188186235 0.66445889994082474
0.038027573547502698 -0.325435098163536 0.48059952048279375
-0.37672617093989696 -0.38748590349090528 0.6294394746884947
-0.61175609786544871 -0.93790124820216136 -0.33928959355183191
0.30114517004474195 -0.078340634585174707 -0.36417031317386944
-0.81459529997185209 -0.73786290230116025 -0.4318373631740543
0.74873852714474876 -0.37478957484815234 0.64956949881474224
-0.16655481318778459 0.36634847009225457 0.78290499116515122
-0.032964812330113835 0.36416826877056785 -0.66656014945174979
0.14607985083286579 0.37074447069662209 0.7051700358488362
0.13259707912932195 -0.23446022651904141 0.70508710214966408
-0.36890666451836762 -0.84849524932530196 -0.22228801949525834
0.12078883755689297 -0.13359516765599366 0.80572042450805936
-0.53321885665613189 -0.11004541535926005 0.74132372224177701
-0.6042279875644273 -0.33940715676768796 0.65167936668187709
0.37015103731012011 0.7169088737630106 -0.27682148706120646
-0.024339298228414449 -0.35042198083942078 0.52610181143741941
-0.75804766180719507 -0.48297513246000534 -0.11315466026267751
-0.72277016042062081 -0.53402270711545863 -0.23264644665202283
-0.41439078758164088 -0.027120473069147 0.76163178374129092
-0.07376015977459513 0.25353775760307595 0.75415679991562978
0.29153577604333086 0.83758373422844201 -0.32006159295286707
0.040328152102002135 0.82599493112003697 0.62099100401341989
-0.45457395599742695 -0.42980195232967877 0.63912424148671942
-0.64743998434040417 -0.98732327159888689 -0.35101385020257342
-0.62441004033826686 -0.055123899010619093 0.74977634595815379
-0.00250692446242895 0.49277164224334735 0.77411383808377288
0.41766643022708078 -0.59667312306436848 0.55692162733230566
0.27060555478290155 0.01613341765453713 0.75031805342061952
-0.56505317308174519 -0.24760695598555049 0.69205591306243885
-0.068074548107913524 0.51112388538508613 0.75920411685096267
-0.44453315366522883 -0.80511863178923626 -0.33769308828164218
0.0018406998784754602 0.50613564577527281 0.75528845511281473
-0.24658475211001646 -0.26613104769415874 0.73786396448993408
0.1208149243874716 0.40263276387492664 0.69964487808101361
-0.57513938266157449 -0.22448174578804014 0.71044343537924726
-0.52033970807581631 -0.61609460664946902 -0.12708463256636016
0.17818842184192449 0.28136826490601308 0.69158611109626378
0.020509584641184408 0.60337605540016404 0.68067891362100164
-0.78363370666245635 -0.56694049046943018 -0.26420435669646192
0.097814466044165493 0.52330141617567172 0.67156035781568468
0.37979641696875288 0.58609059500986016 -0.32047786739428585
-0.16128594776280269 0.72373804109068374 0.61609242220798444
0.30785290490003675 -0.50078630092569587 0.55071086720786278
-0.88166754548718196 -0.086338892193051908 -0.37176037615879326
-0.9353227101289654 -0.92747742537567257 -0.55014950200006285
0.31324001861633688 1.1680204571170618 -0.39479941299270371
0.26946066538076369 -0.0013072972321132026 0.79138366696164164
-0.37618783049115317 -0.40356272387823711 0.60327003161792758
0.19994738344960056 -0.10098606983617731 0.80929819314322282
-0.70591645967572569 -0.99360494928224297 -0.37942260186343546
0.81613223395585022 -0.39568291434039787 0.41787100879284061
-0.45285158314090285 -0.34323664281762478 0.67109194125864158
0.50181292883835527 -0.1599828908914156 0.72437942950815004
-0.45416942143435446 -0.34969760568538488 0.67348362025377861
-0.40219882293301873 -0.068049531789204698 0.7861991842753917
-0.45734783977939691 -0.36355579399106586 0.67547052059038304
0.29740575855623819 0.21865828673169907 0.44920702367460985
-0.25913110830115266 0.65400044357072495 0.6203500118802836
0.11296726764800341 0.82717389236583794 0.54792020052465085
0.18488440224411168 0.77542511738823039 0.41167498647449313
-0.37827753961341237 0.23492976357762596 0.69121627478600278
-0.2060315863389493 -0.47973088552088028 0.54905059365097764
-0.17054265637487409 -0.32743278817501531 0.68799502763395859
-0.53019030769313469 -0.35432369281493559 0.66623060421726488
0.09735695431352992 0.5829469286402531 0.66819931350172035
-0.90759042373122234 -0.81586260759474127 -0.49402889591413807
0.033785667902166139 0.33001032956916043 0.7873341493198478
0.46367073749748933 -0.50017098910645241 0.70976227984728102
0.29610593140871239 0.75112558875593416 -0.29467328784409907
-0.48869729126728378 -0.00070061657762043872 0.68584721861944153
0.29573149415038419 1.1476771635639169 -0.39245773082497121
0.523614354276696 1.0132735981385466 -0.42465325810166993
0.12252221126837642 -0.27151413756980036 0.64507662693053947
-0.27300429869813514 0.40943517360445658 0.78056312083341184
-0.62852709884447289 -0.081731412899724853 0.74214759259431007
-0.59936917476882967 -0.16052024227516926 0.71740048309291171
-0.58227743652536956 -0.64543022772246683 -0.29312173006224251
0.55905139818780336 0.8070214759902069 -0.4200331069036321
-0.25417924488866761 -0.25194945212595732 -0.62897377301763213
-0.66479012486277989 -0.52833010908172295 0.44522263558329289
-0.83972369655101653 -0.61539584826889593 -0.33397120161609328
-0.86459891112356191 -0.72650984570260801 -0.47206370862737468
-0.3827669147015576 0.19105017771420041 0.74389260476591734
0.02513207453554317 0.29938036733494644 0.76486573393415203
-0.17982037682381871 -0.36976280867860956 -0.56594761508246716
0.34706643673465376 0.74193082965743917 -0.36602201136903167
0.88344128871979222 -0.25437885526124215 0.60818389815508267
-0.26097602160644723 0.65546252637882141 0.73560053994030872
-0.23343406927982907 -0.4128533419710374 -0.5303810332130614
0.77128216694543328 -0.30621621515526026 0.70057207080258188
-0.42706854151325041 0.5449808322393177 0.65912379947122268
-0.19855771106284692 0.4454639952253252 0.74878029905656507
-0.26719104179972619 0.0086074013276367101 0.76647172115926321
0.27527225066472727 0.073955122816831809 0.63732574142114973
-0.6056232213386662 -0.19456659287595057 0.7053208994410809
0.70396553635151204 -0.30211491805435564 0.68572695609452461
0.29016161913977079 -0.018269404596224059 0.77284367976418633
-0.59230135896891412 0.23577738967883288 -0.63607125430745892
-0.35851865695978774 -0.08278390513461642 0.80854752795140583
-0.66925666626316482 -0.56133145500775194 -0.17770355307908864
-0.63649732988052665 -0.61102862946526026 -0.38905364548225535
-0.39852379158004642 -0.77641117707168816 -0.16037698167566944
0.38499020978612725 1.0807865400307257 -0.41934013265918146
0.26797408945499407 0.76214288196346147 -0.27799408575501122
-0.16573814690468847 -0.16382683806857057 0.69027654527078752
-0.31151680992011016 0.45599527040163479 0.79527652263223991
-0.69980996613486968 -0.47200270619967988 0.27338963396761662
-0.081707285364389426 0.55779339195917466 0.72593245864382783
0.56025170101458921 -0.14768381135072828 0.33679876651780577
-0.66951622744682848 -0.31018118090865743 0.67075176595048236
0.41539793768362898 -0.55486408994858372 0.43930696878379749
0.1285699581549235 1.0685228982246777 -0.24343247115899919
0.28754778577236306 0.76400854039130306 -0.30767275154279633
-0.28127158970153887 -0.71933658055563621 -0.15796956155031283
0.50175624057455104 0.97560761876838398 -0.46127911305774127
0.1760844490455199 0.46062294444095375 0.66509962368004816
0.16856035959114546 0.95582977025858007 -0.21380606752579512
-0.6282802786418642 0.15998045883535816 0.71353289343967219
-0.50986769309185864 -0.66496592913232422 -0.3009039021270965
