# XYZ point cloud file
0.38839065240644921 -0.021678293707924984 0.69049163216935672
-0.75439816426555162 -0.18499434010868637 0.17793607580463744
-0.3391409310133045 0.038903025775794797 0.76684576428853535
0.073955248790425032 -0.33284663880319998 0.48941276715688775
0.57727519790642801 -0.52316373245503345 0.73765152650784982
0.57135966741310706 -0.068117022236010044 0.39874266701417083
0.65231429404246599 -0.12146980203624158 0.38815275984257702
0.28277460114408237 -0.19500161905029589 -0.22629620469150791
0.32996007542688643 0.7285724229393018 -0.32071494335958961
0.73188395213688207 -0.19566158112332388 0.64477797904335554
-0.75994035784142988 -0.78889074891119648 -0.41421366038984192
-0.4394851960721336 -0.21138617599279691 0.77498556869779789
0.26478262872996439 1.0265531703193007 -0.31175278192728473
0.043230121364097762 0.78010648321210352 0.66184629363506509
0.34885744738564162 0.68323282380168693 -0.30828708806920624
0.065082413893310154 0.83992562423325046 0.58857134955784496
-0.28879205356951299 -0.59601550865266018 0.16566707200544101
-0.23918203840811986 -0.23333897378470436 0.74827401329782139
-0.60871351084900926 -0.71602789187316562 -0.31394842345589863
-0.40045446926270478 -0.52033139054677657 0.41211923345763696
-0.088701755077548627 0.94323259614298094 -0.40492731188629427
0.61466020860251558 -0.20859099795813688 0.3537461482758355
0.29586903728342517 0.016279685546367356 0.72007677265733272
0.33048922476659937 -0.0062164244694086213 0.70680245007322984
-0.63045687337681289 -0.63080801711904688 -0.30875335185372599
0.13433589566598614 -0.069124416569881553 0.80525486942331093
-0.77627861383483554 -0.61183423434665585 -0.39857094008480287
0.74478236287955402 -0.31215224676524594 0.66061754578247922
0.061925964693930302 0.96463464375593599 -0.087696094071944564
-0.33695903305518471 0.71093599524088458 -0.59145726514798846
-0.12078955417673021 0.43930542376806714 0.76771157706517901
0.20942036219452764 -0.10127891851782644 0.81060940431571349
0.33619554307539634 0.65307074757145112 -0.26282208769429893
0.03801093707260883 0.65293676504430054 0.65797272210164692
0.47905796188743999 1.0776583857671747 -0.49384462338984381
-0.013053818609464418 0.63021903353206232 0.68199715218813539
0.54337247590287829 -0.39837900597666032 0.37172972063697091
-0.7966111943264621 -0.31079884663018442 0.044654412436873958
-0.60227519030716214 0.74911380166768615 -0.11579446453895581
0.33556012485850373 0.048002379534416661 0.63290465899411774
0.5880060623415152 -0.02754281517817149 0.57041599326030989
0.29269045043183806 0.67385972492453117 -0.26942853592966365
0.48377835187652196 0.77335297190543828 -0.39126183003505488
-0.48101776832900944 -0.56135808313449687 0.26316170724924393
-0.038928233691799541 -0.077889095069900161 0.77151301129504191
0.27959475363113862 1.0185108497583779 -0.339707080534423
-0.69835698414434288 0.17438216307641508 0.58176971789676402
-0.84255046637534892 -0.79013605242422824 -0.48925576567703027
-0.76752230306508251 -0.1532841124389015 0.57640617995041576
-0.56384723600746345 -0.7614010688285423 -0.28542263698895043
-0.4218093945367225 0.20872137160095516 0.72033914730746818
-0.80841974194097865 0.30104568845522467 0.047949535667033638
0.044141837613352775 0.87144771348631478 0.23802073866080153
0.12588295819137341 0.81614224878922614 0.59149681015666877
0.16739334899744474 -0.0097703830927829416 0.77146742368015786
-0.75467475113733018 -0.62412741771570035 -0.39794003488772123
-0.60084828539162183 0.050039690645951596 0.73210795365105052
0.76678132307086022 -0.37725579461491326 0.67617965585874407
0.0025078359830643659 0.32608038768949554 0.78129675920335873
0.68066883811265355 -0.3728786182843562 0.65544472603802117
0.24199850909503551 0.034976749611408675 0.78229434182650148
-0.63196065471537732 -0.9620286512469638 -0.27145431819810195
-0.57367158985527344 -0.078718801807796834 0.71805659109680553
-0.55831155332484705 -0.60863654141399548 -0.22122864712178048
-0.45069428582701798 -0.63595797243332175 -0.059689015122644684
0.21503202144653943 -0.27841734144449004 0.72260687086379849
0.40880641860521283 1.1067067018203685 -0.47399286927485018
0.3595529558733771 0.74058189011158526 -0.32943414202758214
0.31033681327965035 0.24861146607411588 0.48804681176136611
-0.81127409845739196 -0.21044559999858659 0.040027911645820979
0.31596193947161566 0.52294135070016812 0.27382332104243723
0.13765030844057813 0.13441612098441411 -0.55649484447776632
0.023497976415441713 0.48325789422114457 0.76697451651045334
0.039593598774900873 0.79861856857974223 0.64748177048716393
0.17464759819626985 -0.34339791186086543 0.64490270041664255
-0.47639420722978471 -0.62560312603861612 0.033673933248263066
-0.26671096997886273 -0.21713240909116421 0.75558022147326565
0.57095806062211074 0.93575355600400045 -0.43503295555330834
0.31823963998349458 0.02122563160106955 -0.20915918148107615
-0.33486498387806457 -0.72799031502238043 -0.072105563805978101
-0.70432510190904607 -0.91834232112146008 -0.39077307861613875
-0.4747339348275208 -0.30727095082603567 0.65439311374742903
-0.20372384950233191 0.45102830251565235 0.69537102801440598
0.24211957764855518 0.94037140654327978 -0.26530496488578714
0.31035134708630396 0.68608984324799416 -0.29447811601368046
0.16316734237525943 0.22327338683886064 -0.52866408628976058
-0.68153394891715147 -0.7931549508189123 -0.36373513912673899
-0.0715887763920664 0.6776028912417007 0.71998854382527977
-0.61001523559417559 -0.67631045976415871 -0.31494401917934989
0.076373951728412104 -0.41889399087191143 0.3054088648771428
-0.25079098574629943 -0.16329511419896631 0.75698040142021328
0.6806593504945273 -0.25273831412633624 0.69729536966111283
-0.38083195679749304 0.06120848039472454 0.76327180517818249
-0.35739261019840723 0.30197073534460023 0.69786138058174652
-0.33058753764216164 -0.082608666990871715 0.82158049951508572
-0.070980701625739995 0.93080351417797547 0.16736653585605821
0.38832298517339403 0.017184872416698721 0.65228697381350476
0.88097265183373308 -0.30276178348969274 0.40803186134370661
-0.51473501428028479 -0.6908672670802698 -0.24544937777263232
0.67372620418073559 -0.20935657875680516 0.35563688899961809
-0.18667110407677656 0.2995574046708529 0.68783148273534822
0.4927622665634328 1.0843931338314272 -0.40005845856269717
-0.64193329718471404 0.52805519796332956 0.21525879115949542
-0.70759498472640869 -0.59609097360775176 -0.31226944962952935
0.35338178616692284 0.49721921639683309 -0.1337976622763416
-0.047885377430756604 -0.34561465045446049 -0.54481793232704823
0.092550000143001854 0.74853322455130478 0.63885614891888731
0.89986493890942765 -0.29770024042755577 0.45907322853086141
0.099498198534809568 -0.11012910231863746 0.76491403576730566
-0.28661825004670638 -0.033033457785301146 0.76866447904148638
-0.16256576618334839 0.43771765556728215 -0.694928986462647
-0.35834452233528835 -0.072194705291790007 0.81936115444491997
-0.18372265165859258 -0.10785618165852173 0.76289565209691279
-0.58214557908194087 0.10742802574086446 0.47429689435689437
-0.66159500727717402 -0.61449428118223315 -0.41620250452233909
-0.30905315423474838 -0.33539630888009292 0.70129496287907656
0.68576106572726769 -0.41302680273848591 0.65667185210871681
0.37894378411343954 1.1441372542533899 -0.37889733889808452
0.76946257074036861 -0.14884729185054396 0.43451339592367888
0.5302317000813872 -0.53406543059075307 0.73585442867547768
-0.34436753208296395 -0.018380873631251293 0.77585209201153627
-0.76913380025621692 -0.20217664761619075 0.59319692107585364
-0.68658542695494496 -0.42543525621798622 -0.39893466174998526
0.66471341803473183 -0.43351934229236655 0.70725583532615266
-0.11822200654090453 0.51343218942642699 0.73561649116888883
0.35720889383214138 1.0944056169222338 -0.40909073103446292
-0.24354158599184972 -0.15078080265244492 0.77192426128863401
0.084240375509970544 0.22476794450991677 0.6392320660019245
0.74233253434258584 -0.39024905675739868 0.65603013470347071
-0.20802841865247634 0.40593640217106713 0.76072680042289886
-0.82428170069287254 -0.91227525295556411 -0.41306396073458151
0.14307018398582982 -0.10166037502843553 0.81836383878865493
0.8906126239649359 -0.25457835174952925 0.48056533386192979
0.39591237468967944 0.83760103286792731 -0.36751897041957471
0.19738602185701959 0.90669894130385464 -0.20407052720855423
0.86182345148309492 -0.37689656947313877 0.55735784806622313
0.2380691322487517 1.0901892362376915 -0.27274998586021681
0.36138069508895598 -0.43623100424403005 0.71998728012933977
-0.40921768851213042 0.57140620694127209 0.64282709648197667
0.32485494855145858 -0.51276524675343749 0.52342714637827858
-0.16114765705831968 -0.2346745061013723 0.73839051427601521
-0.59906892653072397 -0.56864902609739698 0.018139551382446217
-0.55493781107898843 -0.70919902583374883 -0.28891146203644719
-0.17452117778201148 0.42464172609215411 0.75311413108155489
0.066828117567888312 0.33790335148284134 0.75200861851417067
-0.43846447246335418 -0.12796906370591271 0.80217556247576383
0.21664157635863812 0.068438267302161682 0.73029826381076457
0.71795582763640664 -0.50536641675698979 0.68671791881541
0.33944039930211556 -0.11263154676302928 0.73289088302779326
-0.42798464674467623 0.56162628855865415 0.75495286808009021
0.076264191820476945 0.83647146838050124 0.45035578405908439
-0.4489722503450953 0.049896460030351086 0.75522843670545181
0.73135288125228803 -0.33363163118768768 0.62839265124151145
0.33962813697365946 0.61788114938113903 -0.23818822919480087
0.061465917020043337 0.60815845204493946 0.65114568769156134
0.24829160177357756 0.80272335319212151 -0.24563764284294343
-0.31988690556007415 0.17854335009743161 -0.73728058137817709
0.13748505678381573 0.73202916390968187 0.60791388397949764
-0.25626572448499585 0.42469588036806177 0.76606207399794679
-0.51054435036326962 -0.19447998743568135 0.72616685940138115
0.035296946820768449 0.40447327117340226 0.78559217577914031
-0.75517471076614529 0.008601994825234327 0.64353656686736183
0.59309064227584529 -0.2742587666167412 0.35644821985517661
-0.55241900050546699 0.2200866077730057 0.70705347989739353
0.25260803214148453 0.0024500837418985066 0.79524672026543208
-0.16404738270451136 0.45027452360979142 0.74799525707114911
0.17216972071509651 0.24654042947844484 0.69310057024810956
0.34878384147044195 0.52657579590095727 -0.14468532575891335
-0.044332907271451782 0.79140151504884393 0.36200975418713033
0.36071548672768228 -0.5464340885485699 0.60810096970197092
0.43212791562441022 0.60491758188051359 -0.20475864873907756
-0.79043080736451532 -0.35816215420677111 0.49018869281584188
-0.040939095102230927 0.23452090590943511 0.70113975924677741
-0.56243316135386245 0.015318836723833051 0.72257073300075503
-0.65199358045059264 -0.59459875567404452 -0.26970867092343243
0.28940770168497632 0.17108782192499972 0.45138050869838031
-0.49252722252459769 0.10353165963944572 0.76398625225116079
-0.69312533456045644 -0.98415244001337632 -0.32667901810851602
0.068182013991476387 0.92023612308416214 -0.33668176923360493
0.23431429263951642 -0.36925129473965357 0.6849755650764392
0.33399111557088124 0.40549779872726222 0.4563478871793788
-0.69322192366805391 -0.10923480194901741 0.40644461391353859
0.13455653864269745 -0.14118714991037282 0.80583135588792643
-0.5773102279858372 0.18673875380208949 0.768691880671871
0.28073415914548461 0.70730839220190633 -0.29704930276926411
-0.22155611080920634 0.27525873977927995 0.77414922786985119
-0.48412214312352486 -0.7677061815044981 -0.23756251030163333
-0.2168326838773601 0.33812407943189871 0.76554979469004181
-0.59758609974125532 -0.26235543942802392 0.65828163938950046
-0.71702071944284529 -0.55456450055079265 -0.27975048845723838
-0.51216131946101973 -0.76790936034235557 -0.25652879143713897
-0.50079116644374122 -0.18685944729245191 0.74132816523148892
-0.73115896759601107 -0.27832882600395165 0.63254196444937505
0.29761468050188455 0.24959236975307952 0.54562549780392733
-0.44713967712550151 0.69676080602706181 -0.56013561812443136
0.65195394731159273 -0.43595403562527363 0.68013664192597512
-0.29837270102119046 -0.0024832011675473553 0.76327617713555251
0.20094667136663891 0.49606230360733089 0.62966186788206246
0.2861028798196269 -0.26972506850795064 -0.12965437742452235
0.55507393837036789 0.75093788566407915 -0.41191220098732007
0.48996851396901386 0.9920201731520949 -0.45442622791707898
0.29143494253585045 -0.077655693744886345 0.77055181481471058
0.28214948367860548 0.67049905158620682 -0.10899481280619472
-0.16722633966424416 0.43770569448211316 0.74964788680978289
0.83572325517450308 -0.43641769906176842 0.48913695754599301
-0.10602093649312028 0.38026991673460186 0.78258307859729859
-0.0030179313037440592 -0.019322249484378051 -0.65178160607530489
-0.20611189656530282 0.70051843671867475 0.68026312529227329
-0.73510497838418565 -0.92385366963637838 -0.37693902271113661
0.6662812677167691 -0.35330862084078873 0.67442028236128726
0.1386023455466141 -0.051682209273933355 0.76986106574942315
-0.87006665431164987 -0.64154300266033859 -0.48028884728374022
0.28349802253092438 0.68854132808065749 -0.28938064825373655
0.359955682610825 1.0766502718519679 -0.40879627643483407
0.17605410149252665 0.024163920190698074 0.75356795316217784
0.53028449857089144 1.1169394037663649 -0.47574957489495717
0.52985870720047801 0.92867983674376053 -0.40825840658272894
0.19968355934246018 1.0887416215077441 -0.25936382000600233
0.28877723749516893 0.65999212481938929 -0.23775157141284342
0.3377775553705169 1.1936907797398133 -0.34471572325041577
-0.28111648116314542 0.62282422371735957 0.77141183391269263
0.46203417146270465 -0.17071909647050559 0.31728426824656519
0.29288609946989685 0.62100765756365073 0.49707203403417
0.19854201489127854 0.64226558854967042 0.58711210235915523
0.73642441129894942 -0.32937171795762626 0.63347090584685062
0.17885665536700035 0.86440700816769722 -0.045133146150953429
-0.59929192646990792 -0.13204758539410977 0.63478569710455346
-0.15895830307937131 0.5118964400519902 0.70202776077589568
-0.21473739320031104 -0.19292660264990452 0.73877913886687097
0.27258046905403399 1.0217558499850186 -0.32661386541133364
-0.69971528329747201 -0.54113463108945026 -0.26054656409739574
0.39650119155789265 0.047904893946474875 0.49012832096494352
0.099788669086643966 -0.094078554849147011 0.7674713372522185
-0.8500114086066114 -0.5107320138029835 -0.42805002948606752
0.098736241096161859 0.36935240001969594 0.73938672926166005
0.30519330249993959 0.22147676647319503 0.40680993737504245
-0.42154582125572937 -0.18004743498727138 0.79616131508268262
0.67424221389958572 -0.31834674465096446 0.70055755224023974
-0.3595839493141757 0.43603949523151464 0.80550753441571377
0.73659628747883021 -0.47021292790330133 0.68550517085668761
0.38609444112509295 0.96883121562744434 -0.37964743298599768
0.23884938821982127 0.9885877693992885 -0.26765187649900413
0.28229091149147734 1.1452654428001083 -0.31155215144647719
-0.59323317372049444 -0.91228779039211316 -0.23129222695209811
0.87525183438703813 -0.35323556025468117 0.43426817606064783
-0.77503785407939518 -0.37484143650091856 -0.19875565038029408
0.57001995868023436 -0.63702864045134266 0.6948734994022352
-0.36614769009491893 -0.6869349648547296 -0.073244165949556572
-0.34655136160740424 0.31365629164793385 0.63822398567454774
0.26688114515241523 0.20081054840015941 0.60254619783106966
0.80908132918505493 -0.23538326456531833 0.60560151182324851
-0.46971394486952006 -0.25412766870840459 -0.61430417597739095
0.41917470755966491 -0.036417720972758888 0.68841302978650587
-0.40814454092558289 -0.79698541295970693 -0.21718246456895779
-0.084090378908119101 0.34323683129276672 0.77391450969821862
0.38604895643104731 0.74525408882181987 -0.33433152091475915
-0.76175230363043833 0.10247616866507531 0.63152293453466357
0.24141752752291357 0.41108940503198244 0.61721693286522339
-0.52856436000982421 -0.7172000022518199 -0.27051260126628701
0.65149532411026256 -0.44420867627330685 0.73596778134629193
0.10783112286564478 0.69629991023215543 0.62637215631744991
-0.2056181144729799 0.0049130725497067429 0.75718100324063031
-0.70443393088955186 0.13308673639812141 0.55579744622363791
-0.78210651899857653 -0.10117889046008655 0.12946715371145645
0.6248723674446075 -0.41375628987870905 0.72087841536521213
0.47850047213648395 1.0231752837860639 -0.45163375774995151
-0.37913858086999197 -0.73333007396719696 -0.073756353903006833
-0.38518583615363128 0.4404089134999537 0.79810964657605543
0.64831545386777401 -0.35123609445236081 0.71406400385024349
-0.36421193512878858 0.076753905611150974 -0.72160443683007258
-0.72269321473673476 -0.32787567847843829 0.61033918370576368
0.16415854402228902 -0.04577800892290107 0.77106056396818157
0.3896252371240847 0.5177352007712529 -0.30954428565455172
-0.16756639323444389 0.38043423375885743 0.75160984613932802
-0.0049189636396413938 0.57732027374963124 0.68134052601898742
-0.10133457938368651 0.74964309157091624 0.64913685628785944
-0.58041685589406833 -0.020825956009529301 0.71390446618469727
0.080412306195789762 0.45874271044296921 0.75462076997973693
-0.3939935482684559 0.6342551938114982 -0.62640432207491581
0.2333074607242076 0.89862815570435739 -0.2427234337272034
-0.349351081113836 0.28555802032989724 0.61372925812847701
-0.20541263558376166 -0.052004873547354891 0.76724111227221004
0.45484440508825008 -0.12907125283453197 0.71710692034173884
0.16839300881594621 -0.025784858113755998 0.76652308971144012
0.04099019104831958 0.34393406605326049 0.78324249574613658
0.17421144089074359 -0.039717574080669393 0.78860920787001287
0.29036628555210142 0.69102599773594464 0.07179603800942147
0.19623162143196626 -0.15389964734093348 0.78941446283276129
0.51064029361245566 0.66270171523317045 -0.30649690123632689
0.31150667414390776 0.98841910583838077 -0.35751085973611352
0.62273300852023805 -0.56855440168324056 0.46913956358260078
0.30588681031495357 1.168756592271087 -0.41367134261867256
0.54038169262482016 -0.49773198382576461 0.74455778032642128
0.32988458859804448 0.13589500751548353 -0.11997990071397391
0.29005579084496524 0.077954565810318538 0.58533310139021966
-0.56336107197012719 -0.26103149817525756 0.66606826750696846
-0.83708574449855289 -0.88614031512481994 -0.48177117534559638
0.72308348680193313 -0.3610678497203374 0.6353963655775412
-0.69152334470024668 -0.33059160053985209 -0.48059113093311068
0.47538557201039477 1.1929582581560816 -0.43243404571096156
0.27629842403307825 -0.024827708277406796 0.78666305824143623
0.40776100798663084 0.99993830736095224 -0.39767768353643562
0.2897817862139026 0.6406013718791248 0.26022813898120112
0.6318324738798281 -0.18124035612911013 0.35694733599246464
0.37851349791300515 0.86940709221218559 -0.36428074785392328
0.79108303019057824 -0.49373082735017565 0.60198900978738901
-0.11405727049676384 0.28703178441976507 0.75930145911698932
-0.70296189548315469 -0.11204461627240014 0.44148054785425472
-0.77319924807486118 -0.31488301958120218 0.58172781625757009
-0.062980655026031673 0.38185097038537119 0.80011266987063134
-0.01501911342908091 0.79765239948008659 0.52387921257751879
0.36996661062576242 1.0152701902399004 -0.38307871225333978
0.15581959316407035 0.89192766146194968 -0.073628158666276367
-0.29502451570663124 -0.56908325391867365 0.24143849208347412
-0.039418361435619498 0.60258984230880264 0.70222888427801589
0.28513628629678189 0.1529198861216437 0.46825894084004926
0.46232870475850263 0.022440492731312239 0.58513955543999008
-0.7891274851585226 -0.67738416442591021 -0.44606619177874385
0.14938000538387064 -0.088372293148439279 0.81676024919408174
-0.13131131906630356 0.065279584443603073 0.7463069542999119
0.11944718925528452 -0.10145747760089205 0.81120841880738759
0.097975067136139127 0.30367018201327001 -0.57540131563829255
-0.13781046870965458 -0.099426565568881298 -0.68196873728149265
-0.58857135919889048 -0.61952133558363398 -0.26095665350504721
-0.0095816141596944959 1.0132885022980271 -0.21568986604126816
0.39785249647616405 1.0781216488676422 -0.42265267937863304
0.72443913341574351 -0.28823992023510725 0.6665386123469712
-0.056542766236339803 0.23071687118586542 0.74563995662549154
0.32028703660356928 0.40391786316785805 0.30276269425898206
-0.7630379875298835 0.056794842789665234 0.62216423888713379
0.35128332032326848 0.058701102418583284 0.47154535921233109
-0.55954665792892821 -0.0597228343823617 0.72655863212216876
0.15795607845791004 0.43153706354675869 0.67072135276817035
0.60928511904921967 -0.66979973302936047 0.64161788174045431
-0.10602839955461274 0.30276290743722689 0.74597924740697119
-0.1060142675707772 -0.55736572518347982 -0.038227629890284609
-0.39635512084785807 -0.11986096550160752 0.81711924192108709
-0.72952975628972416 -0.098033478195954649 0.67269465523642347
0.33434668325512074 -0.20294348482240512 -0.032500657528615529
0.27062712853726312 0.75147497297666932 -0.28663397865200535
0.14541509951212095 0.43126501152643548 0.69082364098595861
0.32004662287411556 0.61139149707307228 -0.072104555694166406
-0.82816664012249075 -0.23851134733976403 -0.021768006666398998
0.71531636481195127 -0.23738753527899598 0.35557197080656444
-0.22754707005279806 -0.074159843044071805 0.77095404140678692
0.77944280993463888 -0.33325082034283832 0.66829448217918208
0.73414319873936418 -0.32071603640796964 0.63662306119299217
-0.73765585143466017 -0.74385966707618145 -0.39713241797321658
-0.35199267292303793 0.49710542795632839 0.6068094518513808
-0.0058920896309898607 0.59516669069919881 0.65991010031244279
-0.1356976176185658 0.022602519662968751 0.7472787193311824
0.27387005597206793 0.72547419176234629 -0.28756408168820979
0.37243999148109541 0.64698400635074627 -0.30182493777195107
-0.52980806154228688 -0.70113540923792628 -0.27376246270890586
-0.21088362371723102 -0.1698591445913562 0.76011442582419741
0.20085125001809823 0.16363704359106873 0.70195146308531553
0.11236039464693215 -0.067222620865252464 0.77085437298396409
0.14839798469038901 0.50803184038913807 0.65074696589289527
-0.81223740645714304 -0.639005359419482 -0.45828972297967474
0.83200842363232708 -0.3868272896029431 0.60738675103924145
-0.74915402669028075 0.07765459355293558 0.23814022005904745
-0.3172552216645716 0.5370074064963839 0.79287554758264844
0.39427160135998385 0.60552946213525138 -0.21955852820143351
0.30428577989695149 0.62261964492968436 -0.11964290144571532
0.44947103479725942 -0.6144154149213813 0.51013925697672446
0.16716282967054907 0.8840085974476779 -0.31863550956338216
0.35499256972630167 -0.068175151845370568 -0.034163295274479033
-0.50705694400022705 0.021430171390164621 0.67776485004473475
0.19947699996729529 0.84915948150661302 -0.17655635186751706
-0.33029598587186859 0.26680877870098851 0.77274786651517535
-0.69020068168977911 -0.93179929970062636 -0.31979968221749316
0.17008255452713905 -0.38323496693166892 0.41724434662524212
-0.14068372151988007 0.33972003381890042 0.7440078374220942
0.1317148810849369 -0.15201900706136481 0.77118653409899651
-0.62838840596019596 -0.69541135613400384 -0.3248209175443556
-0.74216117815300431 -0.79017055642023193 -0.40337223192626981
0.17635238489462635 0.55503081757451911 0.62970286115459229
0.15487927526613454 -0.046920873011652903 0.76166205058817005
0.099161295003507455 -0.23366621038712601 0.67693679221738212
0.098094180506002493 -0.30707913195990294 0.55039415337917419
-0.18287615136123603 -0.083349941202037037 0.763866041484069
-0.49522849605941632 -0.0083207762537860219 0.73793031906250561
0.78774361843700136 -0.27840487223036992 0.64561360460448591
-0.13512674026959604 0.50253605364622511 0.74131859950331958
-0.87911895146919405 -0.52486179422099433 -0.46303031740183898
0.22717503283930429 -0.13033520732512713 0.79254990858545438
-0.67991901131527777 -0.54497063564564474 -0.2483897811537481
-0.48975982007469443 -0.62020557437433543 -0.12579687319866317
0.091857810564704101 0.46400523017934792 0.74652664644550926
-0.42938427002629997 -0.28034469475871515 0.70899276061782746
-0.65860956790771441 -0.91304003847720683 -0.32657405649865845
-0.040250761607355412 -0.5423617979699662 -0.13645415533399019
0.24276350105649713 0.64518592934216334 0.54864401787751027
0.43778279438910672 -0.41336940104843856 0.74622077658239283
-0.99304640223952334 -0.77948868279369798 -0.57137964202750946
-0.027880919079455779 0.28838702330919452 0.74790043586718669
0.31801250562958039 0.46027929432203979 0.34441065974307206
-0.4433632555472854 -0.62844576293706456 -0.34963467100821211
-0.5912965525346856 -0.6370850125607006 -0.29539598358948777
-0.60635044259518733 -0.56733398829523907 -0.17461659690261189
0.31557455005934298 -0.38027448431794941 0.3399467070415178
-0.6846919008157839 -0.27068148747655313 0.64199345158310384
-0.3019181142684515 0.29633694247160292 0.79908778250779855
0.39679087603720653 1.1140491400771 -0.41488723469042743
0.11769824646872074 0.57207515341837967 0.64122864558462023
-0.39797644564595508 -0.23383312023993469 0.76318353803500338
-0.26740814472927199 0.032146808943785077 0.76443639907775784
-0.29429824112235797 0.26626791415183781 0.79609788144866489
-0.6674974632303381 -0.41184183670419711 0.57382453023547797
-0.35678099516370093 0.03413426279470777 0.72733915059533805
-0.5661308762000542 0.045527821784265676 0.7304288817681488
-0.53930984739346965 0.017818604954174477 0.72874843474967066
-0.39849964045207414 -0.211468762971327 0.78979210246916465
-0.4162350541529416 0.9066439188672788 -0.33075769791806942
0.062988907777078884 0.11675582238725474 0.74228231161129221
0.16974182764480283 -0.30701128509814318 0.67142689437800906
-0.73791523312657226 -0.70668484638218021 -0.39826387172385641
-0.071401846983916384 0.42291362689301415 0.79765970728523061
-0.35382023691203951 0.32359529440587431 0.59303487496096963
0.30572480675110192 1.1819204089111974 -0.32705217246511309
0.71680411346503248 -0.42178725160847808 0.67062592479520788
0.55881554701028002 -0.075019160894558762 0.65476640598947988
-0.072694303804752725 0.31982200265017913 0.76313699800396706
-0.094507805805100098 -0.020208367441962832 -0.69045100195733078
0.59465720659184496 -0.5897003457138198 0.47894192796431206
0.49428069613304193 -0.15976339520488678 0.33694463463777824
-0.19420088765639043 -0.25444527565341546 0.67128006889068903
0.45610674733226253 0.79552407741571329 -0.39660921720409825
0.82338813455150217 -0.25442718154154159 0.60157937675710094
-0.42857960540485696 0.064297082746413159 0.75836149446725309
0.22528156424440304 0.54256145293474045 -0.41836606748685523
0.37822721589751862 0.46882836986405119 -0.27365919444090625
-0.070973090305492703 0.24769812554064963 0.7514721987550208
0.75543301124508277 -0.26461113995791335 0.35764283815720488
-0.7216226051378164 -0.37290417346900018 -0.40124019122696164
0.25849351946472154 0.38931144823089325 -0.3726521877049499
0.86597234327140749 -0.34888604143640417 0.56532131465970237
-0.19465281070392049 0.3897785906322177 0.76201655375146848
-0.50989447217665185 -0.66442949703136023 -0.24663291028175699
-0.43097960763610171 0.034241239774890853 0.71648449902348099
0.16506544091032893 0.32627958551999869 0.651671060039828
0.51211045762156704 1.1453489708242333 -0.46596821003897582
-0.74850034359156481 -0.56869786560437097 -0.46581995669425347
-0.25527063117656268 -0.33060143873268738 0.6328263277749584
0.35324393830995826 -0.074385644721409488 0.72263389816925483
0.17139236191331575 -0.0070346981839116141 0.77923258820824814
-0.63146019339162596 -0.89530710312916029 -0.33082933977239204
0.35575660418539423 0.97658278585065705 -0.36784593731357496
0.73725989820245075 -0.48774061601781327 0.67740352068790011
0.18962427965204975 0.4689873399933146 0.61672299122383456
0.80063728178236904 -0.49359421857096825 0.52394061867805708
-0.047639156547875761 0.76715215271988679 0.65895018369521008
0.35685413375268515 -0.44242386912812337 0.41561997072194845
0.076046755149779766 -0.30010230205507721 0.53363819920768329
0.19818803171607402 -0.15737732167561203 0.78109861258736024
0.20350258301989077 -0.39976789413178093 0.33219650887167673
0.094971610607748391 0.60179605641004263 0.64640565342555978
0.073933131531911389 0.948548884990559 0.0025915316678456479
0.32578894295134397 0.56890783482370455 0.45120798903261505
-0.33979249041821402 -0.048972580820512479 0.81417105538725698
-0.15346459821274994 -0.13168903684176331 0.68109217487669327
-0.23540487143149891 -0.46609021095472392 0.46214183640757694
-0.4930741793087996 -0.79411984426207427 -0.19511712664631381
-0.13870704836784109 0.68492605786108762 0.7319680740958403
-0.17928213567358131 0.43931556819435669 0.7546911632297354
-0.75713012909026101 -0.16033346924001651 0.51628928753059178
0.53709902028093204 0.77106797433731333 -0.457361133134777
0.2508829030671994 0.021724681628007086 0.78967413678986387
0.26772328809602741 -0.31993649315898409 0.72837522804852495
0.11337241721052582 -0.11679632642993401 0.80647205275593137
0.2559514603488322 0.86589380286590245 -0.36904494334020244
-0.048635207375897771 0.14921450880488296 0.73762979983117338
0.51737388504695125 -0.29060227947138995 0.74096841530510404
0.29897341263076527 0.92834346868274176 -0.33633662746266657
0.42065043148466863 -0.52497417275033453 0.70519971239116042
0.06169177372449608 0.66844828125843625 0.64565335167757831
0.26532945047229972 0.72949121071289258 -0.040201010505053203
0.28761875514145874 1.1892799879103475 -0.38420937107974928
0.15062316719341873 -0.37779283618137749 0.4096870155147963
0.099786883130344339 -0.094003527597964653 0.79275799009050707
0.32902350298942051 0.59827045796671829 -0.044376120844011879
-0.22484067734064223 -0.28838949745312148 0.66480216314791263
0.019278943286000549 0.3497720714657559 0.79091340411755451
-0.54520780375091094 -0.10209808776283347 0.71225133484080838
0.45633718008173896 -0.29550034222899946 0.33586239929311656
0.46710168580915667 -0.64815293347590386 0.57827893174204426
-0.48169398902289051 -0.15293999546948378 0.77930419242064608
-0.4503640845933804 0.54424191795811183 -0.65026432445360938
-0.9782283762929751 -0.7700285242674394 -0.53752573049302255
-0.55722606315461753 0.017479888450088243 0.61661421350169265
0.043053224081907482 -0.27928828349747847 0.54824159302044329
0.48531794903246894 -0.080139540869382853 0.3558624246425296
-0.62611445117205788 0.072998236617848378 0.74074112161296113
0.37857212156996023 0.89154745937601998 -0.36840924943363751
-0.93422037963400584 -0.56948078973078453 -0.51202824941174285
0.65751018100608616 -0.43622732824151494 0.68680828466315669
0.36868400237035825 0.64332101489975657 -0.28993083699743705
-0.21586792813355732 -0.30047362338544226 0.64117034389921157
-0.41928978901846892 0.22615510995153726 0.58076065262393062
0.27798932706803292 0.70360922289460159 -0.28837768816740783
0.32956684312792706 -0.12947303680825459 0.73685441602331858
0.39413892610340984 0.81404729047270619 -0.35913888448302855
0.36607832361387382 0.59372628195285504 -0.22854080740377236
0.39971599068506269 0.63841116854706559 -0.28226500197023785
0.7462424950604325 -0.38025082086355644 0.6529903364038907
0.20168344773649272 1.0208837709940102 -0.34322058119676868
0.097186604989805692 0.9109449830230596 0.081792896597778886
0.44176033095176603 -0.54441767805674801 0.45841365393198913
-0.048118021067926731 1.0296200335172483 -0.21845682966716296
0.74727595887427034 -0.2879208830267167 0.67747091955065408
-0.77192464846332043 -0.2533925048281937 0.48987855869312003
-0.6274334631748637 -0.13438707805205802 0.57767639115134428
-0.68013044932084687 -0.20294691100037315 0.66454892629536788
0.21906226965486897 0.046971372768491254 0.7317516284619584
-0.52503725078191732 -0.47922159806649073 0.56578490742840515
0.31224245226510916 0.072247359964719232 0.51400189100705163
-0.33793578315406203 0.22383534142662781 0.76919719904310269
-0.39317826842569109 0.21314066470256077 0.72135375566151572
0.76137945836926602 -0.37759210006815647 0.67476718789673273
0.12246929178983323 -0.3093223847579652 0.60481689216390011
0.80844853483728563 -0.48604209568038925 0.54714581086753356
0.47474282267211654 0.73184568902199765 -0.32590977106440133
-0.4169280989385552 -0.44906357942514907 0.62257092732569963
0.3764315392235219 0.00474118503041078 0.67468048339412845
-0.83489197097971168 -0.88475699892063076 -0.48537148706044403
0.61599240058185001 -0.13311308473956415 0.36963330111594761
0.33881576101774724 0.56986636501549692 -0.18797418751630357
-0.71843132441736213 -0.19519106513691598 0.31095644132563527
-0.12678416916752183 -0.35614849301098006 -0.56304917395106258
-0.70096135960745209 -0.4882689296510031 -0.36413959617657221
-0.17081858335678279 0.78685287817853178 0.31719460450268577
0.31614374466925599 1.0595603736810897 -0.38081181263721375
-0.63376491727948747 0.0083795247469441447 0.49330776548003386
-0.68824324760498257 -0.95018790095351913 -0.30598341578176885
0.40155322834121698 1.108752889419492 -0.4245775089415611
-0.67677101145319363 -0.053687630915099871 0.46691277335002668
0.5017580369379292 1.0952725647282595 -0.40250991158370097
-0.11587028315845227 0.0020032887086435247 0.74836712476050671
-0.60765669185107951 -0.1661412037100779 0.68119742664503247
-0.15826370488274888 0.34740371722867736 0.75577704759707331
0.097177584903351377 0.84844833991037816 0.57111355536952635
0.40055784128000316 -0.15790264946134194 0.23251176578259269
0.53357695213367451 -0.44878526872004415 0.75091014308798165
-0.40652037749181386 0.60380968621285236 0.6652924504030715
0.62257794310922021 -0.35701471813855973 0.73610359174660611
0.12390541658158005 -0.084259354269190789 0.80932943425414416
0.26353353465230733 0.035069458741653819 0.72502961311389325
-0.44199395813502645 -0.035523037437768024 0.79389761499834111
-0.48844071797517791 -0.56175888908265426 -0.40897618779225353
-0.62996268325603511 -0.64087412941356037 -0.31658577440373953
-0.20570022077284189 0.47600044127812119 0.7488543548474681
0.14328432970475924 -0.12922257759468347 0.81731238320203858
-0.21753062060174549 -0.34227227473925603 0.689934878898669
-0.27046705266835691 0.95906620796027076 -0.36744533750675146
0.44392584938862167 0.72892838018000627 -0.34979167713074677
-0.66602841750047093 -0.84395681960305713 -0.43262949192985106
0.3129228205587391 0.20419071508617914 -0.1956830435633129
0.70709328521070702 -0.47537022784017197 0.70682281738222774
0.21829595894095943 1.122200567194267 -0.27749240394555252
0.138343946498792 0.67929277827749202 -0.45519825462378338
0.21699538251406569 0.055556641290266578 0.73258819442552225
-0.13440382981977905 0.59871806471461375 0.73035346280234814
0.30686295589425538 1.2184244044329551 -0.35123101706909521
0.45400992087707426 -0.63307895350954835 0.54187835673160634
0.23982344769452368 0.26639916703593935 0.6427818385878119
-0.51132818931276103 0.14430267214588605 0.78291014503309297
-0.49170714038462759 -0.35941599576314176 -0.55576441949470701
0.37913038620576545 0.59655010992803048 -0.22321629781726393
-0.2834067416962765 -0.12022779418908058 0.81053893438459768
0.26984988929577536 0.71984393143685321 -0.26309868494382316
0.19513922563000041 -0.012060032576243745 0.79876103543575105
0.071174620629556484 0.42467110885733583 0.76846933315052746
0.637892763134287 -0.42105147977858004 0.72780940852027198
-0.40484137333386938 0.064037756542696944 0.7612237981909572
0.035172289786964628 0.97200457754726111 -0.27354899675690214
0.31543555905834841 -0.40093037107372653 0.37183555280750163
0.26096835943689722 0.89090883001172672 -0.29607061016578551
-0.38254423137707882 0.37846274905388777 0.67090308738900251
0.093943111694389181 0.37280190264516494 0.74891315531053693
0.17544661483826518 0.46506247292318703 0.64162066294381903
-0.73484830662390821 -0.9327442643750341 -0.35479059871361263
-0.42363978067918068 0.28264472401241819 0.55896163227603879
-0.76523773826675057 -0.1566773242045772 0.54632121104731513
0.32634067732899952 0.41070271716042595 0.50646594279856338
0.30770193998762918 0.24837627158509951 0.46775505583711963
-0.74359097719034428 -0.38742769559207613 0.39177215983340941
0.18589671329655877 -0.042375670539427063 0.80307928797769768
0.25152022920779693 0.95848667011097821 -0.28772403483801379
0.28571314523900992 0.10165299475836204 0.48367435221559829
0.15025041758932789 0.82383302861974594 0.24113331716001463
-0.18642532126565114 0.44012323791471997 0.75630267495378856
0.38403136564040607 0.61059723146399791 -0.24275224625528946
0.16411794387493506 -0.043635900122206528 0.75790857427753899
0.84496742926265189 -0.324165943205735 0.38538701445449047
-0.90348702176830331 -0.68970510560908926 -0.51713722942735507
-0.55381886666028668 -0.18854236922242051 0.68300066471374232
0.27491631247196413 1.0535610080765883 -0.40922728602382341
-0.27929780511193131 -0.65766089879707335 -0.15027565483420269
-0.90844855544786918 -0.54400425738400371 -0.52702277714565959
0.048497647723939497 0.61782805381903183 0.658660709933933
-0.011597313321704217 0.90012589923046504 0.21123835441772698
-0.63610220934336004 -0.57217986684888067 -0.2367705859147754
0.52875177263074735 -0.11387928926926402 0.69045788796915442
-0.24508687307741828 -0.43261359651602282 -0.52320335750785585
-0.31094183337054226 -0.16801054208179167 0.81328970125438482
0.39062394211092344 0.70868061321450904 -0.32567347638805755
-0.24659563710763999 0.55799941795440411 0.77033127499209797
-0.66640773751961468 -0.73253058641324031 -0.34915209924066676
0.27859195718048335 -0.069334665488217817 0.78285381065933834
-0.33560880422283645 0.63987551312673541 0.63034905957871945
0.48638642330591675 0.76904681284566689 -0.36885652020917847
-0.73674684671791058 -0.312557776053906 0.32976643468294164
-0.083768163771684612 0.4493926662948709 0.79179082419708668
0.61625919704125787 -0.67284895769380548 0.58807256084412041
-0.46259618049958251 0.19874138732612767 0.6568566781973384
0.57531486674782217 -0.33043583796690024 0.7399244358548337
0.65164360779563157 -0.23196851092209347 0.69842929449700164
-0.2715501610635368 -0.21514916014970159 0.75169051462864878
-0.79351511111058692 -0.32497579588230557 0.49903330052812211
0.16091979153492442 0.48364376963573241 0.65840412282148109
0.038973778733882192 0.51420655568388673 0.74401671123772917
0.16631653535942481 0.40652421471748401 0.68022940429265877
-0.2075397727755684 0.33457314497135138 0.6863232116390322
-0.11779541202025956 0.74071609770404168 0.40344608032955187
0.15718673049728393 0.59620116439040549 0.53243847131952904
-0.43510709805803932 0.50136725900709822 0.67322600971979396
-0.40132244071134743 -0.63926898461803494 0.075007055748480156
0.1583686244570004 -0.063576075845505065 0.80894223635286377
-0.93923817146450095 -0.65426677216664708 -0.51776206962607096
0.64345056346406015 -0.4333396587106606 0.67799930676373044
0.46242758165347209 0.55894203626968386 -0.30829476269155698
0.37140409566647192 1.1929303816884562 -0.35924481886177939
0.36786292159045342 -0.29261572280846859 0.27804524754867033
0.40460259064416548 0.96881751968911756 -0.39088513081498422
-0.56425578024116441 0.42375973627669183 0.3697626476194007
0.5596726192419329 -0.23406413922745867 0.7206247360786181
-0.52120225080269778 -0.51255863260206747 0.51213306246979506
0.37270662395001208 -0.17422163868437829 0.73974271020874383
-0.22632805770364317 0.81908791236109102 -0.51772538583544103
-0.28843027020726941 -0.23541734313602991 0.74594782763396772
-0.70500528660715489 -0.90675769679303042 -0.394537450263022
0.87563048840299607 -0.25443279315785838 0.42079574066434167
0.41482443944769576 1.2092120972892137 -0.37924131978773856
0.54468500762400718 0.9230702768680541 -0.49529425134928617
0.60437678300299547 -0.6733383105266203 0.56266397589469919
-0.15360126502558591 0.35058207482612325 0.75053833764911293
-0.65649254941913449 -0.56565260436454579 -0.24670612419454518
-0.91483194060167039 -0.58727599015511811 -0.48167037108157873
0.48774755540045889 1.1510549699928421 -0.481604357905695
0.44132976914906585 -0.43269572579939575 0.3965285109794815
-0.65945473995061721 0.14016651986812229 0.75341338648805589
-0.15679875507064389 0.5153793684713639 0.7427207393482379
-0.062419690088838187 0.28596946146600188 0.73403601255137885
0.41994977815944545 0.85048740836455361 -0.38764010698057105
0.26775053262955251 0.7784950327905299 -0.28551075003858173
-0.58990825504979105 -0.62552301588742254 -0.27409114197027451
0.31165607931513506 -0.013855272426932103 0.72858782828838009
-0.52625228109621636 -0.67123273826166607 -0.27748260480150361
0.62223247325500497 -0.38076191422081412 0.71715270021606914
-0.47942908992697492 -0.053990924619659153 0.77765256982575592
-0.43261299215195603 -0.2996327066819684 0.68754988233715908
-0.74074515595511725 -0.92067842779132425 -0.41713854537425288
-0.34973939283247335 0.29645917966187646 0.753476322917356
0.59978267374324712 -0.39024683773661251 0.7460517885938841
0.71305038152263023 -0.58480310605003116 0.61681172371527515
0.27951274710269225 0.42271576105469399 -0.35461903936404726
-0.29018709199687498 0.23575911252086737 0.7938363602619134
-0.58512507713120199 0.13774543088646002 0.76947514726497046
-0.30940549744148449 -0.19849701047566531 0.78422709260397849
0.77594626788212495 -0.24456683278358321 0.36117423653601738
-0.60443881143590106 -0.24452124014125437 0.66039554437845538
0.30734242209455598 1.0346293278291532 -0.3725443495855727
0.58886514580732763 -0.64004618448080297 0.69021955410558622
0.27469736764933761 0.75208004839911202 -0.29650673418403395
0.19471257846410606 -0.14929100768285725 0.79655368768233914
0.66169970037170867 -0.48779724053719398 0.7271524791883035
0.073692890388995069 0.32788938986859539 0.7406951788764683
0.13823887418823266 -0.1362606807074048 0.81246196277529581
0.83193688283152645 -0.23017503556492147 0.39437625113205299
0.033893848790706338 -0.26135189343751275 0.61475835709612692
0.67847509065509126 -0.45229300450996429 0.40543820897653637
-0.36827049513419152 0.47059296444762461 0.80486417431609081
0.1900859428117645 0.77889557598362436 0.53874365137777547
0.34861397169959962 0.83459222044721826 -0.34210985060152643
-0.28856164303372112 -0.015120508519041176 0.75749731159035294
0.32440643525364954 0.417839713407127 -0.29082192075330604
-0.41175546156262333 -0.47000666536839047 0.60153507458706734
-0.44093759256055493 -0.79468635979764157 -0.093847179641004641
-0.3673844660507205 0.24098099852562138 0.61145495151332596
0.45692624586128117 0.70923631260337994 -0.30832198019730517
-0.20447445465182446 0.70481767321485722 0.65052445631006328
0.11709098621221781 -0.13656333276903967 0.78618729291839617
-0.33035872189876525 0.15630934639888738 0.79061067127907336
-0.38409703947208962 -0.1783988945584023 0.80634626810605092
-0.18883554094021077 -0.13898461583984478 0.75976304293476704
-0.026365622413892953 -0.50689498381212039 -0.32048721857910578
-0.025141434646582472 1.019423155396439 -0.10459777441402596
-0.74834587589837498 -0.5835011162938355 -0.33132945881297743
0.77246077889312248 -0.26137662932431477 0.6496577522876934
0.84106193255649686 -0.39350560126261669 0.59005760305279764
-0.63702304002103416 -0.52605224974915088 -0.40276116554390551
-0.76589312065978477 -0.78692784851700626 -0.51003891057763984
-0.47444218504349034 0.84266630384180607 -0.36288408601927336
0.20159987874397012 0.8067280739576449 0.46327887418861113
-0.35194855474775621 0.42023328349570932 0.61680647920680598
0.49836369352124632 0.80404186747625916 -0.3933803318382274
-0.51518451558149592 -0.52010513385851032 0.42354691265816974
-0.051976850548658193 0.4885659315257152 0.77827628128627024
-0.85234555927112432 -0.93986941114532974 -0.42517240012432655
-0.46480978717014787 -0.3586556572527379 0.66832049448354169
-0.31339483538365198 0.32787883517398436 0.80203915177053653
-0.20425480427910986 -0.094594051374747301 0.74311665556186113
0.23421769263883407 0.7556851666024279 0.21994389884552379
0.7807660860653246 -0.2983980633402864 0.65966719365248649
0.25062962538785316 1.1329009551610107 -0.28737176199262449
-0.064485162782368488 0.66139300769373732 0.71162699137470597
0.82490881374567171 -0.41869239930562269 0.604139441079523
0.72117445167194361 -0.307371214198219 0.63618107514864619
0.13857511991010818 0.84092333466732061 0.19642462588230936
0.036824186417442228 -0.51778350369934589 -0.057319654608446569
-0.34777036915176485 -0.76351806094140073 -0.089849598030689315
-0.25873142626003676 0.34559800263245516 0.78052785740310715
-0.18409539334441527 0.48743045572577953 0.7466550682819787
-0.15249631860534496 1.0353243178889726 -0.11737152820616525
-0.63124038371570301 -0.32349626583736701 0.63124095444728634
-0.70164431356606549 -0.20262396146344752 0.66563811463608791
0.097445114716954939 0.48984899093711071 0.7155975148177246
-0.80767219104513277 -0.66884070947792917 -0.46896453285445883
-0.45829706843608348 -0.20252417616566948 0.77110825702235064
-0.20427277285944601 0.37626320979259509 0.70385413260257246
-0.787958219941713 -0.94135159141712432 -0.37987529803790315
-0.0079581590492753262 0.4584300426425072 0.78383697166403588
0.76964593922609714 -0.17572632949995101 0.40034815962465164
-0.50491094499147737 -0.3120955449708453 0.67930335596738911
0.63617757526845353 -0.042952754808433274 0.53010703612886334
-0.73465987656160481 -0.25285262596451036 0.38513691731808208
0.23496238695780691 -0.039131619968649445 0.80289400269246691
0.093651294487834935 0.39517603089873732 0.7619285538635554
-0.12511037783510431 -0.5642784629135511 -0.12114973313425237
-0.40128869511256177 -0.65435589004239425 -0.013228517477493762
-0.38730162011497871 0.025895453575559613 0.75771174880055525
-0.76478740937263523 -0.24687762415428399 0.60721375210311401
0.78654536618680693 -0.46658617997759866 0.45943195973991158
0.30704659109060506 0.32271193282247157 -0.25367604856667703
-0.70183381084270702 -0.66712222671847754 -0.36847452141029757
-0.23451107233876289 0.45725817324724005 0.65195054753944093
-0.6343313290554824 -0.16537254522978057 0.670698057019954
0.54002164200920233 0.003993567677029658 0.54245779203967959
0.22215798435649259 0.68089980878433665 0.55305195739629676
0.35702338592297911 1.0622061783871384 -0.40110959616549779
0.42999236156156873 0.028559033697526548 0.45095265409609886
0.61086694943190456 -0.40079855721726992 0.74374449805621823
0.53164455029039115 -0.19260783587060787 0.71667050747826566
-0.71263889997532748 -0.47118611700534718 -0.20999848955369549
-0.63086833501345752 -0.62381944537823109 -0.29865133435993557
-0.12435454762047116 -0.42200126755023482 0.43901492096151118
-0.84035569277189193 -0.018678765252260421 -0.015028119352695213
-0.55048407070329919 0.0041597532841706752 0.72413784437347772
0.12301017369372247 0.55067363544607884 0.64072352884529304
0.59323912941237211 -0.63206470721667585 0.50887821185914006
-0.048095635149906113 0.89479153599339001 0.2157410397514602
-0.89083435684747181 -0.61378669058410351 -0.47207938299811614
0.27331251361259545 0.58738338945428392 -0.37694517254017024
0.2892596850238881 0.12876799014227461 0.45675644357769374
-0.52972527503741218 -0.25292875945194754 0.66443286276129954
-0.45159843989177356 -0.33356709697451081 0.68605874807693434
0.37309873903032731 0.63271527996638133 -0.2893051704877605
0.4339512840229407 -0.043853241933309292 0.34902456256362169
0.33551741231356447 1.0794048732889043 -0.39562822978361545
0.097627533413506495 -0.12750676828364377 0.7660139690081702
0.31137793590784157 -0.11941702511899091 0.73951779944601292
0.76549551705673036 -0.35152681303999411 0.67169465308621512
-0.10086748024763637 -0.021398223954164658 0.75400469107660795
-0.31456245236408459 0.50805775832263167 0.50870278707513139
-0.89638145561241778 -0.79256517612753896 -0.51553965022544945
-0.31646241368315114 -0.39586980419494905 0.66713209656021955
-0.70300502184255387 -0.82327258188576091 -0.38313243811220382
0.058986333788787149 0.65514465845049652 0.65002932618647291
0.18751589744636654 -0.32477594723921144 0.67540489425026773
-0.27264791850629666 -0.12228587737497465 0.79533943146500474
0.64730906191235693 -0.61776774463063866 0.67452109959005502
-0.70438617965984951 -0.36084697977051883 -0.44346697505061816
-0.31350862225567838 0.26480128166108541 0.78830720062554349
