# XYZ point cloud file
-0.39106078353457252 0.013679688983810889 0.7745554613323824
-0.3880061816700498 0.25699375901684962 0.724112971483725
-0.32996642597569781 -0.13056472492632509 0.81644052145161305
-0.14691162238070721 0.90055261743046167 0.1941343931599015
0.38699761788070919 0.016894785386209921 0.66724157709679277
0.92740829884103371 -0.25658970462571218 0.43345968419407022
-0.49236699150855534 -0.69577465478352618 -0.27586807669341001
0.71443049718092744 -0.16412466503468914 0.35926706429140837
-0.21547492066504503 0.2679350742174611 0.70618331926831368
0.4696061102079313 1.1491541371283067 -0.41851128586284042
-0.72247872506190236 0.44452942820172203 0.29835878028680907
-0.71142720310595919 -0.62735966742647786 -0.2913255786525793
0.36680325297347893 0.57130371984369177 -0.12949433375722963
-0.024482542514009595 -0.25578776419484917 -0.60208734664528363
0.038009386182078553 0.73699090748051366 0.66822233775985529
0.9410452583056671 -0.25898237631513832 0.49225635660846023
0.09677869548510018 -0.13557065349226416 0.75386117117395202
-0.2906158457824447 -0.075735733615151624 0.76718780889925697
-0.22495057035759622 0.47163652365564812 -0.69092273707009566
-0.35792813657769429 -0.12147688547275881 0.8166868474744422
-0.18360279382793057 -0.14591479719098355 0.75121297534639042
-0.60701533771216587 0.04700076361420491 0.51954961936673527
-0.66778546702683483 -0.63192137390798564 -0.40420427285934052
-0.29063258218066884 -0.38263034797635287 0.67241996274174576
0.69995002044880972 -0.42206602444490599 0.65828945917209136
0.33391432465413717 1.1830708564707937 -0.39618944982102999
0.8049164147412653 -0.10809381791706674 0.46250709700313553
0.5385706485759294 -0.5657217679753177 0.70675288037013928
-0.34869471783501077 -0.064661743476428724 0.77836765786434503
-0.75785712593698817 -0.27878832476460724 0.63098510138301933
-0.71565116585164346 -0.45277425901059853 -0.35790403863753412
0.6736813715983464 -0.45180013614783027 0.70668804166004573
-0.16183374249782595 0.48568498300908214 0.7596224246105443
0.31623921061767463 1.1376873985070519 -0.42602512092955952
-0.239673998142234 -0.19345238769450113 0.7579625152728936
0.066342888117055576 0.21340314184731435 0.6532370534497649
0.75694310106914986 -0.39592323597537776 0.66862305552594981
-0.24463761743324597 0.37160196525489719 0.78262193078080355
-0.80032139149888859 -0.95232974656177971 -0.41950919266720654
0.13699479945864473 -0.12915613337653731 0.8103837070448191
0.9282544084090234 -0.21817490125332684 0.51871029700006011
0.39048007584927757 0.91383449870666 -0.37545673073235275
0.15684480292734693 0.93473065429938984 -0.19863081431897622
0.89048335674889056 -0.36085004735907128 0.58313673221471385
0.18218303641362571 1.1089486239851944 -0.27663999358684149
0.37171191279694021 -0.46376682967881011 0.68576131659881745
-0.46366456284534063 0.51734195684704298 0.6837786749984831
0.35303733576095259 -0.51990381339571523 0.46839256437849991
-0.1525320872748428 -0.27342130174062551 0.71384728981569001
-0.58017717162530502 -0.60389565814154977 0.012671016234202526
-0.53524963802243708 -0.7167828740235378 -0.31408088290015551
-0.21228235425168829 0.39278754958747775 0.7750374702662991
0.037884028785353685 0.32164852112907361 0.7718762606638192
-0.43225773638889342 -0.18270356628044793 0.80027969209473959
0.20602474991687103 0.055672504174681392 0.73968474707014398
0.73008699151458745 -0.52322619205844434 0.68367828638328842
0.33761742378717274 -0.12706769953032326 0.7343417137492394
-0.47744175568231129 0.50846079085768481 0.79288040695360784
0.017454523171785696 0.82406997265383286 0.47871736728361275
-0.4577521370327145 -0.00234232224914388 0.77093807751354604
0.74806857198438248 -0.33250230484580134 0.64415555426161952
0.34508708605449145 0.69314955544316514 -0.23772680128965967
0.016143666986774829 0.59508097256441761 0.67917553453682777
0.22541334282398412 0.85074780710252518 -0.24313513370063267
-0.38805638994034108 0.20481754789164763 -0.71963226709946759
0.086713749105121529 0.72506312335553269 0.63877411361102676
-0.2944974219452714 0.38672738011650187 0.79002172163587192
-0.4990740680625636 -0.25295118249289272 0.72704262032631206
0.00078954092015426358 0.38612570211601582 0.80705344036365223
-0.76120203416345744 -0.067507426923369751 0.69593867230400663
0.63215844588032832 -0.23599291784010323 0.34391758868966543
-0.57609792386269654 0.15985268479185044 0.7453993465768125
0.24186791997190182 -0.015751217855983102 0.80253238112294678
-0.20360550271229372 0.419186120255165 0.77065363784792706
0.15267440026161949 0.23776631031767426 0.71204492862655244
0.35986153273226151 0.59964625299563357 -0.14014115858068865
-0.10578654662274567 0.76878876548840336 0.39081348075028877
0.38317098987499643 -0.56530886851082063 0.55446760436291531
0.44915381542018207 0.69089171399090932 -0.20081808982217114
-0.76930417906354487 -0.43528353881438564 0.51953756036894205
-0.06324516628880017 0.2124235021740386 0.71405487032889992
-0.56796530192248385 -0.045126906553813351 0.74752973906377906
-0.64988562126092619 -0.61967184097703654 -0.26061040976668448
0.2899721654485018 0.18665444877286019 0.46530751120475378
-0.50486760590227298 0.048255449020165653 0.7867290740217866
-0.64963316484696121 -1.0090056077995255 -0.37465655634398687
0.0086150977575724652 0.93196313072928971 -0.33363677796580005
0.2467050246341676 -0.39286084547326983 0.64947250026027514
0.32248515700103225 0.42447062020438819 0.48710035831327381
-0.70270803283772543 -0.17612782377578728 0.4534384539293449
0.13115815909336179 -0.16956603421627736 0.79350618174579057
-0.59511076061739554 0.1250254016040877 0.80453755061267818
0.27180974328996954 0.77212255264779994 -0.29903432363786975
-0.24851044920909521 0.23961564770253152 0.79053260214613386
-0.45142761679402627 -0.76846185028032599 -0.28517630869004362
-0.24844771050969883 0.30310505542839827 0.78491465023563878
-0.5807183588346817 -0.32625557817702111 0.66411751203164449
-0.72401523267866352 -0.58985798757753316 -0.25211639063097641
-0.48186931556409474 -0.77123306214963794 -0.29906864103944331
-0.4897670702394929 -0.24497843594912827 0.74139666984437746
-0.71117240093797141 -0.35273222388642811 0.65406424908272087
0.2887401616829669 0.25835063804041736 0.56848186641958665
-0.57190180321622319 0.64023046971228337 -0.50049920583161422
0.66378164571823395 -0.45081451291093066 0.67575439261204373
-0.30453668968973746 -0.045287120491912303 0.76499500277864063
0.16898650909641155 0.49457051235491734 0.66032092811234899
0.33795638747151985 -0.18482406775293003 -0.1845393569691926
0.57945040586399876 0.86162727524667126 -0.42261869500825922
0.47895400061548721 1.0705824655894873 -0.4740454283543924
0.28571692394705206 -0.095659588554594333 0.77281657904987555
0.27267535647884955 0.7228261131606496 -0.099087354254943416
-0.20588857544768938 0.40639436059631406 0.77193371842489888
0.87216405558179311 -0.41309571434795372 0.49825129791922934
-0.14006475492050754 0.35276668606340356 0.801517510067556
-0.00079883230535798821 0.075613122714139003 -0.68883029865973855
-0.26595481955848282 0.66309227390698733 0.70998826953984318
-0.70391763291009413 -0.95193063687027113 -0.40353100676223491
0.67753098281866131 -0.36227883685395762 0.68167095902277752
0.13230408781213748 -0.074067268288195431 0.76577345188336732
-0.88998851046038385 -0.68988249395901957 -0.42728351151756883
0.27653040270402729 0.75466556780650018 -0.29110720797076051
0.3216985614359516 1.1226659136558661 -0.42510057038716359
0.16644993569681177 0.0067701291641010242 0.75757164102838481
0.50665623579359564 1.185730869409453 -0.50352061740944798
0.53134702879116313 1.017728952237972 -0.42178360496272738
0.1390054414316777 1.100765120033109 -0.26120799233796088
0.28414762550745054 0.72481545145760951 -0.23643074027890842
0.28071313550537025 1.2181884219010322 -0.36074322752259724
-0.33424202356450522 0.58156013070171575 0.80075240137412784
0.49550612461824184 -0.13230714262287557 0.30312455254316861
0.26228420800015789 0.63270612191469622 0.53306532289311193
0.15782388102848571 0.64190163323173044 0.62002354609962806
0.75261610676902368 -0.32857288559058434 0.65081691741319336
0.13784804344840523 0.88387894909900977 -0.030505436072253478
-0.5949923532384751 -0.1944926412467225 0.65550313581580766
-0.20320142910724232 0.48114363690896145 0.72724135626714004
-0.20813857351230144 -0.23337705679042564 0.72022235246819566
0.22979757935951367 1.056595030834913 -0.33288097755942636
-0.70596551907914429 -0.57502713115574844 -0.23508511175625768
0.40533673732059933 0.065122907981844724 0.50205862401370438
0.096097948640093342 -0.11916549892571315 0.75798138535237192
-0.88162816806903044 -0.56146015289015683 -0.36202701407828658
0.068593330232219307 0.35584729496461753 0.76170933531598783
0.30611282418658825 0.24246211144512697 0.42349475219666827
-0.41181181132125033 -0.23460921321803574 0.78827143205215233
0.68226259832070513 -0.32878410014504689 0.71463655345106858
-0.39788474227631487 0.39046492756283357 0.8334343805456963
0.74867925281693404 -0.48518415322267439 0.68958659193262617
0.36472002881150573 1.030540750355398 -0.39072679849336611
0.19524214409431284 1.0186322320248284 -0.26836819836022219
0.22500893114607501 1.1660410030866397 -0.32136222629061123
-0.54926333492599821 -0.92937782711296735 -0.28583997827095459
0.91890365568653432 -0.3141827966652459 0.45517211553287606
-0.80040510609153859 -0.42714138491874443 -0.13921783844621383
0.5831984036853074 -0.66814548041640243 0.6546091904134117
-0.32924507031264877 -0.68556319662936738 -0.12931798986822807
-0.37933737070797274 0.26988824324648308 0.6660649077590528
0.25663801928183982 0.20270165117500627 0.62192613298887678
0.82875933103811061 -0.22239151491512688 0.64248284888222362
-0.51064108316086554 -0.23722406932255113 -0.59755659790961368
0.41792588718544366 -0.040759707093487196 0.70245896269050978
-0.36752972682419716 -0.78872159177749879 -0.2819559093178583
-0.11532984381608835 0.31707186985297753 0.79145602518651947
0.38815082241695714 0.8259482780951336 -0.33934656107751648
-0.77716529436611981 0.024910390975063867 0.6928132558832738
0.2169989189336112 0.41265975583168701 0.64688892474025284
-0.50544459992453794 -0.722108081378942 -0.30197798179148605
0.65756717568543721 -0.46760475686033137 0.73404674702404848
0.058133818468600218 0.68681836574463206 0.65633466192282941
-0.2130908966222585 -0.031966096340742434 0.75593392413951066
-0.72810984620500563 0.059875985936567844 0.61559941572609
-0.81321297888601118 -0.17306899925690633 0.205441022888115
0.63212988689407568 -0.43391197874469062 0.71809203172102687
0.46203589038860998 1.0960518622865676 -0.47196269258588647
-0.33847784479352716 -0.73375971751124602 -0.1350842974166811
-0.42392279908003561 0.3927613016681335 0.82802074204707132
0.6553161734315387 -0.36618181967675778 0.72154668468442584
-0.42911662462485756 0.10092132375188889 -0.70121790449564281
-0.69929023205005714 -0.40155421558101878 0.62628283681004859
0.15737568159980975 -0.067084653633121105 0.76866105536283047
0.41119511088865779 0.61351125276922702 -0.31681443422431482
-0.20203065649606589 0.34910694948803633 0.77183128375558863
-0.050460086186143505 0.5586104781391279 0.70755949484591374
-0.16260398904727236 0.72059397604222686 0.67709307296317589
-0.58292560991629239 -0.08268062230613249 0.73829293978052446
0.043657770566987275 0.44454871996146339 0.77945114424821105
-0.50888404013427102 0.59733341305114762 -0.57852127847285728
0.19868316468743241 0.9354326876439556 -0.24026070938077321
-0.38045003182823778 0.2421631757587035 0.64108557921544007
-0.20893647573482033 -0.090273074628906214 0.76107952707659809
0.455121994947284 -0.13885388370312846 0.72659790205113328
0.16078483113723557 -0.045945251699715417 0.76604756725601597
0.010563514778278771 0.32522797313383467 0.80247808081709748
0.16620621314936995 -0.061717301754699694 0.78747775529154307
0.27376845531611876 0.72864373844132635 0.0925955562202605
0.19351023343588236 -0.17955177764586339 0.77857933065288265
0.53562350553272586 0.76540659512683473 -0.30839283562398934
0.2779558578167266 1.034946747302969 -0.36604686285668386
0.65822625749349661 -0.55836512885396394 0.42981705983407664
0.24811543547132858 1.1937409852684338 -0.43238953086691867
0.54717044862246556 -0.52816927388106027 0.7218560288842919
0.36354494747974603 0.21878236177131205 -0.13609523888472408
0.28807101668537471 0.080464839533002541 0.59635686507797103
-0.5469652737114763 -0.32249273677112478 0.66796242644475257
-0.82248487201598386 -0.92457801843648868 -0.47791984715694996
0.73929462034910964 -0.36276280120701498 0.64719978654925281
-0.73816249503756348 -0.35807174988989465 -0.42629709888486667
0.43444275054048576 1.2415302919264084 -0.45921611269153251
0.26727252784161187 -0.042590896203316131 0.79305004424287318
0.38543409643339854 1.0623591343662855 -0.41143106073433094
0.26898133934839469 0.66616175690004442 0.28901391569324009
0.6697552457256587 -0.13800133176070883 0.35916204245237876
0.36736616290832286 0.93961894899257803 -0.37216627392901608
0.81361154683429571 -0.49466755615596286 0.60564939123586758
-0.14144493825199478 0.25884406603681187 0.77456633398432695
-0.7101510853259887 -0.18053231531432679 0.48788559589359154
-0.75143692916180149 -0.39221790670771983 0.60784030645961273
-0.097008520040544416 0.35686610064709057 0.81889385236806966
-0.076501709282731978 0.77590342571052329 0.55232304576512858
0.34085831540859962 1.0692729590910721 -0.39547793041541129
0.10989231769415314 0.90739103744011684 -0.060311140422088072
-0.25987855539744786 -0.58641077787453311 0.18968841181696255
-0.087911150644774505 0.58076227486228982 0.72829637998119034
0.28560517452343465 0.1665371393621824 0.48119795003542859
0.4673526070631322 0.032521204289895467 0.60432340896660586
-0.79742364944255872 -0.71310822292008202 -0.41660687177601108
0.1426452684464648 -0.11503480886532114 0.81030746344957938
-0.143207527524984 0.034058024677300125 0.74819259382394232
0.11400031410375934 -0.12921118565884238 0.80214603060477963
0.093777102456671049 0.39080297635984018 -0.59937808279400517
-0.15079127026536626 -0.022749923238788439 -0.70932345332527202
-0.57931909023470363 -0.63507799211864469 -0.26749334055644974
-0.08875993236086005 0.99627354890890873 -0.20365720312132674
0.36417623819513434 1.1304843690708259 -0.44105215105646056
0.73620658596807242 -0.29051566258154127 0.68905665665626026
-0.079493810031403933 0.20602539601290548 0.75795980656902207
0.31663341950671409 0.43443713609984991 0.32672279139086713
-0.77482319229051388 -0.020462276047843009 0.68088425853816603
0.35917785767910115 0.075283676031743796 0.48061402287671473
-0.55855406747658132 -0.1203356729066154 0.74484858142233512
0.12736123317701248 0.42502375945179027 0.69764576763705644
0.62793252234824926 -0.69357661275435045 0.59858016318112117
-0.13436186980185039 0.27551270005008011 0.76215266086150391
-0.065768787072221224 -0.52781562540292959 -0.10624373220087568
-0.39153968890339269 -0.17229296349448808 0.81251914040358431
-0.72438519453051242 -0.17181890714309689 0.71037073383605331
0.38284358133977558 -0.12657071038178369 -0.074992305530821757
0.25613781923374129 0.81028988659682555 -0.28736851255707341
0.11378966087671244 0.4231161618088819 0.71729778519081222
0.31867000257723699 0.66915976866479188 -0.060688185304319464
-0.85758660602147363 -0.30860858956861392 0.056645866497966879
0.75860608279318031 -0.19042573720353428 0.36098748912453799
-0.2292847675472508 -0.11425084591596146 0.76350597971375767
0.79262387815874091 -0.33614724800446594 0.69408846117228251
0.74982095677234728 -0.32001588821114946 0.65485366523070776
-0.73098638800451654 -0.77275877875519838 -0.39026225800782327
-0.40051463086270622 0.44975839226217529 0.64268957918586711
-0.052502057486698506 0.57655292009621206 0.68660131614868569
-0.14467278419067692 -0.0095779071034052254 0.74595152405031473
0.26224575343136797 0.78701623596526216 -0.28861790213407712
0.38108579481554672 0.73072158334995241 -0.30537847631311893
-0.50869640247232717 -0.70609486174229863 -0.30249712189210981
-0.20612665185118603 -0.21066726716785733 0.74335854933586509
0.18626469862029482 0.15434836513386418 0.71711060951740924
0.10699419567181372 -0.0911928066191523 0.76433334689286758
0.11306210585688459 0.50191080724685788 0.67955123767875758
-0.82774675189051783 -0.67876205595989991 -0.4177404341673851
0.85394265070219844 -0.38097988736151267 0.63094848619707489
-0.78971690772240133 0.0021641321523055979 0.31733213261936177
-0.36355380273296645 0.49397434906755944 0.82170584968977955
0.40709416654309905 0.68765967056854416 -0.21745228455866811
0.30174757622941517 0.68187159360119864 -0.11120947292205419
0.48122961243706436 -0.61971116025924522 0.44922186423925536
0.12552895829810845 0.91580150258389481 -0.31892320385054485
0.39851864549010424 0.0099215780462258429 -0.062562806679945793
-0.51531737609801487 -0.034097183334878656 0.69975121242063909
0.16477273150836935 0.88099614392046921 -0.16912605464645458
-0.35655616136171453 0.22356730392290158 0.79327495800545189
-0.65259277141445737 -0.95676820289994247 -0.35817801749990108
0.19828282902626293 -0.37998925761985181 0.37011547994119626
-0.1719502477805496 0.31032399039057079 0.76225883987116594
0.13057005297271204 -0.17822929379090069 0.7572410598911683
-0.61672224414659371 -0.7119888859719139 -0.33349712549487082
-0.73026479840315228 -0.81884004984661152 -0.40321138960547698
0.13944984142205574 0.55175950368208082 0.66066318801990087
0.14864496562765989 -0.067935124293965199 0.75860999070724033
0.10689902822288683 -0.25611342433530493 0.65206382413078257
0.11538986944153488 -0.32000685805964557 0.51498431697194802
-0.18444900984888568 -0.1208733512079021 0.75437630508407127
-0.49915600255282705 -0.063990989794928899 0.75382332259150631
0.80294899252427554 -0.2745794097518236 0.67730428465554271
-0.17818290740110967 0.47351189672295102 0.76513007957852397
-0.9134814107736009 -0.5785612779425684 -0.39148333614257436
0.22287266682034981 -0.15434002597910168 0.78591258856927193
-0.68375267570338971 -0.57640786644071129 -0.22767529529540353
-0.46764830650230299 -0.63093238778101335 -0.1526049172791164
0.055168739841171155 0.45080863965743856 0.77194958563445693
-0.41284564763775494 -0.3341643340054552 0.69447498848619071
-0.62251270857236896 -0.93275244139964331 -0.36672194359328142
0.0030487432518141455 -0.49403501055900478 -0.20947281967528475
0.20541232872238552 0.6499578104904653 0.58322957359227856
0.44414657705317806 -0.44120396273141038 0.72293628442039981
-1.0063523458297143 -0.84130509903776174 -0.51333005393591202
-0.054533394592234385 0.26596645539632724 0.76348805607408265
0.30820819009842765 0.48629159912468012 0.37252709264441342
-0.42803827790691384 -0.61499550471452302 -0.38166288558460665
-0.58231055642780571 -0.65054373108913111 -0.30310867482937981
-0.59878323273746881 -0.59174998204563334 -0.1728390247488007
0.35097620468428842 -0.35878941845126788 0.29405109367441384
-0.66600632791431913 -0.34130324415028146 0.65798305037289362
-0.33005718631112269 0.25501275645249954 0.81879392514091676
0.35810558264180598 1.161182275724699 -0.43412870073927012
0.077132758667195933 0.56387696452477853 0.67029413905807833
-0.38506515146036491 -0.28692322372507717 0.7493913149890199
-0.27640428870460942 -0.0083136525086568991 0.76740575606003547
-0.3202628516434074 0.22538469687890994 0.81410431903545111
-0.63891262015767558 -0.4807282640835433 0.57436521307056554
-0.3656835186057823 -0.011146055032473345 0.73626406733423067
-0.57387291390904238 -0.015214634266228266 0.75767254727769906
-0.54513865659356076 -0.040904947657846025 0.75127017602955792
-0.38701129879602947 -0.26512501703226432 0.7773932073737454
-0.54308226187344855 0.82838767010939041 -0.2735120108841797
0.048202712219926863 0.097137684726768869 0.74908339638447652
0.18090945139335765 -0.32880786735401091 0.64022176371150952
-0.7360542127304438 -0.73610065996186225 -0.38529456405583717
-0.10828998799691988 0.39775562541976139 0.81788620797136269
-0.3885769217220606 0.27948377642117217 0.62305649121042539
0.24638145897869002 1.202262789383417 -0.34028252000881604
0.72987248448448061 -0.43235280978126001 0.67660612641050255
0.56378924924549123 -0.071819535720392902 0.67789128519163355
-0.10211276227029337 0.29444534330338135 0.7798032793165115
-0.10763607447227866 0.061001918151702306 -0.71804821926562135
0.62920698749292159 -0.58332188950714925 0.43411383463544406
0.52721577008628295 -0.12175033199034668 0.32752072215379774
-0.18289038726344514 -0.29127660009995715 0.64651132164665648
0.46322688117372246 0.88686570319216773 -0.40683399140543075
0.84424378099217812 -0.24110389616998978 0.63832355362053461
-0.43866640056585748 0.013548337312796477 0.77341286972652434
0.22347534046201822 0.62121288336322689 -0.43077443977050939
0.40110584064246135 0.56226018811171508 -0.28008751101797935
-0.095268079201892952 0.22210903603086418 0.76465074436491332
0.80094618577534371 -0.21637794387885678 0.36522444587658059
-0.75964642124899295 -0.40774922171300032 -0.34673820442647985
0.27297785601293556 0.47959771822426278 -0.38868231767613581
0.89356174574367375 -0.33250283744897136 0.5956276465710828
-0.22997149767413344 0.35641362564250523 0.78294899686181818
-0.49014543839654745 -0.66871955548379258 -0.27395611293721917
-0.43964588693484147 -0.016107814524586317 0.7311284829147412
0.14219315393758591 0.32029730737518669 0.67420868338693718
0.48230194733125742 1.2071981892390049 -0.49395858155617539
-0.76982280220541333 -0.59898942065724614 -0.42827461242159942
-0.23769356046663143 -0.37033650620100111 0.60293584026743396
0.35057737776847486 -0.085880837750849426 0.72860582631062942
0.16218922109631428 -0.027369018566791969 0.78069972414967759
-0.596613240793472 -0.91059941310083858 -0.37235826411829637
0.32946675450842516 1.0320395838869847 -0.37771853878604428
0.75040779447951977 -0.50247582079501085 0.67885680344820565
0.15960343259314086 0.46717747478409877 0.64589368067761233
0.83247035581911955 -0.48092821097172483 0.52317322469764316
-0.10863092485963272 0.74277667821502757 0.68626938048467356
0.39049991727024136 -0.43082442358489015 0.3670077718948242
0.09353840822268783 -0.3123497537752743 0.49858411630812527
0.19606696610460944 -0.18241722026274387 0.76986685156650014
0.23742058076148084 -0.38465866457989861 0.28068837001988806
0.05134129668976295 0.59154811622288506 0.67523236054189351
0.011787903722506765 0.94330924861291998 0.020115060102392557
0.30318084890684305 0.58662951615132242 0.4869183799837884
-0.34151853395008236 -0.096565730776441594 0.81265260437709219
-0.15097632438441561 -0.16424257785998964 0.66739868805989433
-0.20707992706374417 -0.49508303430103417 0.41666839909629505
-0.45608945010023466 -0.79959265938378721 -0.24650457779694096
-0.19541146367367174 0.65427629437674506 0.75869085124020796
-0.21816006887182091 0.40708002857858339 0.77715900296169838
-0.75484903749072541 -0.23486573905331487 0.56174766867947568
0.55767522809706049 0.88080626052125766 -0.47274756936277795
0.23954018205419325 0.0045752075077442056 0.79836940668536915
0.27490220291104644 -0.34498715687449288 0.70200362961630625
0.10900369089761436 -0.14498786491167814 0.7956614496306329
0.22859365627302064 0.91726684403481995 -0.37521617027085075
-0.065922335394989789 0.12430400902253913 0.74501604262918852
0.52047667077656778 -0.30921372305916395 0.74061613128607717
0.27058946248672133 0.97826799177595081 -0.34185057232818272
0.43347887582607758 -0.55420148233377686 0.6639734279332794
0.011999836407409703 0.65501080129275535 0.67427247736138041
0.2467148113674712 0.77028907478557374 -0.025505563786032914
0.22482590625919197 1.207448135117422 -0.40107726708956587
0.17859099046945462 -0.3746715775545002 0.36282662522987275
0.09500235520966982 -0.12087689307722993 0.78349048675044364
0.32867293759544219 0.65538626859548366 -0.031370766857468646
-0.21080117336898033 -0.32735935272618688 0.63767440659347541
-0.011887160827407872 0.32965232808478162 0.80978620825091907
-0.54133226001907297 -0.1616824824048031 0.72604638572591962
0.49290741313711078 -0.26287374994561508 0.30788443578973967
0.49325295737933261 -0.66492467936096689 0.51798938138451645
-0.47295849716296307 -0.21028092791084063 0.77936573989063707
-0.56729440554190136 0.50607884569514527 -0.59356880891489927
-0.98938524587120402 -0.83104895698273085 -0.48201258738290115
-0.56729004956281137 -0.041286128920181575 0.64626868091127121
0.058584090474167003 -0.2941676067889456 0.51578521846450509
0.51326588855289412 -0.043696181985985461 0.35532241838804779
-0.63477617935326558 0.0075304969376404074 0.77589290985623371
0.36504440816331091 0.95977901903659846 -0.37692711767624965
-0.96964024473200494 -0.62914151219241465 -0.43328579510066562
0.66865667814907592 -0.45190972309735594 0.68358655730550577
0.37691012358221326 0.72571908717747502 -0.29265414203571544
-0.20084766696570769 -0.33768793490618099 0.61261503241587323
-0.44752155158095513 0.1778191610116 0.61153743909085267
0.26891986472925788 0.76761489737302813 -0.28977766585461556
0.32816648052249242 -0.14528930914868254 0.73597019368536731
0.39083221007975766 0.89167324174591245 -0.36621675343059923
0.37660730821987742 0.67347553783819414 -0.22774957352738018
0.41219513414646902 0.72498905605323583 -0.28426052925100831
0.76112856985228905 -0.38476177578884996 0.66715309189326388
0.14947841890058555 1.0447712959525326 -0.34833543829327562
0.040250960956853099 0.90874939159720025 0.10210022018180609
0.47620701457653891 -0.53902700220960365 0.40379182161709681
-0.13424841644090979 1.0040461176125584 -0.20415186902078875
0.75824676627245491 -0.29087691044282216 0.70410903976771866
-0.76178181333353212 -0.32858091346689244 0.52922137178684636
-0.62521125461378046 -0.19808035990383699 0.60450375833596204
-0.66675792751693297 -0.27304461655605516 0.68606359697286601
0.20950824798299417 0.033600733993531473 0.73956977347526431
-0.49302758604111979 -0.537177380877915 0.54130411269220424
0.31543185979832639 0.08243751848630354 0.52351787993006571
-0.36094234085849908 0.18000787180912381 0.78800391712695461
-0.41626988391890923 0.16565348893634813 0.74469501705225216
0.77403368943561024 -0.38466422229878511 0.69306430370405991
0.13742196172258114 -0.32652173480272317 0.57057806802811217
0.83769845019554512 -0.47658181166230457 0.55035053747392448
0.48937731697924192 0.82590736845364787 -0.32967681416053374
-0.38825882968262532 -0.50149248370160948 0.58961852052894692
0.3739051928874717 0.0014345689550688823 0.68831949126267511
-0.8206864578331704 -0.92264440507516032 -0.4815348825844557
0.6505619027677042 -0.091450114569243013 0.37628450921116952
0.34671949704682192 0.6433663128091256 -0.18518590976352922
-0.72539445939059877 -0.26140427160825097 0.35835790977457066
-0.11292413320668412 -0.27753505389172717 -0.61220066149520935
-0.72109260008086595 -0.51801949170722206 -0.32860610855488825
-0.24067131802139952 0.74966401293449714 0.35041951009558125
0.27446599919295095 1.0994926316273328 -0.39322836980314002
-0.6491437448301336 -0.055653415843120113 0.53747242714460963
-0.64744922589738219 -0.9758014537012567 -0.34883035203033863
0.36416278027353 1.1577139488506809 -0.44450008378482037
-0.68802161299114872 -0.12071071307318282 0.51334405343901968
0.47811448801762879 1.1600272093488817 -0.42184307761336637
-0.12354177206935008 -0.029489721236281241 0.74509120317469091
-0.59829371781935992 -0.23042492902680833 0.69708166652870052
-0.19024867952430052 0.31661953726412051 0.7744103528495434
0.036186337319062178 0.83627343039555257 0.59970365102574019
0.43648585461587164 -0.11205857130096109 0.21134225250296368
0.53901554280164021 -0.477272018834621 0.73393152545657614
-0.46266718106625532 0.54967548409025202 0.70585515695742473
0.62737535389118526 -0.37600345931461393 0.74073526248461241
0.11761058778430704 -0.11109372229571046 0.80204494450928543
0.25523559517222216 0.023723931704894063 0.73441576183483814
-0.44312503263038805 -0.088788581781010123 0.80077676875699644
-0.48690598785724726 -0.55205269514702815 -0.42343214749357672
-0.62424169825951259 -0.65892942537852317 -0.3170484218433029
-0.24759485739503195 0.44167593500060431 0.77320236240643014
0.13861318042368861 -0.15771822818804082 0.80668333198092101
-0.20014182951379048 -0.38386362122888784 0.65587953866816473
-0.38426705385523052 0.90335834304948381 -0.33315914494221038
0.45538878023760321 0.82080083728797326 -0.35593810270347193
-0.64559208043777827 -0.85781486599747581 -0.45545531346676132
0.34319881497388494 0.2919654765433064 -0.21160710971939178
0.71668633687485594 -0.49482837542830821 0.7072512153838898
0.15583804711809685 1.1340206473554648 -0.28219307588664666
0.11157142169804182 0.73432928218349391 -0.463345351084686
0.20693857338850619 0.042282124703708845 0.74100181727230841
-0.18459832906332926 0.5692223584419569 0.75625986683987523
0.24247037885040079 1.2346897010007016 -0.36796551084326851
0.48331969504733885 -0.64395723801037263 0.48047196061332109
0.22297535546397057 0.26484643811701125 0.66562862526849553
-0.52607059230704545 0.08765167938079732 0.80909206955744262
-0.5206471480951127 -0.34585984368809042 -0.54502972043067266
0.39091146267696014 0.67746520170738667 -0.22181047394344078
-0.28107660959007874 -0.16600762720102225 0.8001334384766905
0.25787229205923806 0.77933231952941062 -0.2625010781491644
0.18512363212781521 -0.03306103538213756 0.80131011187859047
0.036182963392822454 0.40919532136305004 0.79182869585405624
0.64452903789686544 -0.44226140157480393 0.72632293879768128
-0.41509233734840717 0.014909621751963309 0.77441695877247696
-0.03398590473902352 0.96951957252594467 -0.26609090636766941
0.34968196628278753 -0.38427761233747215 0.32469079489196995
0.23131356020226335 0.93613630632712752 -0.29754700673643991
-0.42018463332863598 0.33065929215029111 0.70305671814315573
0.063214628038831266 0.3587149243084653 0.77119309816104309
0.14423519725371298 0.46113627309069338 0.67025650060315001
-0.70100219506680228 -0.96219977425873227 -0.38402518493959031
-0.45738181517131493 0.23318614365851942 0.59373790890429856
-0.76135669987029608 -0.23237562647600596 0.59141900794082214
0.31124819126955577 0.42535579098488219 0.53858507663678934
0.30373166453251399 0.26420567664969596 0.48862476159578994
-0.72571145725287634 -0.45719392776215262 0.41669728085902785
0.17721952741082375 -0.06510300204982955 0.80251789485606584
0.21314208096968812 0.99483780109044018 -0.28942381240826498
0.288179301651519 0.1134210281263488 0.4931340850749184
0.10298822574342864 0.82705037746457677 0.26696380045808865
-0.22541921180372768 0.40734964868596379 0.7789159722278447
0.3958289194873657 0.69315561492349453 -0.24242713440001623
0.15786360427281287 -0.063912657759828795 0.75552277906073972
0.89260197386094953 -0.27721568134495883 0.40097070501098298
-0.92154685650564816 -0.74085986359310074 -0.46357984788615697
-0.54333995365880738 -0.24889721516498042 0.690763350849803
0.22840328088772194 1.0886743634002283 -0.42225446588484056
-0.24245966333315505 -0.63797483824604395 -0.21309661690428738
-0.9474845599585634 -0.59946718235463048 -0.44965266380679841
0.0018960232147344769 0.60350062050595366 0.6864922129850084
-0.079411259671104739 0.87919812027294442 0.23699658163528048
-0.63351390504240401 -0.59714853263007139 -0.22847438980837886
0.53137383056713339 -0.11756138364531343 0.70807811301357759
-0.23742597559958512 -0.37576775259150241 -0.56324682383686664
-0.30461324674129975 -0.21656531091930709 0.79949099032616022
0.39660972260786398 0.79239120637278937 -0.33022550579998605
-0.29467529273112447 0.52010068592345671 0.79729884046143429
-0.65403243396066868 -0.75309801835769896 -0.3557390177199326
0.27178857106469129 -0.088458090768469555 0.78526990422751042
-0.39460945987689072 0.59092307995235682 0.66739845639606976
0.49968511254997128 0.86509526666449577 -0.37633261093403914
-0.73046249843311362 -0.37996121755748691 0.36634492458786966
-0.12255442277089998 0.42363909004721712 0.81291064942125968
0.64061126948765867 -0.68792691320757293 0.54190820195277767
-0.48655438281510205 0.14623966115001963 0.68737971633423034
0.57927442115827354 -0.34963564151464177 0.74179535723282863
0.65802748616681872 -0.23817100621296372 0.71902091109546251
-0.26257767304561941 -0.25991189003043358 0.73292362609017192
-0.7752118339979821 -0.40247841827174802 0.53242631535400597
0.12737791294814688 0.47808318733997768 0.68708769681661908
-0.0020688415126422499 0.49782133034489606 0.76917805014066087
0.13722737240250771 0.39997970096970736 0.70664647580714135
-0.23927094477315658 0.30128992620435446 0.70697510044034406
-0.17966925612943396 0.7110228619995409 0.43417831970674531
0.11991192963748371 0.59473853041962355 0.56261328406662658
-0.48309064903518467 0.44693684807066059 0.71353752396219394
-0.36608510004456829 -0.65447644728017917 0.028306143196760836
0.15068261384560597 -0.088444669554183952 0.80512082131018892
-0.96370704722631884 -0.71225304672571799 -0.45093045610645827
0.65544012542643748 -0.44799573851016999 0.67264607329590065
0.49012555675222691 0.66229670542143471 -0.31325331015722657
0.3185068327106737 1.2233376455027791 -0.377274252775264
0.40517408658654214 -0.25743540133166731 0.24225210819515033
0.38566216721005464 1.03400015137349 -0.40313777079091684
-0.62264188733839299 0.35581825351456486 0.4325739407359635
0.5632428571564343 -0.24606326333015238 0.73055230943344995
-0.4876029542028264 -0.56797849084925689 0.48494061626455137
0.37275774029641962 -0.1908983434695346 0.73782618484645279
-0.32593382003079613 0.79256349601106324 -0.49307364317458263
-0.27769165231179349 -0.28133082235192974 0.72600596072528734
-0.67599676521822283 -0.92900238573835736 -0.42272664674212895
0.91963633575338022 -0.2088444004667363 0.45178693450059226
0.36463660572041501 1.2447050328795632 -0.40091519523415037
0.54893231106577667 1.01984835398375 -0.51718202719062045
0.6314643882184845 -0.68466771620397626 0.51318061310849761
-0.18577683036487744 0.32020871098137516 0.76932991489321512
-0.65647447643354762 -0.59324006738313617 -0.23336937491055171
-0.9442258396249128 -0.64441570370776713 -0.4108297198936387
0.45423255106726823 1.2090775138552479 -0.51072362531906323
0.47748345570315553 -0.41383471032773511 0.35354077510616067
-0.67259825832619724 0.071992888634241359 0.79626685240775208
-0.2010920209762124 0.48464115329667101 0.7671343606652492
-0.089035059143848183 0.2617694111864366 0.74942228286336576
0.41648319254991706 0.93046042590639932 -0.39750678708710957
0.25029069928554237 0.83447598941609624 -0.28599226475120304
-0.58085176623129098 -0.64033599001347108 -0.28091748393389027
0.30576548967845463 -0.025182481236026955 0.73714052897421034
-0.50839623990906369 -0.67562150816390898 -0.30231757145123012
0.62934422363151377 -0.39855959423162712 0.71778963252255812
-0.47875536130463381 -0.1096784962493349 0.78662098298298122
-0.41478174162977932 -0.35311759305032009 0.67192570953997954
-0.71299065186338306 -0.94703432551505351 -0.44056750945671541
-0.37864501761377795 0.25185956877675775 0.77717897294414851
0.60418250863560918 -0.41310029943362175 0.74427985856913548
0.73361416420886516 -0.59632896440747929 0.59794029225061518
0.29426838129968713 0.51246114743483551 -0.36838255429447503
-0.31392087639264526 0.19503342396659451 0.81015508876569142
-0.59867416310627397 0.075499319973951762 0.80303865580946288
-0.3009416465676929 -0.24648754984593002 0.768151301557505
0.82164671787862986 -0.19492598546958412 0.37404834507378049
-0.58895673847853725 -0.30881103731559678 0.6688496873271832
0.26764824307603713 1.0758111744246344 -0.38333688084460849
0.60231005754988887 -0.67018583307210555 0.65169111699202553
0.26081281431117403 0.81221299879314945 -0.29796913969305422
0.19140182962410918 -0.17538901687641384 0.78622517411140347
0.669185828880283 -0.51231411573083818 0.72072475139956504
0.045808716575911845 0.31232599273390704 0.76033829762724303
0.13422258345533389 -0.16482999196844561 0.80085997456372149
0.87643469317362444 -0.18198276724373652 0.4193282494920198
0.045918968529136628 -0.28216067638241804 0.58515359279324564
0.71968201448245839 -0.42363708499363872 0.38378654715366356
-0.40916261033386214 0.42418608177033046 0.83437660690923487
0.14012749444098693 0.77753150574672969 0.57090650705808621
0.33698167516559002 0.90210369142401814 -0.34767444532038289
-0.29391263666193934 -0.057301306264428087 0.75787851947941087
0.34445008855995379 0.50817929359159142 -0.30085609501321614
-0.38171115456274501 -0.52134892348653739 0.56607590606849423
-0.39755467634358876 -0.80159916308721546 -0.15574048985370348
-0.39519412360826001 0.19660917373646236 0.63789045495202557
0.47103541966045437 0.80106814428361595 -0.31090361055377008
-0.26508171036285805 0.66707652712957577 0.68092426393028804
0.11461892629549389 -0.16386426980308444 0.773393518925797
-0.3479031401484286 0.11243396933686789 0.80437162009387275
-0.37529179896429532 -0.23104568957427118 0.79576439634754426
-0.18649881925701342 -0.17787358769126871 0.74534315022825859
0.014919657904552519 -0.43551214555475926 -0.39348719010833783
-0.10606665043782232 0.99561462599752892 -0.087795591607501
-0.75738053918766368 -0.62045210157585373 -0.29984487991088521
0.78661029144160199 -0.25788031968122049 0.68117521325383223
0.86534410366615888 -0.38477459393474395 0.61300445170934292
-0.65093811633249288 -0.54213279441618933 -0.38412868401786726
-0.76366718210367224 -0.81323473169852445 -0.50117559412940571
-0.60456100615791408 0.76095718692536396 -0.29568367885568836
0.15252177836053421 0.80799373172999656 0.49482010858773467
-0.39396140823832948 0.37446809735790731 0.64996674471371441
0.50994089354794969 0.90044321704404195 -0.40322916080459786
-0.48323656831973588 -0.57009493773726327 0.39825203647252544
-0.093099459258872835 0.4652935226994741 0.80088353492129949
-0.82643110030327105 -0.98344920836560279 -0.43149447818109671
-0.44192301922317356 -0.41469802196841066 0.6492376143619486
-0.3438037279818984 0.28580758961185748 0.82359937669739103
-0.20464799610602263 -0.13254513527189693 0.73358682389752095
0.20094602266886125 0.77327943866515281 0.24662194335600107
0.79450673746389155 -0.29802562364155988 0.68902024103306003
0.19092739677887993 1.1491340261628045 -0.29413944534288139
-0.11797990142480319 0.6370538675813473 0.73805910946186215
0.84732004716608234 -0.414377001756152 0.62253886655949553
0.73645682137070267 -0.30641236756402823 0.65404548119823003
0.089922665950829095 0.84376327590196376 0.22080328755401291
0.082908946164266473 -0.47000205761492841 -0.1311615013374009
-0.30336553594744908 -0.75874469137668044 -0.15998312161456385
-0.29087087501016634 0.30750298643433061 0.8011978376365122
-0.22662934415598646 0.45471394697415013 0.770824054979528
-0.25073149175606047 0.98836479828203072 -0.091921842899269468
-0.60923939713235897 -0.39005559848096727 0.63529064073460606
-0.68777925757324621 -0.27451439135877931 0.68975601220071114
0.059966132866486055 0.47803137873290946 0.74205776559379499
-0.81991013309653482 -0.70664612385455827 -0.4336113615969942
-0.44632233641647068 -0.2590221432748987 0.76470368434043645
-0.23901054190738813 0.34279525898191698 0.72580734743024178
-0.75652129646561084 -0.97744269927613647 -0.40019039918111665
-0.046547828838438721 0.43788134347980878 0.80610603656541158
0.80937843376165564 -0.13051760279045044 0.42295477502549927
-0.48487661626571277 -0.37051225322591286 0.66894884499033402
0.65368117422084882 -0.019658520580339789 0.55843364090627923
-0.73117477984682089 -0.32199116761736013 0.42515806795712513
0.22582060720279004 -0.060076248694744372 0.80552556857548085
0.061089913494603798 0.3809228855833704 0.78504577961202471
-0.085854429733941584 -0.52798585766478046 -0.18904793737504111
-0.36722060589213257 -0.66238580649678003 -0.060521078988200916
-0.39480202012341531 -0.022254495856892653 0.76700072119954388
-0.74842795728174705 -0.32348588001504308 0.63849620900141402
0.8251776130248567 -0.44215828566476034 0.45487707873020211
0.33060183337079185 0.41146215981700873 -0.26595956386099479
-0.70074278927617961 -0.69304650704353965 -0.35743406435368996
-0.27643044869773103 0.42110906254475289 0.67895496758243057
-0.62499777666977097 -0.23157016608202952 0.69027753641135914
0.55153784481924373 0.022247344517269618 0.56538950553481349
0.1809465576126873 0.68338860948435387 0.58694778168266226
0.32029361957825503 1.1092674562306066 -0.4162112373258503
0.44377209443710891 0.051761098425813667 0.46180330264689257
0.61563081023284671 -0.42369425180143566 0.74202559126147682
0.53433924815111533 -0.20288806141735072 0.72765747870444553
-0.72420456511874098 -0.51110974586794478 -0.17437495621233429
-0.62602095730079432 -0.64339760704180127 -0.29694717134369697
-0.098222412193773881 -0.44033218434484223 0.39279411895497307
-0.89423739522011925 -0.098710952519292405 0.085742073842199229
-0.5551715614743955 -0.05541167151166082 0.7469273050887042
0.084168478762316812 0.54296050429989573 0.66955356631544394
0.62539174086795812 -0.6327632163640321 0.46008445101569306
-0.11857846874769401 0.86914622581330181 0.24270461328115028
-0.9147281733565491 -0.66664174691126843 -0.41070102796823649
0.27455018851888036 0.66690753105885059 -0.386562680734643
0.29189162943140951 0.14353580633964391 0.46762310665426365
-0.5146459880279961 -0.31166734393586637 0.66384597698913717
-0.43071516793144771 -0.3889814131721665 0.66813054262274052
0.38278949597788553 0.71646738593874582 -0.29215696732663216
0.4585098426703213 -0.0093585674234475391 0.3480392571992757
0.29377717527250186 1.1206023709067856 -0.41037009858107093
0.095800373515004839 -0.15368296707893081 0.75322469589669239
0.30940720376554742 -0.13566836493463685 0.73835515455890832
0.77826171818040424 -0.35650200187760006 0.69345746202095637
-0.10715090325356158 -0.052817489923359107 0.74857605337824151
-0.36532068505988496 0.4641708704741343 0.54457762470689164
-0.89971601336688933 -0.84050187925798214 -0.48129358532971056
-0.29344296635423417 -0.44312394227151053 0.63225082264946386
-0.68361897706359454 -0.84657061066493688 -0.39689790292939109
0.010116842307966556 0.64153366889446672 0.67848327317036028
0.19911243871063583 -0.34703565647598789 0.64287924123052864
-0.27036350515728619 -0.16691203450560854 0.78469025968976469
0.66172305362629724 -0.64258249991580518 0.64585987360298414
-0.74574509654676657 -0.39118098914340504 -0.3903741521179388
-0.33940165544898221 0.22264177325410794 0.80737293589121462
-0.45952091021837521 -0.81635543496264584 -0.22168243824849332
0.27174893728114902 -0.27240280411859163 0.72779558441884595
-0.83594097318972405 -0.72909991415576236 -0.44897784213734904
0.16999440645048097 0.13207702781635788 -0.58275097964931366
0.68602901881990297 -0.53301622069888666 0.42496583835208968
0.068405723719527523 0.59059710663128262 0.6188123853237506
0.6240981969770919 -0.42323743628508892 0.71976159714103183
-0.20249557478732097 0.30741137181132738 0.78101311763963466
-0.46661833477559156 -0.25169812287798998 0.75811048253571067
0.066867303801099287 0.37968771001706192 0.77960616664824811
-0.37759660997420308 -0.35408365580754331 0.67778139680489202
-0.7527349961342279 -0.43145560538994587 0.46161902932378662
0.15818757807672684 0.79910576060909211 0.27716543561162382
-0.1137795211005804 -0.42285824423131091 -0.49571262081948897
-0.23304171390402573 0.49710435345562898 0.68728587364859661
0.39540420036691404 -0.25487111902444892 0.21422933001233013
-0.79032632463916586 -0.44920078216609816 -0.041261155455189491
-0.33971080517225516 0.018764166245196945 0.77345236848475152
0.4580338082005655 -0.56266840125309314 0.41966968882191419
0.0017390741933626108 0.95996470360872377 -0.17993213183519163
0.25605912780356449 0.44057919940806856 -0.41095402060199498
0.357514200049589 1.1120033815656951 -0.42687329008094033
0.7278145219917268 -0.30438619899168756 0.65640141587108469
0.67091873742333286 -0.59481590781986404 0.68152962328535671
0.37055025542076969 0.53709407056686231 -0.12514899334838919
0.21112843763186723 -0.1727942735430763 0.77519403099610362
0.34036617166242339 0.22633065891612647 0.2733678273183634
-0.33255324454830776 0.87226808701660796 -0.40690298601038327
0.033594258097064178 0.38939927528418095 0.79645342108398376
-0.71262450687487267 0.67103233006208041 -0.12330133951603378
0.083124679975635329 0.56930709046542161 0.67161436273895558
-0.55134842472565238 -0.28760454076831476 0.66905374427315323
-0.77545942006146984 0.35108793013679085 0.28377792744167835
0.027221891453471425 0.62890459880936966 0.67814246294357872
0.30333730022212724 0.11241211628187397 0.46779621632462542
0.23399790414863986 0.027277308865279348 0.74215332528937394
0.41969131790483805 1.144478164655065 -0.46056489610329754
-0.82065628978762628 -0.64000505842858058 -0.35610756067187055
0.4482943287444916 -0.17731577862648429 0.25644373504440648
0.8409929288843162 -0.19497847528077483 0.62060658431802129
0.58179215486404667 -0.24323469993684399 0.33363103209147554
-0.55379810506562543 -0.38309454635100937 0.64628283723721625
-0.92194566534214761 -0.70051290830881152 -0.53846994896932454
0.56582422627430284 -0.45252400280008764 0.74035483557677206
-0.56224544735791571 -0.36127193534675306 0.65429380708898133
-0.57198971271937415 -0.5513034264188108 -0.40543701672855231
0.68504073599443882 -0.45192649559446124 0.68984145579587142
-0.64479234033316457 -0.33461613044814875 0.6555381150333931
-0.89388032397709638 -0.84957977939177631 -0.49893533933668377
0.63309008521105237 -0.37767747349392033 0.73786066692821239
-0.37462941241736236 -0.66267116257781944 -0.11672842643812797
-0.14090946306213398 0.74338720681820658 0.40921905145365628
-0.50762397142962423 0.40805357961609001 0.48996386876160353
0.31074529265152773 1.1411576990463539 -0.41803256836109498
0.47105645191705708 0.045081817372339295 0.56873770536478307
-0.33112274503836148 -0.083438156639793926 0.78874209919637939
0.11431620145868482 0.48282556923107678 0.69002518066888496
-0.10608735233949901 0.41698234839786008 0.81512911061690918
0.30946817312852176 1.0162734004001606 -0.36807341887094708
-0.18712577864253302 0.47836348903378134 0.76949582790923454
-0.33219967779679987 -0.67371415136716051 -0.1097899472305961
0.52798538168746112 -0.49421116048278402 0.38365969689879059
-0.13235885966830047 -0.28620897180632321 0.70543930168710534
0.70361117054291766 -0.33417567659579744 0.66474819877280855
0.038590627733421826 -0.32581239197823408 0.47981145179869655
-0.37548074992020741 -0.38866335549565667 0.62877099233839173
-0.61099358813712679 -0.93786597582217834 -0.33969102460747347
0.3014810906135853 -0.076081818557017789 -0.36529425193427639
-0.81459324149617185 -0.73750074044162428 -0.43092565763603435
0.7485854473577862 -0.37471861967386005 0.64987567034633797
-0.16770573544808387 0.36504715526966502 0.78351192860769503
-0.033541769601345528 0.36592221843056083 -0.66749069340142286
0.14468315292588313 0.36999435025696048 0.70609276513962471
0.13263770786715595 -0.23533409425498197 0.70444201361543923
-0.36792573173170573 -0.84819372225579692 -0.22332318206257629
0.12047143094560187 -0.13470981049212205 0.80526423940051006
-0.53236177374404836 -0.11136233685944519 0.741467963029387
-0.60270773315621251 -0.34069049370701476 0.65170474934118183
0.36985424220243768 0.71857676893855849 -0.27698608169801764
-0.023681906903478434 -0.35101502629984449 0.52523378162677625
-0.75758097530224155 -0.48269670854982105 -0.11190210559912384
-0.72251011542820365 -0.53356548692392147 -0.23164842813141168
-0.4139850862807275 -0.028427438126694238 0.76165045818209054
-0.074696492952478655 0.25244162296028327 0.75458344738431338
0.29099073723854074 0.83892608965968107 -0.32015822245285602
0.037899136342277429 0.82486927729793158 0.62273277061596444
-0.45308502507045523 -0.43109883605421162 0.63849999880606778
-0.64662182670083201 -0.98743442620623112 -0.35142675507106402
-0.62351637453575959 -0.056453780765112205 0.75027302310798516
-0.0042387533796082733 0.49157827381052044 0.77508915424163916
0.4181799834969257 -0.59712455697515199 0.55570562301551507
0.2698601144598049 0.015426024041110042 0.75053317107048967
-0.56380267407080609 -0.24889435980342878 0.69208970011213033
