# XYZ point cloud file
-0.36554480992810556 -0.011876451116171971 0.73622583196477764
-0.57356228302822543 -0.016025384413725696 0.75774955093469742
-0.54481063133447405 -0.041701792759542666 0.751303479572484
-0.38643871159735593 -0.26595576085835915 0.77703756416431236
-0.54378120952848152 0.82802553102693288 -0.27300796307055192
0.047856240263886213 0.096564575168723854 0.74917948846156335
0.18116097517222637 -0.32917904510724583 0.63984447104007669
-0.73598595603654926 -0.73595199340812867 -0.38508481255673044
-0.10909173282500109 0.39691715772999037 0.81826800529088795
-0.38887481653961736 0.27883429319462105 0.6233882984840492
0.24563258842670438 1.2023939972883437 -0.34006315090882133
0.729845086063027 -0.43237787577969355 0.6766536426408879
0.56348821472400856 -0.071890027801645884 0.67817522392833451
-0.10270672006037992 0.29370292878208182 0.78007834171067536
-0.10775999803636833 0.062091318562628617 -0.7183841830168437
0.6296050467597305 -0.58305342792941717 0.43378451091581466
0.52738028979049401 -0.12120899359851589 0.32755629777459933
-0.1824374347633439 -0.29184038015565816 0.64614128441202501
0.46307730359872723 0.88780129122425488 -0.40708903522975393
0.84408471755431025 -0.2408555353941455 0.63871501078574355
-0.43851046849950648 0.012744680565088373 0.77340814112638201
0.22340872704921547 0.62216220213109241 -0.43101724942597464
0.4011285291808222 0.56335970320177298 -0.28020983482840273
-0.095732143460828339 0.22141298584753732 0.76484582861453576
0.80112784492609546 -0.21563421059216992 0.36539549875493793
-0.75975116588432567 -0.40750943651240634 -0.34634190344227744
0.27302147887662226 0.48070224353025348 -0.38891767729527082
0.89352195990162264 -0.33214301785088141 0.59595668423357895
-0.23057829904073435 0.3555840028314996 0.78326528548282304
-0.48983081956778618 -0.66841061929199119 -0.27402228454023325
-0.4394433104724319 -0.016852542819518535 0.73112802431849067
0.14152592641372089 0.31986882477123924 0.67465039969207863
0.48180938306973908 1.2077002731367323 -0.49418070036283734
-0.76992544517535511 -0.59876310619254447 -0.42794659760767795
-0.23709031146191406 -0.37088298445126577 0.60251983677401211
0.35032655314343036 -0.086226990014672156 0.72866785341807772
0.16192330377375055 -0.027928426431461428 0.78068527079067296
-0.59630005610215986 -0.91046404006663173 -0.37246514436660405
0.32904988809001307 1.032583854350156 -0.377768904974292
0.75042016234296005 -0.50251535423765992 0.67885571259693611
0.15873267785807843 0.46675381422372531 0.64652506151279743
0.8326327168984895 -0.48055499249007105 0.52323169504753753
-0.10992521542780115 0.74191382332427191 0.68708373776820064
0.3909328655540858 -0.43058449523772502 0.36664343727139942
0.093903458987071017 -0.31252413367883591 0.49824237553488493
0.19600783667262323 -0.18296310450524889 0.7696631204174238
0.23789941182472407 -0.38437715031116182 0.28032127566152237
0.050258828679490608 0.5909253052098149 0.67595691241366107
0.010943905804354392 0.94320278308291128 0.020740098384100625
0.30233328905953638 0.58653538556876317 0.48769429427517424
-0.34126221322104655 -0.097402207215103731 0.81244329825646577
-0.15073681402646483 -0.16479581970388835 0.66716576932667937
-0.20635515227385062 -0.49537956281657869 0.41621277894190545
-0.45561813076163749 -0.79936950771969251 -0.24671757017178331
-0.19655945624882565 0.65333210771094663 0.75935397885051559
-0.21886174844281528 0.40624179176456221 0.77753689509967461
-0.7542141979493775 -0.23549424340193603 0.56199580632184554
0.55762409645253519 0.88189887975864467 -0.47318052251302095
0.23915333659080229 0.0040371105223009351 0.79845555525111833
0.27505395278185768 -0.34541361897365841 0.70164827072241642
0.10893974137579027 -0.14562072661235048 0.79544491176480825
0.22824963247874919 0.9178404846650392 -0.3752787596568431
-0.066230911249597874 0.12367175890630766 0.74510622156113682
0.52036943257442481 -0.30951045478704109 0.74055832374536579
0.27017744422368895 0.97878987580175458 -0.34184189870228715
0.43376367030383611 -0.55454061046361769 0.6634874343979773
0.010822013066306591 0.65431785979473189 0.67505025962421594
0.2462589560316496 0.77072769437454403 -0.025128437618079813
0.22411224631952986 1.207575206680537 -0.40095565611210315
0.17904705419048184 -0.37457475264668127 0.36245259881553732
0.094924638766076416 -0.12149213072746756 0.78330453993311089
0.32839301790781222 0.65603909260668658 -0.031092916168232065
-0.21027632562530854 -0.32793300988127783 0.63727472735383295
-0.01263376582848591 0.32890249252811166 0.81013373816277257
-0.54082017498944546 -0.16245552075453618 0.72597715620254166
0.49321099140770269 -0.26236534615532914 0.30774974930761911
0.49371610992009685 -0.66500028027870828 0.51743158572860759
-0.47240150933270481 -0.21112200954892857 0.77913346425326446
-0.56780686958057291 0.50621312066490209 -0.59341891428286175
-0.98954456403741498 -0.83113066684598857 -0.48152739995346877
-0.56698136453326475 -0.041950884460572935 0.64640685745957693
0.058936541936943976 -0.29438793253883921 0.51545650968702139
0.51333559952220331 -0.043207978210854425 0.35544247885782515
-0.63444598885637904 0.006686485892123839 0.77603038221270437
0.36473681884771331 0.96047392724647151 -0.37704080602465406
-0.96985441533395611 -0.62910141928341501 -0.43270191751032827
0.66866696777167844 -0.45202030692982187 0.68352785366393687
0.37679237150241296 0.72664888396418603 -0.29273500653418627
-0.20031350468567496 -0.33822115486826942 0.61221676356505095
-0.44762423756553771 0.177198673709833 0.61180722405401888
0.26869832265895049 0.76835973116083234 -0.28979460630199044
0.327997338874502 -0.1456774565400103 0.7359305054513452
0.39060844279324042 0.89248557211227753 -0.36635933669891318
0.37649395313124118 0.67439488878990239 -0.22775153425429823
0.41209316014940811 0.7259561828297888 -0.28434188373034486
0.76106354767789597 -0.38471455937373938 0.66729421181210102
0.14891436815733755 1.0450355578623713 -0.34822757560803463
0.039375668598648828 0.90862685797699161 0.1027878318324989
0.47666982178209938 -0.53883085679912779 0.40336219740594365
-0.13502667349591979 1.003880008923079 -0.20371539443320019
0.75805436570708129 -0.29086942436151803 0.7043736755260559
-0.7610414248650349 -0.32920154324177009 0.52942307765183061
-0.62465461469399475 -0.19871906029931674 0.60459037481893962
-0.66600893474560618 -0.27382131013686584 0.6860527185730867
0.20916462828170668 0.033146849734128736 0.73967919298329721
-0.49207677870904737 -0.53782198837421635 0.540938920473367
0.31521774460974789 0.082445618577204116 0.52373588912496005
-0.36113579292942222 0.17918109771850554 0.78813197437702787
-0.4163862907583929 0.1648720083121562 0.74485799970820932
0.77392777079481467 -0.38465429375049426 0.69323696837492677
0.13774375181133663 -0.32679726402221887 0.57020702087981945
0.83782348969736953 -0.47625479798670095 0.55043554184069543
0.48925494659860713 0.82689615064728461 -0.32982952697737611
-0.38738327908222375 -0.50214441131076004 0.58915078736227966
0.37357909729589212 0.0011917942061774323 0.68851561602777966
-0.82067133692188354 -0.92264011665898726 -0.48134603350054816
0.65064375273792319 -0.090865891376414654 0.37645960795729227
0.34658759733948841 0.64423156113357949 -0.18513041350386827
-0.72490545250796834 -0.26178442006600555 0.35867647671876673
-0.11288939320865034 -0.2764264225887243 -0.61248981710074279
-0.72108753921510182 -0.51779191659814305 -0.32829995673254192
-0.24159627538911005 0.74911927712863502 0.35116309012176228
0.27393759601417411 1.0998677762551337 -0.39322497223645858
-0.64882107562892954 -0.056203660992210303 0.53775370911954146
-0.64707366597499638 -0.97579796068294078 -0.34894208998251552
0.36364338401252821 1.158136334829228 -0.44459649378169613
-0.68760774001851255 -0.12124367511353173 0.5136337354717071
0.47763745244857353 1.1605775169211978 -0.42195983983954399
-0.1235611391325705 -0.030141320960469509 0.74497929774500782
-0.59764752517398667 -0.231186974258202 0.69702544488018225
-0.19081144583952356 0.31583468029307338 0.77469181463325909
0.034770998356652982 0.83556394151464486 0.60069278982336671
0.43673831093369708 -0.11140032341507011 0.21128997025554133
0.53907014114536678 -0.47761367714196512 0.73367603318666419
-0.46338822887044057 0.54875237071222593 0.70641738706781054
0.62726839164682191 -0.3762314967106396 0.74073077535715259
0.11748370051747221 -0.11172657375161144 0.80187841192267695
0.25488492363471082 0.023310392204498709 0.73454641897262729
-0.44279067274068745 -0.089633027517459052 0.80063943748569721
-0.48683907962878947 -0.55154669649102628 -0.42342808141921129
-0.62406744067603637 -0.65869262630762559 -0.3169398633484431
-0.24833216436578245 0.44081346316345571 0.7736153910016742
0.13853293538386063 -0.15835634261746412 0.8064628843975763
-0.19954330849195775 -0.38448331082464871 0.65539033183259143
-0.38495931793003457 0.90310651971248546 -0.33279944109229359
0.45526872048236022 0.82177435318038639 -0.3561230853686812
-0.64547376392278799 -0.85760674739384513 -0.45544215244501768
0.34334603710731393 0.29309149594478412 -0.21171540853448478
0.71667331362897746 -0.49495606563832212 0.70722006411801042
0.15509117590142385 1.1341054384813429 -0.2818942904627349
0.11136175261429729 0.73503105482436659 -0.46354852181502187
0.20658233513645935 0.041824240731483497 0.741121008557725
-0.18559834859821417 0.56834222975480375 0.75683544004282222
0.24169130925607979 1.2347734638744963 -0.36775967281943112
0.48380345956222054 -0.64395863708585932 0.47992860550651151
0.22237271770604147 0.26450888110077309 0.66604951549544822
-0.5259593466758159 0.086776134561233897 0.80918559471814655
-0.52083189490556181 -0.34525711394623215 -0.54494150966000665
0.39079833707288197 0.6783925683789287 -0.22180636870274784
-0.28075936857431066 -0.16681737938448005 0.79982937929789055
0.25761495005435875 0.78002584736993663 -0.26246693991436354
0.18482805451476617 -0.03364253067770806 0.80129928991109689
0.035285383400872394 0.40847448104474071 0.79231116063584883
0.64449007205761244 -0.44247439636024921 0.72625561071012179
-0.41495829087126812 0.014110492999215296 0.77440021020506189
-0.03462021044778979 0.9695863122986792 -0.26581680865368362
0.35011152982100591 -0.3839769920877979 0.32435731515636579
0.23089506947777699 0.93663163624451751 -0.29747086852213145
-0.42056730913128176 0.32987373217718718 0.70340842202479925
0.062410379410136274 0.35806191049765967 0.77163185510322907
0.14334692528049908 0.4606635641489415 0.67087586541621114
-0.70072548141137103 -0.96220035582592356 -0.38404436979206041
-0.4575635998801158 0.23256562882053244 0.59407080523704348
-0.76069686865962249 -0.23304185669415323 0.59165410258194684
0.31056255061356769 0.42526263293967481 0.53921198342515231
0.30333123978328491 0.26424091490386414 0.48903416677131473
-0.72491700945050241 -0.45771913632910532 0.41681752293342961
0.17697600398532803 -0.065695197524936244 0.80245600516265481
0.21263333311485633 0.99522083568989372 -0.2892852993566607
0.28796586023181003 0.11345755905510602 0.49336467703135745
0.10205059531635524 0.82688044464504551 0.26774834076489834
-0.22611685691002623 0.40650563208235502 0.77929198394084231
0.3957185402195843 0.69409471446829873 -0.24244951946713644
0.15767898931880889 -0.064435017814606255 0.75546146651419432
0.89277883770763267 -0.27645088780356142 0.40120113725431444
-0.92170412731852769 -0.74082474364973816 -0.46312499285434133
-0.54270399982995299 -0.24964144581373549 0.69063737619989729
0.22788404044410393 1.0890209705370029 -0.42228653903207702
-0.24197559078165942 -0.63749326381115101 -0.21340958441996583
-0.94772651842140487 -0.59938300564552272 -0.44908806040077076
0.00079876533838491026 0.60281597528642794 0.68720388915679653
-0.080426638196590128 0.8788093788242235 0.23779395771014267
-0.63328028367795919 -0.59696832828915136 -0.2283256624344554
0.53109484726193879 -0.11772799900777142 0.70827844561199116
-0.23740687065299371 -0.3748452380872116 -0.56344453834691344
-0.30419170885037494 -0.217392049498913 0.79913248554216465
0.39646567002881672 0.79330489799118087 -0.33035037412177226
-0.29552806164831813 0.51914610382629922 0.79777561670228569
-0.65385840835140152 -0.75291122961210455 -0.3556498617370828
0.27152632039784919 -0.088963060667842764 0.78525529906660596
-0.39543788848347761 0.59003928803521966 0.66800427076779045
0.4995602584250235 0.86608286648660648 -0.37655951897545448
-0.72981875954170605 -0.38038954466808406 0.36657436203443294
-0.12338700340828818 0.42278964940732289 0.8133197028361685
0.64096930202424507 -0.68791332412719952 0.54150408718390464
-0.48658488752849094 0.1455177567166821 0.68759898590128954
0.57916986312904561 -0.34989908504851452 0.74175974856620597
0.65780444018563755 -0.23827565876457496 0.71922313897196355
-0.26212063970961885 -0.26063402445449535 0.73255318637130773
-0.77435913969868975 -0.40314120711951484 0.532575106863445
0.12644557422929958 0.47756248764204678 0.68772016397664437
-0.0030731069446430226 0.49707121098716134 0.76975237703022237
0.13639492160130437 0.39946780180223906 0.70718862473499344
-0.23973152112998569 0.30058355734640596 0.70726628311083473
-0.18061956910961918 0.71046171918177858 0.43491421037760603
0.11895323492793114 0.59434315581667874 0.56335075264635548
-0.48362309135275977 0.44606150158039926 0.71401092454199255
-0.36541037809444848 -0.65440946007337697 0.028024332024126075
0.15049205369045804 -0.089060413114931181 0.80500647512125978
-0.9638898153674742 -0.71224564064341522 -0.45040040028904876
0.65546836142540776 -0.44809640496323183 0.67257024547362232
0.490140001762019 0.66344792440838585 -0.31342936141347116
0.31779894729016145 1.2235499920228374 -0.37714170853029072
0.40552934195857265 -0.2568928123060491 0.24206163178597914
0.38529529073992741 1.0346291860436452 -0.40326561561562602
-0.62292726003830068 0.35526224950473617 0.43316206383706113
0.56305746021009595 -0.24628088241306867 0.73062826812674309
-0.48665177234679502 -0.56855881777064288 0.48458432330116108
0.37261469320576274 -0.19126858172516747 0.73776552087494029
-0.32645296809950686 0.79261840307273168 -0.49299502504264942
-0.27718896363165541 -0.2820539179152004 0.72562049661797756
-0.67579289715471946 -0.92891188564891802 -0.42273882317279354
0.91970783047990712 -0.20812828230009833 0.45214404715560053
0.36393999539630867 1.244951503999284 -0.4008308748889795
0.54875003096834529 1.0207499210663826 -0.5176409643794585
0.63185397700210666 -0.68460641081979789 0.51276217528973722
-0.18634584190302744 0.31943186801042445 0.76961877644306487
-0.65626260988826313 -0.59307223747819116 -0.233188307084573
-0.94438402680570399 -0.64437675593151789 -0.41028609573102159
0.45373429330719561 1.2095478650774276 -0.51096033242936112
0.47788083280930971 -0.41348206843844293 0.35324735707604538
-0.67233225006347086 0.071116182351063095 0.79647987786515317
-0.20193719710416022 0.48378635192223851 0.76760712813243503
-0.089558297164914286 0.26108936928568727 0.74967362066440968
0.41625356206011793 0.93127417612971197 -0.39770068376690215
0.24998864151233186 0.83511641134309622 -0.28596393221061073
-0.58061968001504916 -0.64008427103175114 -0.2808552619079917
0.30545016895288535 -0.025568525475563542 0.7372459438369281
-0.50812105871290358 -0.67530449285789862 -0.30236280629495804
0.62928693151602588 -0.39875109619070059 0.71775269038840017
-0.47835787979238864 -0.11051336091934938 0.78649825939314111
-0.41407676029243301 -0.3538308444657976 0.67158499764460733
-0.71282244441632325 -0.94697995165061277 -0.4405453610687553
-0.37894459800034808 0.25102194362802188 0.77739461492296824
0.60411939082385868 -0.41337295164980142 0.74419715847767742
0.73379941843682994 -0.59627349867967661 0.59778005529856015
0.29429906092428021 0.51354929288261775 -0.3685954549300442
-0.31418742071370254 0.19418725167046147 0.81027417543377345
-0.59847779911659549 0.074622058377427747 0.80318102271997827
-0.30047458488146073 -0.24727316130988419 0.76778238719996628
0.82180380928455821 -0.19416981606732353 0.37426283615241762
-0.58821126715658689 -0.30955656904198081 0.66872827342104735
0.26714066525819746 1.076209406264576 -0.38333077036672591
0.60256860836470316 -0.67041387785905315 0.65127441018822818
0.26054797241890632 0.81290352941316191 -0.29797503109204959
0.19132123034241899 -0.17596482530239099 0.78602326990667981
0.66919694777952066 -0.51252517373267859 0.72060681696273088
0.04510452420030156 0.31169342991514382 0.76070895365593683
0.1341616075738094 -0.16546206150190879 0.80062888816452316
0.87652918948282155 -0.18124746234208594 0.41963968557322495
0.046231771230924923 -0.28250301185652582 0.58481362089162792
0.71999062749501253 -0.42309440504323637 0.38369887587908158
-0.40975150795807053 0.42320004240891351 0.83473122582879256
0.13884118015342389 0.77700987996659721 0.57187491758888287
0.33670175097411992 0.902820453252003 -0.34775295274894469
-0.29375687719824817 -0.05803994696312631 0.75774443090592114
0.34448906633772453 0.50927164692419313 -0.30100230342785972
-0.38082179396020993 -0.52197408065695683 0.56559929829232802
-0.39694443409057339 -0.80143158456384977 -0.15605257879604678
-0.39535940034049288 0.19596783383519401 0.6381393183712265
0.47091400367113684 0.80204838635046283 -0.31102475173500321
-0.26614094722239839 0.66618232729963633 0.68160592537018894
0.11459642985462314 -0.16445964915015432 0.77316269119326109
-0.34799519393399969 0.11160168772117207 0.80441050769250322
-0.37478232095929209 -0.23189080113614535 0.79542534008880961
-0.18623402440211045 -0.17856751850205899 0.74504665421153682
0.015264136959841593 -0.43447910472430284 -0.39385654397326597
-0.10692335099831052 0.99539764894160765 -0.087226902538386164
-0.75729197259197123 -0.62032405647447098 -0.2995414565261858
0.78641471844034427 -0.25778590148196112 0.68150265797065512
0.8653209624251158 -0.38450239915198414 0.61325643314678968
-0.65094110823174312 -0.54180921012476069 -0.38392480017942343
-0.7637281333812791 -0.81307264689856562 -0.50097712786282611
-0.60521495511067414 0.76063329272583746 -0.29517786234665389
0.15129534802611111 0.80757070750397875 0.49578697272470473
-0.39441888600743918 0.37373803091563018 0.6503781050457963
0.50980255429982757 0.90141495658823789 -0.40349749894445786
-0.48234992757956729 -0.5705503782504977 0.39796189453062819
-0.094018082277515347 0.46445797812340528 0.80136035828612251
-0.82628644533731188 -0.98354945109816749 -0.43136050539826226
-0.44111613637109681 -0.41541382229439416 0.64886725030031001
-0.34420672238429756 0.28490819760616382 0.82381140035498313
-0.20443687999965468 -0.13322059294830413 0.73335843220152319
0.20014282148976653 0.77330129817762905 0.24734356167785587
0.79433053101757722 -0.29795214480625298 0.68931742479563107
0.19018821915687301 1.1492504138843969 -0.29386340698639757
-0.11913052552882031 0.63619305589226327 0.73874269157711103
0.84730849969282096 -0.41415677784718474 0.62274217956012412
0.73635568825819409 -0.30633483631270053 0.65423637651994127
0.089016040024527898 0.84362317461472935 0.22155720041486238
0.083441526345577194 -0.46924360414864641 -0.13156953427707369
-0.3027587240053255 -0.75845863862541729 -0.16035327551624345
-0.29135083476926793 0.30664320940792633 0.80144533652559824
-0.22740456336602075 0.45385753827755759 0.77125618480591396
-0.25162571615700535 0.98798201985281553 -0.091308656811639022
-0.60838127536990849 -0.39079481756951551 0.63513695342483945
-0.68701220517089645 -0.27530154919007366 0.68976575238710236
0.058993998037256468 0.47737408319983043 0.7426491110842296
-0.81998424851384832 -0.70651774154042979 -0.43327191656201552
-0.44571244854382508 -0.25984856370303455 0.76440907582262785
-0.23955265646835883 0.34204622083516445 0.72613558596650962
-0.75628976479860111 -0.97749667828216413 -0.40014842919891347
-0.047455965698384395 0.4370768827356335 0.80657149983527288
0.8094318018681278 -0.12985529971066073 0.42325519829008407
-0.4841003528788409 -0.37125122010772849 0.66865132473300315
0.65347090512285455 -0.019405225879469246 0.5588072405131832
-0.73054912124484572 -0.32246995449925042 0.42539914900400094
0.22552940392002191 -0.06064281406070926 0.8055082691747526
0.060233458488811731 0.38023910442074427 0.78550945595045374
-0.085366325127229456 -0.5273352088216765 -0.18940604459554122
-0.36662244619560108 -0.66221155655514341 -0.060774073062264011
-0.39462278039683241 -0.023036728062554968 0.76693966106174261
-0.74759595753157859 -0.3242400708409543 0.63858686601371151
0.82539827816627032 -0.44164097101532279 0.45492448560720122
0.33068464675025244 0.41256915375798342 -0.26608535753081325
-0.70064482934615679 -0.69286225521053701 -0.35724516598966538
-0.27705370017908437 0.42036928256723627 0.67938465841452389
-0.6243367494731662 -0.23232983577965771 0.69025591868264702
0.55129116575938308 0.022391127300663949 0.56572372359893464
0.17979585551546035 0.6829528673177554 0.5878349003823844
0.3197967965981659 1.1097001701461691 -0.41626940100266263
0.44363909141175423 0.051995129732182455 0.46203827805296471
0.61557296662932637 -0.4239566629156421 0.7419449110380324
0.53412695527828769 -0.20311187828289012 0.72775454347866309
-0.72401945584716088 -0.51101156970675454 -0.17406454739659794
-0.62583353278335818 -0.64317202201063273 -0.29682872855125647
-0.097604817471658223 -0.44050163922014141 0.3923633561277633
-0.89417089831906793 -0.098880040315231899 0.08645082378593999
-0.55481344650932085 -0.056205196452560946 0.74695868962445966
0.083164985214151943 0.54240027940014945 0.67023758264513811
0.62580080728435727 -0.63257617551047074 0.45970368061022859
-0.11958814940533902 0.86872045531514774 0.2434966167186054
-0.9148545248202401 -0.66659019283713672 -0.41020969500964016
0.27446783030568378 0.66784499241659234 -0.38675859481763553
0.29166786706493991 0.14361718399390144 0.467881126870484
-0.51394404397799431 -0.31238525065452105 0.66364904832703187
-0.42994633707660196 -0.38970949417583522 0.66776335197552439
0.38268313146795213 0.71741365563705195 -0.2922426454313462
0.4585576756543443 -0.0089084072040676032 0.34816050002745347
0.29324395160817895 1.1209781373077847 -0.41039191880334586
0.09579460549935398 -0.15425204050229191 0.75300589326135725
0.30923518916356946 -0.13607215813831186 0.7383120189358614
0.77813147603437294 -0.35647694522698714 0.69366832084778629
-0.1071476664801696 -0.053468159830136974 0.74843402813559434
-0.36589468026660232 0.46353463610402734 0.54509677907102694
-0.89981478555321837 -0.84050649491377794 -0.48093515100962819
-0.29269581832810843 -0.4437719385005634 0.63174960573357464
-0.68344938135543554 -0.846442673683105 -0.39683469393418813
0.008958534126225437 0.64084226339950845 0.67924430969196092
0.19937158747712366 -0.34740682308578696 0.64248594818957061
-0.27005256606198846 -0.16769504042062233 0.78439513614778389
0.6619263614158033 -0.6427230947404311 0.64555944133618826
-0.74589957171599097 -0.3908966344746776 -0.38999736454456713
-0.33969276689684275 0.22178443723508989 0.80752813027562698
-0.45900596560431561 -0.81617604803187671 -0.22191392660611131
0.27178977179286373 -0.27285134508620468 0.72753314607671138
-0.83603202507777452 -0.72898894252108781 -0.4486305005594336
0.17011766466481157 0.1334147315185239 -0.58315918895828001
0.68637880128627127 -0.53264202966088092 0.42474935336163977
0.067391340069501704 0.59007377281561313 0.61953624100235316
0.62406350560837565 -0.42344868835701083 0.71968726945070838
-0.20303711413353084 0.30661488318280683 0.7812786313756479
-0.4660058461834955 -0.25251817119007947 0.75784691480948374
0.066015754754498113 0.37901669871649324 0.78007294261545612
-0.37691372152707875 -0.3547934006873581 0.67740603188093762
-0.75192300607308071 -0.43203506628678268 0.46176708243784159
0.15729247897221255 0.79901150978142932 0.27793927211036895
-0.113595594699932 -0.42186029231956446 -0.49600858811551229
-0.23382802471383601 0.49633325544146545 0.68779523402081555
0.39577395753856215 -0.2542881009648511 0.21403056818947724
-0.79006308942222359 -0.44924741522748191 -0.040843062060004875
-0.33964587450678518 0.017987526760957717 0.7734084284357754
0.45851327247329376 -0.56253197356784923 0.41919897358004182
0.0010659653502600452 0.9600221966156941 -0.17955825092521915
0.25611949416312629 0.44171045474790005 -0.41121475142617636
0.35704370780936012 1.112485705151093 -0.42697166020468352
0.72771147779901268 -0.30432159846689277 0.65658468899885736
0.67104032879247932 -0.59499078558561802 0.68130643060279161
0.37048233582397433 0.53800539181400031 -0.12506634331061972
0.21103896372353853 -0.1733379373713404 0.77501342084047309
0.34024593594612379 0.22677378566941275 0.27362724952674577
-0.33316331879056355 0.87216525325672856 -0.40668463634969992
0.032727462844818256 0.38867705903709771 0.7969079498080156
-0.71324403644343948 0.67062524900726439 -0.12260617059277212
0.082073819747049748 0.5687280624214377 0.67233022868971992
-0.55065842143566823 -0.28833243163308242 0.66891486678471535
-0.77572105957013482 0.35062339055921088 0.28451957315984028
0.02607950932775599 0.62823520344607586 0.67889817870146951
0.30314916115684737 0.11250612096550316 0.46802452599871158
0.23364582197600872 0.026835448288817232 0.7422720460555704
0.41923551910796336 1.1450010258791583 -0.46073973717750327
-0.82066783400424281 -0.63989664239275523 -0.35572849984684579
0.4485696021434124 -0.17673632589638921 0.25635362733784495
0.84082405802719173 -0.19468476094831899 0.62103007871751714
0.58204490614167481 -0.24267827227272698 0.3335830889865693
-0.55297362317526011 -0.38382846824784478 0.64606310663094091
-0.92223747639985443 -0.70040511304108577 -0.53800039354074425
0.56582849393978429 -0.4528421974356126 0.74016819839808035
-0.56144429160802445 -0.36201014242276508 0.65409992676907591
-0.57196020154315808 -0.55089349044366287 -0.40533403883376723
0.68503403819127284 -0.45203275262362064 0.68980791152963494
-0.64398404605868176 -0.33536908956589784 0.65546699086144911
-0.89399578425631065 -0.84957304198836026 -0.49859155641435882
0.63298517640840457 -0.37789525965928783 0.73786112277729221
-0.37408947150291905 -0.6624342778777379 -0.11695544715305711
-0.14189391933646023 0.74286165535627968 0.40998220590148238
-0.50803193734211716 0.40744950664088919 0.4905016879871541
0.31019837207002443 1.1415255414918064 -0.4180605662175837
0.47079646402604569 0.045145389690363413 0.56903393032794125
-0.33089623918207006 -0.084235504044237075 0.78856521893966747
0.11337697755773046 0.48228775496708087 0.6906556565412254
-0.10692270367625908 0.41614104871918189 0.81553626111894317
0.30905213075606258 1.0168089821599295 -0.36810629142958667
-0.18797195718830628 0.4775157179279339 0.76996441617403666
-0.33162671547116451 -0.673457619841213 -0.11007239942947122
0.5284056696540016 -0.49390380834651182 0.383320194360463
-0.13196186007132926 -0.28684386062432654 0.70502456370875466
0.7035311851750895 -0.33416377612109949 0.66486910953802125
0.039004915755192493 -0.32599491312180506 0.47945503197496347
-0.37476174221141678 -0.38931283077948176 0.62839643371814491
-0.61061732630084997 -0.9378014215097239 -0.33981392783141368
0.30181740952568192 -0.074723358435502707 -0.3656281439377837
-0.81463896062326946 -0.73738886054059272 -0.43061149995434439
0.74854077227216231 -0.37464660102206271 0.65000235207485524
-0.16837655912709826 0.36424156110119332 0.78385007081778912
-0.03366533285740364 0.36689028333286289 -0.66786502185475705
0.14389697036736721 0.36949964352276754 0.70660147725430555
0.13275578837266955 -0.23581729726624623 0.70414738265005339
-0.36734089056518371 -0.84795572926323537 -0.22368743473573482
0.12037428964334151 -0.13535084669727637 0.80506515477883156
-0.53193177725565666 -0.11214748619134096 0.74142842218100791
-0.60191658455772301 -0.3414286046855235 0.65158125444755122
0.3697289083772064 0.71949089165222146 -0.27704263046189564
-0.023219126240900379 -0.35132031001652309 0.52483017490949324
-0.75735962744985708 -0.4826683250776691 -0.11153776202246363
-0.72237690307430624 -0.53342494352884851 -0.23134815706757605
-0.4137801163795527 -0.029207351199698195 0.76159713910691029
-0.075217922467782139 0.25176401319451691 0.75482602350541328
0.29073134127218647 0.83964203641262847 -0.32020001319190783
0.036472618505950682 0.82413948144954363 0.6237158267557581
-0.45225172233020061 -0.43181069583858434 0.63813026995447542
-0.64623896626960819 -0.98743871410929418 -0.35155094122612218
-0.62310248480260988 -0.057264468976231386 0.7503638324907409
-0.0052372384162028274 0.49082100735052725 0.77565334132377506
0.41861110879961916 -0.59729806715967271 0.55515569127953923
0.26949389225483034 0.014993861670223874 0.75066373439237088
-0.56315269805474122 -0.24964585873388079 0.69198294689403106
-0.070724399780518976 0.50909017351556063 0.76073034097400494
-0.44357080989117997 -0.80426241612929017 -0.33856624795291512
-0.0009017668781683974 0.50425143347576751 0.75690049461246267
-0.2454056428943526 -0.26815101664031604 0.73670625814694302
0.11854508654381971 0.40133148131678698 0.70114353951216157
-0.57328533025895334 -0.22657496113163322 0.71042687977822916
-0.5191789158366874 -0.61560244351999982 -0.12706569246269334
0.17638226986160091 0.28030636907714701 0.69275733366107839
0.0175275140014996 0.60168484576266301 0.68269097288674074
-0.78334629854206339 -0.5664249749167467 -0.26264902810486818
0.095139814577525461 0.52193621730028017 0.67343791453930713
0.37971749110843905 0.58911666483276282 -0.32108783313655725
-0.16438495519077759 0.7216753331758452 0.61832422591625402
0.30878745282818593 -0.50144832687297547 0.54905660001576007
-0.88274085478909403 -0.085432905536487969 -0.3690041165112381
-0.93553546892557149 -0.92757871884639287 -0.54892728494984733
0.31148387715959436 1.1690299520069987 -0.39467641704969991
0.26828000636816907 -0.0026511918427224446 0.79164343147471761
-0.37418392946599915 -0.40530134209857227 0.6022378520566769
0.1992169443364423 -0.10260378484222599 0.80894953254853885
-0.70488158291167835 -0.99380046076623541 -0.37967064666490125
0.81672155945509384 -0.39415186375063216 0.41798834858756173
-0.45084939031346927 -0.3452390320979819 0.67032938502064243
0.50104653681372791 -0.16061736728062437 0.72473195158768033
-0.45213473752524336 -0.35172076279510911 0.67269267744959704
-0.40143864421319625 -0.070241420321433656 0.78592076336551986
-0.45524588673910621 -0.36561106490280348 0.67462969939403961
0.29653285083632064 0.21899905504587913 0.45018811854724161
-0.26175222845517859 0.65190222460568026 0.62238320889405463
0.10934247516480339 0.82578681316812674 0.55072961182022395
0.18204612912811324 0.7749022959882701 0.4142211670683496
-0.37888831872512463 0.23306241599564648 0.69210222456197035
-0.20412719032477872 -0.48117638805084151 0.54743016045794279
-0.1692978301788764 -0.3292276220942042 0.68662568087475206
-0.52796333443325683 -0.35637907766844523 0.66572047783481103
0.094426354154108771 0.58151167354133615 0.67027325030834761
-0.90781943702075218 -0.8156663182041477 -0.49254655617860649
0.031689624861829913 0.32822400136590058 0.78835681654701206
0.46390664139426263 -0.50128533172052581 0.70859277975809798
0.29549226297767661 0.75339714003895808 -0.29482866726611834
-0.48803578822184779 -0.002529723804664652 0.68632140131516961
0.29402579182931493 1.1487069330996618 -0.39234462506567158
0.52288243353703012 1.0157624432311834 -0.4254650851830602
0.12294863072198092 -0.27264360203237792 0.64403006333727686
-0.27475612957151696 0.40716378659900099 0.78164241637857867
-0.62710291980846034 -0.083856768058000686 0.7426980464457601
-0.59771752008726298 -0.1625919508647018 0.71767082086045075
-0.58169730042333079 -0.64462342730047961 -0.29285444130020477
0.55897450683601557 0.81031212475184489 -0.42117953317967516
-0.25479883168897766 -0.24926530212206477 -0.62981735395932636
-0.66210716035820216 -0.52992429344736891 0.44536175045474985
-0.83966691448527098 -0.61490935458344476 -0.33223585858877097
-0.86490797609338754 -0.72602529619824718 -0.47055046753550311
-0.38320236090946458 0.18901300834788071 0.74452837143237793
0.02325184800771346 0.29769334725459595 0.76579172073527746
-0.1799898414774245 -0.36703244909277544 -0.56709445666314706
0.34666008424022732 0.74456520638315604 -0.366617520334659
0.88316202809653155 -0.25344083783455224 0.60949092664104487
-0.26383192730900762 0.65297591726249071 0.73745514411192759
-0.23354673130634704 -0.41036818730170754 -0.53134892903613162
0.77074526261315357 -0.306177011846402 0.70144824609849699
-0.42890226275661031 0.54276539785778777 0.66096949559813867
-0.20060278994642972 0.44335443428570787 0.75002914908400564
-0.26713588543475986 0.0066169697816131912 0.76629092660090548
0.27431126787449311 0.073377408609553552 0.63790475279698322
-0.60382771421704595 -0.19662346941649522 0.7055469914067638
0.70351373135363526 -0.30219045677995271 0.68629183936859839
0.28906833222145339 -0.019493506188704379 0.7730980744414705
-0.59396193504365846 0.23711860708377808 -0.63518739322235818
-0.35782154282361378 -0.085046327951078471 0.80805526300285813
-0.66853947873986153 -0.56083923738902497 -0.17675934197416632
-0.63643160689768008 -0.61001925080227526 -0.38845573264156363
-0.39696001093994787 -0.77595104325289177 -0.16142368945303781
0.38375690278515995 1.0824922545871232 -0.4197223706179915
0.2672582965586458 0.76424407191496679 -0.27801185013557517
-0.16515034316129767 -0.16546161411671312 0.68954629531504152
-0.31340247363834639 0.45357472661331011 0.7964688490069286
-0.6978185390780296 -0.47285131591304097 0.27432788610715753
-0.084458353956668397 0.55579538382402482 0.72763298018713574
0.56062959766278231 -0.14622680136764843 0.33680383757782117
-0.66713800540540191 -0.31227467078472326 0.67098810628010552
0.41649803536515978 -0.55482831233074348 0.43765636946530112
0.12657507196842532 1.0689578006833433 -0.24243857906309002
0.28690532322415147 0.76624335297085455 -0.30785857086747331
-0.27977227562473794 -0.71850777175079483 -0.15930866985731917
0.50116129808321841 0.97820812047016459 -0.46233991886292886
0.17363335118622136 0.45953954683688247 0.66690593573921653
0.16698106109248018 0.95679160004684682 -0.21300319391122291
-0.62793296174276936 0.15795927213978267 0.71484220658325182
-0.50918586160786461 -0.66403322357522399 -0.30105025173037436
-0.72514321092762146 -0.22624268062377895 0.69335319360627845
-0.043886622492205929 0.23768607750729176 0.76162081376783397
0.25147896126111646 0.024261164504353117 0.76951258796701583
0.279604143795954 0.81435760278344471 -0.36937435895147597
-0.77152431391570331 0.58189051318122154 -0.13674812388224683
0.15107841543622288 -0.30006456654130975 0.6378008956668525
0.18148823238744255 1.0219525622091536 -0.25119469762135699
0.57451626256257959 -0.69253421242674007 0.62749734345426167
0.01018268572284739 -0.28875277270911692 0.61848937313642638
-0.38496394717910631 -0.65934395069497986 -0.12855117998574195
0.87276647109255179 -0.23346329461394133 0.6122478842525505
-0.30796915375057909 -0.020673618010205619 0.7724282777562621
-0.34743673466275804 -0.66215660167846524 -0.035735087465924853
-0.48160918620058013 -0.57192851348225537 0.43137618573424896
0.75204145819265822 -0.31838678584174263 0.66134876534552745
0.39037747657488198 0.87041185278968336 -0.35652804382547298
-0.24754901475509991 0.50404707398726178 0.66573482553083885
-0.34456211198291398 -0.22841296916898579 0.7986139371253953
0.11605430170275166 0.34958322077316117 0.72172926545864957
-0.42126480424240342 0.13250460036602241 0.80519019492309796
-0.84831301953513172 -0.55603055525140199 -0.31643217248146932
-0.16960940834817223 -0.46912189121850667 -0.42860749219614291
-0.39049930218483242 -0.2379537667689684 0.79092370708998361
-0.4339153044141596 -0.1041941926611667 0.80856155396441665
-0.37889049204797554 0.27654553857739428 0.64143711497241584
-0.82272305283726599 -0.9202079753326482 -0.46014002358123468
-0.34206403026728893 0.17000418207346701 0.80178370501238505
-0.53484456700047767 -0.33822345460133008 0.61278468693228283
0.48080112642394113 -0.65521171208726126 0.55658503258806979
-0.62405540605701015 -0.78853704068663877 -0.35199839375706787
0.23896872279764556 -0.22861673434434149 -0.3816729653916181
0.12720078279996372 0.94304688610734733 -0.31618136847035588
0.13705627915684204 0.83542340974683837 0.17390639578381639
0.16511160125089092 0.97925897227458125 -0.21761866830829735
0.30396866775000325 -0.042102852596133222 0.74632771016665522
0.28868441134262118 0.10160947951137189 0.53158787609466174
-0.63798734383588651 -0.18977931853614827 0.70956921857225064
0.8242976055594512 -0.26887882386020812 0.37406038410651776
0.37889409774534533 0.53268901915136657 -0.15863872081218977
0.18511436552542312 0.47921863227781547 0.59435581733170673
0.69770129107121015 -0.19264137556351291 0.3530746636351747
0.01834169363566801 0.82519445661395352 0.34671642113207668
-0.54867905015343221 -0.6084205741496731 -0.19020619424757884
-0.54841018058400892 -0.14692963615090671 0.73830260747342003
-0.7149956379343092 0.10831066688404056 0.77344920629840974
0.80460894540091044 -0.47564272709812333 0.64010976123887298
-0.33625183938392755 -0.090594762513720228 0.80338767237641451
-0.50020903370519609 -0.041887825523341471 0.76192851647729187
-0.84215987702024875 -0.89598501810162468 -0.4869879084724027
-0.31572024996747039 -0.23298497814392394 0.79442623050134842
0.42129916926683747 0.7852620448337454 -0.32214320714348305
-0.71323013056582252 -0.935063309278374 -0.44024356424889233
-0.059164239597373908 0.22584100867937185 0.76295481507991536
-0.085047790212400332 0.35277046796794553 0.81897959799119002
0.14757939842191811 0.2642297198064224 0.61085823823078078
-0.88960608260805585 -0.82204898473215948 -0.50068483287347676
0.28132407883037691 1.0978118403844248 -0.39961985616390655
0.54700780212692413 -0.064385341048070366 0.3582356998865206
0.67464460649584934 -0.47172680658824356 0.72952644126066757
-0.18475814817861916 0.35883622341489163 0.77247469383378675
-0.58586921820739346 -0.59902942527001812 -0.19737963961288812
0.3587018378313131 0.58860295931151185 -0.096478007143950384
0.38601080929791975 -0.2531856028886964 0.17215044149947026
-0.4025686044274786 0.17435240866070201 0.66049615762672176
-0.68463970895420012 0.061779467449215586 0.60716717342411075
-0.054962891659416868 0.33933974810623502 0.81682449399452772
0.39150234981886822 -0.29863785744612281 0.26382151893655958
0.14387205176278323 -0.056391311156435031 0.74545856125620991
0.71894370875209723 -0.47598163512671804 0.7126576991084147
0.68373801113643795 -0.62363844647424949 0.64406784156735331
-0.54836922764419904 -0.79020010629318049 -0.39464668453834445
0.56428410451633859 -0.16174275574507091 0.71503821470480911
-0.63248581015989991 -0.75234572387819498 -0.34733259500344782
0.42422602170034024 0.73615559270672415 -0.26885365028265162
-0.11986165525329032 0.21349383338645622 0.76457662799883108
0.20255172173500136 0.8492479902536092 -0.20769811412692568
0.07100484822413472 -0.13393385884789899 0.7585939520325633
-0.27841619832390713 0.98330335651361134 -0.21805929301087473
0.36951345827435522 0.91960042246522433 -0.3666269865320847
0.40504425863760912 -0.40911461637130231 0.72170762208820693
0.36449350585437473 0.55827380453416131 -0.081060737067675304
-0.51813753231058701 -0.080083848928532042 0.72993446287205932
0.37395329037453623 0.8344983240693572 -0.3399507803204842
0.026581979381855469 -0.071537403102634567 0.75349660787390493
-0.10607667133117926 0.096948136532531315 0.74807498305689735
0.67371422258967395 -0.42486588996763269 0.66340125906532743
-0.22688528616061021 0.39087294734244327 0.7806051693459739
-0.095549188946607855 -0.3230870338086943 0.66413971302648644
0.15655723376222827 -0.27894827765260244 -0.45255044750887463
-0.089696193518122191 0.25579380557432185 0.7562935023168591
-0.21505281837532866 0.69343647036457501 0.66572526183492697
0.48355290304643656 1.0801658467918411 -0.45495243100867583
0.35741528404614287 -0.25366477817291522 0.023939049785318273
-0.49297549889617187 -0.099575444113261913 0.75938020778420579
0.14758868272483705 -0.10128696276922167 0.80843263428843637
-0.81156254538261585 -0.83282807205066045 -0.44489429037868844
-0.38497260675920297 -0.74985884911658474 -0.16218929911495761
0.44162440071313197 0.64493181534694766 -0.32427010156987479
-0.30651937248547562 -0.53549897202856034 0.43634283321210987
-0.15605270795269394 -0.45824252254288078 0.47291335760186637
-0.0079301914579872623 0.22245283497882129 0.75408898268154712
-0.19415242084375817 -0.55028917052503568 0.20808934373960608
-0.6920133069385398 -0.53219369103604341 0.059068182539931513
-0.55641582644429799 -0.22130839105917732 0.70207059884174505
-0.5216583218076134 -0.082049457193123398 0.74893101597649703
-0.037982251408684962 -0.30204559975834966 0.64724174354130581
-0.22800658281757002 0.99528620782673216 -0.21687359309533732
-0.50146271452227542 -0.4012121267869555 0.6489195386432669
-0.74609272639722601 -0.068665369243431584 0.72100966295967417
0.17474480084039326 0.0096784755602508099 0.7818038203646499
-0.43486194579396897 -0.75396888932801587 -0.26007138147788977
-0.81703272094591717 -0.97257743306863986 -0.42327728401656251
0.69473222803027257 -0.31822646903307472 0.68890132030836215
-0.069037619817514356 0.43726245838581979 0.80909221784048224
-0.25764551951004283 -0.34634621475175975 0.69116870869414782
-0.23938375279884327 0.45669207437052117 0.77063363640573623
-0.75916223524846849 -0.52265665279342732 -0.30469775616290357
0.44208267749325253 0.020928207370694563 0.38468409895964811
-0.46326489524684356 -0.61527902584130234 0.16285080787406581
-0.1977226440541163 -0.14750165671560866 0.75570945364662179
0.32767306199556545 -0.073791382773178205 0.73175549004676532
0.43330666291278952 0.76526787345845559 -0.30180039835710371
-0.9504396708463928 -0.68135877714579851 -0.43194901227586385
-0.16334920127329289 0.29400855944819515 0.76659652941002387
-0.45837315062889739 -0.77491360964412781 -0.28535673743797046
0.76927257893863688 -0.3966848645250271 0.69431339921615409
-0.94660251763742786 -0.59983763646656674 -0.42238118080537845
-0.34431179070166584 0.38603940783674973 0.81679756256242309
0.14139401314856093 0.85896998610173658 -0.36200220944724976
-0.53754473485651966 -0.68246576495591205 -0.31269249684636613
-0.6815307396707091 -0.17911884826833746 0.72277776009529404
-0.14923821266421625 0.59455447977721243 0.74347893906404883
-0.83998695105476295 -0.17383372002918041 -0.41122961917272166
0.87701839118588842 -0.37783582386848524 0.45686301705015803
-0.24243264097868705 -0.032492868202038006 0.76245022544229202
-0.1668074810527076 0.53776011182033234 -0.65980617618564164
0.2980417816791574 -0.22730407299990163 0.73732174178566767
0.011635336137778663 -0.32288862255510176 0.50407765178514308
-0.30224161512374881 0.97397307964176782 -0.088734778326083896
-0.41509885930921964 -0.78280357124025191 -0.17890170319899829
0.12184516020052574 -0.38711333214571464 0.31805902164953126
-0.15010086555292693 0.20396367428783746 0.76659675991990406
0.12703309934965437 -0.33152937944172256 0.50948632411218941
0.41087360069079792 0.7306471736286918 -0.29571296555870774
-0.40706775063734746 -0.27614253472484185 0.7622408308716937
0.25043216857297712 -0.0507878652453847 0.79975898883042418
-0.19696605686319002 0.28537780156776504 0.78009675359468145
-0.11966886042262942 0.26731517218393108 0.76018733411586559
0.43986475494741595 0.8973622426678951 -0.39818069404815132
0.077269903586711264 0.65728141780648186 0.6520938680468098
0.052781909703897151 0.27379199681441491 0.74763443673711372
-0.090761531941787876 0.83964783239626994 0.28957424385417507
0.50260782167992935 0.8615578620986396 -0.36305908558485545
-0.9113319693087234 -0.12527961500526752 0.0016274683627680586
-0.28749730944894974 0.70779063955492916 0.38443212566682006
-0.53366652994727293 -0.31423448882293337 0.66263814229284401
0.4284655033757851 1.1571905606437427 -0.41632433137114172
0.56365219759372898 -0.39536367340799461 0.3452900662940277
0.12413293195487876 0.40089877503565274 0.70435009060118037
-0.14231680382804815 0.42816713445811971 0.80621472382172832
0.35556245860959662 -0.2931121726469359 0.73671746962376761
0.53112707650072455 -0.69827862550252329 0.55953202347874109
-0.4216175265133868 -0.89015306401529659 -0.29219695552564429
0.31433572891237471 0.31826068628340631 0.50120446377039163
-0.35614116232486931 0.48782442473066201 0.62221198090206808
-0.048300890240783545 0.50568590631042221 -0.63640698161752385
-0.55058313858382035 -0.89263570613401644 -0.31795952626861901
-0.24026511226138811 -0.20666668046196346 0.7469119463333791
-0.64138808628128852 -0.57365904818880509 -0.1093685206747671
-0.74362463758266495 0.075865472958168034 0.63508804736791324
-0.74041925763698668 0.040242088264829334 0.61499365206090162
0.037229296796972344 0.80655329483166671 0.64280002961811533
-0.29199391452307261 -0.13066045818321492 0.80330809255943947
-0.037999018197205886 0.15613008598408729 0.74591705300566724
-0.55978161103034629 -0.097416416592332356 0.7432180946428848
0.45324301070774065 0.77952441794261795 -0.29644298969889155
0.22644619921757964 -0.01684605220882518 -0.50656173963481765
0.10138413775286245 -0.13370999650649118 0.79259345436855833
0.14477996051905218 1.0992300006919795 -0.33657931265851382
0.25986811651009012 -0.034283378446216761 0.79728466145647547
-0.84507282173067733 -0.70905531999353411 -0.45233313270271985
0.016004089066354921 0.36094465311394619 0.80504637115783451
-0.24690919714647863 -0.30349241414645789 0.71768505619385747
0.14361078749641815 -0.2682664075759813 0.67145615510108869
0.040449178881780984 0.3473119220110813 0.79474613301694674
0.013910363081879179 0.67570139695387121 -0.54531639967754542
0.17069799541435177 0.93488754902718774 -0.21046648819132274
-0.33573062902746359 -0.4858989252813577 0.60161190347918203
0.26622051690269222 0.015369548064920413 0.77875568848629884
0.5102400158867153 0.94231582450343943 -0.4513497322791416
-0.26043818358444853 0.32251363382295661 0.78639927884702443
0.29461684711981639 0.20961011873026447 0.5193068956881064
-0.014927010626992643 0.81204585199980861 0.49325960945317548
0.8125020317537992 -0.15786744339139269 0.39249177219757353
0.061710351087848322 -0.36005243481295834 0.41765903285266753
-0.40814028838856686 0.59975707641069276 0.71925093384213612
-0.31333289264823033 -0.75954246274654214 -0.14156690159295743
0.16761056320435955 -0.052677319410858292 0.78611874137881088
-0.94803720926497559 -0.72136041766964154 -0.45101793314292538
-0.55257583261081833 -0.35340440699450326 0.66095417254374689
-0.95086496995109671 -0.75491725406043608 -0.46050338460760037
0.76495053062109142 -0.3587550493380493 0.66643931427966074
0.18795923438740261 -0.014351802349025111 0.79901789039362536
0.029153303995265945 0.63990203231741427 0.67350706635522806
-0.80396322754847294 -0.79160771667225793 -0.42760901115420036
-0.54202631168549142 -0.40566604160469888 0.6382420770403443
-0.72273708716397023 0.59247795826470862 -0.33517451912711915
0.62377886546068484 -0.57125088763984744 0.70728333627793394
0.02483038958191397 0.047141666335715593 0.74253405054534094
-0.36078329587357882 -0.66579608737139284 -0.10172164739836514
0.42240331618667987 -0.15162577217340512 0.16729421068976155
0.39525187007680435 -0.057366207217614651 -0.069181160616399673
-0.46493958258136703 0.021702380416578126 0.77335203513446404
-0.46991397477333252 -0.76392121544444125 -0.29525062470178598
0.18752433866890966 0.0017769822411491942 0.7939998922499214
0.55553328979973748 0.87363696073508879 -0.37004762737803676
-0.5082658441000697 -0.16428484895723683 0.76413093049703962
0.6757896476242462 -0.62281288803228474 0.48525650519254226
-0.87484097714783859 -0.14930075238465523 -0.36468055977501423
0.40926330539095901 0.70379847321384281 -0.23655511188765177
0.094379221382669409 -0.12088450485876334 0.766007286651196
-0.41495728591328845 0.11673454653565973 0.81172225704173984
-0.74964255590566964 -0.93488383599880431 -0.45508770717051195
-0.043579721650823258 -0.14896731395973384 0.75912177939658676
0.51077101947817916 1.0116675097985581 -0.47367299165982957
0.50849543139439568 -0.41031839739718756 0.73976852471192589
