# XYZ point cloud file
0.75954349366922846 -0.28907498471085835 0.6965971865508318
-0.77575112332037099 -0.30829165025555327 0.51293681821792059
-0.63341086046416717 -0.18001866291109003 0.59375188049789984
-0.67984370457566878 -0.25352791492303006 0.67883024748698451
0.21474783926033447 0.037283852051491317 0.73852373615691413
-0.50884306134286439 -0.52348017382889145 0.54746922712396828
0.31875110464476508 0.079308224431627883 0.52042340279697574
-0.35472195215938912 0.19539709987636189 0.7827611041703384
-0.41074680901354876 0.18216081759007463 0.73684306138984612
0.77531921654049518 -0.3815122235176952 0.68752792315262246
0.13545448962751105 -0.3235886969462004 0.58104892346198933
0.83679351104129474 -0.47790038332051854 0.54916486850727575
0.48883258193674584 0.79813369314556615 -0.32210493617257407
-0.4014862988723687 -0.48927509937984692 0.59945190794170977
0.37790559281876912 0.0021279291880199613 0.68508346607494974
-0.83147911964483168 -0.91802899737830224 -0.48621917858182234
0.64772530889576696 -0.10363204152300631 0.3759766720605407
0.34926337340759761 0.62181430298194518 -0.18313306098893822
-0.73284986015411724 -0.24398819975752128 0.33701953176765764
-0.110871812477986 -0.30547254233966847 -0.59011425830182263
-0.72337636528205362 -0.51595564802389093 -0.3439085078182117
-0.21577994941061474 0.76642454689225126 0.32795961204166824
0.28784464810500598 1.0887291463107838 -0.39298509865636011
-0.65141316287229456 -0.03640980705026986 0.51885049977399078
-0.66151218014999225 -0.97386487084823492 -0.34011826197980033
0.37570847848369782 1.1439306339753865 -0.44076146562172253
-0.69276007180504118 -0.10123578692207724 0.49375810072607795
0.48559079393942389 1.141218078731236 -0.41627208188579434
-0.12121631888134124 -0.020449976087833166 0.74773336811153146
-0.60862915916797811 -0.21234535845256208 0.69204102034382131
-0.17858418486663641 0.32864499981843243 0.76844371134990963
0.060974820485532932 0.84549764687792894 0.58263309955522646
0.43378865146890877 -0.12655582350944983 0.21879095342284743
0.54093735188030245 -0.46961551550813885 0.73863000341772578
-0.44349792047568359 0.57261466609996603 0.68750954565888245
0.6297099606531934 -0.37042503543700178 0.73938418072948708
0.12045885455206062 -0.1042723182530878 0.80688120532857766
0.26027252863707984 0.02676622170636489 0.73283695165072815
-0.44704960285902351 -0.072959782205233248 0.80097122080404903
-0.48885914022487836 -0.56100759979935089 -0.41992064364511772
-0.63069387030925894 -0.65984030624263701 -0.32056726224902554
-0.23208482686488052 0.45629802729371471 0.76405413327195681
0.14087115019650026 -0.15066346203186809 0.81259362184055428
-0.20734528927728435 -0.37424044252634459 0.6673190752134629
-0.35250018898310015 0.92222120459918444 -0.35877561210184505
0.45573875611222237 0.79362048264749196 -0.34768921517896845
-0.65441424417347516 -0.85997833983548599 -0.4509903497365414
0.34184763397360818 0.26511095999761292 -0.20130663729838513
0.71875463394765171 -0.48842794192195615 0.7062284765487058
0.17585763251878017 1.1328761526924411 -0.29033061776781033
0.12179930259457131 0.71758023663437709 -0.45816053266020212
0.21233823244829431 0.045983623078481362 0.73976510824992714
-0.1649929060692471 0.58325376571744569 0.7451498598702907
0.26225343796042277 1.2318929686719773 -0.37245431476322283
0.48167249024091285 -0.6421973041916299 0.49675666673046392
0.23151929311063513 0.26624740508073041 0.65820319677741224
-0.5254268862253233 0.10655452221694817 0.801961480366855
-0.51554762513210095 -0.35644897047534485 -0.54722507557064093
0.39225707413801064 0.65367137820605148 -0.21812979461999765
-0.2845454519442458 -0.15350608247298592 0.80640965804401876
0.26488267566356188 0.76217505025518673 -0.26184487758135472
0.18975186503438327 -0.027505136480303394 0.80282915587630765
0.050349920093816669 0.41635460810055935 0.78444094331392966
0.64671123456968127 -0.43593688692363119 0.72633437425678382
-0.41488848390111105 0.03042049947895098 0.77152397840209896
-0.012143948527891579 0.9725016715166932 -0.27787951429515295
0.34653987257221908 -0.39105959944015789 0.33824826537034614
0.24238719084066826 0.92370750760414744 -0.29916339825123228
-0.4086630844498888 0.34893241618847703 0.68998260188296978
0.075816441076272945 0.36495611588852417 0.76425413250702856
0.15773344189506427 0.46463544665980794 0.65931261961257681
-0.71436784582246193 -0.9593627672776841 -0.37929814230957215
-0.44855765321796459 0.25072109411978505 0.57824230847924996
-0.77303433056318993 -0.21097491817648217 0.57387203199493819
0.32004908948568656 0.42244248060691292 0.52684313025693674
0.30931884288945855 0.26015470774997063 0.48120897429792986
-0.74131805185658206 -0.43970369007394261 0.40417046628905334
0.18127711034823493 -0.059216178774919581 0.80508199379130674
0.22648661740432441 0.98538815231571153 -0.292962936747383
0.29178748081675399 0.1099131294982425 0.48975402219752728
0.12167623863303328 0.82975864201463456 0.24989631178999999
-0.21099529703710179 0.42103863705430777 0.77086457227709571
0.39706937150547317 0.66884780488440421 -0.23807759925195426
0.16144188029818629 -0.058727786316928654 0.75807587087871886
0.88758752473554492 -0.28956636159263205 0.39884037291607205
-0.9279683679912365 -0.73351906962330249 -0.48421034194782875
-0.55313336847844119 -0.23224253800573114 0.68851573395083832
0.24304418072910916 1.0793240271301288 -0.42198657565089498
-0.24953828808063122 -0.64857084303100776 -0.19597092045936582
-0.94983594872191823 -0.59139841477452482 -0.4781962219910032
0.020879538091071015 0.61190681254568391 0.67388192266334013
-0.054633390037244267 0.89051662706582158 0.21633239557094985
-0.64002155080837597 -0.59574355399136736 -0.23566762542733616
0.53410765336189925 -0.11666182455669638 0.70373013619537395
-0.23576608185933196 -0.397842907075177 -0.54662901936357944
-0.30991424922422584 -0.20361231834000448 0.80693385343558655
0.39868268139529262 0.76769779338594102 -0.3238427587603287
-0.27667774926924632 0.53697448759403921 0.78690831474243561
-0.66230370325938615 -0.75336053409454506 -0.35729404774476387
0.27575593289968864 -0.083652345988580734 0.78650598317000653
-0.37361768260671069 0.6122142826737651 0.64925841966699038
0.49912390658048839 0.83664625818996574 -0.36703210023898331
-0.74240207643610012 -0.36291548226457904 0.34915023468928497
-0.10752770465570377 0.43482975009586444 0.80623348827234165
0.64098198258279371 -0.68356958663805834 0.55311798358102626
-0.48184158681141975 0.1641840400945489 0.67568436625632255
0.58159106981392894 -0.34430486128326121 0.74150476235273222
0.66005179678385839 -0.23606003219605154 0.71347536359449559
-0.26801515155632832 -0.24845501146989024 0.74072856751864036
-0.79223413949256649 -0.38201431076104964 0.51838276218272361
0.14165213569504914 0.48227259722013183 0.67609767204764526
0.014547536134845385 0.50613311307176012 0.75992592369487866
0.14975583522272817 0.403930909556518 0.69733369358949293
-0.22813748393742661 0.31405863088563479 0.69892566094725184
-0.15667914254466098 0.72524478582948149 0.4145627762063897
0.13577345306289584 0.59828205570220794 0.54861553075439229
-0.46783249934494969 0.46887033540656553 0.69648004286225063
-0.37695217274040893 -0.65460523860914832 0.038407627873940586
0.15420011552348617 -0.082066958044110794 0.80882163352064473
-0.96977247362905328 -0.70313980533657205 -0.47620632783462419
0.65683495839577144 -0.44357192112464461 0.67367480235814237
0.48740303133814006 0.63156546031215455 -0.3035066029027757
0.3347529155874378 1.2158254159906954 -0.37896538115079376
0.40209848384868441 -0.26923087558824543 0.25331311151756486
0.392822241757389 1.0151345085100965 -0.39820854401505229
-0.60816696170942131 0.37982434311011803 0.40257073599757154
0.56564322555829893 -0.24281021391337831 0.72826694693525496
-0.50348789162647489 -0.55524312898508765 0.49119291673246696
0.37534473901042714 -0.18697257892376096 0.739660775209115
-0.29928341011957749 0.80028734579535188 -0.50867463463331564
-0.28392540060202198 -0.26966972949749035 0.73407318941144317
-0.68747628061178934 -0.92844358168747454 -0.41755877447622608
0.91465178445670769 -0.22056783922753387 0.44536803473732489
0.37978213627701946 1.2354344329140083 -0.40082955429491607
0.5491638356927836 0.99087118801777407 -0.50271773162776778
0.63138588041986921 -0.68154138697791988 0.52543583004402528
-0.17399315933576465 0.33211736209105402 0.76319002025188543
-0.66282602376493549 -0.59115844850162658 -0.24225806173048667
-0.94901657506457182 -0.63552008530817594 -0.43781920388206597
0.46389679602105999 1.1921538621510028 -0.50269928074976911
0.47466230987906399 -0.42071920071302138 0.3659743728654814
-0.67500410811593337 0.094582077877305215 0.78273710192790791
-0.18418015437609897 0.49832514562167973 0.75758023462188673
-0.07883525105213518 0.27086753116554951 0.74470112240351671
0.42003082697050864 0.90692720478812383 -0.39015300267249603
0.25847686804783065 0.81847379044994906 -0.28564120761907724
-0.58743436003556682 -0.64194171656524035 -0.28253559659413302
0.31012443233013409 -0.022331593630276925 0.73589744960069503
-0.51537341665428471 -0.68011552008696374 -0.29770631841099959
0.63133849090565275 -0.39334904420442873 0.71744284023405447
-0.48386907533084406 -0.093233883577719778 0.7857892451388736
-0.42515887864148216 -0.33954782919552495 0.67749481051133331
-0.72474429758501124 -0.94531281988321858 -0.43691419406907611
-0.37009928216858123 0.26829000932240921 0.76947858220772791
0.60653770777099458 -0.40657261491587071 0.74468454951429419
0.73450634346540833 -0.59218206636366655 0.60187365404182636
0.29564170689643976 0.48512280612133729 -0.35731921670960703
-0.30689112119280454 0.20946076678053416 0.80629155682987053
-0.59964647388583503 0.096166096053298622 0.79308760491203945
-0.30684664403430234 -0.23392744374225205 0.77573156966943835
0.81679668786406079 -0.20861254289424791 0.37279452511128203
-0.60135495165857233 -0.2914418268122132 0.66595512985689798
0.28061021566615596 1.0646490777742745 -0.38321875196099303
0.60387919128100798 -0.66160152876611955 0.66087732058585325
0.26810754589877733 0.79483424020659665 -0.29645062613698936
0.19366398977584318 -0.16906310137187208 0.79161745401079497
0.67148405062359462 -0.50480851812235683 0.72166658098046532
0.057239020239844118 0.31872996959861388 0.75437551731806518
0.1362772655911253 -0.15779169713406105 0.80700521307262651
0.87145246459113335 -0.19482668749982113 0.41469871414591136
0.043908830158192011 -0.27805702366018392 0.59437653798514278
0.7167682236807833 -0.43185002851195242 0.39054753096857164
-0.3953300376432714 0.44331495262988407 0.82464155220250335
0.16074074735809746 0.78219558658263644 0.55406261395499679
0.34310499866039595 0.88250584974715807 -0.34389833525002028
-0.29423257507568024 -0.044894518258062455 0.7594415082048539
0.34461259007622264 0.48090703597512463 -0.29142705279758691
-0.39512365587918025 -0.50957665559789345 0.57635205159243175
-0.40934975962311571 -0.80469018273038273 -0.14084108045077998
-0.3876677576310954 0.21217897684478304 0.62666037032042743
0.47085697311257169 0.77398487165501884 -0.30410493807468481
-0.24186615291361596 0.68499556351790813 0.66513506926487354
0.11631123864834481 -0.15718957048205184 0.77958252298838071
-0.34386957034473825 0.12711704570430005 0.80164057509833309
-0.38234294050462009 -0.21685388107973602 0.80206489825454297
-0.18867157186408198 -0.16765752847616988 0.7518997007893693
0.011745375503430161 -0.46059405248618757 -0.36810045299093624
-0.079568696960888974 1.0067507508396514 -0.10714929362873865
-0.76338645009556694 -0.61624874586796818 -0.31446875977290806
0.78724961442924324 -0.25780190185384355 0.67245658106238637
0.86467558922697008 -0.38563947059645887 0.60655016836902387
-0.65287405941972099 -0.54403879962089974 -0.39279773348817582
-0.77066900650859338 -0.81242155488051293 -0.50636835859882778
-0.57111221449256622 0.78667460435884218 -0.33358551593707109
0.17267115881864253 0.81176193527374529 0.47726042344755987
-0.38048369326903708 0.39230960453943142 0.63516959965949993
0.50950228925530283 0.87184610881349733 -0.3930498825685077
-0.49802063949666509 -0.55907481374409551 0.40288720852566634
-0.076890981922209445 0.47594166012235717 0.7931553095380357
-0.84020126125526617 -0.976709603561008 -0.43399873497143093
-0.45440004698251529 -0.40078680415921086 0.65551317990485625
-0.33412413749314529 0.30172322435678778 0.81760201468582638
-0.20586199117864773 -0.1222236099225662 0.73825101847354768
0.21527069234161289 0.77078771033646287 0.23165978819603533
0.79531890652830295 -0.29694945376139015 0.68075179101264105
0.21002702771191067 1.1465198974210842 -0.30111349686661959
-0.096569915689109442 0.64969488580451129 0.72588425376572441
0.84712659487831121 -0.41404542090199203 0.6171130647718438
0.73709785291423457 -0.3059771119727317 0.64905085557519582
0.10884023208354743 0.84655132774481578 0.20382770680977952
0.077763102865571518 -0.48756744771515204 -0.10878794076211674
-0.31360512071268076 -0.76507718831162097 -0.14190641383115191
-0.27997257272149151 0.32216286477692568 0.79493619067691523
-0.21067565814197375 0.4688552555156309 0.7616328687893118
-0.21973925417846513 1.0071370233093235 -0.11681401900999794
-0.62425657291813286 -0.37265874973175772 0.63331607529728973
-0.70144935567301758 -0.25444797547867304 0.68166668124718943
0.075401741168938552 0.48446582186066878 0.73230062592310441
-0.82561036686223699 -0.70282635108242508 -0.4482176760282971
-0.45538463750309804 -0.2437643496879025 0.76892788610740592
-0.22660062470281184 0.35604775375254705 0.71735870725496764
-0.77033209833058758 -0.97272960597057556 -0.39837206141921067
-0.031227148818962991 0.44721415003789677 0.79894138652976043
0.80525067726755106 -0.14289221268360164 0.41865398749416827
-0.49713033145374974 -0.35551646028757355 0.6726248897071142
0.65367503008027261 -0.026104862290973418 0.55111683254298205
-0.74222603831806166 -0.30382340301122079 0.40726625424330143
0.2302282293262124 -0.05465977941919542 0.80701932452990388
0.074369261299537082 0.38739152511530972 0.77789004403929018
-0.091245388210381514 -0.54285754939483555 -0.16921158270757647
-0.37713311265413257 -0.66483273164736079 -0.050000979599609502
-0.3954636942989736 -0.0074601918729504391 0.76546449060246091
-0.76422976669297316 -0.30245844627654206 0.62691284459856178
0.82269143973951164 -0.44818983915442423 0.45663362809267039
0.330357894163545 0.38448258268624413 -0.25629234273569446
-0.70745798941552507 -0.69201232946806313 -0.36462738061064881
-0.26145236707217295 0.43602679609893458 0.66700090707400905
-0.63580328105834583 -0.21289882665528159 0.6837774597723898
0.55288792063038372 0.01700695876202829 0.55928082923539768
0.19837753711979023 0.68606403591214526 0.57131029954729207
0.33207348417168098 1.0961590547714928 -0.41390863995187233
0.44493968917462301 0.044777604482568734 0.45886857576175621
0.6179806650559182 -0.41707619754983671 0.74231778556862016
0.53689696277243115 -0.20021321004043346 0.72521062639452816
-0.72946783123741654 -0.50529956646405427 -0.19136287983770001
-0.63245292414943821 -0.64380646419694165 -0.30136107204024526
-0.10473533584520148 -0.43795664407125079 0.40518364397027956
-0.89137984237448387 -0.07830451458695209 0.043036392609641511
-0.55927791133917903 -0.037109051110853386 0.7401034989187989
0.10038532883340567 0.54841958491371967 0.65745877792486351
0.62435083527286095 -0.63292911868137902 0.47268787831610309
-0.093079581647985798 0.88209060339897993 0.22127730269962526
-0.92010541946607172 -0.65881206509371171 -0.434476925664803
0.2784434198547896 0.64297122548079333 -0.37822047879421666
0.295608475336612 0.13924061139599764 0.46367295205879339
-0.52558978260914802 -0.29607821702899195 0.66405739544274744
-0.44240872226845318 -0.37508438757807627 0.67437775057742988
0.38440811317526963 0.69171321062434687 -0.28633724479076411
0.45767270808252158 -0.019966743776022033 0.34902364781742384
0.30698644025952476 1.1093997571699843 -0.4092929952525835
0.097370373331584548 -0.14727941058267224 0.75917070908981188
0.31238390837928265 -0.13183302431235944 0.74014520383841798
0.77943513769403849 -0.35394727369647627 0.68707203898470826
-0.10525976032210824 -0.044010983820891081 0.75205504953202185
-0.34837467213554374 0.48182284661655905 0.52623053089425542
-0.90862706317895459 -0.83361645869630596 -0.49564520041642601
-0.30363883455601259 -0.43214258208066236 0.64350865497122889
-0.69360299727603791 -0.84598122152544875 -0.39619655340567317
0.03005700637382519 0.64996808833146869 0.66513528183132076
0.1979466815377979 -0.34256522909756182 0.65332913683759142
-0.27361440938014525 -0.15477265347456171 0.79073293906399222
0.66341587180048522 -0.63505830044280875 0.65226149364978792
-0.7429860382384077 -0.38930576940978745 -0.41075235640391372
-0.33168853346247529 0.23789014502045047 0.80227832056814019
-0.47100703527552834 -0.81922174515793456 -0.20927075295504655
0.27283657304966713 -0.26706282817764304 0.7344586293687505
-0.84199878513157222 -0.72487817957056855 -0.46371005708024371
0.17094370899615247 0.09735774932693908 -0.55889997263503255
0.68419405006622136 -0.53712956961467828 0.43420541051547579
0.085564468781064218 0.59632323071404048 0.60539116343232446
0.62613008132116399 -0.41744587132548283 0.72020449997780756
-0.19114931894198067 0.31971754608804526 0.77530854305618768
-0.47579989563595659 -0.23608587451017615 0.76120659139846314
0.080046100032757139 0.38597620473835748 0.77233164090756745
-0.38734035795761368 -0.34115722335094301 0.68468782612538648
-0.76884694751247118 -0.41254303976052875 0.44773386349178707
0.17476490789746252 0.79927976014419788 0.26098155227156661
-0.11486774287277735 -0.44723440133524006 -0.47338000540903613
-0.215684760342579 0.51162857348913349 0.67489454006781802
0.3921599613336601 -0.26756769065151498 0.22592219731116947
-0.79667540273408288 -0.43801866444293114 -0.065402495911541736
-0.33837375156175925 0.032561503383342849 0.77236040171958209
0.45554038114313877 -0.56457379034952626 0.43544367917160504
0.022606684923860199 0.96239969767016098 -0.19275334371331188
0.25763170142417557 0.4122255667652921 -0.39766809796273456
0.36789087249784375 1.0969636685095376 -0.42314880486006234
0.72853708055382072 -0.3038287201178862 0.65159530877694882
0.67294275126010639 -0.58699025367202196 0.68544217340151958
0.37153333302131397 0.51485878013819208 -0.1229501625440379
0.21347957989308744 -0.16689910860252821 0.78010224074652235
0.34241160518725766 0.21542834158055579 0.27030321063619045
-0.30348827895587838 0.88542096625918454 -0.42700438537947005
0.047285640898684866 0.39659705141778256 0.78956797687999802
-0.680946117104684 0.70148957833460712 -0.16934261051679284
0.10007671396912232 0.57498001974865875 0.65908567130349049
-0.56228778913475508 -0.27107710634257787 0.66705990223339173
-0.75919068818557944 0.37933949247626075 0.24129673108416558
0.046583215528288369 0.63670470999897977 0.66494794952569125
0.30652853108031586 0.10793969396980052 0.46460880217228767
0.23917063367654218 0.030726888729937452 0.74087338832253757
0.42857808594132829 1.1271514528425994 -0.45436004952813763
-0.82616338153121416 -0.63467535995260271 -0.37422686431320151
0.44555942974832879 -0.18993132219277831 0.26453363147149156
0.83989101367498575 -0.19893188153029218 0.61031860148097605
0.57880662475795774 -0.25435163137450634 0.33994293221697791
-0.56758068212332347 -0.36685765619796906 0.64691603461802583
-0.92519953785572639 -0.69502771186911572 -0.55977043878732002
0.56798650067696854 -0.44521639011402614 0.74329718771529296
-0.57561394718224856 -0.34474528288880224 0.65400929355574688
-0.57395326831881943 -0.55667162854224395 -0.40793887366293241
0.68671041612320149 -0.44693537233054093 0.68944063359262209
-0.65903036354559452 -0.31608368523705344 0.65047523259071038
-0.90256949438916068 -0.84323066981822214 -0.51222925566407984
0.63538402486651036 -0.37219196138478905 0.73639917527445053
-0.38383014866616444 -0.66644975710528742 -0.10631492401376154
-0.11770126739960163 0.75642867656720192 0.38964813658494468
-0.49189977834858878 0.42937552747006702 0.46601762090447263
0.3239414767703967 1.1298104521391918 -0.41657319822135114
0.4733464415417884 0.040910169903570992 0.56366626333981351
-0.33292125673254336 -0.070043550557784773 0.79123446919564566
0.12887568896423462 0.48739702349776914 0.67907889750012318
-0.091257841417958507 0.42772486913073693 0.80866063115885645
0.31922656222906481 1.0011576589712963 -0.36627811287744799
-0.17042826167967784 0.49159087340460661 0.76025068034800203
-0.34152688145186022 -0.6784574907534946 -0.096795559225863692
0.52545389367880879 -0.49925080428366175 0.39685503513278003
-0.13632333479110093 -0.2771364879377054 0.71524310559672066
0.70462163182988258 -0.33256216985579989 0.66132773640895703
0.035417107869320882 -0.32399957319340122 0.49021413153906079
-0.38576078994077095 -0.3764414694503655 0.63569919185872648
-0.62406841917057798 -0.93746541067269606 -0.33048628863869645
0.29793158031665129 -0.10914254971168336 -0.34158548017079948
-0.82126195980537475 -0.73364265344592838 -0.44391926990664426
0.74926517682812632 -0.37322640031315368 0.64626699951879774
-0.15452269657313811 0.37688125058351396 0.77696663161268531
-0.024172301430350041 0.34120513725171731 -0.65306385998216077
0.15645834924032798 0.37371127693247885 0.69734186528335829
0.13283961485334667 -0.22976796637437258 0.71220257639886986
-0.37943507684218514 -0.85358795202347992 -0.20445537482023057
0.12294923721605419 -0.12768944206266464 0.81077288918082147
-0.53795106927584357 -0.093988955508000904 0.73703670965941537
-0.61619934506755047 -0.32322648869918069 0.64873797837351155
0.37203715857075953 0.69483624967723556 -0.27212297890703013
-0.02775982698206856 -0.3469946561015963 0.53615489318135445
-0.76336336751556688 -0.47426097532948264 -0.13249794720759356
-0.72726948123760315 -0.52915649877831905 -0.24739887044300712
-0.4150780609767355 -0.01326444023316542 0.75956489097287982
-0.06472148251069354 0.2612266463210704 0.75022045091855238
0.29762068702969491 0.82032612191109799 -0.31748605781160461
0.062545328931550126 0.83400411431884525 0.60611645469063979
-0.46615243369523007 -0.41707573986015323 0.64469342252823114
-0.66089501181251253 -0.98543957859986064 -0.34207355913191262
-0.62896538332563579 -0.036410076210214637 0.74063396799753323
0.01225450671639744 0.49994799280242352 0.76608108187469559
0.4167568265696297 -0.59308179692344754 0.57071591110388165
0.2749445998275632 0.018679202316900012 0.74891176697268835
-0.57401291575476621 -0.2317465745809546 0.68902342571743291
-0.052467334478195293 0.52002828447912819 0.75066007385224787
-0.45309442621887164 -0.81127590489969503 -0.32445220301778632
0.016816381243438039 0.51319987648111653 0.74666407454353845
-0.25122745203700581 -0.25617048015762522 0.74553398085035805
0.13202442463724179 0.40613897516016162 0.69136530559328524
-0.58380641101566821 -0.2081755886717771 0.70690441066463405
-0.5281237076423777 -0.61557967737094299 -0.12668149467748321
0.18649973163600464 0.28348511577943181 0.68517928311074194
0.037351653780540228 0.61021554990092186 0.66927666471317593
-0.78867242045112695 -0.56061400145858964 -0.28186541087174688
0.11169595370415786 0.52753018977218802 0.6610185398174856
0.37957483330305558 0.56007060072850878 -0.31146810037631728
-0.13911569054920114 0.73744528932673403 0.60094555461890375
0.30610322152267122 -0.49842041263189596 0.56397963434368403
-0.86994937291802843 -0.074494142139132746 -0.40980702943588176
-0.94530961052314033 -0.91974650994227425 -0.56131659544658774
0.32636498900668814 1.1588632877757254 -0.39475719244206897
0.27393962483457712 0.0020928932103950748 0.79047839267921105
-0.38541712435821662 -0.3928561649196245 0.60949758749519511
0.20307749884041221 -0.095924663698132573 0.81227209368318554
-0.71947548297345021 -0.99025399221759547 -0.37364102221892659
0.81325368697939537 -0.40318572955150545 0.42011246742339226
-0.4623863956841151 -0.33022342471212474 0.6746120912921495
0.50406764511462099 -0.15817115108992108 0.72209574272552102
-0.4639278546638953 -0.33663594666558927 0.67724570596906442
-0.40415331036108282 -0.054538516343023868 0.78632904405618342
-0.46756111145110235 -0.35041212387640353 0.6796547585546372
0.30136382571684051 0.21400155711619617 0.44408632425693872
-0.23809450892472367 0.67015089679125994 0.60461232157180833
0.13307322471074662 0.83239881146280759 0.532214280450785
0.20038434011284756 0.77630667793379882 0.39643648915820795
-0.37013426170950708 0.24965237974891386 0.6817928242523057
-0.21399440324164121 -0.47261232327933089 0.56106956930696705
-0.17528276145933031 -0.31911638249780494 0.69759237802082663
-0.54139640323163429 -0.3397304215761352 0.66726776071653171
0.11261929160134559 0.58747059397292234 0.65669399592033417
-0.915582765783582 -0.80896161195375127 -0.50887832857556115
0.044519621207719018 0.33591611371776597 0.78220911370388202
0.46474897936784038 -0.49345405795101815 0.7173339194765963
0.30072790814579409 0.73226863328611902 -0.29142208589901125
-0.48869026123322501 0.014759458379363988 0.67835321094829171
0.30885835872173045 1.1386063228883205 -0.39259165334200619
0.52461848168222391 0.98873231562820518 -0.41573730603512171
0.12187806501016918 -0.26770524290117503 0.65319574645132106
-0.25976052016924428 0.42309556041319496 0.77262086669400643
-0.63393526822097801 -0.063136692397591787 0.73327551436851435
-0.60651111078510789 -0.14327076028181973 0.71114241073036166
-0.58839517158521626 -0.64673945307944192 -0.29432285184352153
0.55516351514610562 0.77572978413476557 -0.40722775381192983
-0.24992879067803411 -0.27311914076481547 -0.6151789045913183
-0.68047132852120784 -0.51309897642064284 0.44036132469124623
-0.84500087999080142 -0.60848856498621995 -0.35340317859720349
-0.87029769290513259 -0.72128887595089064 -0.48771385423431746
-0.37637218412293194 0.20563308790276569 0.73685557864529727
0.035096326980991133 0.3052364313393916 0.76002589699974865
-0.1788845883122139 -0.3923015856951253 -0.54727071363916757
0.34952152618780463 0.71892625420293688 -0.35863856675845085
0.88168225079544127 -0.2576246787399431 0.59911710433496468
-0.2400359436921366 0.67154646801240681 0.72293447445454373
-0.2329697246231397 -0.43255152328182711 -0.51424257235558779
0.77212643947158299 -0.30430638038214741 0.69365096922841507
-0.40883582858030387 0.56528421690160946 0.6417456592292401
-0.18422926017515762 0.45737166527232054 0.74028472914723564
-0.26528163177384351 0.01948414086410688 0.76680761107640083
0.2793313085817038 0.073999867416940646 0.63456396525549918
-0.61380762845805614 -0.17741512929273906 0.69940526439915973
0.70495978048634589 -0.30038145496994439 0.68134706489285557
0.29426808058281295 -0.015265979029513099 0.77191134919395965
-0.57219793558462995 0.23624655560496777 -0.65367189690435623
-0.36045274733256372 -0.070109254806077548 0.81079434668089612
-0.67535524190443041 -0.5571453730906375 -0.18821986862705864
-0.64019735408007949 -0.61276882282662526 -0.39387496291484436
-0.40871432761942572 -0.77962236153780085 -0.14725284114121612
0.39265530948826388 1.064559794559284 -0.41489841820970136
0.27377391793637817 0.74512664832189723 -0.2762053592320079
-0.16690155379530727 -0.15585949363163287 0.69505250380766481
-0.29696847704316842 0.47117759233466683 0.78641438418154352
-0.71136213094447365 -0.45814728139746941 0.26059403479298338
-0.064841533748295099 0.56733456723904929 0.71593060463253466
0.55787567923339532 -0.15848014417839429 0.34062370114122636
-0.68214179831371524 -0.292202417043262 0.66454372341689461
0.41342784400992411 -0.55590679417251232 0.4540964051274643
0.14648189357863461 1.0673692622320277 -0.25181552147550368
0.29257436044023327 0.74546182468229527 -0.30434962987334324
-0.28971822329690855 -0.7261377317777522 -0.14129653903620629
0.50251260854592805 0.95006920540347739 -0.45052471701453251
0.18760864297847224 0.46267846537364532 0.65504396509665985
0.18212515882260377 0.94968325034939927 -0.22006268580229044
-0.6248650531556238 0.18099591063669007 0.69743512652543405
-0.516179748461295 -0.66883704237830233 -0.2968958052925435
-0.73865044824349679 -0.2041859004441986 0.68155915954605684
-0.033708249423701431 0.24647664183785456 0.757504436610691
0.25729619462389253 0.02852841002691453 0.767901386002382
0.28604631595242525 0.79356354946183161 -0.36430886248651939
-0.74129640097903771 0.6118481889239562 -0.18612428809085269
0.14979915122527543 -0.29536377098216882 0.64762778922595055
0.19767349593763933 1.0155020680757971 -0.25773055950055418
0.57531247088829796 -0.68408395279300771 0.63934922578731834
0.0075054744335339568 -0.28293299972942487 0.62841576802260624
-0.39450404421703156 -0.66338404001709739 -0.11855769551342324
0.87139323441886607 -0.23777472916786724 0.60166420065936821
-0.30752654952704406 -0.0069595509421962465 0.77315967577176481
-0.35817920984362644 -0.66461092839631974 -0.024049868036568185
-0.49775375859441479 -0.55977317482274636 0.4371076193668107
0.75283837316669611 -0.31766588512947957 0.65570142624626671
0.39407711649359922 0.84644070332147181 -0.35038233706795552
-0.22912166130426703 0.51976181132773602 0.65188889498856051
-0.35141651694105469 -0.21390176626663915 0.80594760324325498
0.12848546042924691 0.35460741208639646 0.71336665843850078
-0.41737378777116368 0.14996752323205809 0.80005530339026065
-0.85214656309479575 -0.54902409013618891 -0.34064823036068798
-0.17184894605873366 -0.4902498415366916 -0.40908348286306195
-0.39854306536460959 -0.2226659292060742 0.79721627557796448
-0.43858673415327132 -0.087696229360562761 0.80991008467798942
-0.36832376642434389 0.29325617820843286 0.6286187969572774
-0.83404083119355965 -0.91503893394913682 -0.46549788633995959
-0.33584637132521422 0.18574807842443031 0.79754948989339303
-0.54707840883314662 -0.32213931180496447 0.61158094878702329
0.47959722131760896 -0.65009070901840571 0.57216150851103609
-0.63346212432788485 -0.78969051114660349 -0.35013263822616508
0.2349965657491766 -0.26173390243461836 -0.35475309561549456
0.14255192001169698 0.93518390814122632 -0.32032075072180327
0.15457416326800882 0.83514910430185685 0.1577306559806454
0.18093463633207302 0.97289044353394316 -0.22499979657131247
0.30851300293144346 -0.038488684352408153 0.7454754850893931
0.29277967150959916 0.09912848127159446 0.52793506644848809
-0.6484907528881283 -0.16964975245297231 0.7017159162828619
0.81951331723795107 -0.28220934276464893 0.37442310293684167
0.37933073004275342 0.50803911947375835 -0.15492891934533137
0.19843411613346151 0.48095963520495455 0.58171472460603757
0.69383268561916744 -0.20594744636686291 0.3551801441616711
0.04117069932119316 0.83287201694376378 0.32735934312032727
-0.55634614467035015 -0.60911936546985967 -0.1916564754255512
-0.55596368370144944 -0.12856596675926379 0.73423473235895265
-0.71658861875764113 0.13332994438222356 0.75542424657337981
0.80528376841393412 -0.47301102999418221 0.63707658104100306
-0.33866095978408078 -0.076153270747352231 0.80661956934250845
-0.50337548742708771 -0.023948539317782291 0.75738901961811711
-0.85216478241508398 -0.89096454931535907 -0.49466973241790874
-0.32210774952952265 -0.21903668774061735 0.80238418595275596
0.42258073758462456 0.75860561431072493 -0.31535070955089195
-0.72484773728172136 -0.93352771061687234 -0.43721489962270049
-0.049337406837516085 0.23494309046747919 0.75917327577424709
-0.0713092131544939 0.36349234774859673 0.8135110827751576
0.15660327294907236 0.26647850154824071 0.6036443040121926
-0.89725712300656213 -0.81621401693644846 -0.5152249485277145
0.2948264755031002 1.086081180817458 -0.39884578229224005
0.54502092218006892 -0.076315025642413881 0.35931835060201828
0.67700822632704305 -0.46459276047432507 0.72908060030421495
-0.17112743393807822 0.37179575014720867 0.76526520143879162
-0.59321004090192919 -0.59866931342632101 -0.20159971032032897
0.36105683584128045 0.56756361100074293 -0.096704701068784371
0.382115515683915 -0.26793411987111593 0.18506791856426646
-0.39582761687540235 0.19073306057114259 0.64996775575852572
-0.68431839640825609 0.084671178793264801 0.58514951604437926
-0.041599815156377007 0.34928369502082113 0.81152602923270423
0.3880246771587309 -0.30952380639870603 0.27594958645098255
0.14762189161387668 -0.050769350143053504 0.74796443589306594
0.72106092629611507 -0.46967265628345323 0.71094193492478019
0.68521113442284731 -0.61659674966197886 0.64945407639876429
-0.55671096742060011 -0.79523815506225981 -0.38711339412988782
0.56703722126226186 -0.16013718188785031 0.71054400485601232
-0.64104550081195799 -0.75337294510585817 -0.3475841477746735
0.42504961981672418 0.70979619419739759 -0.26356378356451793
-0.11056289788506241 0.22391534671051261 0.76101206707007452
0.21367501243580303 0.83726143029369648 -0.21193624051878562
0.072789949912006074 -0.12667463537683288 0.76442735772018044
-0.24647350309482741 1.001729095530953 -0.24238433037164786
0.37495936373596883 0.89780176194154215 -0.36143363429076469
0.4059371002879949 -0.4022987454923963 0.72940673471859463
0.36641733187427195 0.53707068848632056 -0.08117083125004293
-0.5225921411327844 -0.062183545638306414 0.72465533206595523
0.37764695767116085 0.81070429214065243 -0.33427077814951289
0.029276116922806295 -0.0640820078815032 0.75767900630853879
-0.10009713910478485 0.10649997122955757 0.74730822780401684
0.6749141453003481 -0.42129724660667345 0.66342867873266709
-0.21229306968321177 0.40529045012809872 0.77252901547115349
-0.10021954161761462 -0.31455136272266515 0.67525571818533769
0.15349929908299675 -0.31207649259443992 -0.4242949581009256
-0.079101459776372784 0.26562206852794024 0.75159238281648411
-0.19012897833981929 0.71079685815354177 0.64922800388464974
0.48837622004887871 1.0566816996717578 -0.44589448616920563
0.35273485373805596 -0.27372104663683172 0.040743533175242846
-0.49805244183994002 -0.082136906381303776 0.75677543115844359
0.15107609272487074 -0.094101152246874098 0.81269172193510764
-0.82067395542077515 -0.82872547357544457 -0.45368762356459569
-0.39606328780845096 -0.75416428018578363 -0.14841983100879436
0.44016275965582147 0.61431563861852578 -0.31435375246710079
-0.31877574452959112 -0.5272822314401292 0.44762600780752992
-0.1644421259617162 -0.45243743033319195 0.48576493932640968
0.0018318783518241899 0.23033894579199576 0.75013629132198001
-0.20373111236748023 -0.55032883524117837 0.22186847577152158
-0.70301616576993797 -0.52214468577478246 0.045202446993873394
-0.5662806232196268 -0.20338188185972972 0.69878648179782754
-0.52649658300010671 -0.063919124059315324 0.74429397982727596
-0.041421149096857013 -0.29480978950788406 0.65774742885247761
-0.19736999931083976 1.0112816496015486 -0.23900811575611763
-0.51557823275489711 -0.38533692754181592 0.65272353879871048
-0.75440828304228258 -0.044798629333307582 0.70394674527582868
0.18024493518119242 0.015276016816421212 0.78212891487303127
-0.44463088107304416 -0.7594878708480981 -0.24825371347670291
-0.83078839078036926 -0.9660649836621843 -0.42588805649133477
0.69625578914661779 -0.31593869058432344 0.68464145749051419
-0.052756739168149824 0.44796524029092288 0.80158642808395131
-0.26563824135504172 -0.33466441491498022 0.70143548738723305
-0.22257234517011343 0.47206896058878045 0.76079039138077031
-0.76210656850647218 -0.51879583580519917 -0.32328388817758397
0.44207343878232119 0.011310182371727207 0.38402301224572077
-0.47659794514596399 -0.60946038981365591 0.16717685749474026
-0.19948979504422026 -0.136277526948968 0.76167262491898935
0.33161924970957812 -0.070519752199564079 0.73132571840416138
0.434007781368766 0.73820602298314086 -0.29535364124912644
-0.95574161460931972 -0.67256840455957678 -0.45820313962316211
-0.15174067980816985 0.30591288074442446 0.76086226791948053
-0.46825306468192085 -0.78018652506216157 -0.27388436794640969
0.77073718909834632 -0.39320417828228715 0.6890612607093447
-0.94943100211694265 -0.59130427913698003 -0.45171988916663486
-0.33058002371665579 0.40382595862073867 0.80819504422916966
0.15378853367026207 0.84644911485677987 -0.36220189927523605
-0.54480804700999619 -0.68648201133331033 -0.30957812255349609
-0.69282043670507554 -0.15772531284197999 0.71292400744301687
-0.1279083097209352 0.60857146101070336 0.73125003735269756
-0.82945061558562194 -0.16696827031602202 -0.44540009699707372
0.87351324494376636 -0.3862694736983201 0.45526270165929389
-0.24147013532118702 -0.020284611669285191 0.76441278917625932
-0.15034340094898191 0.52353768250038835 -0.65535281179160609
0.29995858519054608 -0.22199089869540101 0.74220140130160928
0.0079405327011002197 -0.31981300404255963 0.51459179098036245
-0.26925532858945489 0.99549492304351661 -0.11634321673857106
-0.42682904689594958 -0.78635312738054475 -0.16536700477549748
0.1173063907722425 -0.39095004525998744 0.33214590814710226
-0.14121017249088358 0.21505129816466195 0.76315156970038023
0.12420769936004197 -0.32990222299276017 0.52062946869448268
0.41183406653912735 0.70393801414172974 -0.28933693171130942
-0.41641956303431338 -0.26084746885279553 0.76842833289768864
0.25534428636206868 -0.04527388444215652 0.80040729723383486
-0.18573827933825476 0.29817065374802376 0.77464128912528085
-0.10878157525943377 0.27794177014642929 0.75519021978159528
0.44203976074815066 0.87089176576773175 -0.38942915065630407
0.0976867081306943 0.66416390979481443 0.63709128053803199
0.063805024924791176 0.28041352881810466 0.74196382251081927
-0.065496879702102995 0.85159784676074146 0.26835079504927678
0.50208038309973357 0.83222213619111929 -0.35406309552254867
-0.90769443106152603 -0.10606107526542163 -0.042891760595671458
-0.26222286921856336 0.72647370876226725 0.3608782113889194
-0.54575642174644734 -0.2974876834070701 0.66225197011652825
0.43819758141280124 1.1401724227435883 -0.41204390665061635
0.5603725726133163 -0.40425404079487803 0.35616032392845504
0.13759404163210026 0.40561639247837045 0.69456003605774819
-0.1263181576305013 0.44070861560392549 0.7987723826990456
0.35715937686721799 -0.28737212705960535 0.74216452784327669
0.53055981871439639 -0.69233971184549581 0.57471582225456985
-0.43374925709764411 -0.89557990670784893 -0.2736468582479783
0.32125468424744996 0.31427152332269692 0.49175625379567833
-0.33797290397054863 0.50671163123396989 0.60505036670453594
-0.036361893483759761 0.48505723204173168 -0.62619274525570334
-0.56303531189303768 -0.89440883589882048 -0.30697694407264242
-0.24432200002945784 -0.19475348815834459 0.75400066632189877
-0.64990911177016197 -0.56921747712682436 -0.11866099241508375
-0.7441671765592055 0.100875658625172 0.61028986492305493
-0.74194028728911232 0.064565105134213541 0.59059301498566197
0.062926160592619129 0.81628276839783642 0.62569919654557382
-0.2949019499344443 -0.11711522948258479 0.80864796406924777
-0.030108515354600629 0.1643911488016756 0.7436213721141649
-0.56581252090538292 -0.078480331992684116 0.73727720157918186
0.45354158938727795 0.7520981089534049 -0.29013547678079504
0.2245323212185982 -0.053714743218165495 -0.48038955727133825
0.1037080901730065 -0.12611202045699788 0.79840852099618387
0.16419063835586234 1.096085260461197 -0.34260226061007909
0.2650553526234774 -0.029063905582348171 0.79723240337375112
-0.85035330528971287 -0.70479948963515393 -0.46888031728581114
0.029890477267368765 0.36924162557193929 0.79860689891624559
-0.25365541928196039 -0.29168915103312898 0.72725140857126291
0.14301325996530101 -0.2628788573939389 0.68035061407691955
0.053831968919429207 0.3549249660288385 0.78820561357599983
0.026547211213136857 0.65926952154446483 -0.53925143959263455
0.18511511758673016 0.92694324621785729 -0.21709208538868985
-0.34844325717703406 -0.47385660179865219 0.61317294467291517
0.27201754901431974 0.019718139078554797 0.7770994385859521
0.51048988987478372 0.91283626392773209 -0.43921719787873126
-0.24829131666698956 0.33727413959891339 0.7795268099008501
0.30021278469929225 0.20651046898717773 0.51269997150479751
0.01006508880455248 0.82264385111323812 0.47415673310811235
0.80782249839374232 -0.17188030886402617 0.38965190042041153
0.057521093098982914 -0.35998214950108065 0.4298088993741857
-0.38623089882119854 0.62255370381356068 0.70173243766280247
-0.32452379964530914 -0.76527286132715555 -0.12374748455520468
0.17193718417420917 -0.046520880968221157 0.78841789307461174
-0.95412395223575797 -0.71285142040577187 -0.4751644529915463
-0.56636458797699529 -0.33625683367170356 0.66116689467557188
-0.9578002572151435 -0.74626214992467599 -0.48329632630456176
0.76584717895151533 -0.35714561976552983 0.66119896709385217
0.19323285969879811 -0.0084281034895901108 0.79991353413956023
0.049922909558799244 0.6483360597705361 0.65927045154794994
-0.81226345881331852 -0.7877802443954951 -0.43784314440709282
-0.55701156926846496 -0.38903142980781436 0.64016768317664674
-0.69118000036588978 0.61683419835515552 -0.37840275450416699
0.62580242124838104 -0.56253749715066115 0.71205293103745249
0.030189461909770954 0.054138876988056639 0.74304908609911247
-0.37076368336555388 -0.66974568624839903 -0.090319181070400656
0.41890371562977025 -0.16796702572783351 0.17722104768556218
0.39092946853347038 -0.082819904429536795 -0.054751432344981157
-0.46535779725575321 0.039263479105783317 0.76864489535224989
-0.47939020370155672 -0.76918558937926251 -0.2848319240820999
0.19304657978054046 0.0075016943666941227 0.7944058631879205
0.55330762220517049 0.84219866621747708 -0.3599119889333981
-0.51598973840817686 -0.14670247900750688 0.76322172840277147
0.67482231561043493 -0.62265047334276535 0.4956089364061686
-0.8642500994548229 -0.13960664909859899 -0.40319550504176327
0.41037125498829918 0.67836242142652847 -0.23238683458327125
0.096690750649175289 -0.11383591632924106 0.77126229656913603
-0.41160211949120562 0.13395260174183243 0.8074204018141915
-0.76108119021023868 -0.93230346585662649 -0.4545002408753947
-0.043346729484055851 -0.14011000721492328 0.76603605537626018
0.512546844361353 0.98402269986835655 -0.46170015458212527
0.51041732910812732 -0.40331393207295552 0.74382962153893006
-0.01396115785272678 0.25612766390371799 0.74140932416565686
-0.90515402847360882 -0.11899969673100164 -0.29642077513720216
-0.54528229269907946 -0.11037302442454378 0.73443803650196171
-0.84774960220387474 -0.25448945807075218 -0.37417907366490599
0.57759344905912169 -0.4570406906889849 0.37640210632684329
0.070757669388963329 0.36784024463407716 0.77773692545498585
-0.4047069313975194 0.047576258937617633 0.6692314962437178
-0.37155897777915087 0.59417007451319748 0.6329813193881576
-0.27465848688375627 -0.48725467256494159 0.57872141012779865
-0.53042815623621509 0.013697800579607788 0.75520821713404185
-0.79720246370385084 -1.0149092247617397 -0.44043115738077737
-0.44753797783009636 0.90664879817017652 -0.29143502691258444
0.12575405170952991 0.40042720233285567 0.71345502364740288
-0.0017168694734041035 0.25041742893372643 0.75615514393941829
0.46194625348391066 -0.3763196062699331 0.34470801888280855
-0.4578329696775017 -0.12722121458180746 0.80459643208411369
-0.49758271467008008 -0.66113613864101195 -0.26850591103163851
-0.45536153831149961 0.14622822447210893 0.80080170099413739
0.53685577057762623 -0.67386052941458774 0.48500570371353546
0.042016639883154974 0.55370927170984729 -0.56842522338434609
0.28076258793312392 0.64632871425880301 0.33319816557486048
-0.18803646627843168 0.3435094940961414 0.7691957742225185
-0.22763981709976425 -0.14034747822437788 0.76722892407182508
0.15336183134323275 -0.074577394288862564 0.80340429335344965
-0.98635018060675161 -0.75550378898807602 -0.59212851684586443
-0.84860195093136448 -0.64698295960789443 -0.39831493272060003
0.10976400472466893 -0.23125411193048262 0.69476868118535973
-0.17805849524163744 0.77064670500518728 -0.53868684245638376
0.73290379589744947 -0.49652954261631832 0.69332044192962916
0.76666097495005958 -0.39325444389328656 0.68348807547755497
-0.71251956554469409 0.058464085914005537 0.57803634938485504
-0.56596702237251706 -0.31109482677803735 0.66789125828513174
0.85770560213833347 -0.44570226268833679 0.53631310340690486
0.66191636741587989 -0.31127875754815282 0.3550505218328821
-0.79895988066718393 -0.93402226066558425 -0.4720248914222584
-0.64089717024737092 -0.35675227201210169 0.63691665067643444
-0.57232445644828878 -0.12400970449740423 -0.61808837864501176
0.86708579367197924 -0.15940628980711391 0.52029258518282395
0.2189280767688376 -0.12353400718904373 0.80447870519549425
0.085484780033410146 0.40520205810501619 0.76723432286009507
-0.29350239845963533 0.61875187179928925 0.60294353531290046
0.93316991911185665 -0.26944606571934537 0.51432021604117251
0.38562397327045372 0.76054741102146783 -0.32435594287603237
0.64759146232649878 -0.43236284404170156 0.67334239755978198
0.29196455636215668 0.16209427093652828 0.5006287720201632
0.35226737913945705 -0.31120150198890884 0.18804606612526653
-0.29140495220632912 -0.13497582780123607 0.81336783290572112
-0.71643611225384685 0.33362891677435402 0.31604731406746245
-0.47940913625582682 0.17220833785043421 0.70701296525514712
-0.26866388715596173 -0.68995759672088353 -0.14191829702489764
-0.40581714219387977 -0.36850573500950756 0.6834541888421638
-0.27227278290158985 -0.1107821505163884 0.78276377164329958
0.77221334378109197 -0.47512412188942144 0.6709921260060483
0.75135286466953932 -0.45322634903176728 0.41377945729664922
-0.44026580867808829 -0.39658443384442466 -0.53558959197882894
0.19622412608028289 0.75363141188053229 0.53216651399789883
-0.87153931019997721 -0.3001457250619044 -0.21062274965120023
0.16424835442595984 0.86691403916622334 -0.35049235184944716
0.23522283453203763 1.1751446848241394 -0.32350646466372313
0.71611819360814266 -0.29747194832782742 0.66581984877855349
-0.20842928787591292 0.50845720671028505 0.75516057297070938
0.71335554527181377 -0.28510073646309053 0.68986063724412849
0.93276817149521907 -0.26804874092530795 0.45511100134413196
0.36170819243022079 -0.53741963219449751 0.60813783798291288
0.33061619941118936 0.72917588384469778 -0.27805513997317721
-0.060951679248358426 0.19065446983354839 0.66858404006368188
-0.41315282499606421 0.5423996212154345 -0.65574954898386029
0.064596268960870784 0.82939920030865499 0.40565338198688738
0.3003337331396464 -0.12501427021807199 0.74552363649718911
-0.29403534157832911 -0.37131265714113981 0.62833480315088386
0.028175261368604113 -0.19989021930303896 0.72268941776495821
-0.71438724106646201 -0.093584313037394784 0.52498671303501809
-0.34785186304590576 0.21521329209287621 0.78442513800167535
0.47394532030288739 -0.090339918212499981 0.3057348940311046
-0.17625608975088292 -0.25370143122072708 0.7273314685823391
0.14236173814254127 0.89925077424023181 -0.13161895541807195
-0.74586798612939331 -0.53147678999459269 -0.26377163430885897
0.26673684233976225 -0.078386693997378853 0.79227831722844344
-0.18811908138085401 -0.029370884113165685 0.65704645139593887
0.15517441411568272 0.0044848455595920544 0.7406601914315204
-0.056979369008414882 0.31906063445956256 0.80363579145735275
-0.45137647119464808 -0.2373941099724044 0.77538448357261947
0.28391002250468717 -0.019262935362285516 0.78499290182901738
0.203354864947277 -0.20951330278126878 0.74087801270898834
-0.63620347392140797 0.026974755388771809 -0.61148733153658785
0.65561991251376739 -0.59555376884075928 0.68939503844560179
0.25743177656000865 0.74402320246420373 -0.20932940772307412
0.68326624741183783 -0.39133851323388025 0.66310874358128247
-0.4424168658482947 -0.77325584739051278 -0.23205610584628153
-0.68287087625394471 -0.94433441353123926 -0.40877165113729208
-0.44253002619940468 0.17457597839094063 0.70766551112922815
-0.50660447236572526 -0.20701352945998064 0.75401350600013095
-0.70542075745708988 0.15858444596363008 0.65357418674099765
0.32340235359864289 0.90453424457355314 -0.34262364893375985
-0.47871485945875658 -0.032868680810596906 0.75363137946258418
-0.0099484330840167168 0.48176193556317792 0.78167576577078501
0.56794127722736931 1.0719907591257707 -0.49448705770627288
-0.35618173521909707 0.54710448188600869 0.81197650938993227
0.65834791339339205 -0.43991869825715801 0.66923849494148857
