# XYZ point cloud file
0.27146747535528454 -0.089109225298855788 0.78525100405803916
-0.39569271304174897 0.58976960879846252 0.66816859384294258
0.49952930477221147 0.86635925167817285 -0.37661909568775159
-0.7296598425905475 -0.38053343233851877 0.36659462679947197
-0.12363019524953825 0.42253059110799063 0.81343802096029294
0.64110578402810037 -0.68788170072965316 0.54141071892285519
-0.48661206964992137 0.14529620840397484 0.68764340546772751
0.57916171816980266 -0.34996720056671404 0.74174444854388444
0.65775612956415463 -0.2383028204007408 0.7192667518541106
-0.26199149019921386 -0.2608416767702193 0.732450651861141
-0.77415503987785605 -0.40335107277151527 0.53256925752316719
0.12618073196410956 0.47739609237634517 0.6878945245433995
-0.003362068695921705 0.4968384366009988 0.7699155616415494
0.13616019988878461 0.39930593331097353 0.70733775512240937
-0.23986944664985888 0.30036962228077035 0.7073456278407495
-0.18089566916925598 0.71028821208290172 0.43511592980073521
0.11867979017690045 0.59421255003303808 0.56355297953280081
-0.48379796686956811 0.44579315216682924 0.71413153672121954
-0.36520084365185529 -0.65438496944346336 0.027963559874147004
0.15045166791202585 -0.089238370220471208 0.80497747195299751
-0.96394094755738002 -0.71228242103124906 -0.45030439735517802
0.65550001346935649 -0.44811162884631484 0.67254738440627893
0.49015462282954159 0.66378642561526624 -0.31346785122552795
0.31760393511239532 1.2235830243605339 -0.37710692405798962
0.40566323656501158 -0.25671170964430634 0.24203583135637213
0.38519688098573118 1.03479335523243 -0.40330095998560872
-0.62302682987700875 0.35508380434659603 0.43329192458103472
0.56302328523942968 -0.24633931446317503 0.73064205791802106
-0.48639316451117631 -0.56872691123376096 0.48447684342880032
0.37259363357950748 -0.19137144727021005 0.73774853589501066
-0.32657339015574532 0.79263737057366979 -0.49298468214676044
-0.27704753716718861 -0.2822616847550008 0.72551335184694254
-0.67572511078678044 -0.92889412630324331 -0.42273087499605028
0.91973202865786019 -0.20791006695239944 0.45223146194520158
0.36374800769121429 1.2449905420573519 -0.40080938487074758
0.54870138648820399 1.0209885468255642 -0.51776527400900219
0.63200026747432947 -0.68455994999596115 0.51266753015099531
-0.18651392683006518 0.31919672016925982 0.76970049428332166
-0.65618704933245264 -0.59304036336866761 -0.23315277898752584
-0.94442538052759661 -0.64440491940408062 -0.41018853630732111
0.45359882175770022 1.2096504765282288 -0.5110259743590293
0.47802781944663175 -0.4133545322503831 0.35319215837803664
-0.67229350478068084 0.070844438802799781 0.79650795209571434
-0.20218763328494604 0.4835256084568329 0.7677420305928262
-0.089707832372192875 0.26088398687919434 0.74974521368855762
0.41619506027183129 0.9314987263634511 -0.39775163082087983
0.249914416447129 0.83529933645497212 -0.28595329535696179
-0.5805314285019294 -0.64002137635821876 -0.2808371799285414
0.30537499077010744 -0.025681578997336585 0.73727350007259029
-0.50801541922655191 -0.67521639745350681 -0.30236127700900911
0.62929270056163356 -0.39879612570692524 0.71773729678156217
-0.47826434332311896 -0.11076297964228043 0.78645009999007087
-0.41388660270876632 -0.35403837349498724 0.67148242443422446
-0.71276800122459871 -0.94697454916546464 -0.44053144901364155
-0.37904552945524667 0.25076809036375081 0.77744871174147345
0.60412443479156008 -0.41344163177170368 0.74416934920089983
0.73387895692586125 -0.59623539806183157 0.59774101510338196
0.29433468140347163 0.5138826292293901 -0.3686327370618217
-0.31427496736460708 0.19393271751251961 0.81030483997629055
-0.59845280341041796 0.074352966422622346 0.80319724122114222
-0.30034622447734272 -0.2475003829988871 0.76767828781745284
0.82186049802981376 -0.19393452176103054 0.37432240323776389
-0.58802449811751778 -0.3097813061650474 0.66866995431417331
0.26700450170785728 1.0763086977189826 -0.38332958922132332
0.60267510438996141 -0.67045692566051862 0.65116973896759001
0.26048520588941043 0.81310249318450212 -0.29797263450728911
0.19131549809310364 -0.1761280362747103 0.78597099089468914
0.66922452991275216 -0.51257203985205924 0.72057047039236666
0.044906214454069393 0.3114995082925075 0.76081317072746979
0.13415972800749915 -0.1656421165575156 0.80056913956391651
0.87656270923484669 -0.18102231996019696 0.41971852590930703
0.046339895170272732 -0.28259269802609888 0.58473110012928065
0.72010507832642467 -0.42291129899552882 0.38369075731662949
-0.4099410199560074 0.42290025532719389 0.83482765178127083
0.13847128406236614 0.77683547549622767 0.57214310605238516
0.3366310446576033 0.90302050246474042 -0.3477722275794351
-0.29371822876814729 -0.058257897592118413 0.75770410226689466
0.34452298962255828 0.50960414128268572 -0.30102406690422334
-0.38057374841106323 -0.52215121369355111 0.56546599687913912
-0.39674950689848654 -0.80137620298760148 -0.15610959215232784
-0.39541784086442167 0.19577198436961485 0.63819745842953024
0.47088536847104556 0.80232684797568432 -0.31105485159369595
-0.26645666548619484 0.66590913055836443 0.68179870289554934
0.11460530057004611 -0.16462862666636524 0.77310371542497758
-0.34803388692278736 0.11135205398850645 0.80441654304206256
-0.3746482835274707 -0.23213738784278148 0.79532532262333688
-0.18615591043251081 -0.17876744781985798 0.74496667164690922
0.015422684417120733 -0.4341484255844601 -0.39389464829639748
-0.10716216527089611 0.9953280182153188 -0.087075326752867055
-0.75725533723524741 -0.62031131873290812 -0.29948408421304729
0.78636914685659232 -0.25775530726704354 0.68157568798769907
0.86532564303997339 -0.38441235795413964 0.61331334402212589
-0.65091320488846249 -0.54173269593460027 -0.38387872981785803
-0.76372976633301759 -0.81304541815457432 -0.50092980947763865
-0.60538844023353389 0.76053248545318075 -0.29507546856842776
0.15094283226384841 0.80742525913939045 0.49605295112089709
-0.39456360742287316 0.37351467328527677 0.65048342377331203
0.50976711826558818 0.90168401915919238 -0.4035689689464913
-0.48210576765049751 -0.57068332420098611 0.39787389411730911
-0.094285267726736899 0.46420195398004438 0.80149779928245624
-0.82625289807819469 -0.98359468247071247 -0.43133114932775196
-0.44089875961604685 -0.41562158772387492 0.64875546355583769
-0.34433667636992732 0.28463626203439252 0.82386814195472025
-0.20437545594524181 -0.13341659031087438 0.73329611521481608
0.19991462281833372 0.77329181181564988 0.24753721396462602
0.79429140671270004 -0.29792626544202017 0.68938252380799747
0.18998459546058477 1.149265270160269 -0.29378949694870676
-0.11946683811528672 0.63592750761627292 0.73893908068883052
0.84731860563611994 -0.41408065320601034 0.62278730210043387
0.73634207731136747 -0.30630457551844187 0.65427851449380059
0.08875817571844874 0.84356801822290084 0.22176165209187371
0.083642008427893488 -0.46899472850442359 -0.13162857552838381
-0.30255643769313934 -0.75836388463790216 -0.16041764839115202
-0.2914993846802858 0.30638321187631656 0.8015136039638977
-0.22763578271496199 0.45359681290485976 0.77137890303940959
-0.25187646819684417 0.98786704933681491 -0.091148954817204531
-0.60816388572060243 -0.39101693795477233 0.63506855046287192
-0.68682914066926748 -0.27554301307284734 0.68973291192267916
0.058716268339724154 0.4771681918900178 0.74281486334345126
-0.81999305707354098 -0.70650816929742488 -0.43320489429011089
-0.44555472341616403 -0.26009137121576242 0.76431633535281018
-0.23971501315114291 0.34181899712660746 0.72622609816904871
-0.75622656692324719 -0.97752397541001956 -0.40013523480285229
-0.047718115300597858 0.43682989464575162 0.80670521595207212
0.80945571637928226 -0.12965302446995985 0.42333214817638598
-0.48389586780370036 -0.37146826638711294 0.6685552280276521
0.65342054720101728 -0.0193314645591387 0.55889952741641191
-0.73039760284558142 -0.32262866386729616 0.42542158551871617
0.22546085711187408 -0.060807956915514216 0.80550380493312745
0.059990305189551563 0.38002753708678949 0.78563987201183982
-0.085181017180397209 -0.52712485388296337 -0.18945681650046731
-0.36643005211242607 -0.66215580534700602 -0.060823154537401114
-0.39458491640350696 -0.023270494567630973 0.7669140544489691
-0.74739876788419357 -0.32447461693012225 0.63856872013103161
0.82548090282291331 -0.44146846538814816 0.45494313578045442
0.3307346183640919 0.41290941065613995 -0.26609813345929756
-0.70060036329412489 -0.69282713311807731 -0.35720423583264294
-0.27724118932624808 0.42014387923604923 0.67950181962213074
-0.62417756995676699 -0.23256172545437082 0.69022089882265025
0.55123251447590238 0.022432641334382941 0.56580857340606916
0.17946599985233963 0.68280485330073948 0.58807795585023992
0.31966285729230715 1.1098054150461987 -0.41628593395892349
0.44361642729973527 0.052067255332672868 0.4621036854433484
0.61557953620511485 -0.42402202016016344 0.74191750508463883
0.53408440457444395 -0.20317337698393167 0.72777454213225778
-0.72395761465610797 -0.51100639046880203 -0.17400924806686868
-0.62576018527925259 -0.64312013611843843 -0.29680096005926848
-0.097408938949659296 -0.44053874699587348 0.3922616913594284
-0.89416432329552009 -0.098966677711353146 0.086574042212032909
-0.55473621352597835 -0.056446899850000065 0.74694582435453727
0.082878185155920714 0.54222168970080975 0.67042748684800402
0.62595250110015543 -0.63249279548965009 0.45962189894511696
-0.11987785808365736 0.86858649839995694 0.24371258963308384
-0.91488563855637461 -0.66661162782611161 -0.41012016732445999
0.27446554405111301 0.6681268573967003 -0.38679862423246247
0.29161798134948408 0.14364216486292003 0.46795381220676535
-0.51376283765904174 -0.31259900458711898 0.66357703920961753
-0.42973931099990859 -0.38992091495162828 0.66765288146642532
0.38266487682428135 0.71769032553752787 -0.29225888326600208
0.45859120317320096 -0.0087664225023595943 0.34820204441804969
0.29310009225209066 1.1210673262869155 -0.41039852251655684
0.095807736078074524 -0.15441340933637027 0.75295056639443203
0.30920418007438499 -0.13618631881225784 0.73830077053981447
0.77810849810490168 -0.35646229235588672 0.6937124903087879
-0.10714183386086157 -0.053657478833137651 0.74839755220667681
-0.36606903123412782 0.4633394987813062 0.54523166837391379
-0.89984272718335934 -0.84053673241686444 -0.48086539059671835
-0.29248284567028759 -0.44395439771463874 0.631613113661605
-0.68338876831237694 -0.8464178213044149 -0.39681436618204935
0.0086244081580746368 0.64062429272693344 0.67945883050208389
0.19946931307699478 -0.34750218730983951 0.64238904315847445
-0.26996761805705194 -0.16792280045453056 0.78431227026662709
0.66201452265311456 -0.64274178028723616 0.6454834023248408
-0.74591534009337745 -0.39084122052960057 -0.38992486463990367
-0.3397892178458759 0.22152582812151755 0.80756792414673306
-0.45883946703596068 -0.81612094107584165 -0.22195259145466584
0.27182326687987146 -0.27297322678998315 0.72746605363679118
-0.83604711886572325 -0.72898503804788239 -0.44856197938406495
0.17020973651943308 0.13383840787098067 -0.58321957025742321
0.68650923249951412 -0.53250590205338044 0.42470889289475572
0.06710088882123072 0.58990598059423183 0.61973691274729081
0.62407671423373445 -0.42349847557242337 0.71966254155417597
-0.20319815824296691 0.30637407851541876 0.78135372990779772
-0.46584891760008851 -0.25276005578681349 0.75776102784249688
0.065774201243561148 0.3788088932273963 0.78020398137666724
-0.37672699355439687 -0.35499857956568426 0.67729666729532068
-0.75172513903003724 -0.43222060174603572 0.46176385415824839
0.1570373997495581 0.79896764553642796 0.2781483259250776
-0.1134801006865087 -0.42154616127267097 -0.49603226300496878
-0.23406159175924154 0.49609777236071451 0.6879371824325724
0.39591287263256542 -0.2540944585163134 0.21400423355930936
-0.78999174068529499 -0.44928925890911398 -0.040773950886980881
-0.33963735938602058 0.01775597489855496 0.77339089880695711
0.45868655470388053 -0.56246524732523617 0.41909731267962219
0.00088319354380872461 0.96003268002835451 -0.17945865475035133
0.25616984015760341 0.44206076964179108 -0.41125960615427937
0.35691648805192078 1.1126034045921549 -0.42699937436754448
0.72769764000803983 -0.30429514203608332 0.6566250153129678
0.67110269175656312 -0.59502255700315487 0.68124670270532395
0.37047731138142315 0.53827676487558962 -0.12503539206676517
0.21103111744148267 -0.17349174178755411 0.77496678208298864
0.34022686144271275 0.22690762896165451 0.27370318777470798
-0.33331703724252404 0.87213677181759208 -0.4066384737178278
0.032480441725445619 0.3884542932451015 0.7970366841050831
-0.7134186591443612 0.67049311280311508 -0.1224629551599547
0.081772966483893039 0.56854316426200424 0.67252931079086076
-0.55048389725286806 -0.28855106765017724 0.66885516541897583
-0.77581474616592461 0.35046401617814205 0.28467067783091682
0.025750489098202489 0.62802355014350875 0.67911064301795787
0.30311038444937688 0.11253586322163689 0.4680896941583555
0.23355825422402543 0.02670484177150001 0.74230452526138446
0.41911143076650414 1.1451251439977572 -0.46078875274381809
-0.82066130053127584 -0.63989446922655446 -0.35565750879828195
0.44867698945751772 -0.17654702245545517 0.25635022042345323
0.84078128946576314 -0.1945976503856881 0.62112764979541979
0.58214305961697865 -0.24249574497381099 0.33358620357931051
-0.55276094167520773 -0.38404674682035367 0.64598212873515937
-0.92230782956072987 -0.70041039027532959 -0.53791097494786744
0.56585520100325681 -0.4529219618242678 0.74011521488010856
-0.56123912270973064 -0.3622304865973216 0.65402493161559749
-0.57191685210980947 -0.55078521738674269 -0.40530255393007486
0.68505437936756575 -0.45205050663353197 0.68979401515958683
-0.64378436876497203 -0.33559789818816999 0.65541682092771991
-0.89402714727114274 -0.84959925069185283 -0.49852340991464394
0.63297621284346928 -0.37794960761353807 0.73785391017624025
-0.37391089750925255 -0.66236071205264158 -0.11699583331832053
-0.14217874599559477 0.74269799778613566 0.41019186055041318
-0.5081632617505345 0.407261136038227 0.49063021846920241
0.31005026165778066 1.1416103250824752 -0.41806902395996332
0.47073528651560786 0.045163699453496298 0.56911105369779313
-0.33084044552872616 -0.084470744966419709 0.78851168884068201
0.11310989781611447 0.48211644940463527 0.6908298980381089
-0.10716594546211977 0.41588434202948887 0.8156540317164358
0.3089414175060885 1.0169499247887925 -0.36811539907643065
-0.18822199211909557 0.47725704202269581 0.77009831202917234
-0.33143661873747055 -0.67337538914547435 -0.11012294209036411
0.52856024584629568 -0.49378754734257346 0.38325269871508172
-0.13184067736511726 -0.2870226382105161 0.70491548168252738
0.70352604363561533 -0.334151292695062 0.66489421648134206
0.039145082355810185 -0.32603563810794234 0.47937219905096529
-0.37456311635405004 -0.38949998048703094 0.62828810124591672
-0.61050120923403273 -0.93778600103366605 -0.3398299363844034
0.30196551996167442 -0.074290119669182086 -0.36566347147677647
-0.81464132861362437 -0.73738264575186019 -0.43054878409457742
0.74854525049191045 -0.37461494256838002 0.65002890571544125
-0.16857395661527352 0.36399702620714081 0.78394663933718589
-0.033646464105356669 0.36719398161086292 -0.66793725807777582
0.14367622421184553 0.36934367151054881 0.70674114497701712
0.13280792939989566 -0.23595022395890752 0.70407345643644081
-0.36714867296592774 -0.84787655324180755 -0.22374902749478337
0.120360946488115 -0.13553454817519528 0.80501392305733144
-0.53183189323289204 -0.11238494102592211 0.74139787084365982
-0.60171771697526399 -0.34165122660639002 0.6515211844513632
0.36970514107752828 0.71975780501092002 -0.27705153115686626
-0.023068524973513613 -0.35139806553082453 0.52473218074193906
-0.75729358770599842 -0.48268601640081266 -0.11147558313003797
-0.72232628472406613 -0.53340725352969498 -0.23129263617922485
-0.41373610123815896 -0.02944087520566141 0.76157232485933701
-0.075366320205230236 0.25155947254850841 0.75489531342550031
0.29066905340975979 0.83984668531885598 -0.32020771264348635
0.036060555775950409 0.82390597695662593 0.62399408270677659
-0.45202754743181928 -0.43201739258791538 0.63801805994778149
-0.64612645134552538 -0.98744351520573881 -0.35156813481877797
-0.62301531511976249 -0.057513716573615703 0.7503609004500873
-0.0055245575550708637 0.49058625070396999 0.77581382217820449
0.41876870400700339 -0.59732472705030271 0.55502502694845379
0.26940275943016162 0.014865919611209977 0.75069843683626192
-0.5629913269614284 -0.24987242246297026 0.69193080577738808
-0.071007010474140514 0.50884792570060888 0.76088859259063479
-0.4434373449275415 -0.80416260734408174 -0.33859140670222221
-0.0011905224711194484 0.50402360687640324 0.75706679925019671
-0.24527601793368056 -0.26835882433414393 0.73659939298208987
0.11831357775366028 0.40116874299601857 0.70129046458517685
-0.57313110839901527 -0.22680846309413338 0.71037853088672109
-0.5190408519767008 -0.61556221603268924 -0.12706997554944344
0.17620532943535708 0.28017452396450115 0.69287030542726946
0.017211725270340594 0.60147539577897413 0.68289317628685575
-0.7833134684512586 -0.56642246286418318 -0.2625824088017048
0.094861072573090344 0.52176242020957564 0.67362253075686263
0.37973935558566285 0.58944448691175455 -0.32111808547552456
-0.16472444151140858 0.72143012274312746 0.61854355781138093
0.30893924000425121 -0.50148543601311779 0.54893505396983433
-0.88281594688091836 -0.085429416542027958 -0.36889796565330479
-0.93558507565768212 -0.9276243003636182 -0.54885978198487417
0.31131790021871236 1.1690955327862458 -0.39466605597153781
0.26818250312133091 -0.0028012539680086768 0.79167010885601197
-0.37398034244917744 -0.40547883406608265 0.60213085299774405
0.19917114773851827 -0.10277580365562489 0.80892391044889556
-0.70479373518461086 -0.99381912879660761 -0.37967356007187852
0.81680795840705889 -0.39395545600840953 0.4180118301922644
-0.45065922522289148 -0.34545008488473261 0.67023530696680522
0.50099588289426178 -0.16068315279928258 0.72475740745090522
-0.45194143310732043 -0.3519335215606425 0.67259620862139124
-0.40137724537641195 -0.070483040259031071 0.78587707016038888
-0.45504607467622649 -0.36582629050857229 0.67452893973416528
0.29645986252320072 0.21902863385342941 0.45028080367225615
-0.26204638810576164 0.65165511019916345 0.62257315276546277
0.10895694352803786 0.82560111999016728 0.55100779852970916
0.18174618283262362 0.7748116918135397 0.41446030434379927
-0.37897165147369738 0.23284369092503399 0.69216334210502495
-0.20391006757205044 -0.48131094670520769 0.54729323430666477
-0.16915078610316289 -0.32940614193759987 0.68650647778885154
-0.5277616828898597 -0.3565991651735394 0.66563757208330954
0.09411875096929806 0.58132777910966105 0.67047843914486416
-0.90785704041982551 -0.81569256253436828 -0.49247176146468397
0.031476333817913371 0.328012679412644 0.78846384266190217
0.46398255972108948 -0.50137668155333748 0.70849373366023105
0.29545226051141493 0.75363077815629298 -0.29483395117186678
-0.48799396865904343 -0.0027425320919107765 0.68632671487460573
0.29386559970326176 1.1487777606260796 -0.39233555769082296
0.52281377534103324 1.015982210999363 -0.42553835215259045
0.12303054310466331 -0.27274891032513815 0.64394938528962076
-0.2749566577025464 0.40690012683984067 0.78174598548321661
-0.6270037450014726 -0.084103658398093639 0.74269059364341172
-0.59758862277150371 -0.16282820715761881 0.71764288033723145
-0.58161188523808538 -0.64455822267796781 -0.29283582619302068
0.55897649976778618 0.81064145255730302 -0.42127104800629522
-0.25475850875379419 -0.24897445730397183 -0.6298258232218884
-0.66187414934071365 -0.53010209268982078 0.44531488069288805
-0.83966139104292048 -0.6149151558456416 -0.33215930186318487
-0.86493830683171169 -0.72602653364404901 -0.470475286384337
-0.38326851328124945 0.18877758917583609 0.74456941632216989
0.023062199956105756 0.29749481210989392 0.76588769761350406
-0.17990850740475112 -0.36672391905184165 -0.56710941851661401
0.34664378178760391 0.74483965621664039 -0.36665684667030951
0.88313495018021271 -0.25333555476427777 0.60958368186025536
-0.26415434377854308 0.6526854568004139 0.73764119305162423
-0.23346634007247313 -0.41009166335302183 -0.53135852546093387
0.77070663408677487 -0.30616602985347746 0.70150483003633357
-0.42912729406795447 0.54250361508917799 0.66112072680736944
-0.20082821259433836 0.4431077664363674 0.75015235127874502
-0.26713359178546264 0.0063972417108739688 0.76626905031573855
0.27423366850108966 0.073310010677557602 0.63796117855104928
-0.60368429441301918 -0.19685707483682324 0.70551386779438452
0.70349085931559907 -0.30218894010036129 0.68632762535239977
0.28898083114654272 -0.019629427746180816 0.77312355062335048
-0.5940437386566999 0.23721182469308921 -0.6351684885551252
-0.35776121568877906 -0.085292598607238812 0.80799861719956856
-0.6684570502745788 -0.56082227275494256 -0.17672124933117045
-0.6363919824592339 -0.60994376196040356 -0.38841768630086881
-0.39677208125116864 -0.77588882388704694 -0.16147487840715757
0.38364365993058719 1.0826335990604354 -0.41975717848544691
0.267207497574657 0.76445876269173474 -0.27800682791754583
-0.16507589947005252 -0.16563258686822313 0.68948103859581189
-0.31362268006392785 0.45329365092295015 0.79658327143449448
-0.69764827315208677 -0.47296827133312713 0.27433660812906402
-0.084753502825683114 0.55555652759342644 0.72780657208775346
0.56070219436947477 -0.14604905405629964 0.33682580195209222
-0.6669438803119383 -0.31250997661834767 0.67094553390513212
0.41667167748993694 -0.55478270286180531 0.43754750636112094
0.12638247737436237 1.0689793673689187 -0.24235376638388217
0.28686295589718758 0.76647271606875278 -0.30786692647636105
-0.2795741706906516 -0.71839900373583943 -0.15936931460517967
0.5011111085418597 0.97844778614554651 -0.46243185539769377
0.17338133466072544 0.45939635391064415 0.66707967030305015
0.16683212831895755 0.9568725538803653 -0.21293488970158725
-0.6279473052970892 0.15771304760583704 0.71490133994419858
-0.50908204959043224 -0.66394423737684116 -0.30104720772320576
-0.72497770239304493 -0.22648628370285784 0.69334114756844367
-0.044034714445253725 0.23748470549529088 0.76168781654042805
0.25138031913609327 0.024119427085803835 0.76954657900487144
0.27955841362306 0.81458111958583723 -0.36940252280808938
-0.77167898249674316 0.58177192524740029 -0.13660865582853982
0.15116765005605776 -0.30016311023708797 0.63771466458350545
0.1813259796612241 1.0220188141842415 -0.2511313830166006
0.57464229864738403 -0.692574255294515 0.62737776432058701
0.010293105804375452 -0.28886647375238539 0.61839821320241806
-0.38479071515528868 -0.65926915995436319 -0.12858766950205935
0.87273429526810631 -0.23336221532532014 0.61234303949573665
-0.30794716681855716 -0.020900105070158492 0.77239749209698716
-0.34723588037627778 -0.66210448029561952 -0.035791045721523196
-0.48135857440702595 -0.5720748580514321 0.43127982187285396
0.75202586446312059 -0.3183571510484805 0.66139278250679345
0.39032679910498636 0.87064659151425083 -0.35656186616422225
-0.24777968322424446 0.50381682171058895 0.66587945159448125
-0.34443517308271621 -0.22865752407972484 0.79851162647175145
0.1158409553151562 0.34941680756488547 0.72185793422543876
-0.42130037885439942 0.13224611416430809 0.80520537476670939
-0.84831309339959504 -0.55603551101772331 -0.31634911729580906
-0.16948765390867521 -0.46885264714656527 -0.42862925379962979
-0.3903597197220593 -0.23820043229997467 0.79082442972101463
-0.43383179866920851 -0.1044482692658244 0.8085049299158954
-0.37898909336616671 0.27634147154185529 0.64151613719311074
-0.82271041812169221 -0.92023120931797031 -0.46009812474002443
-0.34213306865328874 0.16975211693299253 0.80180835904647951
-0.53465671263147141 -0.33842198070663687 0.61272159192887377
0.48096041642581672 -0.65523113118934029 0.55645218846357436
-0.62397410949789656 -0.78849280640147845 -0.35198538029146476
0.23913242566154419 -0.22819754420902671 -0.38171154403133489
0.12707827107158681 0.94314659535779533 -0.3161538205616396
0.13682424238729601 0.83540545122442089 0.17409394606335915
0.16495474691135592 0.97933039550352352 -0.21754766089805794
0.30389745614961522 -0.042221157727646452 0.7463488277711301
0.28862993995136033 0.10160183041392101 0.53165187505859079
-0.6378430334201407 -0.19001774119155468 0.7095436740368104
0.82437116905803154 -0.26864514569895975 0.37410619167692338
0.3788991921842737 0.53297756854161782 -0.15861895204066245
0.18488091072213611 0.47911092267304589 0.59453123758884818
0.69777280423490018 -0.19243271923166472 0.35310974410613405
0.018040356274527491 0.82507308964055515 0.34694635822952002
-0.5485648051021913 -0.60836904819934423 -0.19019759501772115
-0.54829230486876734 -0.14716816539219213 0.73826555052728804
-0.71496974189396334 0.10804205373060238 0.77349873839281025
0.80463284018947712 -0.47559617415915595 0.64012709835547132
-0.33619264607862726 -0.090836855416963846 0.80332904261262184
-0.50014567627978135 -0.042130058971029838 0.76190889844914189
-0.84216619460362507 -0.89600412948490571 -0.48693679360403874
-0.31559642329385318 -0.23322481780151949 0.79432134678889943
0.42127194385208799 0.78553421856594896 -0.32217241383996631
-0.71317776544284339 -0.93505559935991389 -0.44022756132469032
-0.059304332241579771 0.2256377347451004 0.76301602516925238
-0.085262653611388989 0.35252394450370828 0.81907741277170221
0.14744120518885873 0.26413543461173528 0.61095958190303667
-0.88964078371327115 -0.82206830756071803 -0.50061409932094825
0.28118532509679883 1.097907624188186 -0.39962432349124577
0.54705125660708298 -0.06422310310561119 0.35827628886694662
0.67465679672805667 -0.47177342400987932 0.72950427972108078
-0.18494740389005579 0.35859497038476751 0.77256928549354775
-0.585766834719607 -0.59898614165272401 -0.19736178912422664
0.35867338749868377 0.58884531870773393 -0.096432829233063788
0.38615709040920709 -0.25297227573562808 0.17212320313922333
-0.40261800533903952 0.17414894148781146 0.66054605313062809
-0.68461172233007939 0.061569980261182211 0.60723073184276621
-0.055175635271036361 0.33910024063521549 0.81692151953021563
0.39164394578890699 -0.29847531168105046 0.26378470878151894
0.14383527748494837 -0.056539206869538616 0.74544601699379009
0.71895457226460868 -0.47600588792768006 0.71264929370707863
0.68381753286481173 -0.62364733413930429 0.64400470277562782
-0.5482815020841465 -0.79011816570992321 -0.3946449038408536
0.5642273951299035 -0.16178777066664518 0.71507970290602385
-0.63241127557191545 -0.75229936696393285 -0.34731330410565858
0.42420231643585959 0.73643237529810968 -0.26886442547361716
-0.11998603597521157 0.21328179786088652 0.76462811860120894
0.20244675597878664 0.84938571977303146 -0.20764951221477712
0.071012555386319454 -0.13410163122728547 0.75854220078297674
-0.27863608963387265 0.9832116614525086 -0.2179394110106404
0.36944580396797733 0.91980828749453647 -0.36665766476107098
0.40510009212825376 -0.40921699918338661 0.72162297822882204
0.36447096457674999 0.55852034015023322 -0.081014075802338215
-0.51805497626208519 -0.080315350465670177 0.72991352006339594
0.37390836378496756 0.83473898311319183 -0.33997797213690545
0.026571227517205281 -0.071708993733676785 0.75346295974421629
-0.10614252747072075 0.096754277470104011 0.74808980831421135
0.67373963154770389 -0.42486827082810613 0.66339076902368765
-0.22708564768530215 0.39061815423400392 0.78070646767514229
-0.095414432591276216 -0.32324326468548747 0.66402640673750324
0.15671100953209932 -0.27853635505419061 -0.45258947306595437
-0.089844685521968365 0.25558593627205894 0.75636271008794953
-0.21538558438749375 0.6931709552227725 0.66593130282825252
0.48346176889231474 1.0803445832273133 -0.4550236330814374
0.35758208960640891 -0.25338343211330538 0.023908427794360143
-0.49288597851638655 -0.099815790013595418 0.75934362539122757
0.14755339981158877 -0.10146734008035496 0.80839820732178835
-0.81155518615248801 -0.83283382239349812 -0.44484287768079678
-0.38478813472936307 -0.74978773858999892 -0.16223761396481157
0.4416401551684459 0.64526374910501161 -0.32430730280873277
-0.30628170686976564 -0.53560933775136266 0.43622543310887302
-0.15584821815019598 -0.45833110885539652 0.4727956114548032
-0.0080743948936939369 0.22226224248064552 0.75415519406980769
-0.19392851347207407 -0.55027796488858072 0.20799741314655484
-0.69187928495848761 -0.53224780145521766 0.059094148864207996
-0.55626662484072276 -0.22153656571079394 0.70202273444653596
-0.52157343913111098 -0.082288577054157708 0.74890574256254094
-0.0378632264575074 -0.30218277947400751 0.64713966407474866
-0.2282249989501462 0.99520705843997748 -0.21675617181210616
-0.50124616335711092 -0.40142653161296016 0.64882264421344749
-0.74598936536417182 -0.068915246177399636 0.72103464237311987
0.17466223560544999 0.009516460633808399 0.78181758696065273
-0.43471331455926104 -0.75388186231898313 -0.2600989605890589
-0.8169955988835641 -0.97261893553361989 -0.42324847206573002
0.69471430845123094 -0.31823004447707071 0.68892985096019754
-0.069296922056389015 0.43701102374671752 0.80922283797299255
-0.25747792005840031 -0.34654066464595679 0.69104696081190509
-0.23961425895276794 0.45642954321572904 0.77075645447368668
-0.75914210527842785 -0.52263226731287893 -0.30463096967268566
0.44209610624741397 0.021044423337993057 0.3847342068403678
-0.46305063892282639 -0.61532402417973753 0.16279499835328126
-0.19765794489883645 -0.14770719592717296 0.75563793110774868
0.32761591572846283 -0.073897023481231061 0.73177052465596726
0.43328262615807644 0.7655462894309768 -0.30182386526661398
-0.95048506145084499 -0.68138997852447147 -0.43185314950129094
-0.16350747159426154 0.29378099707394734 0.76667171242575005
-0.45823308078114511 -0.77483013140634505 -0.28538046775031489
0.76926124777763594 -0.39667622017904636 0.69434355982396123
-0.94665347081279061 -0.59985886850577996 -0.42227968194160664
-0.34449354957395728 0.38575748042715885 0.81688691280801062
0.14131240583124657 0.85912253424639928 -0.36200572728343683
-0.5374478319288023 -0.68238568982684922 -0.3126854961743798
-0.68138485718885311 -0.17936599157744371 0.72276085328751472
-0.14954933790676508 0.59429076028114469 0.74365747036660879
-0.84005212049105138 -0.17380586906135598 -0.4111351894420946
0.87708119402574147 -0.37764231327401321 0.45690846069754687
-0.24241529574169302 -0.03270695104221355 0.76241604060341228
-0.16683952402165289 0.53795613443484624 -0.65986936540018681
0.29804934137139738 -0.22742354961927436 0.73727552062822455
0.011774016846827079 -0.32294703025937543 0.50399194211063914
-0.30249231099482676 0.97384649597561257 -0.088573588889939048
-0.41491781358087915 -0.78274233583587427 -0.17894835966980482
0.12201809742956836 -0.38705865240795279 0.31797889611203417
-0.15021586799465236 0.20374724829305468 0.7666426972947098
0.12716176252187797 -0.33156757780214696 0.50940231830896154
0.41085578528296218 0.73092957660778135 -0.29573310370682543
-0.40690850684444413 -0.27638124057588032 0.76213853804252085
0.25035625108641701 -0.050945418559099842 0.79976365022923579
-0.19711702395985459 0.28514078473728555 0.78016534159517725
-0.11981928517797252 0.26709978765870779 0.76025752655135936
0.439820711655731 0.89761045179265775 -0.39823853314310032
0.076931814174208968 0.65708611674566109 0.65232184086006029
0.052605319652910154 0.27360987405525727 0.74772672855241484
-0.091052104742645523 0.83951450686249984 0.28979249596925266
0.50257578728272856 0.86183403048661655 -0.36311325306634312
-0.91133766307737629 -0.12535013068545497 0.0017528384343340475
-0.28775533094809885 0.70761248756597595 0.38462535558728483
-0.53348295086390718 -0.31445047576891949 0.66256942716788392
0.42832641253326653 1.1573033132981845 -0.41634861550299596
0.56378774763191142 -0.39520437865762947 0.34525450672135949
0.1238998676422684 0.40073564116204685 0.70449778470966251
-0.14255761526118332 0.42790764330401387 0.80633340845311718
0.35558337475666046 -0.29322377434219493 0.73666043865925279
0.53128469811488754 -0.69829203241928184 0.55940072911062266
-0.42144872004536216 -0.89007747308505758 -0.29224704749636954
0.314204233845986 0.31825676538510272 0.50133338562507246
-0.35634188693541974 0.48759730817288061 0.62235069180134761
-0.048304798340778582 0.50593999351117991 -0.63647890640484495
-0.55045310247163348 -0.89259642993230037 -0.31798183537883506
-0.24016493660402419 -0.20687542641628553 0.74682324463675909
-0.64127927629481196 -0.57365453007682121 -0.1093431223293746
-0.7435953557116779 0.075640230589456126 0.63516111900118588
-0.74037740778379979 0.040025219147038715 0.61506184487057691
0.036818977000095121 0.80631665821400911 0.64307410120800546
-0.29192364419646372 -0.13089815367463586 0.80323418690696768
-0.038104019297580394 0.15594390122565893 0.74595771547407774
-0.55968477401306993 -0.097657193550370058 0.74319550431718118
0.4532158939077674 0.77980220825528757 -0.29646592918966569
0.22657160531309456 -0.016400124148634676 -0.50660857233734324
0.10137732659868268 -0.13389027180209079 0.79254151301860454
0.14460391034526404 1.0992645863128614 -0.33653243665849814
0.25978402846965931 -0.034437857359567725 0.7972975711906819
-0.84509409222149823 -0.70905084902702242 -0.45226076287777783
0.015771416682084649 0.36071892194615973 0.80516204744083275
-0.24676273083868061 -0.30369410454695633 0.71757076412707976
0.14368150887834727 -0.26838202734547356 0.67137605646331722
0.040222783228293119 0.34709675856794642 0.79486111016642302
0.013882073687371932 0.67591151633782265 -0.54537578770037753
0.17055745557654922 0.93497879586605692 -0.21040165403242683
-0.33549750279822893 -0.48607970295069358 0.60147436454315606
0.2661200077969727 0.015225801689005669 0.77878905882708849
0.51020086482968752 0.94257446827278124 -0.45144108608582384
-0.26059819770811571 0.32226142686790138 0.7864758777868841
0.2945235195307836 0.20960305314743788 0.51940320606384138
-0.015278913310264541 0.81185876215670283 0.49351102235586408
0.81254412119740527 -0.15764562088397721 0.39255916863733864
0.061867757404300748 -0.3600598620470945 0.4175742135308636
-0.40840641561994107 0.59946636683501953 0.71941365432627558
-0.31312780097622173 -0.75945812789500877 -0.14163247960792619
0.1675559790504135 -0.05284231504366721 0.78610794744485013
-0.94808336268541249 -0.7213931298104912 -0.45092600756053619
-0.55237406663565125 -0.35362547568600355 0.66087813178028887
-0.95091080683193197 -0.75495438826900352 -0.46041409987811371
0.76494158474585738 -0.35872754745821733 0.66647652932567492
0.18787961431263772 -0.014520197826260239 0.7990239374981678
0.028819920869807447 0.6396908767399988 0.67372374966874471
-0.80395401928860588 -0.79160737007656024 -0.42755479660158557
-0.54180629779531975 -0.40588211768213878 0.63815450575793797
-0.72288233251811129 0.59240091515233617 -0.33507796816149649
0.62383683755287489 -0.57130886516207202 0.70721358534291245
0.024767897291554347 0.046973170446755752 0.74254340128907292
-0.36059815296576037 -0.66572443724648167 -0.10176691521723286
0.42252366244735806 -0.15139523710429248 0.16728964994762924
0.39538705262412133 -0.057025154390580202 -0.069189227116065677
-0.46491209019322516 0.021457677800544639 0.77334437309232984
-0.4697815021681282 -0.76383660538942033 -0.29526938476532016
0.18743912644885369 0.0016109531538515132 0.79401220449855892
0.55550517318071135 0.87392503730869342 -0.37011278985657253
-0.50814345238664893 -0.16452974006461774 0.76407632736000486
0.67592284721821383 -0.62272772295771617 0.48519136524293416
-0.87490690786904457 -0.14929199415683003 -0.36457627576772217
0.40924011795670351 0.70407180798947477 -0.23655372770678512
0.094374786440188929 -0.12105201087934003 0.76596231957794558
-0.41498643722337131 0.11647513644197049 0.81173105399374401
-0.74960560138827681 -0.93488533699153065 -0.45506314433670475
-0.043543220511632411 -0.14915328322808064 0.75905380723281446
0.51071261231265463 1.0118942392293224 -0.47376879889843981
0.50852220013176286 -0.41040773769444083 0.73971160406888314
-0.024503898038324007 0.24772992451020026 0.74617546939366375
-0.91415979515991164 -0.13299775377364798 -0.25261322719966195
-0.53847091702023742 -0.12882519431412964 0.73864682431855555
-0.8541058309122378 -0.26248983707656093 -0.34010724882751692
0.5808238575067638 -0.44946151119605227 0.36476726238124446
0.056911133421748389 0.36046317583230836 0.78502766586095252
-0.40634434549699394 0.032044451019586973 0.67561680822865977
-0.39303020797194677 0.57217097261976457 0.65202765329426637
-0.26304759131494276 -0.49748685678383131 0.56537155846258025
-0.52807367702685559 -0.0054251210182345577 0.76189159792152283
-0.78288904221885658 -1.0203207760706527 -0.44286960388047131
-0.4825087754913816 0.88137207127060591 -0.25818505128901437
0.11190441975706461 0.39501414848538485 0.7229515393539091
-0.012203875843801976 0.24211925240746957 0.76055634786594495
0.46535947710671555 -0.36767467983850244 0.33268366523100373
-0.45140784308618465 -0.14419913644767468 0.80267795573093914
-0.49016753298618532 -0.65631468630801204 -0.2732961769907295
-0.45856043863681584 0.12758487047679146 0.80688511617329817
0.53877905488097633 -0.67537961024827553 0.4683431218691419
0.03171944288687803 0.57513123669288113 -0.57864129919143314
0.26858703271168305 0.65081408603661794 0.3481067653948316
-0.20087408040014004 0.33008651398369637 0.77591563251288531
-0.22525205229951212 -0.15235477247564932 0.76125978151274454
0.14952185733180851 -0.08159586513699546 0.79981679323444932
-0.9821036332071672 -0.76315685570434533 -0.56859810586427906
-0.84322783695433801 -0.65259389038969151 -0.37872120074791987
0.11011719843261135 -0.23725819984113861 0.68644316361405788
-0.200419062808328 0.77194016163771328 -0.53197197556859643
0.73103835866062261 -0.50262834934082345 0.69433727953822655
0.76527584207685573 -0.39651752505956755 0.68844430419744651
-0.71147375173646321 0.034950230227610124 0.60115327882313163
-0.55272565570091403 -0.32857343294501429 0.66831061115142987
0.85933293354934426 -0.44242747384967535 0.53880469062222336
0.66563337734663441 -0.29957644148351537 0.34916899465814322
-0.78759729753788021 -0.93778299063428716 -0.47014487381233216
-0.62489882613240944 -0.3755800417598858 0.63992772554801192
-0.5850057297648481 -0.11593274607136905 -0.60707254593497106
0.87018684106260125 -0.1500443115158489 0.5300296876550199
0.21546188402005312 -0.13028641496932791 0.80067996875188252
0.070748859420725563 0.39814841354293107 0.77565927763376397
-0.31583730050742093 0.59919089966939687 0.62124686707505439
0.93694099781798135 -0.26067547914493294 0.52326282330817464
0.38304728983422753 0.78602717846475922 -0.33076163295852612
0.6462824275611565 -0.4367140381245172 0.67216910553380205
0.28710997224979068 0.16535802384904463 0.50590368307810973
0.35650181344001514 -0.297213245006131 0.17373645474115013
-0.28792881593370856 -0.14873653441877188 0.80719192016580088
-0.73034539584361957 0.30679539549961921 0.35405651123368936
-0.48417410216985179 0.1531016759233339 0.7180145840783827
-0.25934322154163747 -0.68129786306427587 -0.15956223509349154
-0.39403462940085954 -0.38273525231103456 0.67559693191400538
-0.26998351564650325 -0.12383584692416783 0.77794887946696167
0.77084361034253723 -0.47953566620448862 0.6736249474359618
0.75441970905882649 -0.44536130034475396 0.4081176042160215
-0.44375761100300049 -0.38210141811198195 -0.5393882884313399
0.17589402671163412 0.75013909140198598 0.55010280477012452
-0.87253907636139738 -0.31216128325693759 -0.1750126925590767
0.15158763192348385 0.87914632614215638 -0.34972668604777257
0.21527404290119406 1.1784091673058306 -0.31721760451641762
0.71496847132468067 -0.29850968658379823 0.67092256051588761
-0.22675566050608292 0.49282772116495477 0.76581576007340602
0.71174819728651195 -0.2869052182846587 0.69580083967038697
0.93770934867093059 -0.25636621565219564 0.46174755955859254
0.36369233912432331 -0.54239668379805783 0.59343270735768938
0.32632188199295031 0.75159550918782825 -0.28164496268629119
-0.069258436715335658 0.18251929415936896 0.67293252192298825
-0.4382944674710782 0.5416887275051474 -0.64272167834824989
0.041031828356123623 0.82151711184964205 0.42504445155515869
0.29704595901828867 -0.1295603847319583 0.74361232999895321
-0.28473874413237671 -0.38244505937129247 0.61886603289291919
0.028637253253291417 -0.20734028898607437 0.71459452754898778
-0.70849310226653561 -0.11480965895776785 0.5453552096725508
-0.35508934286643101 0.19873351556268748 0.79010945550862799
0.47611626523802308 -0.077495312119091109 0.30192049076279776
-0.17170338972624524 -0.26434850490717188 0.71793487113049226
0.12617680381367358 0.90393927867801982 -0.12131806767893938
-0.74116337203811766 -0.53605859525263755 -0.24645937791226102
0.26234149471340751 -0.084023942336221569 0.7909533741116741
-0.1895946780313103 -0.039145514171318396 0.65651580080972449
0.1503049932259046 -0.00079398122158458317 0.73994708331241099
-0.069579573980089737 0.30873994751364964 0.80849771657574199
-0.44177403271420601 -0.25371737040233078 0.7706501550189041
0.27855460773502194 -0.024079012119355037 0.78582164278715416
0.2020658236181917 -0.21558011930118948 0.73433385114666772
-0.6534158489472266 0.029102844350914037 -0.59155840445061747
0.65377742496556279 -0.60401074675542943 0.68433814036004015
0.24977028263829806 0.76069609332532595 -0.20793704477664465
0.68210620369588482 -0.39426176909157545 0.66423775763056514
-0.43190097091063145 -0.76814137112488878 -0.24450628861436963
-0.67054204336330681 -0.94500008558517412 -0.41499518678154157
-0.44782542551797144 0.15645279330488471 0.71747305822984875
-0.49702153195014087 -0.22433646308425503 0.75285029564939654
-0.70698704956424474 0.13344121466181424 0.67619123947017501
0.31566233008705408 0.92335053403246203 -0.34547319563339568
-0.47566486830120397 -0.050368781501425097 0.75719203188598416
-0.027358493442339926 0.47182156868034886 0.79060518189559792
0.56575314233428764 1.0996140321168624 -0.50785953159091479
-0.37507243985675781 0.52641962174831192 0.82362860672903526
0.65708667053885228 -0.44419278039240562 0.66816790182729968
0.10073250831300423 -0.10308109303060164 0.75630315387546942
-0.029855729942059095 0.24373946937264646 0.75800312295670258
-0.5409337919348336 -0.10805795581472055 0.74634755619097393
-0.74021944847873788 -0.32683282268006963 0.46318834986152752
0.036107290595409625 0.48339405334111252 0.76032389968529213
-0.76418234798185047 -0.52914085907278752 -0.27742188520474598
-0.38071394832091737 -0.31719318556930398 0.71887579641925847
-0.16567992287570002 0.4868940530323973 0.76416451199139068
-0.54424158160484493 -0.35031208285894477 0.58590760174318213
-0.66388249176890279 -0.94483599132645457 -0.39282187859835127
-0.42702396186342162 0.32220948113350611 0.73285109149899486
0.42022633257040587 0.031793268524264451 0.38492363372194072
0.74859100451539484 -0.42720535932389891 0.7004529246504414
-0.28858704749055464 -0.13028066328134247 0.79652714643373468
0.083001133894188089 0.33354181175546538 0.7225710347514267
-0.73152027954309373 -0.51049325257539713 -0.026759752463993258
0.10717517642923641 0.5989595678680405 0.65908828864048397
-0.70922860868473281 0.14413706745429455 0.73290468010473675
0.42099235896654197 0.74585944903360357 -0.29475769711218586
-0.80014323036463808 -0.69703264493410355 -0.41585050793140987
-0.19291093815010124 -0.21442318463442311 0.73699677273743269
0.89870244156423618 -0.37046887719764171 0.53749634440327487
0.78322940191625112 -0.33877113596202141 0.69714589839013208
0.10884570590886983 0.9804979531779805 -0.22297397521913626
0.006493638200633145 0.88868788307469537 0.18681777819219236
0.53549369464793362 -0.25026900009293118 0.32097325530353876
-0.53783728376393314 -0.66784069689499215 -0.31020363244542692
-0.018428261733280216 0.55862026600032832 0.70168918742463149
0.182102519845278 -0.098852263839122601 0.81116018109346388
-0.3855825484066161 -0.27680452988706183 0.76544915009485537
-0.12153924599573279 0.49498994127367579 0.7604698628548956
-0.76291666792597013 -0.12752783078106478 0.62462087014584922
-0.86953414846808119 -0.33056611910166511 -0.060285099318297064
-0.16058272246951233 0.38884830029096773 0.79213812580180742
0.28043775414487643 0.767785830183082 -0.30476027426959507
0.1399854155704075 0.88943903006142677 -0.097858012750210333
0.2998227941947138 1.0539103458791206 -0.37951068574963076
0.35883603791051122 0.41991862369654454 0.024293599743201222
0.28506901497068271 0.14295057280369139 0.48620975131217165
-0.60125850566906858 -0.67306928012451062 -0.31996494098625355
0.27684380492186544 0.74544907535107763 -0.2666487767452636
0.36668459246152307 0.76418833514210727 -0.32160120664477393
0.31411761769457391 0.72846411266064837 -0.25586927399095943
0.76961922574742869 -0.38494955286738164 0.68726475531712528
-0.58768608682038015 -0.10663608069775132 0.73317322404050966
0.0073288906733673109 0.24393785684199654 0.75898472824559504
0.49672288272955845 1.0627230380783028 -0.52041951903115058
0.04850802658743919 0.63472351951329897 0.66899144776836994
-0.39385182048586331 -0.11134372583290308 0.81496225454048532
0.65960292428999256 -0.57288535739468394 0.69922315496514509
-0.17892595103732817 0.15957341727010954 0.77040770472998932
-0.72219659600892372 -0.41200546671611682 0.61233518051031077
-0.7668135721342334 -0.029888126072136201 0.62521837406684266
0.34379199329571386 0.34696249046249417 -0.20330400650992864
-0.74424587959547783 -0.27853850197018426 0.65592021578832216
-0.26914277103092188 0.50810123694590148 0.78313428734579715
-0.3017382274710822 -0.18298750532754027 0.80957096246696292
-0.18451402717066498 0.52832663346304942 0.7552394278500717
-0.42347135869397434 -0.081084584643712265 0.79846060437400601
-0.25751430959127319 -0.083279602390641028 0.75619819236812735
-0.1669606904063862 0.12115214458682289 0.76389502068756665
0.24573151185781922 0.8333732008018373 -0.27355145930672375
0.73093844191890889 -0.5604655943477922 0.6562075082035661
0.73160472385942865 -0.44759124163036496 0.70999464698307724
0.51527822413851343 -0.13998939677457223 0.71791265337873811
0.54986210258797841 0.97486985165629048 -0.41069446444108443
-0.50349098463100006 -0.75566113191527706 -0.3063566434795541
-0.13817180133632745 0.58288276949840978 0.73548646259506167
-0.47020478222795403 -0.79851140708815693 -0.27266282819305943
-0.38935391345984915 0.14036821703880387 0.80321410467631282
0.31260429020720176 0.42775626324887095 0.42914215879063261
-0.060960744988170112 0.59195009728256065 0.7181823860700649
0.45498195805638442 0.67187034990439098 -0.19377781376506215
0.25803088079487768 1.0772647186065776 -0.37565350214453064
-0.85540224236925855 -0.78827693688291967 -0.46857675727692638
-0.51981929355621781 0.020665756116438061 0.77199244362595121
0.22800666011939341 -0.40598668909896696 0.42010605861623834
0.45385496237932632 -0.61387849678260864 0.47517627338901203
0.61216025441390642 -0.30562134277900377 0.33878031378066092
0.062944031071528128 0.45531894112910076 0.76092180122074449
-0.17111220953866371 0.25045088493698997 0.7750732543058183
-0.14606450050457073 -0.39547936973665121 -0.53688667678703328
-0.5316645756448326 0.14507795142376145 0.68781052048742763
0.50948323894630332 1.1204525950419848 -0.42882783223028559
0.20449906576152432 -0.39950779547333981 0.4605799084947283
-0.22993367129721293 0.18507707400337758 0.78616628282152279
-0.26405923138282861 -0.050481125270226412 0.73743368594583592
-0.45639964615081891 -0.73138433018564375 -0.25332877349346822
0.10383107655695292 -0.024915243676428833 -0.6244721606989927
0.6529269806027026 -0.67506917456506221 0.59875110168554369
-0.43099199107419217 -0.049269211390680079 0.76147202911581369
0.4145525523343398 -0.11979013820565687 0.72737023403380063
0.23937946058244594 -0.069643651074678292 0.8016357882435734
0.25668696227186355 -0.12885516441886069 0.78205554751325101
-0.79035430593638023 -0.87281190971757705 -0.44958909958900961
0.59338947788036467 -0.20437676673830074 0.72063435128966113
0.2666429008512175 0.04023368339386324 0.71251909912606326
-0.29165929354937786 0.36211458976646038 0.79179281232802556
-0.52602757113328413 -0.61581670770634966 -0.095307833834488487
