# XYZ point cloud file
0.24136437286814155 -0.016553897321249122 0.80261467075283166
-0.20468035201059726 0.41795435034490613 0.77123041660115677
0.15183351401131492 0.23707369105369502 0.71253680059156177
0.35971543037088155 0.60092679599304577 -0.13999329533672794
-0.10725685296457571 0.76804461439322402 0.39194091535923192
0.38385923698961222 -0.56553105642882462 0.55373283562142839
0.44901054905289706 0.6923035214988964 -0.20077608991432505
-0.76809778687976593 -0.43628373558675904 0.51962395762662383
-0.063865355228560378 0.21153689004982423 0.71436098910342605
-0.56750726121135431 -0.046313577394240912 0.7475620900582931
-0.64955510858202603 -0.61943180763101391 -0.26039859806248022
0.28959915171255901 0.1867692638051569 0.46574609323968696
-0.50468751011290114 0.047009473793632406 0.78678598584484305
-0.64908639848112337 -1.0090196013750237 -0.37481116891621585
0.0078912459796052215 0.93229280934946956 -0.33345313286319767
0.24715200212734134 -0.39337562798213765 0.6488802164084011
0.32160375445296352 0.42445631392046601 0.48794929129637182
-0.7020981248759619 -0.17685284502910803 0.45379291655565407
0.13112076809824574 -0.17046887651566789 0.79317371099620138
-0.59501186761857894 0.12370420341622368 0.80475983211045121
0.271519444974747 0.77322580840693034 -0.29906616085982746
-0.24909551235822588 0.23841934597046532 0.79078927921119968
-0.4507871086872105 -0.7680291661634302 -0.28538408517648028
-0.24919032964897286 0.30188875515419045 0.78528027337683792
-0.57965946981713923 -0.32735700144827073 0.66386533968990113
-0.72377280771111707 -0.58970906422460168 -0.25176657746722864
-0.4812786475926053 -0.77082666872965788 -0.29923053106592407
-0.48891577105065431 -0.24615800975638846 0.74105201838623214
-0.70998274713718357 -0.35389363545243224 0.65398645108985465
0.28804626152685053 0.25817099081531236 0.56908976444236403
-0.57264888307848949 0.64014852446525805 -0.50019017214425487
0.6638592520711446 -0.45093260420798553 0.67565371489774484
-0.30434322057732643 -0.046394152348001594 0.76481255060386866
0.16762870867665625 0.49387883569847479 0.66128556867930877
0.33866484685836096 -0.18303665590409834 -0.18485654319049377
0.57938512910529405 0.86323795556887517 -0.42312506560488022
0.47850948660857195 1.0715936810199262 -0.47447264884822549
0.28538686592823664 -0.09635194162613403 0.77279933571204018
0.27223172595451317 0.72370531527403115 -0.098745342943847458
-0.20692935264372719 0.40516745103062934 0.77248787378767836
0.87240219170809519 -0.41232709698201625 0.49847367953925759
-0.14106715798527156 0.35155793244690603 0.80198862968892992
-0.00070652766796672033 0.077445362896996439 -0.68929185374153179
-0.26753797736661089 0.66171162337731548 0.71095955968914604
-0.70355800378515543 -0.95191428452158355 -0.40351386807112999
0.67747170320562378 -0.36234497219987383 0.68174384377567221
0.13209555455002903 -0.074879170466871758 0.76564422085972716
-0.89014256601567932 -0.68984501341414783 -0.42671895155853978
0.2762615334978491 0.75579735331058773 -0.29113445390105303
0.3209745621648204 1.1232351905522633 -0.42519398968636513
0.16604276169800014 0.0060150123840991832 0.75763189856903423
0.50602501462580629 1.1864989959243482 -0.50392597615532653
0.53098648249463309 1.0189146243954421 -0.42215864317154828
0.13796686613140191 1.1008828699581135 -0.26076554613101077
0.28387301353019029 0.72593390111699452 -0.23636590916042927
0.27965748353252418 1.2183732462891692 -0.36048787505376823
-0.33562468660783473 0.58005856646531195 0.80152631901707994
0.49584339086542834 -0.1314624893881885 0.30314939595040002
0.26084638833475132 0.63231772293890409 0.53426117028525577
0.15618996413260966 0.64116037064779341 0.62122262890040136
0.75252430502068623 -0.32841938025184142 0.65106191190001694
0.13691646229636734 0.88412639219197042 -0.029821872120477044
-0.59422266482289565 -0.19553343540162027 0.65547383960565753
-0.2043888822595693 0.47995205467197133 0.72794232655808422
-0.20759337634462821 -0.23435901625520672 0.71973246540011449
0.22902201445870507 1.0570718005871602 -0.33273573683841989
-0.70569183854525352 -0.57486550324232599 -0.23475666078626262
0.4050921297815786 0.065312810297625368 0.50240881376813418
0.09603576794981232 -0.11999493738031841 0.75774086558799425
-0.88176003473614073 -0.56138373077604897 -0.36139566717860805
0.067447819293189798 0.35489827399775131 0.76234319451559662
0.30570409578036134 0.24268649089256755 0.42400200102030799
-0.41104838897832086 -0.23584874645554543 0.78780417521036306
0.68208851184399633 -0.32892370094110168 0.71478901588591981
-0.39870695238023657 0.38902819245613407 0.83389100322565546
0.74869992793234597 -0.48523651725472183 0.68960193315279883
0.36417370185357034 1.031385781363876 -0.39086365317577998
0.19443117234794649 1.0190587539287796 -0.26808253984586256
0.22397679838989409 1.1662236710264486 -0.32103965680818103
-0.5485331692316473 -0.92926967071675182 -0.28609124003258052
0.91911417693487918 -0.31315785663195028 0.45554616896125416
-0.80021153844549231 -0.42713784101307839 -0.13865186443904365
0.58365344647262896 -0.66846794152753408 0.65399772025767322
-0.32836451143816425 -0.68514281433686786 -0.12967382950228512
-0.37979633965030929 0.26884934835476648 0.66648076174636195
0.2559735043039833 0.20236352035869565 0.62243192996690355
0.8285159873149226 -0.22205109847786847 0.64301318384393547
-0.51090911795249794 -0.23629734910142575 -0.59743102208020082
0.41750258669503515 -0.041109053589814648 0.70271199971946385
-0.36678342537922487 -0.78818885786279136 -0.28229975212603448
-0.11625426751102708 0.31592244165080063 0.79188284828660671
0.38791307712822776 0.82721647419466671 -0.33951471446399284
-0.77671989797682195 0.023752450999587893 0.69327313802622959
0.21584237207030368 0.41211464167844269 0.64774288860364593
-0.50493414372366818 -0.72168641500392527 -0.30205770247805397
0.65756046524756251 -0.46791257937920583 0.73392504782597268
0.056346553297884239 0.68582808557946029 0.6575475937246229
-0.21302210698959687 -0.033002372826856252 0.75576207476891666
-0.72783673094378265 0.058853701643750478 0.61610448325799361
-0.81287409003600852 -0.17347733832780321 0.20611871288440742
0.63213406216649892 -0.43418857191030663 0.71797334863328499
0.461527051723153 1.0969689497603445 -0.47234302851618121
-0.33755354374670798 -0.73338670898787561 -0.13548088171316225
-0.42471455634897981 0.39132290941820425 0.82849009863611078
0.65520105789930239 -0.36639851942418394 0.7215885663739614
-0.42952490933988996 0.10189111900456505 -0.70128200464861701
-0.69803530249488044 -0.40268881560346204 0.62615214580223655
0.15712200126124334 -0.067881315871066161 0.76856584373431036
0.41123944162442383 0.61514653150871712 -0.31702399160130107
-0.20292775048340425 0.34792036699101048 0.77229184480454061
-0.051943264831995961 0.55752294894682097 0.70847336688110751
-0.16438392252975761 0.7192939136657257 0.67821091583545523
-0.58236954649968964 -0.083856639846037417 0.73830115761271475
0.042278988423029518 0.44348113943697809 0.78022385296034824
-0.50955347638492521 0.59747422354492641 -0.57839918105040256
0.19799877818467249 0.93601023844618259 -0.23999777958547946
-0.38083070888116061 0.24118787046556456 0.64147918239261736
-0.20873638423650265 -0.09132037364898471 0.76080029647201508
0.45480408773505349 -0.13924683651962888 0.72672243036485151
0.16048560638726131 -0.046729939183687064 0.76599763706274604
0.0094799734759672405 0.32414818825519243 0.80299547680399874
0.16590448956796594 -0.062554024483668202 0.78739340666965951
0.27301959737524417 0.72915274933608165 0.093304673799891047
0.19344154838068789 -0.18036581947137964 0.77829282801080035
0.53555576145347628 0.76700197559961825 -0.30861182441828705
0.27730254463438264 1.0355990596581086 -0.36604574420051345
0.65883344255341525 -0.5578381811717531 0.42946837032420765
0.24718655408575307 1.1939905193648364 -0.43234110814815674
0.54738331548851626 -0.52863079290222492 0.72141522675856329
0.36385925614489117 0.22041709307905566 -0.13614399336469762
0.28768308298538481 0.080254618037485792 0.59666820021149036
-0.54593523071014849 -0.32358297242763312 0.66766531702518617
-0.822442681516797 -0.92462063565924257 -0.47766354269204098
0.7392606795150054 -0.36263550414134599 0.64736563566833616
-0.73839369856975678 -0.35765574225727415 -0.42582148172093864
0.43357945655215729 1.24199773013361 -0.45933614361691572
0.26681682495612857 -0.043346911053930959 0.79311136831583551
0.3848666463076767 1.0631829668206212 -0.41160979540557863
0.26798887388464671 0.66632045404993723 0.28996505755764607
0.6699908227318998 -0.13705000196616601 0.35936528838373011
0.36696423993040733 0.94065608229278064 -0.37233144433025045
0.81375837438832499 -0.4943690373047363 0.60573338514874053
-0.14217646674561857 0.25774181142282115 0.77489095346903514
-0.70949877392179173 -0.18132213510419248 0.48821775217862345
-0.75020078279315883 -0.3933392871352166 0.60783922088640896
-0.098087986023290802 0.35564835760792235 0.81938485376970915
-0.078273831251884918 0.77486654103378827 0.55356238063459018
0.34022350432006643 1.0699861889206757 -0.39556897510873551
0.10894161800259683 0.90759328589823474 -0.059649277839002313
-0.25876620283529944 -0.58644776309051427 0.18916655852034381
-0.089456405114223703 0.57957581186931506 0.72921981405272041
0.28524454261307286 0.16661084232239998 0.48161032562482653
0.46695565941453404 0.03251081601412964 0.60473287496057115
-0.79743793079856762 -0.71296494391775234 -0.41620835257606281
0.14245391553291614 -0.11595857086295724 0.81008420990103536
-0.14336244357328418 0.033079065748363501 0.74814368684670707
0.11388455092635373 -0.13014027388057503 0.80187386689081253
0.093836013088781256 0.39244655039526632 -0.59986997873309056
-0.15084314958813469 -0.021139516206458042 -0.70965770733574496
-0.5789147959348937 -0.63474118175154737 -0.26739984577769349
-0.089824814261946995 0.99612625495647533 -0.20307607064472422
0.36348817698952957 1.1311220717569477 -0.44121735924705152
0.73599686413717158 -0.29048353300318402 0.6893566113285774
-0.080135828615858995 0.20502764535062679 0.75822605599555071
0.31603961273772452 0.43480788889930022 0.32741910538453828
-0.77429066978656902 -0.021597528618631845 0.68130291571489088
0.35896469073688331 0.075470330478978442 0.48093278551253715
-0.55792866819398512 -0.12151917031235238 0.74476631824140527
0.12611990774906034 0.42424503670117686 0.69845823721465827
0.62845325663747098 -0.69369059069943573 0.59801073155621332
-0.13512882881040494 0.27443479291502215 0.76251627647400522
-0.064888060530333094 -0.52695232617220134 -0.10670059081264638
-0.39094521263158455 -0.17355688831746585 0.81210902722514322
-0.72352565791228018 -0.17300914271723711 0.71048854742100953
0.38348672778511661 -0.1249456804067457 -0.075209997441736065
0.25576598893012081 0.81128035641601359 -0.28734374413567126
0.11252470238037141 0.42227729729430907 0.71809705369771426
0.31829216365589935 0.67012976888321663 -0.060330198007905733
-0.85727602305756612 -0.30887390081403465 0.057350326517453032
0.75888584145407512 -0.18935053146224867 0.36121952079654002
-0.22900708882892454 -0.11531782652740175 0.76318543909257719
0.79242762082522356 -0.33606515468450959 0.69442289354458642
0.74971187871503209 -0.31987470843817667 0.65510960133961804
-0.73082186316941489 -0.77260096242538889 -0.39002043788329466
-0.40137835826024465 0.44861868989615017 0.64337507258834425
-0.053996598102741489 0.57549153290612987 0.6875463096696196
-0.14472112948061525 -0.010549158421626625 0.74582741802018482
0.26191549874666542 0.78806169369902745 -0.28861354333628658
0.38094639322849799 0.7321040375125718 -0.30550857209911325
-0.50820657971643035 -0.70566321294225043 -0.30255749958275657
-0.20564246417241427 -0.21169448032300942 0.74288338135839549
0.18558002823291966 0.153700877063639 0.71747685561449981
0.10685153009189187 -0.092024758468936541 0.7641514865908452
0.11167416396640439 0.50110388516707483 0.68048722391241445
-0.82782613157205664 -0.67863421528585199 -0.41726914196863885
0.85389720018594317 -0.38063007210811622 0.63128430777654976
-0.78953538538703294 0.0015922370285417209 0.31806135084941212
-0.36468466138433309 0.49249737680356498 0.82232716795816652
0.40694412007574204 0.68902903284539196 -0.21742801107387461
0.30140534486731418 0.68288491568277454 -0.11093279470181383
0.48201576312638905 -0.6195528141366875 0.44853463558314055
0.12491330869728767 0.9163769327060427 -0.31880604139516444
0.39902231365719176 0.011536441697934663 -0.062669499103112314
-0.51495003659885918 -0.035171769157728017 0.69980146446965508
0.16407000267387079 0.8815190783904836 -0.16874074245212767
-0.35698126149773374 0.22231586251290536 0.79351069671129493
-0.65207842772846814 -0.9567420651470997 -0.35826678075174312
0.19900020775519556 -0.37980832223990135 0.3696221448694843
-0.17276869062675143 0.30920082171038588 0.76266926995603734
0.13059748337751581 -0.17904178355156908 0.75691192806354946
-0.61639058448193629 -0.71167810732138093 -0.33339380270197494
-0.73007839423094179 -0.81871138209148642 -0.40300970709303546
0.13796344010320455 0.55098591004545927 0.66170531171597591
0.1484161996535614 -0.068713720396165856 0.75850965331541498
0.10722704962454521 -0.25670088847116368 0.65162939592459246
0.11595182135060053 -0.32026002653195762 0.51450941278554696
-0.18420012615494494 -0.12189409329614698 0.75404690018799325
-0.4987177189844712 -0.065164107866037435 0.75375105200805181
0.80270661719190428 -0.27440392429412575 0.67774042728665607
-0.17941794060349106 0.47226856119873672 0.76580970174697693
-0.9136844716533683 -0.57851081461342746 -0.39081068207445652
0.22270823562966036 -0.15514002824362327 0.78570354322755742
-0.68344417801758839 -0.57622707405101403 -0.22738465848345357
-0.46697025388566016 -0.63061241303082638 -0.15270900975302526
0.05377770788842362 0.44976484078712731 0.77274543513021277
-0.41188030382850749 -0.33524604487104903 0.69396989138604925
-0.62201238302370121 -0.93263706882635455 -0.36682352761165027
0.003859529724740185 -0.49284297735645222 -0.20991991264866366
0.20382721347243921 0.64935533837991555 0.58445646331364298
0.44435095152070991 -0.4417375512942896 0.72247680528357661
-1.0066634533742975 -0.84150277849465294 -0.51269923424636521
-0.055353288278765123 0.26495096925034844 0.76387059435306504
0.30742800123372194 0.48649629121616822 0.37334465077932039
-0.42767580574531983 -0.61425912806379168 -0.38174309492566949
-0.58195212425158205 -0.65017365544135308 -0.30301448001814602
-0.59829231075666733 -0.59154321923341735 -0.172707154308538
0.35165906508390343 -0.35820471551585853 0.29366687767895072
-0.66486455455422089 -0.34244310011905221 0.6578432775668297
-0.33060608506581551 0.25370930348270937 0.81904991095423885
0.35733894530870725 1.1617228598570346 -0.43422962461061343
0.075625311770018022 0.56299931357305277 0.67130933737688192
-0.38421668220409805 -0.28808722025733458 0.74886707312655343
-0.27633083636367028 -0.0094121794158568139 0.76727396133639902
-0.32074489455236477 0.22410844236257899 0.81431673436292407
-0.63758128593641628 -0.48178693128787731 0.57408618444188453
-0.36550376118034211 -0.012224922421033124 0.73619543935695475
-0.57347573547358854 -0.01642304316566201 0.75774035416490448
-0.54471114785224328 -0.04209045569234382 0.75127966169600169
-0.38620554049124711 -0.26634145560540201 0.77686913305955452
-0.54407455157487161 0.82785228593353444 -0.27284112329881682
0.047713423253005788 0.096292826210167659 0.7492253587324712
0.18131798997614071 -0.32932784036867446 0.63970228541407659
-0.73592138907966675 -0.73592221407546199 -0.38501486500971099
-0.10946269580360815 0.39650728644525324 0.81844347652843752
-0.38903119063305897 0.27851626210401803 0.62351593484560364
0.24530791600860719 1.202408078520981 -0.33997023793127384
0.72987166748371923 -0.43236467889075941 0.67666069220397917
0.56337716882864253 -0.071923829840562892 0.67827892740201379
-0.10297899754290485 0.29334293486788687 0.78020343645078638
-0.10767749389980154 0.062649949590142695 -0.71844449325555659
0.62985398140040671 -0.5828714121880646 0.43368671381002222
0.52750139237812832 -0.12092374307457898 0.32759681926365952
-0.18222228890163006 -0.29209176227008293 0.64598883745042079
0.46302092777348558 0.88821799255425948 -0.40719299202316028
0.84402661692821579 -0.24073288481000754 0.63884846732071776
-0.43847435584049987 0.012357992896128822 0.77338479555486661
0.2234304350475789 0.62263204014438456 -0.4310880761773046
0.40117365226424256 0.56389439618576209 -0.28023467178331996
-0.095942356606017548 0.22107805040122175 0.76493493863167794
0.80124048156549632 -0.21525257699847761 0.36547672076786131
-0.75974864584740787 -0.40745157548938282 -0.34623142871536072
0.27310071210618059 0.48125617822474975 -0.38897297812196024
0.89352048800618855 -0.33195699781532395 0.59607020194862392
-0.23086907821768402 0.35518148169814356 0.78340687150313282
-0.48962980919110105 -0.66827188716470909 -0.27401889813014918
-0.43938315254862381 -0.017211433220462036 0.73110488431171172
0.14123415758060109 0.31965216967324217 0.67484086436214952
0.48159485072052355 1.207862339382445 -0.49428100354820631
-0.76992361562196565 -0.59870898429343256 -0.42784705498745662
-0.23681066082700553 -0.3711255166378995 0.60234662232986336
0.35024424425729694 -0.086384889319783165 0.72869106642132364
0.16182650949442517 -0.028188665239767041 0.780681660032019
-0.59612192972926692 -0.91040885493703838 -0.37247064488765752
0.32887439965638449 1.0328050633374604 -0.37779122934969478
0.75046765701174512 -0.50250398474547109 0.67884401250965931
0.15834368294128814 0.46653014740510423 0.64679618330768018
0.83274570038181328 -0.4803401790416818 0.52325956573442334
-0.11052352349499384 0.74148349562584559 0.68745547352416259
0.39119712187644684 -0.43042478429658126 0.3665380724965982
0.094113176556798572 -0.31257931181796539 0.49812444748046747
0.19601349455061023 -0.18320701742866297 0.76958118569847545
0.23818460318687384 -0.38420122908197107 0.28022106372562633
0.049767260829745641 0.59060535716381501 0.67627705246452663
0.010571223643028205 0.94313349189660634 0.021007119522486239
0.30195167970535819 0.58645619403697358 0.48801679203158616
-0.34116822347290443 -0.097795326148466977 0.81234261763871252
-0.15061817355539761 -0.1650467930340902 0.66707074604410077
-0.20600316474571684 -0.49549835351234606 0.41603990787220391
-0.45535429226871421 -0.79926034528147261 -0.2467572634354992
-0.1970982487211026 0.65286797957364295 0.75965962200831516
-0.21919539034232713 0.40583381251853479 0.77770712118932495
-0.75399710668319697 -0.23582284090920735 0.56201693768108696
0.55760759848382591 0.88238575912872941 -0.47335917847266407
0.23900202051607317 0.0037824156231085482 0.79849025442220345
0.27516801340653912 -0.34558895225613739 0.7015090470236327
0.10893656987508141 -0.14590793787978318 0.79535788509220096
0.22811817951923347 0.91809808676411886 -0.37529928043728589
-0.066364668632907325 0.12337146867568238 0.74514963972602077
0.52036222609888017 -0.30963303476973991 0.74052572960960283
0.27000787543551374 0.97901102167722642 -0.34183692900890961
0.4339531764767578 -0.55465993701104899 0.66329944832406862
0.010284400679695549 0.65396411617003147 0.67539745656633154
0.24606544733256447 0.77091670048851846 -0.024968700804968491
0.22380691530030644 1.2075918188591195 -0.40090312272773188
0.17931349221002982 -0.37449193425267813 0.36233858551264636
0.094913791892879878 -0.12177219848157328 0.78323086007457265
0.3282826213867317 0.65633726008017113 -0.030971657049992551
-0.21003112370262178 -0.32818865935888653 0.6371085806510608
-0.012971134293619097 0.32853505387423376 0.81029114669836744
-0.54063553076345561 -0.1628295414491554 0.72590843599011401
0.49340823297953662 -0.26208414760171139 0.30773359503212228
0.4939988370839572 -0.66498119787450449 0.51723681923308718
-0.47218935464777034 -0.21151980040623708 0.77900638214030438
-0.56795862115685747 0.50626570915966251 -0.5934004376327775
-0.9896235767074455 -0.83124027326886196 -0.48139893064777245
-0.56688531204982706 -0.042281770860888246 0.64642131303258976
0.0591365954913666 -0.29446719393374798 0.51534102156269601
0.51340677168521087 -0.042955985854699619 0.35551018571452997
-0.63436210566147733 0.0062688950381317721 0.77603750810833338
0.36461114564336361 0.96077288981479658 -0.37708786555511908
-0.96993718398087547 -0.62916545786141675 -0.43255283409368217
0.66871663139992243 -0.45204442113679499 0.68349593420252808
0.3767621659419832 0.72708503795116897 -0.29275642884174419
-0.20006122499792625 -0.33845699953862951 0.61205319486807275
-0.44769628517363175 0.17689279443297745 0.61189864817983786
0.26862484524673275 0.76870843605408501 -0.28979070402666585
0.32795518226564663 -0.14585051623176637 0.7359132658666423
0.3905218103543675 0.89284702948264449 -0.3664157952903459
0.37646597717137154 0.67482829140405753 -0.22773947374265352
0.41206695549085726 0.72640761609594195 -0.28436497370120239
0.76106710578014414 -0.38467177957865428 0.66733615085392772
0.14867965353629164 1.0451381421126775 -0.34818061983265686
0.038986161757268767 0.90854687008565982 0.10308213174642256
0.47695152849633721 -0.53868554278813785 0.40323021875296805
-0.13535952217307645 1.0037958331954517 -0.20353354758456144
0.75799218156665726 -0.29085682654625356 0.70445793124988476
-0.76077789410873831 -0.3295249913304521 0.52942385414402771
-0.6244536780873382 -0.19903962896952199 0.60457093131446638
-0.66573789842378006 -0.27420364017739507 0.68598550833390182
0.20903230518418259 0.03293270123052694 0.73972680981901229
-0.49167767383775868 -0.53812068669960667 0.54076042082403741
0.31514940130575197 0.082453443094774093 0.5238332008974449
-0.36125033745402235 0.17878243474928013 0.78817834184509317
-0.41647011383309884 0.16449269542603195 0.74491165686477179
0.77391041892512225 -0.3846317019930417 0.693287395626207
0.13793328209994363 -0.32689998796968567 0.57007268419472412
0.83791716478912193 -0.47606470913613858 0.55046940866197891
0.48920821365807021 0.82734059850672381 -0.32989135538490227
-0.38700282829627891 -0.50243921964509441 0.58894240295210465
0.37345848590030656 0.0010771638470877809 0.68859384659453449
-0.82065198638161518 -0.92267756549937863 -0.48127860379075749
0.65071427724618369 -0.090568538303147039 0.37654295025957873
0.34655306402454195 0.6446412775583783 -0.18509371271839403
-0.72472566133793315 -0.26200081785762586 0.35873301743570651
-0.11273058780829955 -0.27585775813879998 -0.61250471462027789
-0.72103974588349151 -0.5177312516378787 -0.32820942399784886
-0.24202134450132995 0.74885121363565643 0.35148178746669273
0.27371394480743921 1.1000069796613809 -0.39322418923280589
-0.64872069390619169 -0.056490221049193101 0.53781122937424564
-0.64688706034310883 -0.97580590962644731 -0.3489566314887026
0.36342073428429439 1.1582822154573731 -0.44464005803011547
-0.68747056247587579 -0.12152557617314996 0.51368606621036483
0.47742600898753346 1.1607668033823515 -0.42201771879793143
-0.12356414290213266 -0.030444278283048076 0.74493482423535617
-0.59741055066086346 -0.23155839259690958 0.69695192998305511
-0.1910772476319833 0.31545452783535022 0.77481823330473465
0.034124864306321445 0.83519480848330274 0.60113570678352102
0.43690955154325672 -0.11105257281073388 0.21130954814503627
0.53914647341742994 -0.47774454247005038 0.73356656592299685
-0.46375624317780173 0.54830094972789967 0.70665213982512354
0.62726042082438371 -0.37631970700572531 0.74071445033809546
0.1174509087469861 -0.11201607804245728 0.80181176973802559
0.25475083194286885 0.023115003974725323 0.73460121604093975
-0.44267574502494306 -0.090035128082521343 0.80055798855676996
-0.4867216031692646 -0.55131749434004096 -0.42339193476249698
-0.6239415846417059 -0.65860785399422284 -0.31689452202433904
-0.24868536060188773 0.44039335974158944 0.77380086391806824
0.13852423851637613 -0.15864567682056252 0.80637328841560851
-0.1992638503130317 -0.38475707295866213 0.65518794862588492
-0.38524251628621881 0.90299138560567727 -0.33267208672979048
0.4552277850294878 0.82221686916248482 -0.35619495669101747
-0.64537353417430376 -0.85752847381170327 -0.45540929670238239
0.34347202642161118 0.29366043888050308 -0.21171194069072563
0.71671059590971842 -0.49498790075546678 0.7071944657402125
0.15476833347309593 1.1341120352617904 -0.28176707237803517
0.11131644518873521 0.73537615743651785 -0.46361391064177832
0.20644377686253473 0.041607629673720115 0.7411727081178533
-0.18606732361496803 0.56790995879225603 0.75709819281873014
0.24135471956793642 1.234763735059897 -0.36767128402999394
0.48409634088022413 -0.64390404483793096 0.47974452503106668
0.2221139012633756 0.26433609734644015 0.66622748052933178
-0.52595941588033124 0.086349723819608037 0.80919543869497901
-0.52080720268785163 -0.34498896076550389 -0.54488625871631269
0.39076874108127685 0.67882817719712896 -0.22179287063421649
-0.28062802320585806 -0.1671927707182399 0.79969332234362556
0.25752334132378918 0.78034791330750508 -0.26244353409982046
0.18471837580326289 -0.033913837521183265 0.80129574589109342
0.03488001132860824 0.40811539003263586 0.79252669086001171
0.64451675973047584 -0.44254971821080996 0.72621615282682295
-0.41492879485210993 0.013727073578218452 0.77437463139655605
-0.034883142329311501 0.96961046349522451 -0.26570107384305708
0.35037397626142291 -0.38379020599030222 0.32426723581372247
0.23072433895029454 0.93684599134539437 -0.29743639451405446
-0.42077221070311693 0.32948960013808892 0.70354624576079938
0.062050491782430273 0.35773698111522856 0.77182586719692303
0.14294955811458998 0.46041705635910335 0.67114304775253297
-0.70058644998827613 -0.96221893568448191 -0.38403321641161142
-0.45767212900798804 0.23225860873302295 0.59418859062918106
-0.76047290838303816 -0.2333874156946445 0.59166879743353129
0.3102603704090543 0.42519464875484514 0.53947174191893177
0.30316892256157146 0.26424999784801373 0.48920766144637046
-0.72461550869122116 -0.45799365238755008 0.41679585561916932
0.17689106822462247 -0.065969305312097326 0.80243142349446783
0.21241962877037124 0.99537668827465442 -0.28922628316983928
0.28789745883913292 0.11347870947627026 0.49346884790316969
0.10162888199662884 0.82677199625196329 0.2680844521925696
-0.22644942012455474 0.40609494133778123 0.77946123322821115
0.39568980801754139 0.69453507768691702 -0.2424472949661603
0.15762123005564627 -0.064674680129401474 0.75543949673664357
0.89288114207646407 -0.27605974355871438 0.40129832618297873
-0.92176057959212132 -0.74087702284643187 -0.4630009785942592
-0.5424618942587538 -0.24999985178625295 0.69054377680942358
0.22766856107466421 1.0891539002929669 -0.42229896060606831
-0.24167424212767624 -0.6372416831465042 -0.21346503311216203
-0.94781208200343214 -0.59942469465826309 -0.44894193856923909
0.00029821553747427787 0.60246871191340268 0.68752133841395902
-0.080885078084652118 0.87860829110957894 0.23813931425596357
-0.63313767948637523 -0.59691323760357839 -0.22827798413369621
0.53099773341158019 -0.11780366140346266 0.70834911991497618
-0.23726600434361983 -0.37438220651717824 -0.56343968568538716
-0.30401586526399915 -0.21777394580048237 0.79897122358317008
0.39641920564167421 0.79372580130260451 -0.33039410904819499
-0.29594106066391057 0.51868097878279418 0.79799182330486684
-0.65373932823646586 -0.75285010644067984 -0.35560821194321829
0.27143701196381387 -0.089195919749191721 0.78524754512996275
-0.39584532944650686 0.58960784625378637 0.66826449158431145
0.49951152275506727 0.86652251120489843 -0.37665336412034023
-0.7295760104969411 -0.38062510514963144 0.36659518209255521
-0.1237735497779951 0.4223740282735664 0.81350764382027818
0.64120014599398867 -0.68785175672657151 0.5413639834458055
-0.48663479963616596 0.14516283717227019 0.68766529443137869
0.57916392332337485 -0.35000460556803958 0.74173324513163452
0.65773292228668978 -0.23831738554885989 0.71928705828837136
-0.26191898848946726 -0.26096401955413384 0.73239149990296515
-0.77405134480628968 -0.40348173611802585 0.53255234804759499
0.1260270604189293 0.47729257032991135 0.68799450327085077
-0.0035307123840944143 0.49669609339694132 0.77001066177303024
0.13602427385102217 0.39920577159925497 0.70742300876478748
-0.23995202109578401 0.30024134325962648 0.70739187680547688
-0.18105605087846544 0.71018300304973447 0.43523431348201957
0.11852129676662443 0.59413005615523784 0.56366931676844212
-0.48390653600149119 0.44563203966671527 0.71419966966730852
-0.36506811689990326 -0.65436799351665287 0.027937662002843311
0.15043099705343793 -0.089343741321536441 0.80496072582715916
-0.96396405070587343 -0.71231908025279456 -0.45026204790368679
0.65552725836166026 -0.44811504136267644 0.6725335026843452
0.49016696025166462 0.66399287635294946 -0.31348691740100665
0.31749151336263759 1.223592103824467 -0.37708721404867301
0.40575593605536725 -0.256593070376266 0.24203178163417324
0.38513990783911195 1.0348856019093864 -0.40332175298156159
-0.62308999003888732 0.35497508733971772 0.43336048879590872
0.56300915627166204 -0.2463721656962512 0.73064693393923485
-0.48624772862408272 -0.5688273031843416 0.48441341625008399
0.37258694096999628 -0.19143091799513889 0.73773806818237309
-0.32663447337997048 0.79265204572380776 -0.49297814240356147
-0.27696816253434076 -0.28238410079698828 0.72545142855432254
-0.67567223295558976 -0.92888767694388519 -0.42271889062498719
0.91974987461623903 -0.20777359916164295 0.45227794842525104
0.36363702897348843 1.2450017323347371 -0.40079773156395604
0.54867150545870769 1.0211242790273229 -0.51783798596084751
0.63210089812144199 -0.68452069065820476 0.51262108100500858
-0.18661396111179765 0.31905542203241222 0.76974843261542647
-0.65613214450809898 -0.59302653210375889 -0.23313308095784208
-0.9444425976036438 -0.64443606095529549 -0.41014586784328239
0.45351964609615292 1.2096996453017268 -0.51106499455251053
0.47812826253891616 -0.41326773461040089 0.35317051278378586
-0.67228528231797635 0.070679664445692403 0.79651488499376188
-0.20233581677538201 0.48336839667346698 0.76782158261658484
-0.089795521691796498 0.26076049552856606 0.74978721842515128
0.41616186910567071 0.9316301087703277 -0.39778065501595589
0.24987484656979417 0.83540896190503533 -0.28594526366300738
-0.58046554019678587 -0.63998661883828722 -0.28082258548538352
0.30533501867555712 -0.02574890628936255 0.73728816981839129
-0.50793673963002384 -0.67516428994754296 -0.30235195448759034
0.62930367271714538 -0.39881879880434767 0.71772631586539282
-0.47821904049694625 -0.1109125014484289 0.78641776602122171
-0.41378182839161848 -0.35416167889086703 0.67142101480421235
-0.71272387726937814 -0.94697642882441246 -0.4405172132329736
-0.3791100090708609 0.25061594107260898 0.77747877120194597
0.60413500596090663 -0.41347861879887249 0.74415118704530014
0.7339369141594505 -0.59620348368941234 0.59772079023936497
0.29436634626865277 0.51409126663157823 -0.36864600601214154
-0.31433080500138944 0.19378039488645604 0.81032189342468075
-0.5984504522491475 0.074190566236114863 0.80319963662737348
-0.30027574139633867 -0.24763471875680798 0.76761734093005818
0.82190052312958595 -0.19378584229777079 0.37435722406504574
-0.58792693390105133 -0.30991720456882099 0.66862901563424515
0.26692681124988121 1.0763625987101109 -0.38332851096107656
0.60274988234701721 -0.67047385554242367 0.65111332039177905
0.26045265453042465 0.81322239079276293 -0.297969011017573
0.19131618064787176 -0.17622369902100687 0.78594125697452744
0.66924949051862148 -0.51259437824228538 0.72054806503393465
0.044791106593108143 0.31138159240166563 0.76087335675010981
0.1341618724681608 -0.16574793325915382 0.80053523904297974
0.87658699988519562 -0.18088125211977757 0.4197615858615012
0.046408795696682041 -0.28264212013183931 0.58468805691315151
0.72018471672341433 -0.42279049982799932 0.38369258684814267
-0.41005813820879483 0.42272053000483623 0.83488324250546575
0.13825641467574973 0.77672416838392977 0.57229781494472198
0.33659194638744983 0.90313846382972973 -0.3477823588747142
-0.29369952471535721 -0.05838745566143011 0.75767993999610062
0.34455220247633189 0.50981134297600605 -0.30102944542134624
-0.38043263529482862 -0.52225545306473253 0.56538956776053639
-0.39662117456182 -0.8013405404875773 -0.1561290801177207
-0.39545588869787268 0.19565451992440441 0.6382292934023619
0.47086996342785015 0.80249291255285138 -0.31107158368528764
-0.26664277051500473 0.66574455905322871 0.68191278814261058
0.11461381035046063 -0.16472760670129738 0.77307070881252993
-0.34806200557010925 0.11120280892035384 0.80441860335279136
-0.37457696056512857 -0.23228383109795536 0.79526521392805449
-0.18611160259506432 -0.17888517156703032 0.7449211467511061
0.015545660743957412 -0.43393620914704556 -0.39389215231390601
-0.10729802421035994 0.99528489874964876 -0.086986006392614945
-0.75722426554595346 -0.62031197206730626 -0.29945578321908528
0.78634648321059242 -0.25773497974430204 0.68161125864776428
0.86533401945098287 -0.38435303298224216 0.61334172568262613
-0.65088049764855049 -0.54169188465641471 -0.38385179694761346
-0.76371610293038361 -0.81303681391242999 -0.50090157545453384
-0.60548457752263452 0.76047274343033244 -0.29502199305961041
0.15073814001248564 0.80733113394389566 0.49620608894930107
-0.39465205407578008 0.37338061483767992 0.65054338777718956
0.50974621263618802 0.90184183732528078 -0.40361044195451334
-0.48196643762572755 -0.5707629556407845 0.39782266543612088
-0.094442177422985996 0.46404675368066739 0.80157857278933498
-0.82622636886982892 -0.98362975600726932 -0.43131307890853643
-0.44077874682984419 -0.41574514912365146 0.64868847915292194
-0.34441788712365129 0.28447330804734272 0.82390044528520368
-0.20434112947781818 -0.13353226033337617 0.73326056977322196
0.19978271943370995 0.77328104216456683 0.24764789194534037
0.79427292111522463 -0.29790824908428443 0.68941371996972811
0.18986802293788735 1.1492672570431401 -0.29374629706206534
-0.11966371525283748 0.63576609097509595 0.73905505785155767
0.84733086776640232 -0.41402930808925936 0.62280950761092824
0.73634003793337888 -0.30628278866454506 0.65429890178498351
0.088609476603534632 0.84353059434076383 0.22187992775951776
0.083783123977109436 -0.46883309489764691 -0.13164140303115268
-0.30242066609242901 -0.75830238336259326 -0.16043850847739699
-0.29159010590161683 0.30622731532296021 0.80155318349225935
-0.22777318442080371 0.45343986109793377 0.77145116930724456
-0.25201921359997298 0.98779834116379273 -0.091055117729352153
-0.60804897531199675 -0.39115146754385832 0.63502149466101754
-0.68673733846489537 -0.27569024038318779 0.68970316387745767
0.058554652648786953 0.47704151139084838 0.74291069397007958
-0.81998675265378318 -0.70651250880112437 -0.43317145096599347
-0.44547123092946728 -0.26023613670187484 0.76425907179691444
-0.23981205502598057 0.34168258403021157 0.72627897501520988
-0.75618103006525117 -0.9775463641597677 -0.40012338753407356
-0.047871667382391514 0.43667982906768077 0.80678343278602904
0.80947470129868693 -0.12952654819648701 0.42337452282165899
-0.48378493930237221 -0.3715980051893224 0.66849580849014534
0.65339480871476663 -0.01928635622973629 0.55894863626872648
-0.73031927218776949 -0.32272893860222185 0.42542286618558139
0.22542410167362509 -0.060906285271330463 0.80550033764210327
0.059848809271581288 0.37989815075715538 0.78571505717774826
-0.085049352842010234 -0.5269891868686043 -0.18946651323253272
-0.36630464188037737 -0.66211991930145775 -0.060840896448408899
-0.39456918830763998 -0.023410178748411781 0.76689675366929422
-0.74730009667095509 -0.32461890563318163 0.63854530471117033
0.82553939095185558 -0.44135508681031649 0.45495646336819745
0.33077513514726192 0.41312267691022231 -0.26609686812079825
-0.70056152983368281 -0.69281244892830873 -0.35718057284350935
-0.27735294615177952 0.42000847676943565 0.67957018944317094
-0.62409724375015452 -0.23270246986865151 0.6901920680034751
0.55120240832295853 0.022458183258182829 0.56585467360876684
0.17927427543718494 0.68270970334815706 0.58821708277482598
0.31958583397168827 1.1098613237071804 -0.41629552488963373
0.44360905048097088 0.052112943010040547 0.4621419682094936
0.61559109556366454 -0.4240568711034155 0.74189954927692425
0.53406503911676251 -0.20320851003664886 0.72778309448804968
-0.72391418323816215 -0.51101057431911245 -0.17398322505250807
-0.62570382799212843 -0.64309329539875826 -0.29678271153223346
-0.0972869992709611 -0.44055586910203925 0.39221078482300253
-0.89416426050773512 -0.099028910265939629 0.086626463783651186
-0.55470167387905489 -0.056592673727858145 0.74693208365397346
0.082711569271437635 0.5421108016670092 0.67053710014971246
0.62605657823994698 -0.63243108157941297 0.45958384697923804
-0.12004491414800539 0.86850423306236491 0.24383926540267031
-0.91489608591297644 -0.66663770377653142 -0.41008004368230289
0.27447191553800099 0.66830135199903018 -0.38681616921340184
0.29159402276459329 0.14365866737511035 0.46799685817063735
-0.51366601284485836 -0.31272739218531953 0.66353051246149275
-0.42962525585138805 -0.39004657828205169 0.66758669314613672
0.38265836075370208 0.71785845883289323 -0.29226547485985455
0.45861916991136259 -0.0086759941814489316 0.34822965550056167
0.29301758703191239 1.1211137278049321 -0.41040218819369212
0.09581869659993511 -0.15450777459857157 0.75291993521110612
0.30919099882846113 -0.13625298788959606 0.73829391653101428
0.77810059873106141 -0.3564499941961714 0.69373274994803236
-0.10713841083286998 -0.053769345106366995 0.74837735976276409
-0.36617289992867169 0.46322242437235905 0.54530937712791983
-0.89985064540768644 -0.84056657716641614 -0.48083130543435615
-0.29236067680236183 -0.44406108516589837 0.63153562600488389
-0.68334022101923786 -0.84640798909854453 -0.39679801235329698
0.0084299105354657122 0.64048985046932683 0.67958396921723985
0.19953365506309673 -0.34755439455966664 0.64233732336418514
-0.26992185271187213 -0.16805763581921407 0.78426379547824343
0.6620780090620404 -0.64274425835105209 0.64544230956857751
-0.74591007718740454 -0.39081595637078004 -0.38988957058743401
-0.33985070327769829 0.22137097006885198 0.80759009508058099
-0.45872755086442318 -0.81608688106113503 -0.22196274249601106
0.2718489339716943 -0.27304279033061474 0.72742879651420267
-0.83604476061632871 -0.72899318742146146 -0.44852793992689349
0.17028893206605034 0.13410917211575168 -0.58323553924928073
0.68659962666789531 -0.53241279760424165 0.42469325001730995
0.066932245847303729 0.58980156008801532 0.61985301317658914
0.6240923921274466 -0.42352366883815579 0.71964655086788931
-0.20329445204912522 0.30622948732967537 0.78139774648292482
-0.46576635642532227 -0.25290451745233788 0.75770724817717006
0.065633702725063164 0.37868173886365608 0.78027946913184199
-0.37662323071348014 -0.35512006522458894 0.67723217258230284
-0.75162259991991176 -0.4323368062870776 0.4617497914814131
0.15688988919687785 0.79893614928540146 0.27826835277001838
-0.11338116751065638 -0.42134613892318473 -0.49602359654828315
-0.2341996707635044 0.49595594519531816 0.6880205664946466
0.39600904575241658 -0.25396793272181428 0.21400056816503898
-0.78994879354778147 -0.44932319123618925 -0.040745055172250744
-0.33963744248292499 0.0176178134389533 0.7733792592250579
0.45880307115688962 -0.56241455991848477 0.41904961208988711
0.00078029539482155075 0.96003748509165066 -0.17939960364915486
0.25621293751581242 0.44228153218581578 -0.4112751689973409
0.35684291614764518 1.1126660810825602 -0.427015760502578
0.72769552407446625 -0.30427567800923677 0.65664445301786123
0.67114975611254146 -0.59503408483811504 0.68121307263649034
0.37048035193454193 0.53844353264527178 -0.12501389115536343
0.21103083192161198 -0.17358176312682549 0.77494027623304318
0.34022213065424284 0.22699095628830801 0.27374956595570266
-0.33339966682680378 0.87212215618918898 -0.40661161137850854
0.032336442313787267 0.38831835249634195 0.7971111844744192
-0.71351865670475334 0.67041276958892704 -0.12238914361638176
0.081598110656964096 0.56842822611106603 0.67264430843595513
-0.55039211447460357 -0.28868289150328619 0.66881457159506519
-0.77587489118187947 0.35036434739497402 0.28474591887913692
0.025559024217061133 0.62789275907312936 0.67923432509491177
0.30309326494989264 0.11255560615871785 0.4681286454789903
0.23351039149656633 0.026626713114861089 0.74232249203556455
0.41903893112888435 1.1451896625768665 -0.4608180337609894
-0.82064811371499791 -0.6399034329196811 -0.35562384797401458
0.44875257066965646 -0.17642436045339038 0.25635705333684278
0.84075897542045119 -0.19454369918275677 0.62117669896655159
0.58221220838787913 -0.24237720669966933 0.33359465671162991
-0.55264708244144112 -0.38417816835960972 0.64592955762803128
-0.92233721719112294 -0.70042705585560361 -0.53786941831831991
0.5658792109187577 -0.45296489307244925 0.74008382680855478
-0.5611299624807542 -0.36236329781511611 0.65397542827452715
-0.57187224342581122 -0.55072283479593942 -0.4052797441663587
0.68507453834275689 -0.45205574446026414 0.68978429287509657
-0.64368106317567508 -0.33573700900708681 0.6553787995074194
-0.89403630919660182 -0.84962644922420405 -0.49848950284704602
0.63297798227708335 -0.3779785102786512 0.73784677731876991
-0.3737919733722852 -0.66231418448710944 -0.1170079791212153
-0.14234386275034955 0.74259825247202338 0.41031484761035253
-0.508243643363256 0.40714764100525436 0.49070140200561485
0.30996508107902127 1.141653242912688 -0.41807394655978525
0.47070402105872178 0.045175375219464575 0.56915376594756539
-0.33081313833741693 -0.084610715479102705 0.78847921296914558
0.11295487671883842 0.48201007314900735 0.69092998191638488
-0.1073091526442555 0.4157290900869739 0.81572325306282001
0.30887828918070742 1.0170296477450893 -0.36812040464134188
-0.18836978145445679 0.47710099515339754 0.77017725281203075
-0.33131006926570766 -0.67332259627512814 -0.11013927513146704
0.52866568422479476 -0.49370685444962192 0.38322403835773639
-0.13176931718209142 -0.28712676599790177 0.70485449530707056
0.70352967755737961 -0.33413978328804106 0.66490561229554113
0.03923469152096079 -0.32605475967551789 0.47933101741011935
-0.37445148708734732 -0.38961062668290514 0.62822479181422874
-0.61042094994645901 -0.93777902706096405 -0.33982947599021207
0.30207726291030956 -0.074012699535801696 -0.36566263035170371
-0.81463154836367135 -0.73738867656617413 -0.43051693832312843
0.74855476974896518 -0.37459116431452522 0.65004119381246284
-0.16869096741327286 0.36384979640368265 0.78400339278611719
-0.033614150829317346 0.36738778064630684 -0.66796716532552991
0.14354858748357954 0.3692473129551147 0.70682087560579909
0.13284321728886106 -0.23602651168233013 0.70403319149129961
-0.36701904592318835 -0.84782543903668595 -0.22376786674833082
0.12035602852265169 -0.1356428249678987 0.80498479970757109
-0.53178362398893642 -0.11252787786534446 0.74137442761244932
-0.60161339467983233 -0.34178604699946979 0.65147892447635414
0.36969538852819467 0.71991986755006121 -0.27705403064688339
-0.0229745674173777 -0.35143995474828105 0.52468133541470674
-0.75725062327556203 -0.4827047568946301 -0.11144814516208534
-0.72228757417530975 -0.53340394499663035 -0.23126556762836187
-0.41371720011880442 -0.029580537031500986 0.76155511179594693
-0.07545320929646146 0.25143646477541548 0.75493594365680972
0.2906361875827469 0.83996933509566318 -0.32021024376983803
0.03582127085402359 0.82376053526313664 0.62415686982021712
-0.45190377959820599 -0.43214041606399833 0.63795069358824696
-0.64604986569985456 -0.98744920226345068 -0.35156863482997924
-0.62297712713843811 -0.057664733296945325 0.75035085134875512
-0.0056922857223616896 0.49044277305731376 0.77590736271316696
0.41887376522650127 -0.5973317785370833 0.55495760233422253
0.26935293361925305 0.014789241295124489 0.75071722497506099
-0.56290788173787976 -0.25000913471744735 0.69189405700427542
-0.07117242384811695 0.50870058047101918 0.76098141312637635
-0.44334008993777152 -0.80410106255022984 -0.33859148709702486
-0.0013589716174546851 0.50388419163017728 0.75716368965448722
-0.24520289315461186 -0.26848111197645652 0.73653797694700174
0.1181795137013246 0.40106827247186416 0.70137468425822047
-0.57305241145148245 -0.22694940906884598 0.71034359135732794
-0.51894911576592906 -0.61553953221151447 -0.12706782797227484
0.17610384728047554 0.28009347719495004 0.69293452106979647
0.017027920249599426 0.60134625134012465 0.68301090054070057
-0.78328625313841072 -0.56643009432161917 -0.2625513307243057
0.094699202153462392 0.52165444973799147 0.67372889946855874
0.37975946119623294 0.58964728514401932 -0.32112983936267103
-0.16492276643094125 0.72128126399343628 0.61867308779544328
0.30903914722767267 -0.50150005565886135 0.54887244958797443
-0.88284979772801364 -0.085438449780351977 -0.36885333138685206
-0.93560594826390298 -0.92766359691413269 -0.54882586369962905
0.3112222414542597 1.1691258931627508 -0.39466033743813977
0.26812872409527033 -0.0028913504523988554 0.79168389809717188
-0.3738653153066972 -0.40558368517054255 0.60206863113901377
0.19914776009615351 -0.1028777000156772 0.80890871637255679
-0.70473284062997177 -0.9938347069341793 -0.37966818319707751
0.81686861214392237 -0.39382765491002575 0.41802845880190675
-0.45055550795217453 -0.3455759496186126 0.67017784724383789
0.50097146648581181 -0.16072125467099907 0.72476928897290394
-0.45183600256357337 -0.35206038520754901 0.67253734382591301
-0.40134840191865245 -0.070627300581320718 0.78584905752909617
-0.45493705018737807 -0.36595459823004739 0.67446755568464778
0.29642171025103092 0.21904704838189559 0.45033473156802772
-0.26221944537415093 0.65150619964863421 0.62268512094749306
0.10873315259138322 0.82548317691306905 0.55116901524510198
0.1815720754308584 0.77475093370142367 0.41459721022272489
-0.37902468547128537 0.23271255855224826 0.69219730434615534
-0.20378143513248542 -0.48138785375953874 0.54721841492398815
-0.16906482049295946 -0.32951005758704333 0.68643967662683314
-0.52765368403339463 -0.35673134204706214 0.6655844602422899
0.093939972974587782 0.58121315014572028 0.67059683493914646
-0.90787007276158538 -0.81572049401261837 -0.49243570257430908
0.031352164400340637 0.32788417012003734 0.78852571503608693
0.46403648624332922 -0.50142539545275899 0.70843875223327935
0.29543356522372854 0.75377273152294411 -0.29483414947731978
-0.48797685296001581 -0.002870620801243895 0.68632546366025304
0.29377348481295129 1.1488121734971912 -0.39233038151317662
0.52277214898105939 1.0161061390650532 -0.42558236114415343
0.12308419177253063 -0.27280791041860719 0.64390647896954678
-0.2750770599648612 0.40674174922046813 0.7818066865872122
-0.62695867941189332 -0.084253333382599882 0.74267772348405148
-0.5975252411401123 -0.16297120070909887 0.71761897952379039
-0.5815473021202181 -0.6445220868275261 -0.29282074743615766
0.55897816586481264 0.8108384353536463 -0.42132282453550546
-0.25470360664996833 -0.24879134340814257 -0.62981464469799753
-0.66174843494863322 -0.53021169631192167 0.44528009501970339
-0.83965001133714889 -0.61492952685848312 -0.33212411502655492
-0.86494503622452312 -0.72603871950539922 -0.47043884226761234
-0.38331243743479226 0.1886365271278323 0.74459152938524653
0.022951991321856519 0.29737440409849425 0.76594328207213414
-0.17982896935195292 -0.36652849101819673 -0.56709791947305688
0.34663917979327752 0.7450070974780294 -0.36667595527282004
0.88312211018565645 -0.25326954852788042 0.60963019942377672
-0.26434476996923673 0.65251052389969799 0.73775160548734298
-0.23338889285824366 -0.40991730977150365 -0.53134558116044173
0.7706888003772685 -0.30615690891675329 0.70153146551369772
-0.42926314424254225 0.54234658367034139 0.66120812820584951
-0.20096168064384837 0.44295914933138958 0.75022482360403142
-0.26713559847614965 0.0062664794466202878 0.76625587410091589
0.27419235288344107 0.07327003788404618 0.63799341112160168
-0.60361258934986262 -0.19699856287673301 0.70548677593976028
0.70348334172172433 -0.30218491941917369 0.68634414113286712
0.28893324280943278 -0.019710801463989736 0.77313671208865431
-0.59407227204721169 0.23726731060848483 -0.63516136949917634
-0.357732253163697 -0.085439279519789135 0.80796382649480747
