# XYZ point cloud file
-0.17558259579572483 0.92583117304594387 -0.39289904423640054
0.65301449237105325 -0.16638719753247533 0.35090424068409326
0.28882494220422916 0.005867565404780839 0.72999461724206038
0.3256104402014825 -0.014835043654925939 0.71691507100205887
-0.62534468987234837 -0.64945642058250019 -0.30780392164812997
0.12725184063874601 -0.095078223898771963 0.79969892966060163
-0.78852040192017281 -0.64915749647194043 -0.36314635177957261
0.75782569987780712 -0.31408181197765317 0.68314313152599682
-0.0029816190595279846 0.95978156731059006 -0.073169060436229449
-0.44807483254893105 0.67630958530853924 -0.55207787660947738
-0.15947744797080043 0.4107821010686219 0.78926933752760253
0.20284878252410055 -0.12639432174502685 0.8059885747053086
0.33871034427970581 0.72802386730099544 -0.26346189026652783
-0.012107858000222793 0.63713411908816564 0.68632322704407955
0.45484274447194689 1.1455403064017804 -0.52044120712509212
-0.063296907458930851 0.61010532077321233 0.70918982748136927
0.58309510563642353 -0.36905421907770597 0.3399881956108613
-0.81126788093962654 -0.37678326662853245 0.10632555536631039
-0.72246364550854814 0.6530563314605109 -0.026843248891908977
0.33299275553960372 0.04785574560914696 0.64595162885738389
0.59955157377749735 -0.011165898632860105 0.59719817659796504
0.28782747771961337 0.74129129750327571 -0.27007397415560486
0.49659113931387883 0.87089318268896543 -0.40093687867394939
-0.44922819243275758 -0.59864935653445572 0.23332290710386311
-0.042473987019213066 -0.10889413555269134 0.76078752685167883
0.23789179581148229 1.0557033236813207 -0.34693741393519678
-0.72408074672770451 0.10079785413924736 0.64213961403557906
-0.84189754696292884 -0.83042441500120523 -0.46612839578489162
-0.76170636823166959 -0.22988881159082108 0.62034322632168259
-0.53844824133736047 -0.77012052474330339 -0.31731187946114731
-0.44458281914762465 0.15864996567378276 0.74569021222295029
-0.88862209817629723 0.20822676596805767 0.16030680372380218
-0.01697546232434971 0.8587090572766094 0.2639205491304808
0.067687609785459346 0.80681129965700027 0.6217409925986237
0.15858132816437259 -0.030081946314595487 0.77239354623702661
-0.76411055641636183 -0.65767541090931569 -0.36879786272492354
-0.60818570825013796 -0.013832578145907659 0.76334116990255474
0.77929116704041423 -0.38431698319216778 0.69555314295979775
-0.02737953786339925 0.30456190840335484 0.79901346974835319
0.69432914055985107 -0.37971466542407295 0.66116426285389052
0.23021438768630223 0.018232216590854056 0.79142527334542978
-0.58558109786827894 -0.98178537043805481 -0.32771956988358575
-0.57085439059547993 -0.14079345209323368 0.73656380329940196
-0.54601102011105518 -0.62232103482282386 -0.23262605126429547
-0.42197888082132406 -0.64636251450666915 -0.096322856725647443
0.22158435866441986 -0.30282158936543879 0.69773545216199584
0.37206126771191039 1.1591599903607062 -0.49824551394875172
0.35842127575652394 0.81772104834446568 -0.33410881855134539
0.30509039881155681 0.26290952501924592 0.50999300829389727
-0.83816204950555051 -0.28081561741507821 0.11556205630758321
0.30510688398080754 0.55345898193529752 0.30154041047359537
0.15215596449387181 0.23793100193542305 -0.59170590359326947
-0.016588468173220017 0.46486102408311369 0.79103919698983804
-0.021597557653002031 0.78123426416396802 0.67571835044185891
0.18907330183002263 -0.36388938568466789 0.60869635466455285
-0.44615016825126858 -0.64639865826577414 0.00030467498367348078
-0.25746986705816477 -0.26224441167130697 0.73610199134293053
0.57645435743258855 1.0317379205695834 -0.45161226402553234
0.36035527783916099 0.11726106600567521 -0.23999159807019033
-0.29239441971050589 -0.72287778109297962 -0.13886664196850873
-0.67346375842191086 -0.94062339736952261 -0.42143524760327833
-0.45578011213066499 -0.36274271493178323 0.64271591373322479
-0.24450500752267754 0.41682270223265094 0.72036375734398539
0.20408880222784287 0.97601703243819427 -0.26493210997569427
0.30715245505418354 0.75734627242636821 -0.29683922881480146
0.17558156668886415 0.32344250590340629 -0.55877134736099132
-0.66342900922155512 -0.81448176376180381 -0.3769608653960273
-0.12706092257213372 0.65211005009192902 0.74671419733466382
-0.59877931615976099 -0.69075936088966827 -0.32440699677768786
0.10950714845083652 -0.40948097668268202 0.25090732954263928
-0.24567419297576096 -0.20630942636415073 0.74225173251893173
0.68780730622684161 -0.25896003364362885 0.71960914132279763
-0.39099567679985409 0.013281705869173877 0.77454531983406394
-0.38814513917308763 0.25660846966964446 0.72425179242243365
-0.32980960331913323 -0.13099125923113863 0.81630922332091171
-0.14742360561838275 0.90033718696066267 0.19454533090209891
0.38682426351736954 0.016798480376167269 0.66735844862132931
0.92747115500583066 -0.25621476577487479 0.43362312493529809
-0.492207198957193 -0.69562405320640419 -0.27591716301297042
0.71450206105823866 -0.16379085495442658 0.35933780194025083
-0.21568638579402727 0.26759416971382111 0.70631625095724448
0.46936470152712978 1.1494540868289143 -0.41857015080562932
-0.72266128358576587 0.44427806901312761 0.29877311942311457
-0.71136368276489081 -0.62726873154800877 -0.29118853116125509
0.36674754265858733 0.57175335306169128 -0.1294491685412521
-0.024464293280315491 -0.25518679471787964 -0.60229914384557137
0.037337015926145745 0.73663540718550746 0.66867740860395908
0.94107104719550516 -0.25865701118219586 0.49245496613845979
0.096752586365364129 -0.13585960418744347 0.75375783214525538
-0.29052179462911887 -0.076115672848598548 0.7671049000622554
-0.22513345783430094 0.47195218057030264 -0.69106080747361687
-0.35776461727099473 -0.12190634346388118 0.81656804067478861
-0.18349844353767375 -0.14626868210094424 0.7510772811591262
-0.60692660194219417 0.046743553141113781 0.51974033201708159
-0.66778655523412878 -0.63176599775954445 -0.40410323447320656
-0.2902959167118504 -0.38297931750796765 0.67218183079956473
0.69994080363907851 -0.42208016213126537 0.65829708396838493
0.33359613746507538 1.1832445967543765 -0.39616667145148948
0.80490690113309526 -0.10779870000996966 0.46269260949554081
0.5386387476154284 -0.56590172304235775 0.70655780501720156
-0.34858345536883484 -0.065058046894896249 0.7782992464987839
-0.75744834051676646 -0.27914956407188285 0.63109212818600202
-0.71569528542139826 -0.45261974073856592 -0.35771887723590728
0.67365840017286704 -0.45188263379655563 0.70666826118247283
-0.16227222222267379 0.48527391051598467 0.75987211673328825
0.3159627949563632 1.1378947476170198 -0.42605033200804154
-0.23950683614148857 -0.1938268026451464 0.75779971484829522
0.066111405448334853 0.21319287107098917 0.65337559393224409
0.75690592179358662 -0.3959101499747405 0.66869188810251734
-0.24494902107046873 0.37118161962259211 0.7827924619583968
-0.80023611383386928 -0.95235145454574655 -0.41943746546139349
0.13692215214963135 -0.12948182327580493 0.81028650412324521
0.92824890189128351 -0.21787664618523039 0.5189339898955827
0.39035203095827847 0.91424194282168225 -0.37553502144363393
0.15656433886656901 0.93489587036339206 -0.19849065720009984
0.89047855165075041 -0.36066613219530747 0.58329268340535834
0.18182316145170291 1.1090377631934443 -0.27649701364685153
0.37181016056391036 -0.46396858457949575 0.68553293577531149
-0.46398710343573046 0.51690547017530131 0.68406751056977333
0.35325784824948847 -0.519927103889122 0.46812299527412593
-0.15233763666961719 -0.27375561419169947 0.71363731433173583
-0.57989821634439953 -0.60390848961500532 0.01268948911808665
-0.53511775977909926 -0.71663776161020376 -0.31410627999467322
-0.21262396414181578 0.3923750835449924 0.77522415614097229
0.037512080414269788 0.32132053190475696 0.77206817108508119
-0.43200585229532218 -0.18313563216573514 0.80015594677267732
0.20582714777558384 0.055443086243356365 0.73975449151589712
0.73009188516173829 -0.52327476140894791 0.68365357261962489
0.33750677583089772 -0.12725874416891947 0.73433801551587763
-0.47776253596984825 0.50796420348090887 0.79313098471504095
0.016834388431401059 0.82380130332175283 0.47919093911553234
-0.45764271772954951 -0.0027452520908792799 0.77094199832263965
0.74802522440147967 -0.33245571780935623 0.64424892160034086
0.34500814841094196 0.69359278269007951 -0.23772914682290558
0.015595964384274574 0.59475618033254762 0.67953937824442667
0.2252213308465868 0.85103157941897667 -0.24307542588390163
-0.38827745124467233 0.20514869782241574 -0.71969463524608623
0.086064278038359865 0.72475494302954169 0.63923585502890024
-0.29480179044258259 0.38628904955343635 0.79019740172901454
-0.49874540751740348 -0.25334688834641339 0.72694549248295104
0.00035626232594315743 0.38574866620796722 0.80727085028890988
-0.76092782610988263 -0.067884325099951903 0.69611412164038633
0.63226529441896051 -0.23570133519726455 0.34391085520563391
-0.57607292160933543 0.15944696549023285 0.74554300310311805
0.24167421113059287 -0.016026670244017271 0.80256212477328304
-0.20397256419178278 0.41877290067318373 0.77085733046449767
0.1523708640641902 0.23753607907744989 0.71222186889256178
0.35979526524624628 0.60008710693289613 -0.14009524762930281
-0.10629767408301655 0.76854499552321687 0.39122137594091022
0.38337172169536121 -0.56541311277304462 0.55417733550768422
0.44909443245781627 0.6913843031481266 -0.20080761999723779
-0.76883382291179392 -0.43561163261380309 0.51962705963423161
-0.063465905832400527 0.21212366997890042 0.71416279783838166
-0.56777352476976528 -0.04552428868797298 0.74757077408438333
-0.64978801734375857 -0.61956873440637539 -0.26051836812642959
0.28982620541251003 0.18669515630815836 0.46546491116917521
-0.50477748296930058 0.047836418244172174 0.78677005761607255
-0.64944230790886903 -1.0090086620811749 -0.37473657626833468
0.0083426925259404427 0.93208091120022174 -0.33356749681558773
0.24683006826792259 -0.39305634992891425 0.6492439420013193
0.32217080031143963 0.42447988062134068 0.48741352412824424
-0.70246492432455476 -0.1763547757562236 0.45362182144279206
0.13112516112170625 -0.16988377361200602 0.79338056202756724
-0.59503877898791768 0.12458512034709779 0.80464635090050585
0.27169094510032588 0.77250573165861991 -0.29905229874907863
-0.2487065040198789 0.23921133830453356 0.79062498352584321
-0.45123260316035801 -0.76831456061090742 -0.28528340211228048
-0.24869780901049982 0.3026951447815891 0.78504550455067468
-0.58031694076922857 -0.3266293351032572 0.66405716527698633
-0.72394278836235648 -0.58977868765545693 -0.251957812666467
-0.4816901048914351 -0.77109238752621456 -0.29915508592861539
-0.48944588154928287 -0.24538229612803097 0.74129204726876419
-0.71070970348858342 -0.35312095173461833 0.65408449839680327
0.28848643156116832 0.25829665664706314 0.56870455823604238
-0.57220133845100318 0.6402125104654417 -0.50034343370193102
0.66378097530463376 -0.45087185208231956 0.67572126243400599
-0.30446138160912972 -0.045666451662223828 0.76493423828129892
0.16850855701974854 0.49435018650240814 0.66066944568953923
0.33814939918280384 -0.1842454880288622 -0.18471789966259189
0.57942422305241248 0.862201814015507 -0.42280664972578219
0.47879186571396259 1.0709636310164186 -0.47420009306625083
0.28558065363032564 -0.095900658822770879 0.77281007299165116
0.27250868712157589 0.7231360060665758 -0.098964138227285003
-0.20624382171358022 0.40598257625602407 0.77212956053278847
0.87223137225866065 -0.41285029778979759 0.49833423637911994
-0.14041079225848871 0.35236043151625229 0.80168195155859712
-0.00084650146444733426 0.076215255611145505 -0.68906007868970809
-0.26649247845891727 0.662630359138906 0.71033131077974998
-0.70379365664269111 -0.95191491859413291 -0.40353434151550555
0.67748683773230356 -0.36231325220312544 0.68170555125434662
0.13221361058919764 -0.074350187079866514 0.76572240511697442
-0.89004923167542915 -0.6898282330178922 -0.42702836882834366
0.27641886136958094 0.75505781168387887 -0.29112404249912766
0.32143448339115832 1.1228892049343933 -0.42513351124948651
0.16629144097497339 0.0065101509091662901 0.75759084487751882
0.50642829260458622 1.1860407653277458 -0.50366577098239029
0.53121808645070556 1.018170414953417 -0.42191774922483066
0.13863192402941232 1.1008240026174474 -0.26104452416687773
0.28403531139358318 0.72520323148895272 -0.23641327198791889
0.28033372990290978 1.2182839285467577 -0.36064894226701544
-0.33470431671965301 0.58105655188873917 0.80102508797688809
0.4955950043619059 -0.1320347187794001 0.30311436837030459
0.2617807156454367 0.63259649248609739 0.53350231054854136
0.15725239674416053 0.64166875637520204 0.62045525516180733
0.75256597066356146 -0.3285294633139349 0.65091794532547964
0.13751501158153601 0.88397788126503518 -0.030253713358283085
-0.59469237181386814 -0.19484016761443668 0.65552746318513111
-0.20360756861471502 0.48074495422642682 0.7274902543605839
-0.20795116678723405 -0.23372113358344393 0.72004376915416346
0.22951505740267775 1.0567785435821446 -0.33282652185783168
-0.70588300313961005 -0.57494481624495641 -0.23493609701307722
0.40523331974713939 0.065186578395969641 0.50218476930240663
0.096058457160114893 -0.11945644944165046 0.75788882159238879
-0.88168469871576527 -0.56138869066242725 -0.36173718014331557
0.068188619496325709 0.35553266323031296 0.76193455418654699
0.30595574857137264 0.24254185068882417 0.42367793708434309
-0.4115280115073931 -0.23503724004541393 0.78811422907117912
0.68218043301516573 -0.32884051333461645 0.71470410487708702
-0.39814879096702493 0.38998238947019437 0.83360147363567982
0.74866234650364416 -0.48521824242133144 0.68960111909131816
0.36451983194114607 1.0308555678585496 -0.39077591720516636
0.19494784709718038 1.0187959696168556 -0.26826212483938061
0.22463789300496245 1.1661296217992665 -0.32124297932949125
-0.54901789877528895 -0.92934226453419178 -0.28595977914447696
0.91896895684949753 -0.31384492882196235 0.45531432585850884
-0.80034068297046268 -0.42710218773481623 -0.13895250216717858
0.58331820866691331 -0.66828508197175718 0.65437578921500439
-0.32896797052171267 -0.6854271672953538 -0.12948188165716834
-0.37948343827693126 0.26954064303264991 0.66622641201443955
0.25639326883306657 0.20259155248634775 0.62211049458728485
0.82866631341917285 -0.22227567584791197 0.64269681809154855
-0.51080454401562037 -0.23689208077884683 -0.59751752853047635
0.417758997849284 -0.040879694554037282 0.70255519745895412
-0.36730342445444025 -0.78854735367586715 -0.28212711308776045
-0.115650816637758 0.31668516018924509 0.79160515703380541
0.38805580043570997 0.82639470353325761 -0.33941286562045497
-0.7769582826707524 0.024536440623830202 0.69303973962889709
0.21658890180242979 0.41248754687429046 0.6471997569066863
-0.50529436183821241 -0.72195828786867722 -0.30202706256366796
0.65753695399302192 -0.46772607955675061 0.73400981927794229
0.057511120389820536 0.68649813324697728 0.65676573946661487
-0.21306619416608319 -0.032322635929030508 0.75587230435380892
-0.72797327723518945 0.059548093453636763 0.61583754037639649
-0.81307346482404719 -0.17317297755757699 0.20576310408212095
0.63210338564883151 -0.43402200758302961 0.7180544415065031
0.46185068500851939 1.0964017850677799 -0.47209990627386778
-0.33818336297214846 -0.73364095607874313 -0.13526536516886445
-0.42417415372026601 0.39227866996305916 0.82819449235530951
0.65525179231412634 -0.36626713330853433 0.72157148942687499
-0.42933734365593523 0.10125952843672881 -0.70124798259479215
-0.69880648586758509 -0.4019353636837939 0.62628163348714883
0.15726898565039676 -0.067361847703469313 0.76862292398217058
0.41119122619959803 0.61406912910132783 -0.31690702512275348
-0.20233704519642043 0.34870789655287138 0.77199448136721749
-0.050975294405280036 0.55825091372481928 0.70788246767757856
-0.16321569303327058 0.72016152681751966 0.67748600582603324
-0.58269834966593959 -0.083074365750744672 0.7383274132618286
0.043174407534893433 0.44419606896863861 0.77972416716381709
-0.50916577779794314 0.59738908542159241 -0.57844492615158738
0.19843222358478219 0.93564446980468818 -0.24016378639909103
-0.38057004940465139 0.2418371312628711 0.64124036324778544
-0.20886690732221774 -0.090635228422559999 0.76097853609191779
0.45498910191659181 -0.13899229093504206 0.72664792911243581
0.16066272454653238 -0.046217473692231281 0.7660261619714317
0.010181861945158077 0.32486691131239398 0.80265955263707478
0.16608284889314978 -0.06200768515073396 0.78744409618749966
0.27350124129637771 0.72883357517189529 0.092857063276516549
0.1934641098288101 -0.17983926910637571 0.77847107361121237
0.53559451942205072 0.76596802700153233 -0.308476873137562
0.27771602967700959 1.0351911028124294 -0.36604572084681686
0.65840110124393347 -0.55821552244460881 0.42966538291258449
0.24777751180682778 1.1938534323036749 -0.43237116722106994
0.54721042071594317 -0.52834881949665258 0.7216936005318032
0.36362098075456684 0.21932444841077703 -0.13614420753152556
0.28791842248133837 0.080393050477214234 0.59646872598776679
-0.5465776323450322 -0.32286418337143652 0.66788167938129495
-0.82246838061150307 -0.92457057393962616 -0.4778145563165484
0.73926232481880216 -0.36273076657336961 0.6472694531920582
-0.73828214785229829 -0.35789283139760264 -0.42608514159337396
0.4341314478608021 1.2417356251001961 -0.45925791094800339
0.26709437188463592 -0.042851290050306301 0.79307262823213542
0.38522705218593267 1.0626700520830135 -0.41149500185079313
0.26863140924934398 0.66623439602008472 0.28936419560108212
0.66981711039373737 -0.13768883042131608 0.3592274513018906
0.36721526721433756 0.93999312602569141 -0.37222797691241555
0.81364126169877204 -0.49458384660828436 0.6056849964343427
-0.14169864840286372 0.2584718941538382 0.77468030671089871
-0.70988994778672831 -0.18078202161109891 0.48806135115621507
-0.75095444453473403 -0.39259057113890816 0.60789462152954454
-0.097383344021213541 0.35645733503990407 0.81906430852828116
-0.077115457879602001 0.77556274100965616 0.55276385125488403
0.34062663718163766 1.0695438372196002 -0.39550991279609637
0.10955184662967471 0.90747359484722501 -0.060067276126388902
-0.25950882027983752 -0.58643505806167906 0.1894782449498934
-0.088445883304070272 0.58036871301529502 0.72862112312381766
0.2854630989120065 0.16656327495191225 0.48134559954868877
0.46719771068923899 0.032519262166943119 0.60447702203698295
-0.79744178189235992 -0.71302720183447477 -0.4164326806270563
0.14255976985214863 -0.11535721346784367 0.81022265048988973
-0.14326463487028263 0.0337220516123653 0.74817316097341957
0.11394168146361783 -0.12953626570185006 0.8020427116306692
0.093739887714253595 0.39134566256628922 -0.5995971246138595
-0.15089442292951022 -0.022215229342163578 -0.7094990438173302
-0.57920146931223793 -0.63494824540264405 -0.26745852730042813
-0.089144575016602834 0.99622893451465577 -0.2034391038398598
0.36392566125237469 1.1307344475403962 -0.44111107155389578
0.73611640097103781 -0.2905105304624423 0.68918101145628108
-0.079720800394309232 0.20568760541274411 0.75805263968829273
0.31641693905192236 0.43457331671142618 0.32697796330292361
-0.77458639803056117 -0.020829024946408259 0.68109623353250415
0.35908462372877953 0.075345347069065038 0.48072670492380437
-0.55830478400251615 -0.12073422084078778 0.74484719248338538
0.12692302007792006 0.42477036105110377 0.69793779593559424
0.62807495047684114 -0.6936469984054312 0.59835781871982074
-0.13462822437350769 0.27514921924899105 0.76228076632355068
-0.065509865585933094 -0.52754081040187817 -0.10646375032772243
-0.39131610655725868 -0.17272834347012167 0.81238087005219306
-0.72403657782006581 -0.17221222726038654 0.71046466348734827
0.3830222065347878 -0.12604336853156561 -0.075121906189273613
0.25599196761038484 0.81063665990516043 -0.28736368666472611
0.11334351675064441 0.42284206246219747 0.71758423624893686
0.31852707891165255 0.66950033286231059 -0.060559550393917749
-0.85746226206878318 -0.30865810092489809 0.056981819599697003
0.75868631133083464 -0.19007212282046915 0.36106524549251745
-0.22918682572708077 -0.11462011610194356 0.76339082101075029
0.79254037488587636 -0.33612562835898302 0.69422819539732272
0.74976503454362509 -0.31997611366950601 0.65495914686220258
-0.73094132628772934 -0.77268181303278283 -0.39016168673947493
-0.40079837790357298 0.44937805482233362 0.64294745260053632
-0.053021101175460383 0.57620241227502489 0.68693594884435971
-0.14469340753591625 -0.0099124950550901758 0.74590480249996516
0.26211367896255128 0.78738056789581412 -0.28862157917313647
0.38102225815846974 0.73120081525560443 -0.30543448073877866
-0.50855400617098834 -0.70594077744919037 -0.3025374863600373
-0.20595994293019765 -0.21102635926308522 0.74318548653538297
0.18601289732618093 0.15413094007945227 0.71724242384134074
0.10692702805943274 -0.091483424971641858 0.76426263323812926
0.11257454290946683 0.50164978772822455 0.67988709187426322
-0.82778743001564381 -0.67868199416759412 -0.41753097035125097
0.85391362567604712 -0.38087009352833395 0.63108597710227354
-0.78962773871563563 0.0020007284792411539 0.31766987877494501
-0.36392697099836574 0.49347867794981304 0.82192729928842834
0.40702962369362977 0.68813532917870646 -0.21744991673369052
0.30161524943643347 0.68222547362819497 -0.11111189215230027
0.48146085328264682 -0.61968984477518874 0.44893972274950683
0.1252966038560806 0.91600671761352492 -0.31888084452551835
0.39865534303672284 0.010450587701094527 -0.062641782067664353
-0.51516466070895672 -0.034457135104873027 0.69979432804625874
0.16451551396180397 0.88118679406533817 -0.16898435250396615
-0.35668857438692153 0.223145328989651 0.79336560345032781
-0.65241582023367262 -0.95675390869346399 -0.3582272426992068
0.1984975974905811 -0.37994926345587798 0.36990749947156026
-0.17223184779286566 0.30994579600492633 0.76240417830108997
0.13055911403847625 -0.17851673944100444 0.75711575631204009
-0.61662829849304135 -0.71186709750735933 -0.33346092464041899
-0.7302097798617071 -0.8187754482271512 -0.40313014120631846
0.13892850583780919 0.55151226118241903 0.66103797708376311
0.14854706745987872 -0.068206353333364445 0.75856967245004814
0.10699041013747465 -0.25632768536811712 0.65189572471992752
0.11555826711100452 -0.32011023750021228 0.51479436032395809
-0.18436474105484649 -0.12122775838713595 0.75425593840254201
-0.49897790940876141 -0.064387144565201115 0.75381878696266058
0.80285253846751159 -0.27452255935629211 0.67748275649672118
-0.17860641092815485 0.47309579313624806 0.7653691336898546
-0.91356165251072352 -0.57849593338401961 -0.39117412013276309
0.22279329124553443 -0.15462124403084065 0.78583379480464322
-0.68365917953073274 -0.57632108245913893 -0.22754399358470723
-0.4674347999983634 -0.63081844158061084 -0.15265442788403322
0.054680863309583716 0.45046453885990378 0.77223135029002676
-0.41249393483430102 -0.33453957017974401 0.69430409082899625
-0.62234656338386318 -0.93270813073740788 -0.36677957761966334
0.0032739648892435164 -0.49365218370217656 -0.20970139321061443
0.20485770565877037 0.64977415788507675 0.58367407807345306
0.44418483788183782 -0.44140560392159878 0.72276484742567382
-1.0064501775837049 -0.84133006537305866 -0.51304378031869446
-0.054822228010628749 0.26562445175304616 0.76362218904295487
0.3079291725796735 0.48637485153152427 0.37282810650329784
-0.42795732807446407 -0.6147407795871711 -0.38172269991230612
-0.58221103704948773 -0.65040254878052828 -0.303076048180347
-0.5986276368662512 -0.59166276515007143 -0.17277936059306975
0.35117505279677186 -0.35861450445141219 0.29387743499702951
-0.66556594702646166 -0.34168648095438758 0.65797454438088787
-0.33023374227121671 0.25457294682684473 0.81888862711808663
0.35782752379896787 1.1614009578640223 -0.43416390215279838
0.076605298002322575 0.56359249228654973 0.67065691309821451
-0.38475549160419753 -0.28732719586864941 0.74921123254570832
-0.27637265440138559 -0.0086897337450269063 0.7673616183851264
-0.32041739094498112 0.22495353544694874 0.81418349851594174
-0.63841026317719463 -0.48108797725240415 0.57430009796384662
-0.36560844177925156 -0.011512911513476665 0.73624934309998147
-0.57370134735510514 -0.015618780260724829 0.75772659301390721
-0.54495974865474406 -0.04130289153582023 0.75130018335228177
-0.3867155686040592 -0.2655467590931424 0.77721324501203637
-0.54344336548319538 0.82820898572759938 -0.27322602650052286
0.048021168247651347 0.096849271324711772 0.74913116791931178
0.18102441687419499 -0.32900241098013017 0.64002047154301067
-0.73602202219533042 -0.73601443602150662 -0.38517603087337993
-0.10869600710013713 0.39733726895907284 0.81807980205908504
-0.38872220501733512 0.27916100978684688 0.62323586499911043
0.24599575699135851 1.202341601202698 -0.3401674395942631
0.72984878611992776 -0.43237124203431732 0.6766344949596943
0.56362877819713908 -0.071854238184120955 0.67804261422558243
-0.10241472548389746 0.29407416157908406 0.77994334406788313
-0.10773371080461383 0.061547151215106677 -0.71824605465715352
0.62939378265208845 -0.58319950690251587 0.43393156414946948
0.52728876214850662 -0.12148255523530904 0.32753250330312478
-0.18266438325235446 -0.2915653951440309 0.64631819241444854
0.46314627486296767 0.88734764227880059 -0.40696872961178854
0.8441602517403699 -0.24097838701867036 0.63853564040571253
-0.43857911025888552 0.013145587084908428 0.77341763611964132
0.22342741882038072 0.62169088923017846 -0.43090886640116
0.40110862059095104 0.56281537441418594 -0.2801586555972605
-0.095505115862617285 0.22176031822216635 0.764749991712388
0.80103333306557611 -0.21600759157119298 0.36531094208519821
-0.75970978540017131 -0.40760997508483188 -0.34650947780451413
0.27298498579331765 0.48015173516394261 -0.38881665138224802
0.8935390420350835 -0.33232349507323244 0.59580582547640404
-0.23027597672406833 0.35599918975166478 0.7831114832133389
-0.48999502078926077 -0.6685603785976848 -0.27399618180135799
-0.43953551224154142 -0.016480810855357575 0.73113636310692831
0.14185040483771497 0.32008562975187282 0.67443663894052475
0.48204649310313513 1.2074721526749688 -0.4940737228118478
-0.76988282697592691 -0.59885915538634382 -0.42808794981327242
-0.23738987166059272 -0.370617020509169 0.6027194636977018
0.350439908869845 -0.086056747472367245 0.72863795037351542
0.16204557975753242 -0.027652246736334818 0.78069031301171299
-0.59645511416758712 -0.91052990961112235 -0.37242284664725051
0.32924958545540095 1.0323253490002839 -0.37774426713428078
0.7504038286376411 -0.50250289242024992 0.67885957860774881
0.15915902468438908 0.46697064261200405 0.64621994692018614
0.8325451314423824 -0.48074794707375712 0.52320317772436731
-0.10928391739441157 0.74234839682375964 0.68668503409652293
0.39070363815541576 -0.43071430658817889 0.36680528196255413
0.093711849235384115 -0.31244456052802272 0.49839962330436949
0.19602593239188887 -0.18269661155837691 0.76975867715060142
0.23764778513492957 -0.38452644165762206 0.28048307563174546
0.050791691093770019 0.59124143095258153 0.6756044099075289
0.01135710459453787 0.94326124185397831 0.020442529889546868
0.30274937966812371 0.58659188782968696 0.487322574070845
-0.34138448231489377 -0.096988268560627366 0.81254705891204571
-0.15085884682440109 -0.16452433379631826 0.66727705990245867
-0.20671741656946757 -0.4952387604305174 0.41642733408427912
-0.45585621239101459 -0.79948099500055636 -0.24662719438334424
-0.19598857375340811 0.65380614503662593 0.75902855281790349
-0.21851255663368152 0.40666165090363071 0.77735276748258753
-0.75450724715500272 -0.23517376179711236 0.56190522866624437
0.55764566180493447 0.881369062536004 -0.47297590635391912
0.23933501630814891 0.0043039427952612508 0.79841320522270309
0.27496551757189569 -0.34520965391075875 0.70181516749885597
0.10896174504132944 -0.14531057569644801 0.79554638272139488
0.22841096899645741 0.9175622555255194 -0.37524923605078331
-0.066082232931706925 0.12398610793352138 0.74506118849153069
0.52040994542405372 -0.30936804196487022 0.74058770892685721
0.27037411694331787 0.97853988588122776 -0.34184562440373645
0.4336068307446459 -0.55438390510733127 0.66371567682424404
0.011402948990881734 0.65466894076015503 0.67467103762462421
0.24647960324324425 0.77051699118611683 -0.025308284049007645
0.22445694120915816 1.2075238162455548 -0.40101300730360739
0.17880796761192813 -0.37463154780179264 0.36262070195085627
0.094953931364451752 -0.12119028439132062 0.78339132510818255
0.3285264344031818 0.65572085559972737 -0.031226556526813609
-0.21053790308357292 -0.32765340351017835 0.63746624083618963
-0.012267968207127833 0.32927826597278065 0.80996266336208822
-0.54106052247823255 -0.16206995516187717 0.72602326573805509
0.49304805987743233 -0.26262574034940422 0.30780356670470543
0.49347027858914327 -0.664977154622026 0.51768820857099274
-0.47266660263652249 -0.21070557880850327 0.77925356141386437
-0.56757851906590762 0.50615550700329881 -0.59347036736432068
-0.98945732762334382 -0.83107280182997689 -0.48173350061414894
-0.56712172441571618 -0.041615741571133347 0.64635643146917154
0.058751993596569782 -0.29428501805933638 0.51560837779805935
0.51329208417779004 -0.04345323307700788 0.35538041820506128
-0.63459140836382055 0.0071108609695247349 0.77598130496135476
0.36488280500608 0.96013969227789564 -0.37698666091337624
-0.96974825775580398 -0.6290980604779759 -0.43294793412076327
0.66865015954458806 -0.45197242511855851 0.68355800646668374
0.3768436877837692 0.72619260555974918 -0.29269971092374186
-0.20058022814787052 -0.33796170825408756 0.61240718951537221
-0.44756668435968727 0.17751144228644211 0.61168779836924037
0.26879950344926462 0.7679946660382353 -0.28978863118496601
0.32806954422257828 -0.14548780605626455 0.73594876111841889
0.39071317371869901 0.89209182831028344 -0.36629229215447862
0.37654339673252551 0.67394316216763772 -0.22775395775791285
0.41213757603227358 0.72548205378375852 -0.28430619753662956
0.76108748282777161 -0.38474230482629013 0.66723136142747963
0.14918499007624808 1.044911751583028 -0.34827764677652256
0.039805061851581391 0.90869404534731091 0.10245942036857664
0.47642515223263671 -0.53894084719439683 0.40355501030791929
-0.13464887579348872 1.0039649251691256 -0.20391865430994488
0.75814254146056737 -0.29087459034802193 0.70425393362705335
-0.76138588763010251 -0.32888598836720506 0.52935473688578605
-0.62491488499203496 -0.1983969835874928 0.60456823309000329
-0.66635982069670385 -0.2734327619498258 0.68607803540268208
0.20932561779028006 0.033371981011093621 0.73962527721193927
-0.49253623947659253 -0.53750599183322301 0.54112240783655852
0.31531506424264677 0.082441726174359298 0.52362987821421603
-0.36103426401810651 0.17959416006914797 0.78807361341862558
-0.41632120656120253 0.16526337369970112 0.74478589690325792
0.77397230969001396 -0.38466297282336093 0.69316026982700785
0.13757300530216859 -0.3266679849804307 0.57037898963776823
0.83775466395518716 -0.47642423432905867 0.55039570990493214
0.48931175662777077 0.82641556089228974 -0.32975799117635923
-0.38781049527421069 -0.50182655746924287 0.58937903111912038
0.3737309568058359 0.0013125739159949301 0.68842189317566316
-0.82067341554341799 -0.9226336649669038 -0.48142998395092962
0.65059633515351867 -0.091158488163914364 0.37637299300995125
0.34664584327799391 0.64380602703364698 -0.18516018163112868
-0.72513359738854777 -0.26158480146115637 0.3585520520412061
-0.11293902250141719 -0.27698139842444092 -0.61238127660941832
-0.72109789082446685 -0.5178896616843649 -0.32843030583451516
-0.24113781189935585 0.74939348564646813 0.35080945203807612
0.27419151369238498 1.0996930355748158 -0.39322569946532948
-0.64896708752905385 -0.055922116048477077 0.53764137033658477
-0.64725373723176283 -0.97579945232881693 -0.34889548999894243
0.36389319678674886 1.1579421212856966 -0.44454966352006314
-0.68779730762006075 -0.12096995616990647 0.51352007123882371
0.47786835254291654 1.1603244924291221 -0.42190275917242198
-0.12355498451584432 -0.029819438262630005 0.74503207638926372
-0.59795138347647825 -0.23080647697336731 0.69706857690941815
-0.19053239761978211 0.31622721197712589 0.77455470095885626
0.035469878077670325 0.8359248849413351 0.60021032266765006
0.43660133424060787 -0.11173325120128752 0.21130417714715211
0.5390286555514141 -0.47745272009037842 0.73379879253986424
-0.46302068479956132 0.54921623578690526 0.70615165229892696
0.62730959001207731 -0.37612344541480125 0.74073656355997231
0.11753697776898915 -0.11141573280719441 0.80195602670989463
0.25504905485073115 0.023515616815257934 0.73448277811704887
-0.44294708452914844 -0.089213557187732384 0.80071247982455818
-0.48688949147861832 -0.55179170486679974 -0.42343671120311305
-0.62415982183094587 -0.65880140574201018 -0.31698775840728294
-0.24796423993440087 0.44124563764254821 0.77341453816312467
0.13856237073520083 -0.15804375116124181 0.80656638026431771
-0.19984159589417425 -0.38418228151891753 0.6556239837500456
-0.38462713091475143 0.90323292738011807 -0.33295647035699905
0.45532311095288852 0.82130004075598739 -0.35603686078387886
-0.64553600682907286 -0.85770487260537953 -0.45545372140825152
0.34325991562165009 0.29252879518387109 -0.21167657808895513
0.71666863718974161 -0.49489979932970496 0.70723857504117138
0.15545358683032856 1.1340725419542701 -0.28203591036523679
0.11145058227031857 0.73468379149709939 -0.46345498416204628
0.20674967238400688 0.042051514459508499 0.74106239985028011
-0.1851015516543692 0.56878404959007045 0.75655376048398004
0.24206882205789798 1.234744746112451 -0.36785772241109604
0.48354756179161051 -0.64397216706442784 0.48017704687470408
0.22266431269627346 0.26468034778575278 0.66584663485890927
-0.52600137425859239 0.087214596320625448 0.80915063114435781
-0.52076612676711365 -0.34554641815886233 -0.54498557838206474
0.39084811631926408 0.67793725663551885 -0.22181148856864868
-0.28091446952518428 -0.16641840451914902 0.79997701182457615
0.25773427315014763 0.77968660885757846 -0.26248474769298813
0.18496463079757058 -0.033355314776633449 0.80130280742468629
0.035725629336520737 0.4088372866487664 0.79207482987843469
0.64449713067974002 -0.44237531508712169 0.72629082345026608
-0.41501712064618146 0.014508816143487424 0.77441451599177391
-0.034315190658427974 0.96955667052033534 -0.26594414464255067
0.34988417543847922 -0.38413619820382305 0.3245038639504545
0.23109476791203204 0.93639336313102328 -0.29750680653026368
-0.42037021660540952 0.33026838671914249 0.70324535795431187
0.062803699719369444 0.35839049903346487 0.77141754504001936
0.1437819466298485 0.46090459624655311 0.6705760803503229
-0.70085623342751635 -0.96219744858944756 -0.38403808528761563
-0.45746669398687118 0.23287890872352968 0.5939215981305761
-0.76100116036845344 -0.23270304852106172 0.59156975736249928
0.3108971195209812 0.42531599973663581 0.53891184567067607
0.30352284556718456 0.26422670663311643 0.48883757116994198
-0.72529100493027632 -0.45745247007937095 0.4167847819665742
0.17708659171356561 -0.065403356961911463 0.80248390914658962
0.21287797250200913 0.99503914002933658 -0.28935048638105632
0.28806307679695498 0.11343972794913226 0.49325241077517423
0.10251168674199485 0.826972651481654 0.26737188077418089
-0.22576942972973346 0.40692837003328419 0.77910884017929938
0.39576696956094581 0.69363383013505808 -0.24244199735435934
0.15776080101213374 -0.064178011978507365 0.75548882354215574
0.89268926124826786 -0.27683442079388271 0.40109062010823104
-0.92162461518868577 -0.74082382203884989 -0.46331876196665434
-0.54300558580860114 -0.24927112949483798 0.69071097753018362
0.22813234525848092 1.0888586222417791 -0.42227028586886683
-0.24222930623454675 -0.63773628618994493 -0.21327902246048569
-0.9476095607813545 -0.59940141185161444 -0.44932639524201878
0.001339698994160976 0.60316233677336228 0.68685698914560245
-0.079926104385895591 0.87900730357159995 0.23741221141168201
-0.6334000492474301 -0.5970480910177498 -0.22838797632849406
0.5312232287500227 -0.11764574759775326 0.70818530586286377
-0.23744578963200755 -0.37530421086403543 -0.56337362765482379
-0.30439747150052332 -0.21698533763953565 0.79930680455985981
0.39653066475219406 0.79285842063065581 -0.33029320985403249
-0.29510078244949928 0.5196245477751722 0.79754313250010189
-0.65394793356006686 -0.75299614986418217 -0.35569019655349166
0.27164522532887392 -0.088714411451486175 0.78526146402413133
-0.39501997860183358 0.59048303040390016 0.66771541721897132
0.49961819168824806 0.86560396144192819 -0.37645241920053174
-0.73012098553548832 -0.38016803861931248 0.36649130415991427
-0.12297549059902965 0.4232154128102843 0.81311826321034153
0.64077703207065273 -0.68793391547129512 0.54169006928679619
-0.4865603052084907 0.14588088216358375 0.68750422680183743
0.57920934096607968 -0.34977344205068983 0.74177953067343072
0.65790577470625511 -0.23822523521664141 0.71913144625740921
-0.2623460780048521 -0.26027978069669633 0.73273237525373547
-0.77475707284734785 -0.40280627485968301 0.53253197721999856
0.1269026206784547 0.47782748427172939 0.68741352597928695
-0.0025787927423867041 0.49744922211676956 0.76947111128013757
0.13680182698024257 0.39972744691798734 0.70692580568422125
-0.23950211745229705 0.30093718191004837 0.707126993159789
-0.18014896608760633 0.71074465373839235 0.43456163506665457
0.11942426682841151 0.59454671965816408 0.56299459677768904
-0.48334864286421497 0.44650182326830534 0.71379021686332289
-0.3657476978385511 -0.65444503148772259 0.028153238707244732
0.15057653712714353 -0.088757482863126458 0.80505929902680262
-0.96379659229436865 -0.71222867939541601 -0.45062470114640685
0.6554424459872138 -0.4480536344075835 0.67260794905086874
0.49012740621976991 0.6628815568634403 -0.31335038719373698
0.31814189427055289 1.2234601300727626 -0.37720462638752605
0.40533964090343938 -0.25717062053987783 0.24213968935969077
0.38547085812708898 1.0343301439107309 -0.40320406483129617
-0.62277630005401163 0.35554756403432419 0.43290175208701565
0.56313814230076609 -0.2461757994499848 0.73059485988421313
-0.48711217362142523 -0.5682745874441939 0.48476274590637203
0.3726734504728248 -0.19108845087950266 0.73779425806555787
-0.32621348496801494 0.79259296164869353 -0.49302132533747001
-0.27743640931457714 -0.28169936549251773 0.7258072359579979
-0.675891802839512 -0.92895330314399116 -0.42273765360155036
0.91967281352842878 -0.20848438536239028 0.45197716632110985
0.36427732186363754 1.2448467931671776 -0.40087086474378308
0.54883590670571614 1.0203196467676929 -0.51742190288339229
0.6316459407634456 -0.68465094575863628 0.51295362124333832
-0.18606383409916077 0.31982045085732502 0.76947811086575446
-0.65637114073616831 -0.59314491187715834 -0.23326422207336517
-0.94430484998119313 -0.64437441518243044 -0.41051531378445288
0.45397354280175223 1.2093342209901232 -0.51084659137159139
0.47766971530864022 -0.41366767106699731 0.35337554530466991
-0.67244371016563653 0.071558049766941911 0.79639596975273474
-0.20151705501110492 0.4842150116080155 0.7673762474654493
-0.089301907123364388 0.26142924108274057 0.74955070069726326
0.4163615296923503 0.9308812631526443 -0.39760880789580089
0.25013022725809919 0.83480439692315223 -0.28597830118795198
-0.58074123753611895 -0.64020186599033879 -0.28088295805082342
0.30559611990281965 -0.025377522180308976 0.73719492609746118
-0.50826602738183313 -0.67545760910269692 -0.30234637377531376
0.62930335379059121 -0.39866192829590341 0.71777316116981127
-0.47854395181435605 -0.11009824687061864 0.78656606300482568
-0.41441842247051147 -0.35348000744043273 0.67175494190708374
-0.71290203244384998 -0.94700285304091159 -0.44055882705708405
-0.37878968193665402 0.25144124007075352 0.77729437693125858
0.6041379354258295 -0.41324391269987637 0.74423958088473852
0.73369588499853411 -0.59631150426017099 0.59785512338482616
0.29427039389817239 0.51300779431934695 -0.36850391389654757
-0.31405127774292013 0.19460954937412001 0.81021810527565563
-0.59855847951216368 0.075062627547800798 0.80312655265266764
-0.30070319440399962 -0.24688711689558929 0.76796176916773939
0.82172258396681996 -0.19454840195996947 0.37415879848099698
-0.58856456958598546 -0.30918552596150484 0.66880201700385633
0.26738431366877879 1.0760225692017342 -0.38333281919058243
0.60242503532142067 -0.67031356148035592 0.65147057834378375
0.26067085615382873 0.8125662141874459 -0.29797359656652578
0.19135001963450754 -0.17568332905037398 0.78611807014790602
0.66917887189763514 -0.5124284304924096 0.72066594354193614
0.045448242510071374 0.31201099595141946 0.76052783387722966
0.1341815329094862 -0.16515263090025722 0.80073741583621882
0.87648138191986602 -0.18161370161423179 0.41949271771963997
0.046067474662930444 -0.28233935304135449 0.58497201867220927
0.7198275861657023 -0.42337331622489605 0.38373279550772899
-0.40945075064459358 0.42369419465435598 0.8345613577793991
0.13947510164261756 0.77727902359590106 0.57140519038093951
0.33683356791508839 0.90247335121935779 -0.34771614467173423
-0.29383165107206649 -0.057673989771440892 0.75781138427687644
0.34445857068085362 0.50872891688806088 -0.3009415094793999
-0.38125625000101276 -0.52166973047254617 0.56583120639626783
-0.39725044628349648 -0.80151799381590982 -0.15591625264478798
-0.39527229570803379 0.1962901161202717 0.6380271632619654
0.47096992402503046 0.80157097902987851 -0.31096861944415727
-0.26561235292128782 0.66663107508005881 0.68127504125435978
0.11459771872224619 -0.16416846073433999 0.77327088756067286
-0.34794444238012268 0.11201655345080552 0.80439469531887364
-0.37502843498884758 -0.23147439143628423 0.79559256617993301
-0.18636703881219774 -0.17822662286586755 0.74518882454863622
0.015068129349588233 -0.43500064480901712 -0.39371266162958102
-0.10650478867487034 0.99550866408194882 -0.087495068113929597
-0.75733786454475516 -0.62037328103933054 -0.29966964442359617
0.78650593023058524 -0.25783318006975064 0.68135335259407603
0.86532788118432435 -0.38464095526237913 0.61314147737688651
-0.65095130614496355 -0.54195740871750209 -0.38401433613199176
-0.76370110847657913 -0.81314224440515215 -0.50106671996094998
-0.6049004587040131 0.76079988113130481 -0.29539289628659637
0.15189975377858927 0.80779104953833847 0.49531931828872744
-0.39418623938982283 0.37410511292876847 0.65018623482453419
0.50986724710944475 0.90094518719083605 -0.40337024742838695
-0.48278013834477396 -0.57032671487892483 0.39810817949794397
-0.093564468660125633 0.4648773925239813 0.80112583290794848
-0.82634693770635892 -0.98349405130701273 -0.43141915514803797
-0.4415067564836142 -0.41506228776804877 0.64905210123005141
-0.34400139993481782 0.28535792730920018 0.82371026859698759
-0.20454263756024804 -0.13288785997719277 0.73346852182420896
0.20053719523795083 0.7732993130575545 0.24699814983738294
0.79441180376481368 -0.29798984231295178 0.68918260845453505
0.19054691636700954 1.1492030343415041 -0.29399436696251674
-0.11856055842816643 0.63662609921265578 0.73840762430331175
0.84730855106520697 -0.41427043680973163 0.62264992226251414
0.73639792112503988 -0.30637621455162528 0.65414958381033361
0.08946158562765727 0.84370017621017901 0.22119590726557081
0.083158403031269423 -0.46962988545967344 -0.13140072871267899
-0.30306748375839682 -0.75860545995264173 -0.16019380815386647
-0.29110942859568756 0.30707316877969593 0.80132604444682709
-0.22701845734756648 0.45428677334745937 0.77104562366660734
-0.25118768198166758 0.98817356958233948 -0.091594489626184661
-0.60878896550291417 -0.39042770003237015 0.63522691152630351
-0.68737077621240794 -0.27490747207690558 0.68978240539691804
0.059471355692670258 0.47770633056964329 0.74236074587640133
-0.819950077847726 -0.7065659020881645 -0.43341790158708826
-0.44600501358374428 -0.2594405540840794 0.76455796336557946
-0.23928252076450038 0.34242134321612783 0.72597770510551785
-0.75639554062647185 -0.97746618540530195 -0.40016790629402754
-0.047008769849797183 0.43748089647355171 0.80634255069515071
0.80940270826509197 -0.13018488809176809 0.42311290607471785
-0.48447375846352786 -0.37088677447134288 0.66880355529132585
0.6535694946876105 -0.019529027834493951 0.55863191243736665
-0.73084154924319344 -0.32222336478830371 0.42531099892839308
0.22566314944747679 -0.060363269005650477 0.80551531030955803
0.060652783020978096 0.3805833291159203 0.78528271137529038
-0.085626141483376703 -0.52766487926471028 -0.18925807598435118
-0.36692411752616094 -0.66229972211619814 -0.060661145789968285
-0.39470495059602628 -0.022647483481735176 0.76697470057437045
-0.74798375804531225 -0.32386097730216412 0.63856913609085098
0.82528199337203523 -0.44190568546005882 0.45489879811479667
0.33063117505098671 0.41201750675874416 -0.26603610549475198
-0.70069732830058473 -0.69294269873966918 -0.35732724493052292
-0.27674220373537628 0.42074046740940774 0.67917913251470508
-0.62464665904669947 -0.23194985521718348 0.69028409405988533
0.55140623462541671 0.022321367098913525 0.56556560628899022
0.18036211677851893 0.68317905077698193 0.5874058900174628
0.32003538136142307 1.1094983589346608 -0.41624082581201372
0.44369670086263985 0.051878841310029622 0.46192430590311562
0.61558898170377441 -0.42383283346112133 0.74198647797692019
0.53422112194475124 -0.20300307171122234 0.72771064395104079
-0.72411231868384762 -0.51104617848842437 -0.17419325388953122
-0.62593204792995105 -0.64327498343611555 -0.29688019969816731
-0.097918046414058796 -0.44042440561436591 0.39256320077261642
-0.89419591867831882 -0.098773870003145969 0.086156297293444262
-0.55497699623624464 -0.055807887671820433 0.74695693695737386
0.083658102204773543 0.54268513741539515 0.66990549332243243
0.62558351937038981 -0.63268260393069908 0.45987553108338397
-0.11909003510285271 0.86893622847495178 0.24311799534198059
-0.91479135629672959 -0.66659582918017812 -0.41041748781783366
0.27449695666051016 0.6673812229011058 -0.38667106294118747
0.29177048683909279 0.14357746650694347 0.4677557900911708
-0.51427968909922428 -0.31202934056587073 0.66375509422222556
-0.43031864893731808 -0.38935177283661027 0.66794635052833051
0.38272882332027303 0.71694905137216458 -0.29220525471715897
0.45852467161755578 -0.0091344577322379772 0.34809773144542233
0.29350024584150047 1.1208040270203239 -0.41038064115347417
0.095788063168189941 -0.15397373344432175 0.75310823412210559
0.3093089514585714 -0.13587466349314647 0.73833174612754959
0.77818859333943824 -0.35649234367642418 0.69357380821377812
-0.10715327398740254 -0.053147194975878387 0.74850099113561308
-0.36560630428946989 0.46385508557179889 0.5448536337456471
-0.89976114390490025 -0.84048999271742297 -0.48108939326269895
-0.29306382871355607 -0.44345670994606379 0.63199109148085142
-0.68353355666909132 -0.8464998333333944 -0.39686478321821539
0.0095297686580239627 0.64119244071184656 0.67887326209535603
0.19923086090319489 -0.34723056677604747 0.6426695053442939
-0.27020505945571904 -0.16730931070817134 0.78453834812670298
0.661811557042569 -0.64266505547248531 0.6457013274799297
-0.74583635194019782 -0.3910194232475015 -0.39015742603952686
-0.33954340316102216 0.22221276732100104 0.80745525052527434
-0.45926416916352919 -0.81626634658509101 -0.22181432382326333
0.27175691929802298 -0.27263482027883945 0.72765650680148086
-0.83598861307231931 -0.72902841692265152 -0.44878001471229323
0.17002947866308515 0.13274250996328796 -0.58299092610438552
0.68619318757237935 -0.53283933677423234 0.42484391387564402
0.067890320614581057 0.5903404174271154 0.6191853690695428
0.62406830105016509 -0.42335034949372408 0.71972531991544253
-0.20276823287158963 0.30701311901207085 0.78114933050875768
-0.46629878480991582 -0.25211275719014759 0.75798189623727086
0.066432572145464497 0.37935460174793456 0.77984484965670209
-0.37724613581788596 -0.35444499452512868 0.67759104423620442
-0.75230346429740957 -0.43174112090105488 0.46172304468933634
0.15773246950717512 0.79906696003936228 0.27756817090769198
-0.11371437820717453 -0.42236098598838212 -0.49589698286869471
-0.23343652777222176 0.49672029421612218 0.68754926983201969
0.39557680282177066 -0.25458614154099835 0.21411170816791819
-0.79018817874714364 -0.44920814007755361 -0.041014198327172902
-0.33967363747297963 0.0183737766582035 0.77343313928836788
0.45826008212633973 -0.56261269683929294 0.41941148133358352
0.0013917654594839401 0.95999806854719294 -0.17973413550148187
