# XYZ point cloud file
-0.77846404585305362 0.026504804258113079 0.69078566758956184
0.21893449138046034 0.4133189272360096 0.64534538321798718
-0.50616631214689234 -0.72283018414161671 -0.30160439075981804
0.65786427698923566 -0.46694818469992216 0.73417126367421459
0.061020429829977407 0.68815800006827299 0.65427319853804711
-0.2131302142768248 -0.03032949769765847 0.75625247854120448
-0.72902931688226991 0.061214330040152642 0.61349238807403939
-0.81411210176473781 -0.17294708011803905 0.20251060600133169
0.63241158185991775 -0.43331784577636623 0.71823999012382211
0.46302644426017608 1.0941627624677475 -0.47117360612203907
-0.33981615876171295 -0.7342262181932635 -0.1338324028138792
-0.42286094924035922 0.39489838101976216 0.82700644370617105
0.65573717801882681 -0.36573056097390289 0.72134613510744106
-0.42760275728695074 0.09888360332321211 -0.70123151884656698
-0.70179762369162635 -0.39969260854593602 0.62583236494659233
0.15803974596705442 -0.065819595230929506 0.76894929358981989
0.41131663119589879 0.6107665619580096 -0.31616763406864778
-0.20060176585689649 0.35085853149602175 0.77100747720644236
-0.048063929150262918 0.56015111872320622 0.7060008704817784
-0.15981034030943159 0.72248617976033702 0.67516201834233613
-0.58413854293029921 -0.080883877039926055 0.73772253112887332
0.045942973187201586 0.44605267974688045 0.77819640492390363
-0.50718248978106595 0.59660380180473127 -0.57972995657997672
0.19996391292183058 0.93428425218056899 -0.24082322337521456
-0.37995179441756755 0.24355717922665887 0.63998805662743452
-0.20916947667533298 -0.088589477014376472 0.76162220326403429
0.45587347784432003 -0.13822901743592353 0.72634256639026562
0.16151385911213881 -0.044710334040998556 0.76624612504740419
0.012400418458990703 0.32679307714357531 0.80167222036044095
0.1669489306722326 -0.06039396973593969 0.7877461983806644
0.27502806123462614 0.72760538695579935 0.091197630588704337
0.19392824533643241 -0.17820316267113889 0.77923969731699883
0.53578989638433683 0.76259054627756861 -0.30784088492347006
0.27921057444607678 1.0336216284938817 -0.36605722420269338
0.6575933171115278 -0.55889935828298765 0.4307996255374838
0.24986776495302038 1.1930464656673472 -0.43248586113460863
0.54721861461240517 -0.52721114913526246 0.72271375564646201
0.36332237530794181 0.21619536076101542 -0.13559544631303344
0.28887858256927645 0.080732897032169126 0.5958070959519729
-0.54888166858279941 -0.32070012740869558 0.66811592178834611
-0.82285632721861179 -0.92456629935886481 -0.47856614803615005
0.73951340732603144 -0.36285123257957569 0.64676412228426239
-0.73751135833427028 -0.35938505356138162 -0.42813760710476384
0.43605004075251635 1.2403249835233359 -0.45891537260725201
0.26825651867158617 -0.041422740645322365 0.79300328902923722
0.38652401329394842 1.0606876382777108 -0.41105462796523234
0.27060132047590019 0.66566848375555576 0.2871793742262907
0.66950524345465057 -0.13943375528561042 0.35890900210351634
0.36818226554982209 0.93767282045516553 -0.37179998094861366
0.81353747658114861 -0.49494093173330972 0.6054093074265634
-0.14022282134727659 0.26048315962215263 0.77402048903969645
-0.71161807348797734 -0.17951989893314901 0.48614591555410303
-0.75399231711353454 -0.39041898330086933 0.60698495267862862
-0.095227055376564146 0.35865779888760851 0.81813846069930418
-0.073681885189605056 0.77736807105597006 0.55010503712172376
0.34207042126664705 1.0678034817375446 -0.39528609752622146
0.11154648619687574 0.90686781314268927 -0.061688612302691403
-0.26152647088870451 -0.5862092507184371 0.1909121503833644
-0.085433879534941359 0.5824630421751007 0.7267428067558136
0.28633941096168936 0.16633569629051848 0.48044438483372437
0.46813973177979734 0.032468463258629399 0.60352565485759624
-0.79749344072752204 -0.7136807227404578 -0.41794831250400921
0.14323199388163674 -0.11354306161336591 0.81085572925022864
-0.14285459863431732 0.035578138784942981 0.74831451160961393
0.11446397069247075 -0.12769935299624968 0.80279385771122325
0.094308792701242927 0.38809735069784823 -0.59791467830310818
-0.14984808084569243 -0.025478229415795361 -0.70793886574608056
-0.57990762733299439 -0.6358065510810027 -0.26783774003279248
-0.086843201675413817 0.99635993168761572 -0.20507393862142026
0.36549244765626177 1.1290993613586866 -0.44070402903971595
0.73667120460957525 -0.29051368615049511 0.68830185167559854
-0.078370009321748257 0.20751190376083484 0.75753172868760044
0.31765540769611961 0.43367651615784797 0.32538057452323615
-0.77625569991016841 -0.01888821582116984 0.67894450546168006
0.35969479376982905 0.074939530287375433 0.4800572484306681
-0.55984493214125475 -0.11849319406079273 0.74452639691795675
0.12943503529473466 0.42606488287793809 0.69623157076099151
0.62751474898693482 -0.69305382552949168 0.59983284862288988
-0.13308364031067665 0.27710764843664815 0.7615284338575754
-0.06678598265492991 -0.52904637921182407 -0.10466812590039082
-0.39256616433598601 -0.17022058914397009 0.81319543387408744
-0.72628550950457338 -0.17001193492946087 0.70928100854259579
0.38218963829008701 -0.12899853008675788 -0.073895967325992629
0.25694101417579918 0.80850680675146791 -0.28739160102724048
0.1159024095817105 0.42425386554663391 0.71592462388385836
0.31938348524441718 0.66742361096352842 -0.061361693833382136
-0.85841539912951537 -0.30876785262045647 0.053625003714911523
0.75823870245865588 -0.19203140980840472 0.36066063212901445
-0.22965365304498514 -0.1125247790238062 0.76411858245050424
0.79303515433621086 -0.33620763376213314 0.69322504291882159
0.75012782454573901 -0.32015856137479209 0.65421399861530438
-0.73135764001483161 -0.77320772830287199 -0.39099871225082899
-0.39929758119863595 0.45138847183943698 0.64105282520137141
-0.050092192496289045 0.57805171809145128 0.68496935293237116
-0.14448065041147584 -0.008051691113053483 0.74621887487104044
0.26298569839288349 0.78515280594753023 -0.28858647117101488
0.38147861647505299 0.72832074295593308 -0.30499567262993399
-0.50937620877197343 -0.70685265856286006 -0.30219541169242353
-0.20678754214426637 -0.20895411489318705 0.74430313353598088
0.18753360725266652 0.15527149122662953 0.71649206012984901
0.10747940204126993 -0.089853714399031004 0.76479674633012873
0.11535008145547043 0.50297976002957268 0.67792196012133044
-0.82770826543710951 -0.67938361511231693 -0.41938798085271251
0.85407268638705403 -0.38142448173846033 0.63011360862505894
-0.79038539877952541 0.0025662700993196452 0.31430969803852882
-0.36191024248975623 0.49616686596714099 0.82053794839896987
0.40745718209675208 0.68528312989499507 -0.21738984905928799
0.30242939636792054 0.68007253386558542 -0.11171702662486482
0.48042053570615006 -0.61962915863340318 0.45095411049971612
0.12677029644059928 0.91468423982519664 -0.31923520623920254
0.3980276004669599 0.0074507107271362116 -0.061823977442143463
-0.51613769426781686 -0.032484440255520663 0.69916779352984948
0.16606805907916999 0.8799545930013315 -0.16994592592964253
-0.3559801311722478 0.22544420621932515 0.79270102086392535
-0.65364634247111275 -0.95667148517073097 -0.35770164837839868
0.19749942994536684 -0.38009419095988017 0.37141986986879921
-0.17061960087082517 0.31198276208257725 0.7615297743056777
0.13081985462640516 -0.17687629585234321 0.75799737607653062
-0.61723427030589395 -0.71264597540560137 -0.3337808022416221
-0.73070576515794228 -0.81918119667481548 -0.4037650300257411
0.14188469672557302 0.5527560048997785 0.65884122278121726
0.14926686709224893 -0.066696646417363059 0.75890799102991413
0.10667722922124692 -0.25507340643777787 0.65304933502026663
0.1148107465840888 -0.31946524110579 0.51611242266120883
-0.18473417122970642 -0.11921594466532137 0.75503627760295133
-0.50007466352383678 -0.062174674153017362 0.75358188865271158
0.80339218324260853 -0.2748260522772864 0.67623603097499507
-0.17622562014760951 0.4753296364174151 0.7639597249879656
-0.91326604842589476 -0.57926021674709149 -0.39402937561478252
0.22343682773344897 -0.15303237327765995 0.78641045747730098
-0.68428474807558726 -0.57702579543962029 -0.22884310260281904
-0.4686537943914888 -0.63150746664400481 -0.15236542020506527
0.057473655930435408 0.45227094104293741 0.7706472652004539
-0.41448176366175893 -0.33232981970622144 0.69528213581063725
-0.62347536278745808 -0.9328203526825587 -0.36617744898373988
0.0022257547896971791 -0.49577261571246201 -0.20772293684509996
0.20798059236996119 0.65064382735455351 0.58104022393907795
0.44421096759117745 -0.44017095705246989 0.72388109882854512
-1.0062538334095983 -0.8413201637829526 -0.51546221638450873
-0.053129419537417899 0.26745981492591597 0.7628665364513868
0.3095091009213331 0.48576491788167331 0.37095113405472835
-0.42831973994386729 -0.61627570569931311 -0.38115270259250278
-0.58280896082926203 -0.65132379266105977 -0.30340460101845673
-0.59957986671365526 -0.59229597570812453 -0.17345928513697395
0.35025596954633431 -0.35951787599097784 0.29522359705361229
-0.6682767005327761 -0.33945648318369304 0.65759779043229794
-0.3292651880929916 0.25697241628179812 0.81825686194480751
0.35955227281855656 1.1599471299245447 -0.43390413226923308
0.079595196019509873 0.56505409226870518 0.66853809690075672
-0.38648128600750231 -0.28496091099259124 0.75028827235239237
-0.27650871137671201 -0.0065927091357831369 0.76759490956195087
-0.31956299948948469 0.22730915234899873 0.81364878715497713
-0.64145349543581121 -0.47893096864363049 0.57437008115510235
-0.36604256510976652 -0.0094791786165129288 0.73619329408961875
-0.57482499241308993 -0.013387851656498251 0.75700885662733008
-0.54609952699126774 -0.03909583929261129 0.75077514687180191
-0.38836142249932393 -0.26308175308589887 0.7783005194221797
-0.54127254274265246 0.82890866383076456 -0.27604906960084619
0.049161250481522312 0.098413844527690753 0.74891087380926979
0.18060323631097636 -0.32783422051346589 0.64140107786280942
-0.73634798756155218 -0.73663461494426707 -0.38619437218902231
-0.10637477418623595 0.39958707425590911 0.81701824153323943
-0.38797013049496665 0.28085298940369907 0.62180279272025096
0.24832213564919398 1.2017357153393555 -0.34087547005432722
0.7300816425518194 -0.43218351948472966 0.67638243226515704
0.56459981426876793 -0.071701795983293071 0.67706539435701385
-0.10066260250922396 0.29607222676345057 0.77915151337076849
-0.10671100964424905 0.058230189873804017 -0.71654642976106886
0.62854015321307544 -0.58372131007500927 0.435272226653036
0.52697192315943087 -0.12297904360834711 0.32759039379196619
-0.1838171188738259 -0.28987536928156965 0.64755642746836872
0.46369399674259698 0.88440218167432361 -0.40603187243224448
0.84458659022611582 -0.24167893746821661 0.63707700721479932
-0.43912846878324729 0.015379117545326615 0.77319408607981044
0.22391239282082068 0.61882639009807017 -0.42993674627011264
0.40119504296151587 0.55954006711037008 -0.27955171062782669
-0.094104147627521728 0.22364395181898522 0.76418988745638461
0.80052880535730775 -0.21805307483038655 0.36484317404808486
-0.75934381895030856 -0.40883413435156846 -0.3487245376486876
0.27314461406160839 0.47688635168933668 -0.38775466741814779
0.89361698042921878 -0.33328612363601812 0.59457733080601505
-0.22856234074166709 0.35823696358596613 0.78212218744877349
-0.49084567529172579 -0.66951781076970995 -0.27368790910313967
-0.44021581371309959 -0.01441922939416096 0.73085467269183058
0.1438432426900712 0.32116314086855724 0.67308852707590594
0.48364242338022889 1.2056450402123291 -0.49327082111663972
-0.7695977491596715 -0.59990144523340039 -0.42976814310284095
-0.23900329972897516 -0.3689478392170511 0.60409213405973139
0.35136272684204578 -0.085092447295178286 0.72847937543535091
0.1630150015684862 -0.026089469641785934 0.78083904908627688
-0.59750443709990309 -0.91080533271796282 -0.37175882272206695
0.33060619164183758 1.0305068101962194 -0.3775652036373659
0.75053590456772212 -0.50223994830205776 0.67876479234530696
0.16169356227453563 0.46799606488735335 0.64428319560926861
0.83217104492407634 -0.48164406055273012 0.52302181046136575
-0.10563392998188709 0.74464403466429507 0.68428288572405527
0.38977400187488687 -0.43122495809425632 0.36831955780383474
0.092929031103409096 -0.31185285158703713 0.49967777631431787
0.19646072169940842 -0.18110520666621854 0.77052555809907253
0.23657870232388839 -0.38519012477875703 0.28203187143921987
0.053901627605104196 0.59282965018701061 0.67343976317070497
0.013842873606239925 0.94341593589869266 0.018266042530154958
0.30516952181830398 0.58663732502556831 0.48485949920143756
-0.34211064205566777 -0.09458665686675638 0.81317366076706143
-0.15140652354013515 -0.16292144468534286 0.66804561877505508
-0.20865532892634941 -0.49425492396102166 0.41801600639620645
-0.45721575195099157 -0.80003452712179568 -0.24559460118098203
-0.19277741019565398 0.65634179324435959 0.75707693566392842
-0.2165333952645791 0.40891563748871462 0.7761860129535485
-0.7567443202852796 -0.23351737543987072 0.56013625197351491
0.55788931696380106 0.87793889333603881 -0.47140915904071518
0.24063959199942117 0.0057809366612434632 0.79822149409941434
0.27484821822543837 -0.34388231339807673 0.70309297509272395
0.10939305449011764 -0.14348101833949423 0.79637097347338415
0.22960233635461091 0.9157137373737072 -0.3750558547651569
-0.065090343528439398 0.12571525487190738 0.7448277902557523
0.52095603493461773 -0.3084582699484304 0.74075091639119051
0.27172305204465708 0.97681879454308806 -0.34188463106534817
0.43316218612520208 -0.55320834904755356 0.66542693966877475
0.014767809584505409 0.65645858487616704 0.67236397898722855
0.24785577097222145 0.76907351977457272 -0.026579587809026639
0.22671558371305384 1.2069391390586892 -0.4014205307888864
0.17779411211723309 -0.37478056768390922 0.36411620463689398
0.09541142641892289 -0.11942083764685008 0.78411201754261051
0.32939417308883134 0.65367904555726208 -0.032126225612568449
-0.21190983983040268 -0.32591951581821399 0.63879588989380598
-0.010057098724203295 0.3312791830732349 0.80900930098063073
-0.54271132385418508 -0.15987827392393639 0.7258610356109465
0.49240278889332578 -0.26396482987017877 0.30851425366526886
0.49252577262053265 -0.66448620000449021 0.51977724499589462
-0.47436272587041606 -0.2082517735441467 0.77981145220365611
-0.56556431809356278 0.50518132900398882 -0.59496576479518737
-0.98940372362137829 -0.83106941913527166 -0.484109660208279
-0.56822255937251476 -0.039844037185488013 0.64531938962591484
0.057991638224973469 -0.29357277313933205 0.51682077279220362
0.5132200350896825 -0.044837006217335884 0.35510823262172031
-0.63584185224463308 0.009420194319164521 0.77497142562206411
0.36591278912517222 0.95789366057286651 -0.37657562363136338
-0.96934381716661155 -0.62972467511092622 -0.43601961729543803
0.66883024568642857 -0.45152575377661736 0.68369138883965186
0.37731403717280732 0.72334654848107072 -0.29233130834091187
-0.20197297247249046 -0.33634308762934817 0.61373613569090324
-0.44739916106959132 0.17911682365735748 0.61034801351925672
0.26960567498261001 0.76568093434625395 -0.28969833079686891
0.32878827314826303 -0.144374618888921 0.73613501979790175
0.39149063156882424 0.88952229137113092 -0.36576039664072779
0.3769836139788495 0.67114167347219222 -0.22765146756000892
0.41254155405528414 0.7225225728184147 -0.28392940420710439
0.76138148724182819 -0.38478708874278489 0.66665132354453482
0.15100432874568015 1.0439610662774392 -0.34871435590555133
0.042355671645533222 0.90888598586187408 0.10012650697347952
0.47543178791000235 -0.53927466063024421 0.40529157976003427
-0.13225971691155142 1.0043057994918561 -0.20569701603677604
0.75876228624477526 -0.29086546992986045 0.70322682405114623
-0.76393994347251315 -0.32720321434339672 0.5277777271627484
-0.62677927052189308 -0.19665978436490206 0.60362711749078835
-0.66883160058083413 -0.27120580605803091 0.68553063879020149
0.21048971441068867 0.034606657179359623 0.73935115214926062
-0.49538713832024572 -0.53549236867330352 0.54214083993670525
0.31606557022334103 0.082356131488787732 0.52296274906799156
-0.36054960555471954 0.1818538447377398 0.78752749353939067
-0.41609897319783795 0.16737780896876386 0.74399841159656455
0.77437192322153248 -0.38460944990110024 0.69244607210534359
0.13693442354027902 -0.32577496910862092 0.57175285151240973
0.83747930357257094 -0.47719789082028147 0.55009178627385735
0.48973786694792332 0.82333255686523465 -0.32916024864732357
-0.39032645774662339 -0.49978525088972425 0.59086185502437816
0.37482459925712075 0.0019461921725375531 0.68781402263976887
-0.82103704800880262 -0.92265138890021925 -0.48217584575945177
0.65043328423945013 -0.092803680457844595 0.37588867878387505
0.34714176712982014 0.64117007734484388 -0.18526341536704449
-0.72685550987297476 -0.2607476424660673 0.35645598465250927
-0.11248312760371318 -0.28023929253051327 -0.61061251475202494
-0.72110559901673055 -0.51894336516180584 -0.33010458200217985
-0.23854364057206928 0.75080049037858698 0.34812106428543521
0.27589543952493895 1.0983727660575127 -0.39324420283608719
-0.65017069342855038 -0.05456283315379995 0.53585188620440094
-0.64859887239302605 -0.9756200337179034 -0.34823558959432999
0.3655720311617599 1.1564312024694328 -0.44419803127254204
-0.6892994814573733 -0.11966216155366149 0.51162764447105968
0.47937562407044987 1.1583737295434609 -0.42146020245131033
-0.1233725256308815 -0.027980238641417854 0.74543534762301278
-0.60004667498214326 -0.22863087281897276 0.69677501154508148
-0.18891447239787362 0.31834419110001666 0.77368796176085597
0.03949146235079054 0.83775483211044166 0.59729105165243068
0.43607601573360583 -0.1135547916276427 0.21174188563460661
0.53917511722882827 -0.47632925597547704 0.73462444536031768
-0.46118218129685074 0.55167484616619844 0.70403247723682105
0.62782254193766573 -0.37538833587033921 0.74066380242842755
0.11813857749600037 -0.10960281870104882 0.80261558740196925
0.25623275871647033 0.02463462526685245 0.73412836604309384
-0.44399190037072911 -0.086806539420829054 0.80097398084860927
-0.48686870359147477 -0.55344774464551616 -0.42335919923017107
-0.62468170883914209 -0.65966464234664457 -0.31755791855366733
-0.24590766929513103 0.44356424709133657 0.7721171377636511
0.1390510864417169 -0.15619638255627999 0.80740258499990847
-0.20140267440784049 -0.38227695950389673 0.65729290137992613
-0.38240761511290289 0.90371762725666782 -0.33494144664598535
0.45577322616450139 0.81827572169034424 -0.35532312313529824
-0.6459790094812391 -0.85830591579578597 -0.45531267708616696
0.34305984726045868 0.28926110539536576 -0.21099619352020998
0.7168979427196267 -0.49439204490100547 0.70723658561078873
0.15776082581158951 1.1336419857899176 -0.28306940126234781
0.11238047195398232 0.73249532444219856 -0.46276510962246958
0.20794705716363612 0.043294228234154741 0.74075741230927084
-0.18229001897156885 0.57113921371763432 0.75483231361320602
0.24449924363162562 1.2342791275082283 -0.36851378722214162
0.48253610196143593 -0.64369910473167202 0.48225405414297617
0.22448416513444963 0.26550521632692581 0.66454890143942213
-0.52651850887266427 0.089622306035728183 0.80851004581375319
-0.51983842135020042 -0.34767362314384687 -0.54538279000934076
0.39127752138091837 0.67510893097369518 -0.22172949108800172
-0.28175278315893681 -0.1640586378165847 0.80097316877384361
0.25863232078200754 0.77751812504913431 -0.26258305763885403
0.18602486605344595 -0.031731207252312266 0.80144098278429232
0.038355016943882547 0.41072970580184232 0.79070944242923979
0.64483225647038989 -0.44164759545956067 0.72643151558753394
-0.41548275037486271 0.016733057436746357 0.77426298587432529
-0.032299090358299642 0.96920802542648676 -0.2670885806522445
0.34895359113622409 -0.38484191605308149 0.3259264966623544
0.23245807555485748 0.93476756227661195 -0.29778841567225978
-0.41941850989759816 0.33235205390662959 0.7018022669832118
0.065181021670246697 0.36009948565630023 0.7701566454963259
0.14636961741639876 0.46207106321990643 0.66869359754181379
-0.70194524177399686 -0.96205807863368853 -0.38380570238971895
-0.45708579068768679 0.23446649330443758 0.59233740244140898
-0.76332423285964857 -0.23092058919645897 0.58986289755486876
0.31288864672860484 0.42539655161297085 0.53691126583218651
0.30474863455672779 0.26400402640693099 0.48752404091579082
-0.72795519508557816 -0.45599565095843886 0.41559964715685888
0.17800984544915577 -0.063733736709832289 0.80279033933431077
0.21449675143494767 0.99373323143873005 -0.28985127524737386
0.28880655125849397 0.11326652522148029 0.49254151270240765
0.10520561167579728 0.82727709618597389 0.26481823299506863
-0.22380571845925212 0.4091989599343 0.77794420233286465
0.39619149460615583 0.6907668642677095 -0.24226887492450383
0.15850670015123142 -0.06270336976413815 0.75578551982023257
0.89213876510723966 -0.27892630270430468 0.40036940064144422
-0.92142127428361298 -0.74125727116455797 -0.4655915316372024
-0.54500814569014799 -0.24712611092481063 0.69074321419029594
0.22983822648449664 1.087639183483821 -0.42219444450698684
-0.24340996087024941 -0.6390513808272078 -0.21175116152054024
-0.94705923933114833 -0.60018401222008322 -0.45230205334838569
0.0044823336974785244 0.60493463698034944 0.68473899019154538
-0.077019518854145264 0.87997939792311364 0.23470186780634994
-0.634117835830728 -0.59778713760565649 -0.22927203971753207
0.53216966729035953 -0.117198467755949 0.70749313410030668
-0.23701844461561244 -0.37808029907944962 -0.5621047388953001
-0.30554204117819067 -0.2145499476806827 0.80047806414012446
0.39707222428384015 0.79003194332418192 -0.32978941845677556
-0.29276041024432464 0.52219991943093502 0.79606315959212337
-0.65453815993612874 -0.75364301829299896 -0.35609350764122283
0.27262353752802637 -0.087293333124823236 0.78538313607984334
-0.39282523507532779 0.59283962063432472 0.66553592236708359
0.50006282714530892 0.86250430062317185 -0.37560662298655934
-0.73232396248052911 -0.37909857890391963 0.36480571472863421
-0.1205786263776876 0.42549331728895345 0.81196755580102054
0.64007434600197388 -0.68769603025266268 0.54318278212786653
-0.48663784556649442 0.14779514986575149 0.68635218840458845
0.57973394746275486 -0.3489452936365815 0.74183682270331719
0.65866819177972757 -0.23791362699684832 0.71836048226895854
-0.26356161700113456 -0.25813740182531042 0.73394380626208999
-0.77766414218192814 -0.40093469898844147 0.53118775201522084
0.12961326895012409 0.47912794263701475 0.68550860980035355
0.00032461506681535912 0.49941598239335705 0.76782297271098154
0.13924768289713441 0.40101764270974527 0.70529738512057472
-0.23820047665903465 0.30282608578402548 0.70610815355429624
-0.17747424898588998 0.71219671346500979 0.43203215506531517
0.12218224054885152 0.5954847189550263 0.56070078044825844
-0.48204512174431485 0.44882033152692835 0.7118916473598248
-0.36764634062323842 -0.65456009438133855 0.029203822656803102
0.15135604637509234 -0.087007295327012679 0.80554326186878278
-0.96354471285880106 -0.71264587164270443 -0.45333527688229436
0.65557843608256949 -0.4476337420376722 0.67281449323004905
0.49017968883739066 0.65940869497273413 -0.31258939367299654
0.3203543935063739 1.2225776652624556 -0.377595086260677
0.40457479719403988 -0.2586094027852851 0.2430898986261551
0.38667386882402704 1.03224257985429 -0.40274860794930883
-0.62219921238189513 0.35681544885225613 0.42996196353518601
0.56385690095938601 -0.24552741423304281 0.73029250030382653
-0.48996271821974891 -0.56644722296395322 0.48576214405069107
0.37332629720684307 -0.19000988250127582 0.73803448838927321
-0.32432430443701205 0.79213949150443508 -0.49391544042548391
-0.27879150203795711 -0.27954469039703511 0.72706079716107286
-0.67669284546550479 -0.92912595500289896 -0.42249483480018252
0.91936304775443378 -0.21049376833679045 0.45074213163200938
0.36646135604004121 1.2438351828727925 -0.40108129727045794
0.54948677611500119 1.0173691628634192 -0.51581708629201684
0.63085628501543511 -0.68454587429422264 0.51453172927798563
-0.18442698093110904 0.321913543298326 0.76858609823084012
-0.6570401278464546 -0.59387045923009696 -0.23431648792723558
-0.94407239845412649 -0.64494985405794036 -0.41336867049744358
0.45560383034457924 1.2076176642280947 -0.50999935529348894
0.47681593237027498 -0.4145012910507192 0.3546490969751423
-0.67356238344956698 0.073932874245274061 0.79507626050443325
-0.19913710669537205 0.48650589633053953 0.765939813258111
-0.087741164650775305 0.26325635508995471 0.74880502952640238
0.4171555068506172 0.9282849959360272 -0.39690443581434953
0.25116099320995755 0.83277730744485501 -0.28607253660940007
-0.58140507519601059 -0.64108505477843591 -0.28124821954508367
0.30669003304249459 -0.024322448062057411 0.73690868586263147
-0.50900565229633932 -0.67645126139510237 -0.30211427865232365
0.62968169588540601 -0.3980148104402742 0.71782464388991785
-0.47980304347639546 -0.10771841905625612 0.78672232234381489
-0.4164751197720945 -0.35134051263236632 0.67272528810215104
-0.7136439796327072 -0.94706720185661686 -0.44046952180734922
-0.3780305777049689 0.25370983882396647 0.77643572126043092
0.60455688884934089 -0.41236001166051328 0.74444037883086278
0.73338646060507096 -0.59625324104156974 0.59840048908887411
0.29443920786313105 0.50978220131849605 -0.36754564631783537
-0.31332462253766186 0.19692965321550759 0.80978301116659901
-0.59939427450430971 0.077460945917805279 0.80219252701285726
-0.30197482171743462 -0.24456194259902575 0.76915655271100614
0.821260691871458 -0.19664462513282976 0.37351937888979747
-0.59093162536488164 -0.30701557767966814 0.66876444697323367
0.26902538505869916 1.0746418314046713 -0.38336513225510221
0.60202775623852345 -0.66940932393835406 0.65289735362954993
0.26160032250209569 0.81039872356360143 -0.29793841304973745
0.19184628909016449 -0.17401022615455808 0.7868805133761827
0.66938315556443284 -0.51167138771374221 0.72097100295026539
0.047548503237090867 0.31367758334024853 0.75946048029560309
0.13461611484423749 -0.16331853053416134 0.80160863698759477
0.87613929433736903 -0.18367663823961711 0.41845461560777547
0.045419299386751932 -0.28128009625622252 0.58620691913481038
0.7191094243998839 -0.42474432793739325 0.38422770766561404
-0.40792629285690518 0.42636528418637565 0.83333999797285863
0.1431421342216479 0.7785443331339168 0.56849332815477993
0.33778670286812595 0.90019086870087617 -0.34742250336381791
-0.29424769382918392 -0.055582237429512515 0.75817660377866236
0.34454916757617227 0.50549397387289186 -0.30022539412175969
-0.38380697867546948 -0.51969901779817207 0.56735705069518305
-0.39899204129501376 -0.80185639957902044 -0.15451032833467215
-0.39489178600630359 0.19797395607294677 0.6368672250411036
0.4713981076480171 0.79852881498186123 -0.31047408046169622
-0.2626922895777617 0.66903101257697317 0.6790938593524809
0.11491396256737284 -0.16243733848505726 0.77413873090757124
-0.34772437046676397 0.11431750948970665 0.80417110521590429
-0.37648517405138887 -0.22898167244567436 0.79663870635174838
-0.1869949382090203 -0.17620209889077332 0.74619005578683484
0.014503652283724883 -0.4378815625742114 -0.39160452196212303
-0.10394775592743738 0.99600283505350307 -0.089631310167194056
-0.75771204720811436 -0.62105482463077077 -0.30131063172179923
0.7870958596355947 -0.2580882006680853 0.68011338836517454
0.86540789612013369 -0.38532598929832934 0.61218034056022341
-0.65085681696954145 -0.54322356159051299 -0.38507403569148851
-0.76366349644233766 -0.8137523843552672 -0.50187638106252941
-0.60283946561074542 0.76130439813399686 -0.29838187494728208
0.155393558528165 0.80877889469519004 0.49236273427868116
-0.39300337157119425 0.37602168287621485 0.64853265632760126
0.5103551677756808 0.89787067151030309 -0.40239161671499923
-0.48544129766457678 -0.56890093832454514 0.39886195328337604
-0.090921507847571442 0.46710549766143838 0.79977761751246257
-0.82718794793101535 -0.98309582945552032 -0.43191895574658512
-0.44388075705119734 -0.41288402146651237 0.65011514849502072
-0.34292614818617811 0.28780822590030253 0.82297460399707179
-0.20504119352850131 -0.13094143898853261 0.73421462768866086
0.2028462533520044 0.7730360589923474 0.24464893074606719
0.79495672259105632 -0.29816641539015332 0.68803639036792974
0.1928316003170763 1.1486667258013816 -0.29492937648065282
-0.11530458199771293 0.63891523092094804 0.73640709956738948
0.84738519173355731 -0.41479161355780497 0.62185789340600761
0.73678138916743174 -0.30654277392439916 0.65341841662734823
0.092075285029170673 0.84392521683806543 0.21871458203066008
0.081976940542939553 -0.47166921666460482 -0.12937154178739046
-0.30470170557974763 -0.75928247296574969 -0.15847993286728912
-0.28978314633294738 0.30940597088632638 0.80050952237742246
-0.22484487613947574 0.45658634993180636 0.76970873099601067
-0.24854221746935845 0.98914513659891745 -0.094079186948607563
-0.61150429806096507 -0.38823486276320374 0.63529692566270424
-0.68992084696510403 -0.27265114274230062 0.68913371581025751
0.062295454548156548 0.4794031432636825 0.74063174384673824
-0.81987958711754827 -0.70723794199484002 -0.43510294581252629
-0.44782013513052155 -0.25700163632153128 0.76536341868132485
-0.23775705916717921 0.3444268515737785 0.72486978710873373
-0.75742053686364352 -0.97717585159607312 -0.4002285027294547
-0.044373610886050352 0.43961829279745301 0.80504149989185714
0.80921610466740124 -0.13205969227745051 0.42212336610148715
-0.48680750018486291 -0.36867129122556674 0.6695521053677167
0.65420179752607011 -0.02031030739328743 0.55735565541602994
-0.73299957555399864 -0.32101692252535519 0.42356681131364826
0.22672066811066677 -0.058775410559310126 0.80566398387007032
0.063174787553574585 0.38237324517568583 0.78396206993053119
-0.086721624758035895 -0.52944849971789121 -0.1874807545172274
-0.36858094283741222 -0.66274423724566578 -0.059649131602070637
-0.39527591407415241 -0.020455588875137654 0.76699251396688872
-0.7507986374487936 -0.32170970691897027 0.63751321626846669
0.82473525209409715 -0.44321517093786311 0.45482307218362383
0.33061193576747494 0.40876836977452791 -0.26534970066722741
-0.70106203076411655 -0.69368395738279465 -0.35827605382584937
-0.27502176663322203 0.42270342083795276 0.67767225904719264
-0.62681587752189971 -0.22979050166947235 0.6898220763758478
0.55218650680213521 0.021844701783435783 0.56445646631765201
0.18365196297058656 0.68419648163000124 0.58470624241974245
0.32164555264027567 1.1079892268407616 -0.41603630870775321
0.44419031177279877 0.051163191428013732 0.46120300640809797
0.61599005660690975 -0.42297355893560173 0.74217589623527602
0.53501334149921287 -0.20235450443076486 0.72735410954604895
-0.72475243032275627 -0.51167658525664073 -0.17600318555350597
-0.62649597309570404 -0.64411678145397966 -0.29752715788745604
-0.099482702025641509 -0.43982159153117883 0.39412764819308643
-0.89466347566133386 -0.098934055487434502 0.082020445104906026
-0.5562119421424816 -0.053607773752179178 0.74642067295654169
0.086554981212278226 0.54409638972035945 0.66784529427587291
0.62472016828519483 -0.63295267032050684 0.46137690352784688
-0.11620711745064682 0.87001780037654886 0.24038600766003571
-0.91464295671112639 -0.66715691830295354 -0.41297072563931192
0.27497099593842189 0.66454212042799332 -0.38588169951191792
0.29253353360456602 0.14326852693476433 0.46695101331216637
-0.51643729183838949 -0.30992524349494821 0.66408117816633383
-0.43257148727387296 -0.3871474088145257 0.66900719363143191
0.38316521262463688 0.71405815160530051 -0.29181433239855564
0.45852528152886002 -0.010422646142350667 0.34781903980513496
0.29522128406791792 1.1194702014926659 -0.41030543147606285
0.09604605515448586 -0.15232104998947771 0.75393260012835828
0.31003572626996578 -0.13471957621196928 0.73853520065938316
0.77864185792203977 -0.35649780072266973 0.69272678414143674
-0.1070208131337545 -0.051300443495423176 0.7490159277113978
-0.36407012656444249 0.46549141990138643 0.54279541495459349
-0.89979429254379073 -0.84065022204672046 -0.48277410799567039
-0.29512030252197602 -0.44144473782140448 0.63365451650848348
-0.68418817225619999 -0.84688976086870094 -0.39706288312072729
0.012841041801719022 0.64297898304520651 0.67661497630469891
0.1987966496349009 -0.34605381536321678 0.64410601989250771
-0.2710196934552061 -0.16502947272907731 0.78550122469324624
0.66152299755663024 -0.64202809885750145 0.64670954721014462
-0.7452693362437931 -0.39238585438979179 -0.39225030072483036
-0.33877145320921087 0.22455498154428977 0.80687541735945278
-0.46077151846502917 -0.81667109306633279 -0.22072341293737929
0.27193229055902585 -0.27128208554530053 0.72860967132422905
-0.83589276787118671 -0.72963668203424792 -0.45048398884137431
0.17017968158883601 0.12887600499422147 -0.58090229780459113
0.6854234850974873 -0.53368547886355333 0.42577779878831967
0.070806133631939328 0.59164821220403485 0.61697119183268212
0.62439630060596463 -0.42263387392055085 0.71990482990911275
-0.20121467064683796 0.30916559614794226 0.78032973705833963
-0.46814453207235224 -0.24970200677259968 0.75864948360499418
0.068940963869237593 0.3811079601961973 0.77850925888461942
-0.37920187307599934 -0.35230808268230418 0.67872304620982682
-0.75505648141449644 -0.43012943146542071 0.46039329318273831
0.16030178047064991 0.79914120259466315 0.27506335654403941
-0.11378919318707523 -0.4252322588884454 -0.49410819927515609
-0.23124330271301397 0.49877010068600569 0.68587123326179722
0.39477425906706609 -0.25613981466557834 0.21511122239748087
-0.79117265365763756 -0.44946424147721364 -0.043493474392423404
-0.33987912910338192 0.020542168981003917 0.77345961092933257
0.45723328790690071 -0.56276668300514543 0.42128344029621073
0.0034729587423199537 0.95967791798021285 -0.18115879871644186
0.25621333447968297 0.43781207250506493 -0.40991684291837144
0.35879675566447089 1.1105891844209923 -0.4265734422860713
0.72814936993337831 -0.30448687309250311 0.65579855352042915
0.67088701827925967 -0.5942107044359467 0.68211466374171836
0.37081274159562982 0.53481593280716022 -0.12527216126327678
0.21159099526994032 -0.17149359390198959 0.77578482345809396
0.3407451839207925 0.22520838175113822 0.27270803540772526
-0.3308169589448347 0.87226331120368261 -0.40818602795266656
0.035698931531315925 0.39094138833343139 0.79540529794154313
-0.71115185309707574 0.67150220482231848 -0.12679925989072638
0.0856174347762238 0.5704827558863178 0.66983553303665322
-0.55315165146462553 -0.28585916097905373 0.66906078702091631
-0.77511903859921327 0.35170254108221899 0.28019726546055052
0.029913476911408998 0.63029583340850692 0.67628525654459937
0.3039032251879269 0.1121253789450245 0.46721190791386796
0.23500017374674737 0.028254605239102837 0.74190507986348497
0.42093711679497098 1.1429280140345783 -0.46003181285091144
-0.82077870671494968 -0.64060423872575223 -0.3578850246745317
0.44784440191650737 -0.17860564254013822 0.25694910316554942
0.84134316423645406 -0.19567932067351429 0.61927876329808185
0.58136153935063861 -0.24444702590416278 0.33397353562899268
-0.5559193067680005 -0.381277114977979 0.64656333226791551
-0.92139580602959403 -0.70116489387315051 -0.54052274726791083
0.56607844983553268 -0.45165239707065641 0.74083349281555388
-0.56432107565976664 -0.35945810464224515 0.65447904453218753
-0.571925071835645 -0.55253379475927411 -0.4058659756756533
0.68524295409065394 -0.45155538655647798 0.68986155889546052
-0.64698042491443464 -0.33280138559039374 0.65522688600790613
-0.89390853293463801 -0.84974423401910348 -0.50032537753910522
0.63352931556028946 -0.37708565983323233 0.73777398499775604
-0.37584022687672591 -0.66319694626406811 -0.11590580235177628
-0.13862333597114262 0.74447920182553085 0.40703131578735441
-0.50683365256479562 0.40924036264808317 0.48780812234486115
0.31222181788642456 1.1400343568222895 -0.41794122663993682
0.47176471810714216 0.044865965440598843 0.56793485331738902
-0.33164280052674255 -0.081563882179326974 0.78915729539967205
0.11656667908832918 0.48391168926343286 0.68845506279821689
-0.10409716261901519 0.41881680077530414 0.81419888828912002
0.31060846816095583 1.0147719062051492 -0.36797606539299699
-0.18516052969311902 0.48021170104375388 0.76832350200566024
-0.33346311250885841 -0.67425470720234126 -0.10872741463888608
0.52727698395787792 -0.49473680895717276 0.38489542872935845
-0.13311509393511667 -0.28462827987579986 0.70665764765230432
0.70392249379482419 -0.33413704836332542 0.66433089425191394
0.037852008950689582 -0.32529669047487531 0.48093654684247722
-0.37717201650743654 -0.3870264763160649 0.62970376826388885
-0.61208374501404084 -0.93786498278546193 -0.3390605975571131
0.30104816638636078 -0.07921850583122203 -0.36359609899711914
-0.81465486525903852 -0.73800931344825083 -0.43228301597679303
0.74879647632912683 -0.37480201998600027 0.64943398115097717
-0.16611771912805312 0.36681151447245441 0.78267673261839688
-0.032688865069706419 0.36343144916904246 -0.66614121478961152
0.14660216436183021 0.37099839583795435 0.70482424526507392
0.13261734182854329 -0.23413928950397733 0.7053659241732626
-0.36927825117798263 -0.84857663017897611 -0.22177299203028572
0.12093865429196712 -0.13318958635869882 0.80592599463334935
-0.53354246030132246 -0.10954793573401056 0.74120911212040119
-0.60480624838086916 -0.33890108886186843 0.6516107511728717
0.37027385235945171 0.71624394681195025 -0.27673713610434658
-0.024548652832247123 -0.3501994568762945 0.5264705974646573
-0.75826931761001792 -0.48311997427755493 -0.11383387603408329
-0.72290789976010927 -0.53423426274743102 -0.23318168414713109
-0.41453509121065035 -0.0266358620310716 0.76159278760006544
-0.07339932947708977 0.25392456223647963 0.75399935221270953
0.29176032178018235 0.83704112586956436 -0.3200152115666926
0.041231943909618207 0.82639477911965187 0.62035427444834768
-0.45511675976529886 -0.42928797462288171 0.63936747106044201
-0.64779550525509588 -0.98721876872249825 -0.35077179088650512
-0.62476044423934796 -0.054622885742704241 0.74948848098215448
-0.0018574091718234209 0.49319058319068299 0.77376389195387518
0.41752649332663144 -0.59648911140471372 0.55744170819424266
0.27089695588503199 0.016380201366434699 0.75024508523487587
-0.56552586279874051 -0.24710909951198712 0.69198584881864367
-0.067445790506143855 0.51156446580681858 0.75884851366946382
-0.44477089266901015 -0.80529824625120461 -0.33734617279242607
0.0024920649957376195 0.50653899774455735 0.75491627755725432
-0.24682448154620062 -0.26563961917277856 0.73818591296847158
0.1213568007058855 0.40289953638727638 0.69928267689918355
-0.57560318109967024 -0.22397216802371611 0.71035572774180666
-0.5206346298941793 -0.61622632510519848 -0.12713312865987741
0.17862603100510469 0.28158269422893556 0.69130009520355573
0.021212520115611033 0.60373410243738357 0.68019743310138492
-0.7837596416693402 -0.56713388582152913 -0.26483164295952477
0.09844632770602102 0.52358138562364498 0.67110554682077661
0.37984452017896753 0.58532283948980079 -0.32026479103672439
-0.1605621180928426 0.72419123979879685 0.615522317087839
0.30770982365976496 -0.50060386240719634 0.55120275643153782
-0.8814116453329216 -0.086770597693803353 -0.37295053373394838
-0.93538992579191593 -0.92742258396446497 -0.55053900410184275
0.31370170620964666 1.1677319539431856 -0.39481672787448652
0.26977104220461356 -0.0010120222133974677 0.79133600191248998
-0.37664389427881578 -0.40312405656561312 0.60352989029449344
0.20016614027943469 -0.10061748220878308 0.80941749462274593
-0.70624678838604515 -0.9934812400564168 -0.37928000009873886
0.81600019768329979 -0.39601487066511581 0.41786756496254412
-0.45332070144826409 -0.34273646740071584 0.67126031978718637
0.50201821232757182 -0.15983973001015361 0.72428173372141291
-0.45464593971650991 -0.34919105454272281 0.67366139934079117
-0.40237266043694941 -0.067533694816441781 0.78624135228903269
-0.45783996519705406 -0.36303881512192082 0.67566461108103626
0.29762123007906016 0.2185483097627956 0.44895103423524368
-0.25852429751367134 0.65446063671374888 0.61979157433262033
0.11381539516251499 0.82746179856944169 0.54724677452648862
0.18554671959799229 0.77550805650779231 0.41103231146222718
-0.37814256736698654 0.2353380345768108 0.6909081908746999
-0.20643467642212696 -0.47935798613117264 0.54951325158552322
-0.17078743392029092 -0.3269918642009374 0.68838372242901724
-0.5307292052266106 -0.35380689140634614 0.6663083689516216
0.098046807133191638 0.58324258010972352 0.66770108638165437
-0.90763316098258051 -0.81592350495303045 -0.49454980100355012
0.034294539217099018 0.33039423778702504 0.78710656095607734
0.46368476326027475 -0.49988223031805534 0.71008464275088823
0.29628317778550584 0.75053354555333995 -0.29461720820546772
-0.48887126194174763 -0.0002871589355171178 0.68561650633736915
0.29618160323365211 1.1473841361476145 -0.39247612165675827
0.52380830964958058 1.0126106695873052 -0.42441129976347935
0.12248053216046031 -0.27124356794744775 0.64538539539608908
-0.27259383163071449 0.40993764246589115 0.78027794820177454
-0.62890545101452056 -0.081231365354764717 0.74186909228519127
-0.59979289968308247 -0.16002489665436204 0.71721488839163861
-0.58243863782866134 -0.64565084042339982 -0.29323322538509811
0.55908195024447904 0.80617425172315349 -0.41968214467400705
-0.25394738497597663 -0.25266734583091188 -0.62863032797388441
-0.665479677716037 -0.52791389758927587 0.44506852367334282
-0.83980549297305362 -0.61558137682044944 -0.33465223758809226
-0.86459947963306683 -0.72667156104343711 -0.47261729119094031
-0.38267080741920662 0.19150411001597401 0.74366790611791178
0.025591385843159675 0.29974274973502169 0.76465511206523318
-0.17970708268558144 -0.37046088773083308 -0.5654737158029719
0.34719694723611816 0.74124988133617775 -0.36583192421286387
0.88347808569952835 -0.25458624710947481 0.60780358162650749
-0.26031423907800977 0.65601518261808844 0.73513160862911597
-0.23334386382740105 -0.41349307943704727 -0.52998106746787721
0.77140626615464114 -0.30621163357758058 0.70030471568972441
-0.42666258728807477 0.54546444929543214 0.6585461754252957
-0.19807451607715437 0.44592622765354317 0.74846181247442722
-0.26718532113894655 0.0090640191935813519 0.76650969877766395
0.2755208404720334 0.07406765142640992 0.63718451238463514
-0.60608184043166657 -0.19407088756280455 0.70514715595614841
0.70408219102578795 -0.30208522996052323 0.68555342178066292
0.29045112945521023 -0.018000753587975926 0.77279432873986775
-0.59180092990697797 0.23526247791612054 -0.63654122897022192
-0.35866823038570905 -0.082249119183189112 0.80866702340105578
-0.66946849370416639 -0.5614974075873429 -0.17810445049699319
-0.63653358610294331 -0.61132195494070052 -0.38928056633050673
-0.39889826944065637 -0.77648931824906575 -0.16001041871846894
0.3853204505123855 1.0803217392856421 -0.419220719269225
0.26817634734805357 0.76159190560965417 -0.27798153785272661
-0.16583987130797537 -0.16344299610878665 0.69047538287133325
-0.31108024311509547 0.456532949660442 0.79496053656419863
-0.7003475473031453 -0.47180879202031134 0.27294370085354325
-0.081057423488325619 0.55822606460595448 0.72552557479848057
0.5601822619841943 -0.14802712814266505 0.33683620239604928
-0.67012666956613298 -0.30965897688525423 0.6705651264307273
0.41521406569657315 -0.55484004778158846 0.43981629991349902
0.12908232975291728 1.0683825884020939 -0.24371353543102287
0.28773388744826001 0.7634246462757055 -0.30760960428813139
-0.28160694038476791 -0.71951047284921432 -0.15749689591230492
0.50192346348866379 0.97491945008814651 -0.46096664587467867
0.17666322785403099 0.46083611520926182 0.66465712719056169
0.168967444723646 0.9555573718705036 -0.21403554051281071
-0.62841271743769211 0.16042496304758758 0.71300825277268354
-0.51004087152249722 -0.66520478945492112 -0.30085272870965724
-0.72792974193184656 -0.22364384012913541 0.69226308203983278
-0.042043008427566059 0.23981413414043362 0.76084180123064682
0.2529650577429543 0.02579547285581496 0.76911464735793011
0.28050299138503892 0.81158454789326462 -0.36884778787938355
-0.76964941903440165 0.58245370530096996 -0.14116902297179129
0.15055476525615907 -0.29871649160465918 0.63925291233683057
0.18363407539685361 1.0208464176676479 -0.25214859072625245
0.57378834527171108 -0.69152971336408631 0.62942271383897574
0.0093132580035990703 -0.28725830706881528 0.61997771550045189
-0.38665400970158581 -0.66014081742044306 -0.12758408578094466
0.87314262343888704 -0.23458092527453117 0.61052377073035724
-0.30830016409019073 -0.018142855951570391 0.77271689940604027
-0.34948838602044224 -0.66261776862731137 -0.034481815348130163
-0.48479253601871319 -0.57009881402769813 0.43240313227488691
0.75247748203736764 -0.31858563165366127 0.66047868880608185
0.39120178421091201 0.86738524502939696 -0.35595234137686166
-0.2450081370975149 0.5064241171112025 0.66372562537669577
-0.34612830168871284 -0.22551916927927373 0.79991228710911855
0.11867818770975974 0.35121919027177728 0.72011553243678805
-0.42115439926933251 0.13528580735416496 0.8046872754404647
-0.84834731328323376 -0.55680157770605865 -0.31913085889073922
-0.17000651766192282 -0.47203995104600538 -0.42696328058253313
-0.39229464278277454 -0.23504594786835931 0.79209640901619272
-0.43516431357073659 -0.10132093999322156 0.8090307330248141
-0.37795635632460733 0.27863295315671932 0.63993609534167206
-0.82320426629430021 -0.92015846698480308 -0.46101103138963384
-0.34144783216523661 0.17272061308025921 0.80130836734829203
-0.53744080824747031 -0.33596377564546143 0.61300872276849117
0.47971899204851476 -0.65443750684641133 0.55890020036142207
-0.62491043218015241 -0.78920605460242088 -0.35207406609958741
0.2381253022987187 -0.23290793509478847 -0.37936712167096559
0.12898494699602836 0.94165173639879329 -0.31664985356323871
0.13983009063218554 0.83528903625586048 0.17127360947830206
0.16718801941874378 0.97812298182412427 -0.21869045622221633
0.30517396690636533 -0.040785800374800951 0.74608144706519908
0.28961795082718755 0.10163759821699525 0.53077420417071974
-0.64032865124775207 -0.18719769069706627 0.7089588289047466
0.82362064592066297 -0.27125795868344832 0.37358643059389529
0.37912802918807009 0.52932333429504796 -0.15864252972386073
0.18792233462237445 0.48012142483510134 0.59202884649485221
0.69716246991577346 -0.19477297844391495 0.35284123992142269
0.021861825172246607 0.82626447381111501 0.34360397514860591
-0.54981385669487193 -0.609248386113316 -0.19051355591459551
-0.55026167006909243 -0.14430253540811 0.73813836039419312
-0.71615915732925695 0.11102126144408286 0.77154974680167232
0.80463997311542512 -0.47587726359081817 0.63967877641632498
-0.33704721117412451 -0.087836272374614444 0.80405907798347243
-0.50134560768317593 -0.039252296332991321 0.76165124378567794
-0.84236819405678232 -0.89606945509824931 -0.48811111710964372
-0.31719845405020797 -0.23013476245403797 0.79580369924976657
0.42183378288074269 0.78187345211763903 -0.32157494594509556
-0.71400829187785209 -0.93520120570010379 -0.44023371782841514
-0.057419452800476695 0.22799857080903663 0.76224699661188244
-0.082509340203169135 0.35535319974610458 0.81788556889671549
0.14938437004115038 0.26512505387856855 0.60952671185748541
-0.88941384313285998 -0.82235184734317146 -0.50250883865501406
0.2832412201599106 1.0962568920554594 -0.39956862591369358
0.54683704279040013 -0.06609410655249115 0.35790093027312275
0.67497106825621889 -0.47092173491020822 0.72964958206855068
-0.18260678955041365 0.36137223367471494 0.77129322398517752
-0.58690527065180742 -0.59983046450795063 -0.19798216447960459
0.3592601475217741 0.58568689659043582 -0.096966293904983014
0.38494676331354161 -0.25524723561192197 0.17331510571950248
-0.40222232795579893 0.17645391729394944 0.65934828509878152
-0.68563710950223578 0.063743566563819298 0.60489019189760085
-0.052420673611172114 0.34184286292690369 0.81574053346592335
0.39048068670477742 -0.30012442427080144 0.26501479390828192
0.14466938316766095 -0.054694076842726758 0.74576243064882863
0.719236169267228 -0.47543070212514504 0.71256182032334292
0.6833975232348749 -0.62307546286517856 0.64500294045042561
-0.54911107473466614 -0.79120608804825809 -0.39416485273788088
0.5652783045890869 -0.16121711585017873 0.71430015227267019
-0.63323421640825905 -0.75310445590027619 -0.34762650629665981
