# XYZ point cloud file
0.49316246452130214 -0.26244005462315489 0.307761721834371
0.49364382178344668 -0.66499730899087262 0.51749845611329837
-0.4724721243128297 -0.21100623083601988 0.77916798379059538
-0.56774934343123329 0.5061980054845352 -0.59342948793232397
-0.98951932931456299 -0.83111020025137305 -0.4815776668038782
-0.56701723959289529 -0.041856518339063564 0.64639632130336644
0.058883041904033345 -0.29436089971476953 0.51549619538461
0.5133211486799818 -0.043277254352794392 0.3554246056719752
-0.63448185652702849 0.0068058123359013845 0.77602060689911134
0.36477597253401456 0.96038316827674031 -0.37702621048498552
-0.96982559072482699 -0.62909520143055264 -0.43276159868140457
0.66865940474565344 -0.45200876355168629 0.68353649461808008
0.37680495363076905 0.7265226590724122 -0.29272627537338014
-0.2003877768046447 -0.33815011377121507 0.61226813578718908
-0.44760669635719474 0.17728658772411388 0.61177656972164352
0.26872438477478766 0.76825878097458111 -0.28979365148776298
0.32801479772263753 -0.1456254716829336 0.7359354388501107
0.39063618550703794 0.89237788427331732 -0.36634144487967618
0.3765060366488332 0.67426978468609067 -0.22775301217850086
0.41210404433946268 0.72582516132259534 -0.2843329655292649
0.76106802126779272 -0.38472347238723847 0.66727835566423066
0.14898745063967345 1.0450026689053507 -0.34824108796180792
0.039493603599633331 0.90864698128050758 0.10269881391597191
0.4765979853143254 -0.53886462992722506 0.40341123504344689
-0.13492382995491875 1.0039039971519361 -0.20376993326302589
0.75807698940565515 -0.29087136348493475 0.70434303719568458
-0.76113170467714164 -0.32911185489335071 0.52941050462799044
-0.62472306241686559 -0.19862824787767153 0.60458834224006219
-0.66610130164783932 -0.27371229561286081 0.68606392983154652
0.20920728457002427 0.033209362020129807 0.7396644450368014
-0.49220136900729317 -0.53773463429778556 0.54099043824882087
0.31524263790708756 0.082444358144096563 0.52370686060642546
-0.36110611106393653 0.17929654743314449 0.7881167132428244
-0.41636635912199604 0.16498157938966007 0.74483956517994043
0.77393805546959737 -0.38465775830493043 0.6932176736563721
0.13769379717454283 -0.32676310683658771 0.57025217978866982
0.837802350185331 -0.47630389454941602 0.55042492386117825
0.48926990543272136 0.82676443008142131 -0.32981038775586791
-0.38750003260642807 -0.50205701202328701 0.58921348128325057
0.37361901755525284 0.0012253428386996834 0.68849049511262361
-0.82067175628420819 -0.92263590322945399 -0.48136753426892903
0.65062865905950229 -0.090948275110195653 0.37643556761127023
0.34660200350476966 0.64411359504016596 -0.18513929870362916
-0.72496555893379533 -0.26172646841606539 0.35864836672298661
-0.11291157624958217 -0.27658293217154206 -0.61246744912750195
-0.72109286124854188 -0.51781594848092505 -0.3283322742288165
-0.24146934357113053 0.74919627494062002 0.35106726363070812
0.27400635063125062 1.0998217602849993 -0.3932250704535703
-0.64885833646151292 -0.056123539601003802 0.53772766092967905
-0.64712335100309915 -0.97579782976415519 -0.34893123901221484
0.36371115803603404 1.1580859136476587 -0.44458362983265176
-0.68765671159339081 -0.1211655198722621 0.51360793239997393
0.47770050698729299 1.1605118786041495 -0.42194389537836186
-0.12355997829813573 -0.03005217156274842 0.74499341346203829
-0.59772774841645615 -0.23108044216263957 0.69704059939341478
-0.19073386733951536 0.31594446771952933 0.77465416287654154
0.034964099737218313 0.835666465516268 0.60056041402658711
0.43669712302614411 -0.11149486494240024 0.21129116582048996
0.53905525187277137 -0.47757096959576906 0.73370937334555797
-0.46328402427645615 0.54888253134204046 0.70634573189668459
0.62727700682009846 -0.37620274014913879 0.74073327259500488
0.11749653282456048 -0.11164087563089453 0.80189912510017369
0.25492835162368149 0.02336738983856923 0.73452915375477779
-0.44283155042404171 -0.089516182154112389 0.80066082365937885
-0.48685791881151019 -0.5516138975428535 -0.42343240632944218
-0.62409527823668742 -0.658721008116397 -0.31695241927045742
-0.24822945940088453 0.44093452599044447 0.77356025593003319
0.13853899349297394 -0.15827034460129064 0.80649061860167182
-0.19962618834676646 -0.38440094075540299 0.65545341279252012
-0.3848697893973928 0.90314145946758595 -0.33283984340572736
0.45528270781133329 0.82164403955424425 -0.35610019328544518
-0.64549297309132192 -0.85763269162180311 -0.45544674103384358
0.34331870036612966 0.29293327969052951 -0.21170807149949672
0.71666922519154674 -0.49494221112759373 0.7072259018911633
0.15518994584368445 1.1340984575387525 -0.2819325622746271
0.11138291722520133 0.73493400354449201 -0.4635244367606689
0.20662677482812641 0.041887385801327448 0.7411049910574744
-0.18546028026659253 0.56846620666131464 0.75675782113023216
0.24179414119504489 1.2347686346550297 -0.36778622635572122
0.48372837689487397 -0.64396585093401637 0.4799929650856265
0.22245202662191382 0.26455739284520263 0.66599451073870686
-0.52596770679260951 0.086898980182307684 0.8091781648045544
-0.5208202717320437 -0.34533612840318884 -0.54495439146225522
0.39081062199991251 0.6782665701927002 -0.22180850848721984
-0.28080151091386552 -0.16670697356099873 0.79986987587538416
0.25764613502287104 0.77993220337417268 -0.26247227867217843
0.18486387981010766 -0.033563000016303746 0.80130009696385218
0.035406558598812032 0.4085765219961619 0.79224627108227441
0.64448907046392656 -0.44244849033608935 0.72626586526922721
-0.41497257482602451 0.014221674200516787 0.77440537410239763
-0.034537801110100019 0.96957861509438437 -0.26585102740088729
0.350044715269553 -0.38402390588117152 0.32439376148289478
0.23094874472322768 0.93656685532141037 -0.29748066682314617
-0.42051087519115748 0.32998444376159974 0.70336509036877626
0.062518387809906206 0.3581542954977851 0.77157314765622032
0.14346642075425153 0.46073204957599712 0.67079424360598106
-0.70076140332473513 -0.96219845787885783 -0.38404353885797882
-0.45753514557700492 0.23265377140802657 0.59403212255986837
-0.7607759000994877 -0.23294562182669276 0.59163717821796813
0.31065411898104422 0.42527904073938183 0.53913100103445832
0.30338273910220148 0.26423753437078434 0.4889809067121107
-0.72501623050529984 -0.45764333826629766 0.41681382959268287
0.17700458695468124 -0.065614532127709846 0.80246338543166207
0.21269952712580059 0.9951720780796347 -0.28930288598292309
0.28799076388777461 0.11345244509688757 0.4933338662012805
0.10217752133679736 0.82690790897470534 0.2676461724412178
-0.22602000448559381 0.40662401176979635 0.77924167446180026
0.39573046843467641 0.69396722293291657 -0.24244823714152314
0.15769964412635082 -0.064364103269549222 0.75546857089501263
0.89275301674371943 -0.27655893531457559 0.40117124393989589
-0.92168250733944446 -0.74082013978209704 -0.46317250358247064
-0.54278423780017859 -0.24953805738308055 0.69066014536032316
0.22795098642524442 1.0889779363160639 -0.42228212994482917
-0.24205008034703354 -0.63756208060111064 -0.21337903123587304
-0.94769536698285384 -0.59938290434675801 -0.44914602223107697
0.0009481207134170444 0.6029138122444444 0.68710877086805211
-0.080288649634925935 0.87886554244056936 0.23769021245363892
-0.63331512912221855 -0.59698845844521098 -0.22834112880275176
0.53112816616762715 -0.11770534339010363 0.70825409516508553
-0.23742540083993158 -0.37497404183784311 -0.56343104459119853
-0.30424764356147749 -0.21727960764591425 0.79918036227557698
0.39648225866652531 0.7931818714983192 -0.33033549590286998
-0.29540844048704679 0.51928016472493432 0.79771165356762141
-0.65388492002716725 -0.7529330304857571 -0.35566066602865526
0.27155693414420895 -0.088894403152077195 0.78525700366388285
-0.39532040222509834 0.59016372733739253 0.66792588445899526
0.4995755515527498 0.86595188595776973 -0.37653072233965107
-0.7298988054335509 -0.38032580242695735 0.36655731417252885
-0.12327299107485476 0.42290897963133389 0.81326406256616379
0.64091211019566363 -0.68792245464138291 0.54155249654475002
-0.48657576820882659 0.14561974308732117 0.68757522294895579
0.57917791887145265 -0.34986541966328744 0.74176583598674528
0.65783033202628693 -0.23826212055265089 0.719199688844958
-0.26218259609505107 -0.2605363299139507 0.73260211193398783
-0.7744637277656149 -0.40304636477109845 0.53256943632380338
0.12657122542242777 0.4776376809027314 0.68763656984376798
-0.0029367136693297935 0.49717764173817125 0.76967506896779325
0.13650655030676159 0.39954126265189016 0.70711701601550492
-0.23966753511008798 0.30068249610595821 0.70722843636483557
-0.18048932117853672 0.71054132078741961 0.43481828670811107
0.11908289315930631 0.59440144416620577 0.5632538142741228
-0.4835445529116294 0.44618514838471657 0.7139520309955778
-0.36550522323172085 -0.65441988798832895 0.02805742744496309
0.15051344693171098 -0.088976791185928605 0.80502054273605617
-0.96386407821850051 -0.71223607264478073 -0.45045500240407582
0.65545822166333767 -0.44808633034260675 0.67258077502165503
0.49013519103918834 0.66329094857426729 -0.31340912348337385
0.31789241259183126 1.2235287748469343 -0.37715861155988134
0.40547309013130911 -0.25697249882511841 0.2420795398706449
0.38534274629660575 1.0345489006895594 -0.40324882614999913
-0.62288335531501193 0.35534336405705558 0.43309527765579325
0.56307722711559471 -0.24625244181849881 0.73062006912684463
-0.48677687953752447 -0.56848027859775407 0.48463424072299666
0.37262828239942919 -0.19121939142352107 0.73777338414007065
-0.32639060718723412 0.79261097025182958 -0.49300068794283619
-0.27725688194529741 -0.2819561589753794 0.72567154355393704
-0.67582098301006133 -0.92892223929071838 -0.42273978650425525
0.91969777101921701 -0.20822788413895837 0.4520999769459676
0.36403192966016668 1.2449266783152453 -0.40084153573030012
0.54877313877713574 1.0206339910841284 -0.5175815720643675
0.63179235404401324 -0.68462227828973721 0.51281173578072115
-0.18626747958753864 0.31954056205580161 0.76958015752974318
-0.65629422265281778 -0.59309017759127602 -0.23320704413532983
-0.94436253867471542 -0.64437115559262992 -0.41034176946773843
0.4537992017176275 1.2094931297432046 -0.51092929104495266
0.4778185445774088 -0.41353647925941783 0.35327905454309327
-0.6723582198821253 0.071240637088912262 0.7964609371085305
-0.20182031695836217 0.4839065171915673 0.76754359645474235
-0.089487707114307952 0.26118436450846927 0.74963981337269447
0.41628232299794615 0.93116711276757491 -0.39767596756622992
0.25002606074357536 0.83503058921728579 -0.2859681890762239
-0.58065571285508355 -0.64011545775499901 -0.28086281166424321
0.30548838987110594 -0.025515617070327345 0.73723222286729917
-0.50816414777694363 -0.67534627405410963 -0.30235999680747316
0.62928860596489988 -0.39872777867764481 0.71775893301862304
-0.47840662005390133 -0.11039762197636138 0.7865185940933761
-0.41416946006355793 -0.35373377195246003 0.67163248020858624
-0.71284480510485804 -0.94698495793487059 -0.44054986203071228
-0.37889997682097215 0.25113929540944158 0.77736797254132228
0.60412151989761775 -0.41333861144634271 0.74420935717576364
0.73376759404157132 -0.59628672068404387 0.59779987080024277
0.2942877909897233 0.51339752322423182 -0.36857322781190377
-0.31414849095020969 0.19430518936431573 0.81025916062988068
-0.59849607567394503 0.074745786954511617 0.80316912803352403
-0.30053695569409244 -0.2471665262415339 0.76783161565851699
0.82178002178848808 -0.19427632556007479 0.3742344380617395
-0.58830527009632638 -0.30945289595932346 0.66875161108520009
0.26720657280338178 1.0761598433812005 -0.38333124445155686
0.60252496359964247 -0.67038905541376015 0.65132658692585821
0.26058013847539141 0.81281053123833691 -0.2979751351926776
0.19132687567833018 -0.17588753279958791 0.78604867421093683
0.66918885596153577 -0.51250024008828299 0.72062342124769629
0.045198779538300982 0.31178253436864234 0.76065930947250004
0.13416503352920134 -0.16537697952485975 0.80065796038248338
0.87651526019189996 -0.18135004171834895 0.41960053263717578
0.046184119286423568 -0.28245899191315138 0.58485539836616907
0.71994251168941259 -0.42317461538553103 0.38370609628069469
-0.4096659259140214 0.4233384830902065 0.8346850740696119
0.13901608945259569 0.77708720353841487 0.57174672332911669
0.33673681805541056 0.90272557749387572 -0.3477432150178586
-0.29377676826630572 -0.057938293618914116 0.75776312437884386
0.34447780772710151 0.50911979821846898 -0.30098808888936374
-0.38094068027677574 -0.52189048640341351 0.56566283554426
-0.39703103898048819 -0.80145626973380946 -0.15601898940422221
-0.39533397996686448 0.19605822153271202 0.6381101049587935
0.47092859005931487 0.80191728541548601 -0.31100987848308959
-0.26599361865146109 0.66630819489570325 0.68151511164650658
0.11459476239855326 -0.16437965903109475 0.77319158811417932
-0.34797966399190516 0.11171745870835403 0.80440679473180265
-0.37484869512287006 -0.23177549538197884 0.79547178477431724
-0.18627102434845455 -0.17847345732553932 0.74508520089394414
0.015202854219209416 -0.43462700312747016 -0.39382539883295231
-0.10680881255621616 0.99542917683444276 -0.087299261260410266
-0.75730586398065847 -0.62033457250654811 -0.29957291994738122
0.78643849830160917 -0.25779933324340237 0.68146415753897094
0.86532146521244768 -0.3845420076176419 0.61322670455774264
-0.65094736430192945 -0.54184795227891902 -0.38394781229299252
-0.76372238158270855 -0.81308937691936745 -0.50100046672429044
-0.60513005572842049 0.76068017943935318 -0.29523165423327663
0.1514620918289844 0.80763449446551605 0.49565958041577068
-0.39435299846598171 0.37384103948963432 0.65032685108632604
0.50981977949741897 0.90128684305316353 -0.40346315321730558
-0.48246720322519804 -0.57048843841314767 0.39800289868233152
-0.093892546102625624 0.4645756762085782 0.80129564335322312
-0.82630176339273453 -0.98353211188969603 -0.43137533926894145
-0.44122207327762297 -0.41531662494729882 0.64891893941909085
-0.34414828469538766 0.28503398294832349 0.82378403866900873
-0.20446619564379517 -0.13312860041185592 0.73338837565762738
0.20025126001996496 0.77330276264587561 0.24725011297029187
0.79435146246911403 -0.29796309932953924 0.68928282119067996
0.19028600466606477 1.1492397101790206 -0.29389878270337766
-0.11897253791843565 0.63631481302283599 0.73865032956005128
0.84730684310481397 -0.4141896582548466 0.62271843009069605
0.73636536160453292 -0.30634721563224937 0.65421405801752353
0.089138609006375435 0.84364630282354636 0.2214591909137511
0.083357680308459428 -0.46935388397577538 -0.13153027152468499
-0.302847138307337 -0.75850063679703372 -0.16031449502253603
-0.29128289236427152 0.30676346258066789 0.80141280311697016
-0.22729696164651925 0.45397780441667734 0.77119831804385464
-0.2515056412605029 0.9880354590852467 -0.09138528805464663
-0.60849005361035835 -0.39069233877508314 0.6351648765870016
-0.68710640802022604 -0.27519090583655803 0.68977489325412633
0.059125445877514393 0.47746785784681678 0.74257014259627963
-0.81997617426560798 -0.70652756426826846 -0.43330818944462274
-0.4457909730441838 -0.25973536513445183 0.76445116858306406
-0.2394773019469324 0.34215122115396213 0.72609254573104798
-0.75631816277250752 -0.97748677941592743 -0.40015376547256781
-0.047332470718455533 0.43719031047633017 0.80650837938546649
0.809422733588535 -0.12994755889362775 0.42321717418524568
-0.48420102670307497 -0.37115012108171297 0.6686946797048352
0.65349678915455789 -0.019439438299864165 0.55876082086968526
-0.73062619722989686 -0.32239924709229273 0.4253808361177242
0.22556428420608737 -0.06056547600465545 0.8055101367217532
0.060348711913292608 0.38033593105288543 0.78544729775827893
-0.085443430899805148 -0.52742894510003113 -0.18937174834811876
-0.36670804308414506 -0.66223653078819833 -0.060745811466187516
-0.39464374690544107 -0.022928217141207963 0.7669503474300805
-0.74769764334410926 -0.32413323907584246 0.63858762231575672
0.82536387783653742 -0.44171683973651754 0.45491678731019997
0.33066663770981863 0.41241440195426882 -0.26607471213843453
-0.70066113912291217 -0.69288215754223259 -0.35726598919105634
-0.27696668623740633 0.42047331261917842 0.67932880606347379
-0.6244183618337803 -0.23222329143045717 0.69026736522913823
0.55132131109335947 0.022371895582313117 0.56568155964791367
0.17995194020372446 0.68301812349055302 0.5877181500574129
0.31986140693946319 1.1096469845521875 -0.4162615367184142
0.44365299229246291 0.051962489124002365 0.46200714814620919
0.61557440019585585 -0.42392380469435542 0.74195689633233353
0.53415051916751544 -0.20308225013254222 0.72774343481305814
-0.72404603519094879 -0.51101817797578919 -0.17409565042877162
-0.62586295280672299 -0.64319873850873432 -0.29684201510277458
-0.097693500271456166 -0.44048179233910911 0.39241571507691853
-0.89417621722656515 -0.098845920392574893 0.086379843646304966
-0.55485532727956199 -0.056093846391840341 0.74696098767023877
0.083300795037658304 0.54248106188207146 0.67014688321973181
0.62573666868771061 -0.63260919163652218 0.45974758763163565
-0.11945075328140026 0.86878143694541743 0.24339376818452457
-0.91483757403362354 -0.666587179596831 -0.41026034154894542
0.27447314501273345 0.66771565837179758 -0.38673651279298971
0.2916943202602757 0.14360605547431782 0.46784678344983671
-0.51403405638986344 -0.31228614381713138 0.66368027615857161
-0.43004730255566148 -0.38961057354585682 0.66781447432726526
0.38269415139603524 0.71728506996134134 -0.29223339045355146
0.45854608897436538 -0.0089722607261498721 0.34814238004236231
0.29331338241874017 1.1209325431582948 -0.41038875268095465
0.095790853550056343 -0.15417560330468505 0.75303315455499409
0.30925312165162455 -0.13601797005658323 0.73831731077246676
0.77814537964397801 -0.35648209600847336 0.69364433778115409
-0.10714988868140868 -0.053379362242024442 0.7484519457618859
-0.36581389924649688 0.46362461660512944 0.54503158032949117
-0.8997997654087142 -0.84049830874882092 -0.48097332869931242
-0.2927971326864317 -0.44368550401949447 0.63181527355738409
-0.68347378893003974 -0.84645690403231133 -0.39684311732737554
0.0091162850299355558 0.64094128420533969 0.67914255774948229
0.19932978685330102 -0.3473596762043395 0.64253453185555642
-0.27009412599762916 -0.16758832443349125 0.78443438157149559
0.66189096959401006 -0.64270981472524724 0.64559725723858108
-0.74588563485888226 -0.39092714636431936 -0.39003690517388595
-0.33964994829323475 0.22190415592794377 0.80750863877872203
-0.45907923488155489 -0.81620134410010592 -0.22188984883235052
0.27177788323336166 -0.27279256563415044 0.72756610456095505
-0.83602121340942015 -0.7289962900434328 -0.44866764527967562
0.1700863430110206 0.13322462528820522 -0.58311998279917909
0.68632393683008086 -0.53269994397604414 0.42477269861719225
0.067528843933533089 0.59014951145801298 0.61944045649734736
0.62406185582523044 -0.4234229602815241 0.71969818013559317
-0.20296226464898426 0.3067262429155504 0.78124313256589839
-0.4660842755713408 -0.25240556917623458 0.75788543612946446
0.066130291724130263 0.37911176981002592 0.78001044728548874
-0.37700424248850517 -0.35469717283720414 0.67745726577450216
-0.75202345261948389 -0.43195158019201219 0.46176080973159273
0.15741357062118139 0.79902893493164129 0.27783869360863533
-0.1136359714096243 -0.42200163997067586 -0.49598550543890241
-0.23371903341635916 0.49644179169796443 0.68772799395409501
0.39571555074795028 -0.25437347651440556 0.21404909465986677
-0.79009697013426183 -0.44923297124849193 -0.040883702262048904
-0.33965227767243744 0.018095130318184882 0.77341586462596024
0.45843903645129669 -0.56255766028980903 0.41925334595642039
0.0011544660071122204 0.96001631418775113 -0.17960569114890318
0.25610260490427061 0.44155171992230802 -0.41118777347476576
0.3571049366959041 1.1124263045634022 -0.42695856040938307
0.72772130730613482 -0.30433221266864813 0.65656329211483677
0.67101655703726315 -0.59497200357564717 0.68133541140927234
0.37048777881429412 0.5378802565071692 -0.1250793546878966
0.21104572394869714 -0.17326502930099907 0.77503609828101527
0.34025824432112095 0.22671254962403053 0.27359203660616616
-0.33308651031995556 0.87217956649431372 -0.40670778241715339
0.032844374234974716 0.38877914297327254 0.7968467634138876
-0.71316058690305706 0.67068551690184397 -0.12268144859735303
0.082216204318688146 0.56881163041733718 0.67223520259934633
-0.5507459088997616 -0.28823138933353531 0.66893953161085995
-0.77568008379475795 0.3506943087276313 0.28443909879431961
0.02623492607020983 0.62833123810481206 0.67879727155991088
0.3031705487800116 0.11249297947575809 0.46799390949191633
0.23368951762357998 0.026896333075457579 0.74225622560837468
0.41929496673822964 1.1449375327984725 -0.46071664809078106
-0.82066774469985715 -0.63990320321254135 -0.35576788289435735
0.44852510388326339 -0.17682032823814997 0.25635974341054607
0.84084565898484054 -0.19472485432505499 0.62097944398799998
0.58200423259060097 -0.24275914162405821 0.33358498886112276
-0.55307923017771243 -0.38372732851863223 0.6460980841010846
-0.92220019461181557 -0.70040971864833157 -0.53805001689454945
0.56582082621740382 -0.452802276010278 0.74019314339173437
-0.56154651515846621 -0.36190816388464953 0.6541318334554922
-0.57197241401053667 -0.5509457664239148 -0.40534760502541617
0.68502899202625711 -0.45202166576866265 0.68981361055169677
-0.64408513531633771 -0.33526392164629248 0.6554853622348934
-0.89397882834077358 -0.84956660747439794 -0.49862852182695028
0.63299355558262049 -0.37786791795278662 0.73786299939029831
-0.37416785920351736 -0.66246761831943246 -0.11693103236411173
-0.14175933795584295 0.74293649802224793 0.40988252111737067
-0.50797236334310569 0.40753594809770477 0.49043766423594087
0.31026972951425191 1.1414815642597631 -0.41805658430896886
0.47082801146827391 0.045137028852919148 0.56899603611148231
-0.33092492483902802 -0.084125829178635314 0.78858988331680091
0.11350364226651083 0.48236526748502551 0.69057221315143613
-0.10680853913008895 0.41625926114394884 0.81548085120454883
0.30910584682976455 1.0167403443728129 -0.36810185145799212
-0.18785514945755147 0.47763490686164345 0.76990136617849692
-0.33171011088257102 -0.67349444305486794 -0.11004216606184097
0.52834004410777924 -0.49395259256003521 0.38335784341789036
-0.13201817128678614 -0.28675901376026769 0.70507771832900124
0.7035372950854224 -0.33416760640053345 0.66485539681085082
0.038942917561932286 -0.32597327904720375 0.47949793482228265
-0.37485748979046074 -0.38922495787618683 0.62844741150157535
-0.61066854606484788 -0.93780968721293134 -0.33980215810438213
0.30175901406753824 -0.074917427945243809 -0.36559986259775534
-0.81463419175192475 -0.73739690613888254 -0.43064522790700988
0.74854234147335064 -0.37465903517595384 0.64998795410061527
-0.16828433407084212 0.36435445166012781 0.7838045399208925
-0.033663243357394651 0.366753826821266 -0.66782410455910912
0.14400211001233337 0.36957051732838231 0.70653435161011324
0.13273436968933267 -0.2357535197481242 0.70418406580505388
-0.3674250607092332 -0.84799090834737889 -0.2236498032621736
0.12038291862427919 -0.13526424404554604 0.80509008720587372
-0.53198401080066027 -0.11203784891958435 0.74143947595409787
-0.60201648391133888 -0.34132597298604095 0.65160521423959794
0.36974252360353976 0.7193667714600237 -0.27703699032185142
-0.023286860770252278 -0.35128166902226066 0.52487985488896849
-0.75738954322499663 -0.48266473293872947 -0.11157362840789409
-0.72239736081449812 -0.53343737035491934 -0.23137882757459999
-0.41380422436659492 -0.029099034628385922 0.76160721337307136
-0.075147766341397887 0.25185862894215649 0.75479331133125205
0.29076302038874724 0.83954602588985705 -0.32019540500359539
0.036667234187162723 0.82424484323036995 0.62358407147569717
-0.45236100767938303 -0.4317140345442132 0.63818205772841774
-0.64628947455021801 -0.98743771233753419 -0.35153879667335941
-0.62315024327595847 -0.057150066065752014 0.75036018574011321
-0.0051016345596170964 0.49092838725161125 0.77557733536762041
0.41854356496332196 -0.59728085794975938 0.55522241299437813
0.26953936344578477 0.015053457274103899 0.75064661660116316
-0.56323431732167684 -0.24954126714027769 0.69200373883037658
-0.070591372772870975 0.50920127504437573 0.76065563631519484
-0.44362636823603574 -0.80430831478630327 -0.33854730278116452
-0.0007654428141647962 0.50435554569685859 0.75682166589915723
-0.24546761637810294 -0.26805314338366881 0.73675740447146898
0.11865516835386941 0.40140544234517805 0.70107309526652506
-0.57336387212852258 -0.22646722223149074 0.71044567433618733
-0.51923983641958349 -0.61562225701218631 -0.12706229177975664
0.17646713492354632 0.28036650834326782 0.69270287656620921
0.017676684604065129 0.60178002464055824 0.68259494185474334
-0.78335900848695639 -0.56643122076913621 -0.26268637948583662
0.095271885823354718 0.52201480945041001 0.67334964464344504
0.37971099393230728 0.58896616463254392 -0.32107028745208493
-0.16422544718747287 0.72178781763727762 0.61822077910880036
0.30872186362146037 -0.5014269431526428 0.54911870121450468
-0.88270024513672984 -0.085441041589016109 -0.36906556210354313
-0.93551082145193099 -0.92756331132647074 -0.54896374901073774
0.31156359866683925 1.1689944229883615 -0.39468157204378068
0.26832844417600188 -0.002581334226275156 0.79163001134902911
-0.37428181031177388 -0.40521795642527003 0.60228832226249884
0.19924115574327411 -0.10252293041058769 0.80896177709921013
-0.70492116707395502 -0.99379375222763144 -0.37966668242796969
0.81668531792598775 -0.39423888475767654 0.41797861105219319
-0.45094268427063128 -0.3451405973628856 0.67037224241931448
0.50107377745473847 -0.16058596157186167 0.72471833894026982
-0.45222956946402332 -0.35162150929533253 0.67273666909163232
-0.40147097598089443 -0.070129126687364263 0.78593998911422736
-0.45534389066015057 -0.36551062070548834 0.67467572311461155
0.29656983007260868 0.21898532217932665 0.45014385354260927
-0.26161475027822961 0.65201604788147294 0.62229335716555767
0.10952475420907382 0.82586943678665869 0.55059699883189728
0.18218814671481159 0.77494083609681907 0.41410610841363771
-0.37885139666650003 0.23316344962203761 0.69207194502544245
-0.20422851779415538 -0.48111168268611282 0.54749756882044032
-0.16936665297654518 -0.32914285116598108 0.6866836383129904
-0.52806338489625992 -0.35627694684518896 0.66575675261949141
0.094571931494524197 0.58159462938946871 0.67017524632952441
-0.90779948849482794 -0.81566028291231785 -0.49258764305904279
0.031790769073289926 0.32832109530633025 0.78830591806475436
0.46387635918149583 -0.50123934176151863 0.70864136313863813
0.2955138943337316 0.7532885460624883 -0.29482472252518943
-0.48805930268800513 -0.0024316220681572798 0.68631603531736352
0.29410286026943044 1.1486694268087352 -0.39234907925874557
0.52291484130807131 1.0156551561447604 -0.42543063896306121
0.12291353311520387 -0.2725923381429769 0.64407056776108962
-0.27466347291836496 0.40728554561443731 0.7815933951035029
-0.62715639560558445 -0.083743460963063843 0.7426964261635689
-0.59778444781569129 -0.16248327154334041 0.71767942515695138
-0.58173184622459984 -0.64465569345132323 -0.29286214219419943
0.55897427130356325 0.81015729421880844 -0.42113484564392323
-0.25480317285657655 -0.24939732571544382 -0.62980486207474162
-0.66222283935162218 -0.52984316306797319 0.44537892253736505
-0.83966685030374144 -0.61491254628095615 -0.3322788746244818
-0.86489005391474283 -0.72603072389385903 -0.47059159808650941
-0.38317394872460109 0.18912186656355789 0.74450765921293538
0.023341930587587517 0.29778472741159412 0.7657460952492342
-0.18001364183972871 -0.36717183883746918 -0.5670766871057209
0.34667066989946482 0.74443798502463421 -0.36659676305047662
0.88317623379785393 -0.25348887811105569 0.60944270311235338
-0.26368165281261469 0.65310976040220003 0.73736779511524753
-0.23357087656635023 -0.41049354347652645 -0.531334738146505
0.77076621058084205 -0.30618095122612338 0.70141791687263577
-0.42879910747761435 0.54288614264523627 0.6608967880403479
-0.20049757836408885 0.44346817337792421 0.7499709845183633
-0.26713837732594981 0.0067193374089693503 0.76630101955228724
0.27435045674479486 0.073408902546816868 0.63787758985939325
-0.60390157160017222 -0.19651601781846928 0.70555793647992515
0.70352787583554244 -0.30218962910187214 0.68627247696506077
0.28911221194782388 -0.019430101261622812 0.77308523371224835
-0.59391286106561625 0.23707426891233219 -0.6351993766094256
-0.3578528854535209 -0.084931596626802497 0.80808115606902775
-0.66857522104411282 -0.56085044074431778 -0.17678026658140089
-0.63644353222391292 -0.61005718035988177 -0.38847385742768487
-0.39704308396426113 -0.77597901042893702 -0.16139311161706171
0.38381134367027397 1.0824219514584112 -0.41970594135167139
0.26728502038431851 0.76414418092832848 -0.27801298845548689
-0.16518503430992532 -0.16538101622601364 0.68957804440518411
-0.31330105782556572 0.45370450089579006 0.79641473254206185
-0.69790260756335409 -0.47279981178237396 0.27431769694921415
-0.084319459873564012 0.55590484967855414 0.72755102039625519
0.56060028858908817 -0.14630620126987581 0.33679586850222637
-0.66723699070117837 -0.31216668371152245 0.67100233879320348
0.41642341290051943 -0.55484440713030081 0.43771399448557385
0.12666779142770679 1.0689451777654568 -0.24247909334570322
0.28692810176181932 0.76613671554780871 -0.30785315144039893
-0.27985825545585741 -0.71855613845771016 -0.15927161714482374
0.50118546625227189 0.97809275420159725 -0.46229587501536856
0.17375309748581286 0.45960386570266765 0.66682228767787532
0.16705318575835298 0.95675197286186386 -0.21303580527577626
-0.62793222299706197 0.15807190428208351 0.71480929347863831
-0.50922805596890097 -0.66407546331061296 -0.30104831528450021
-0.72522970648102503 -0.22613150977812602 0.69335154817278566
-0.043816388092764669 0.23777922348005198 0.76158916634477813
0.25152784785135512 0.024327094628844304 0.76949580888202906
0.27962854259247194 0.81425350971026722 -0.36935940580022197
-0.77145017004339833 0.58194356853125928 -0.13682311530110702
0.15104017579169912 -0.30001624846061903 0.63784422263748364
0.18156652173120363 1.0219191613077128 -0.25122500151610361
0.57446373917372284 -0.69251049407217125 0.62755743303699751
0.010133458341013604 -0.28869770611686751 0.61853500250099924
-0.38503978221474772 -0.65937800110311451 -0.12852880075931306
0.87278303729511775 -0.23350956183416971 0.61219843625788384
-0.30798147886828298 -0.020568148113350615 0.77244229980382972
-0.34752640148688285 -0.66217966290607877 -0.035703340896519997
-0.4817298721999192 -0.57186021973173973 0.43142108527113926
0.75205198497254289 -0.31839888275487493 0.66132535083915922
0.3904029176633107 0.87030096006153823 -0.35651124493053149
-0.24744140766480002 0.50415320771792249 0.6656662072657098
-0.34462467913179162 -0.22829847645557533 0.7986618077234211
0.11615590899566242 0.34965915182135532 0.72166757341610666
-0.42125174803087839 0.13262419742852383 0.80518145123047091
-0.84831023047539722 -0.55603441037081924 -0.3164791591741829
-0.16965399974502582 -0.46924331180111278 -0.428586601608135
-0.39056851994080866 -0.23783848810426789 0.79096961887563888
-0.43395876041959724 -0.10407610961862979 0.80858655644659472
-0.37884603033045788 0.27663971393311737 0.64139826157553714
-0.82272708665492744 -0.920201377978632 -0.46016148575539256
-0.34203411284656449 0.17012096221083239 0.80177127294419737
-0.53493765379819136 -0.33813167209349748 0.61281136913160172
0.48073317176180719 -0.65519747025370811 0.55665291751149759
-0.62408879102514858 -0.78855969388585789 -0.3520026526046412
0.2389044404734989 -0.22880405386899749 -0.38164149334106157
0.12726116877210597 0.94299947944231399 -0.31619396696704399
0.13716672227463994 0.83542914655013745 0.17381623346685171
0.16518741206618226 0.97922358397555453 -0.21765261536247216
0.30400506848663367 -0.042047416874005039 0.74631709164113214
0.28871297636464721 0.10161348140685655 0.53155751784763106
-0.63806225594877708 -0.18966989047766836 0.70957588724375886
0.82426651968487574 -0.26898387167271232 0.37403934004270362
0.37889497690227947 0.53255619492730588 -0.15864604489542267
0.18522544024195259 0.47926653036901679 0.59427127612757513
0.69767186524596203 -0.19273503946570969 0.35305956567200208
0.018484504456463491 0.82524854484623722 0.34660671483196454
-0.54872813720969482 -0.60844608161563407 -0.19020931090179916
-0.54847121698691126 -0.14681952541789256 0.73831647180448923
-0.71501599323621856 0.10843324179257974 0.77341920651673557
0.80460162940830871 -0.47566132244610609 0.64010008187854539
-0.33628230437281448 -0.090481878470425769 0.80341472251868462
-0.50024359722045686 -0.041775885385638478 0.76193494083276669
-0.84215454680250268 -0.89598081573695176 -0.48701452360965458
-0.31578088043687241 -0.23287254529610846 0.79447563304070545
0.4213137151789913 0.78513456934167758 -0.32212827928888133
-0.71325138580768033 -0.93506947623338399 -0.44024925231303919
-0.059097863629404418 0.22593511064771965 0.76292594616170029
-0.084946768144670642 0.35288412279803882 0.81893352573314182
0.14764624862973225 0.26427290878646004 0.61080970666987944
-0.88958709011332926 -0.82204587378477734 -0.5007232472121883
0.28139115280094712 1.0977635611816003 -0.39961766276179184
0.5469915102522046 -0.064458344137334755 0.35821784934861034
0.67464342632578733 -0.47170238141763537 0.72953577603066233
-0.18466985098833366 0.35894763489660897 0.7724300352478024
-0.58591307207268462 -0.59905163813821805 -0.19738818739513631
0.35871779096272038 0.58849056571161662 -0.096498507814269385
0.38594927214505492 -0.253279893449882 0.1721699576787481
-0.40254769827707942 0.17444633666528064 0.66047080875376474
-0.68465881023543596 0.061874376884532012 0.60713046137949178
-0.054862624707678054 0.33945011943227565 0.816778710544104
0.39144257690139106 -0.29870885280243709 0.26384482836230128
0.14389179961602899 -0.056321706814688732 0.74546496180159338
0.71894294683047866 -0.47596759532055866 0.71266022476337898
0.68370645623221216 -0.62362987585167717 0.64409914662096224
-0.54840376649169764 -0.79023919953623256 -0.39464306062711607
0.56431399273790395 -0.16172117757480986 0.71501638194483808
-0.63251590343383413 -0.75236963139736224 -0.34734053676618359
0.42423898544319638 0.73602628745900023 -0.26884754387789378
-0.1198031417566795 0.21359211069058648 0.76455238504676948
0.2026034168956497 0.84918283330088062 -0.20772095419671777
0.071003396865674834 -0.13385456600390022 0.75861945289492572
-0.27830997554835268 0.98334638784385109 -0.21811721682947416
0.3695468326754584 0.91950151791723411 -0.36661190569122049
0.40502284955206097 -0.40906411184731106 0.72174900180998935
0.36450679971295796 0.55815967007500922 -0.081081824691773885
-0.51818121020123753 -0.079977000093075068 0.72994115872281007
0.37397630756782752 0.83438522303016094 -0.33993692227249545
0.026588751762560231 -0.071456658972978815 0.75351335134399433
-0.1060453495239343 0.097038432837671662 0.74806825358149009
0.67370679660269495 -0.42486195342684779 0.66340563257886342
-0.22679221222342402 0.39099059736738262 0.78055733570522712
-0.095611182845682818 -0.32301238961677314 0.66419539012916529
0.15649872819544552 -0.27913240380206061 -0.45251808372589752
-0.089626113253215817 0.255889968407915 0.75626083698025592
-0.21489698440603716 0.69355858848717089 0.66562826757274285
0.48359627355259588 1.0800771516088215 -0.45491888052375684
0.3573454086771054 -0.25378982373332137 0.02396218231501826
-0.49302234245553311 -0.099464204372401444 0.75939477801128064
0.14760768649475903 -0.10120214519805559 0.80844932497944155
-0.81156309779679148 -0.83283002089671609 -0.44492126970555096
-0.38505371245483072 -0.74989089685210919 -0.1621600859722242
0.44161974331513604 0.64477848351643774 -0.32424997783421083
-0.30663098815046014 -0.53544612372233247 0.43640051401224511
-0.1561468258890327 -0.45819905243565173 0.47297240102777011
-0.007861496917777433 0.22254099090351742 0.75405765272139669
-0.19425365818364249 -0.55029202553565448 0.20813808454874766
-0.69207733163599683 -0.53217181826259896 0.059050969579590717
-0.55649160896703831 -0.22120305604291235 0.70208945581566096
-0.52170332688574539 -0.081939033509206949 0.74893974867613333
-0.038036137931355622 -0.30197971986312255 0.64729232297008887
-0.22790104189576493 0.99532318492777461 -0.21693004594252269
-0.50156929291241525 -0.40111232310611578 0.64896308295363769
-0.74615004678891483 -0.068551729313242493 0.72099005656263038
0.17478590610436273 0.0097540920790690766 0.78179715860073706
-0.43492542394963857 -0.75400894559499654 -0.26005234726727955
-0.81704954091890158 -0.9725617900547805 -0.42329181226465351
0.69474421037211764 -0.31822311833629235 0.68888561828392203
-0.06891561618876435 0.43737802798144565 0.80903064426856885
-0.2577252779097049 -0.34625434188585658 0.69122717382032373
-0.23927659944619004 0.4568131891334779 0.77057570017953481
-0.75916755381499545 -0.52267282831221573 -0.3047345431747881
0.4420801911917156 0.020875858710396544 0.38466132459860775
-0.46336506035068881 -0.61525820007758392 0.16287824890128128
-0.19775354703344203 -0.14740514132191884 0.75574381800281409
0.3277030530459728 -0.073741612957927027 0.73174784318567532
0.43331964911072807 0.76513756736764071 -0.30178825279151644
-0.95041638620627689 -0.6813517275671126 -0.43200356049044802
-0.16327521463739372 0.29411379490638767 0.76656101657762443
-0.4584326768409237 -0.77495225058805994 -0.28533967645705377
0.76928137012473985 -0.39668683044265096 0.69429653485738074
-0.94657588013358573 -0.59983547646615509 -0.4224391634342044
-0.34422893121437192 0.38616966470162706 0.81675501363424086
0.14143577707768007 0.85889901725501705 -0.36199930882646308
-0.53758399723740335 -0.68250421239698666 -0.31269292793588621
-0.68160729926463037 -0.17900567898694875 0.72277944123704507
-0.14909229971788823 0.59467562250243033 0.74339496639377334
-0.83994993240237115 -0.17385271050080053 -0.41128361836706046
0.87699218754612818 -0.37792214553652181 0.45684122818649414
-0.24244188190477037 -0.032392929711911878 0.76246636679964652
-0.16678304365498373 0.53767215083678299 -0.65977275736255314
0.29804195027198815 -0.22724677101017299 0.73734427230566957
0.011573627177517126 -0.32285893144665756 0.50412161501724917
-0.3021216616548546 0.9740321353434267 -0.088812410985821932
-0.41517874153099987 -0.78283128368141441 -0.1788734882020907
0.12176973838123994 -0.38713501442457765 0.31810283373360304
-0.15004702967732286 0.2040640329001131 0.76657511619698204
0.1269769784172996 -0.33150867436919229 0.50952981554079635
0.41088409255845387 0.73051561150320365 -0.2957020419093308
-0.4071463507220392 -0.2760309716911078 0.76228802885685942
0.25047057284569335 -0.050714167477696637 0.79975633404749813
-0.19689587048758336 0.28548746205233022 0.78006432919392754
-0.11959813806761838 0.26741481121425381 0.7601542052103325
0.43988668353743737 0.89724452027611279 -0.3981525196884525
0.077429747667261239 0.65736942293302825 0.65198523377939022
0.05286609181075419 0.27387582326688065 0.747590455958969
-0.09062379293450562 0.83970831905925913 0.28947032063714956
0.50262355969205363 0.86142693837064499 -0.36303296777598759
-0.91133047475632822 -0.12525345441858393 0.0015550931186669725
-0.28737590820862524 0.70787280456146373 0.38433978226495952
-0.53375800269133544 -0.31413448325803994 0.66266745694792872
0.42853182872719076 1.1571318109958364 -0.41631339270061746
0.56359504453701903 -0.39543278041051355 0.34531190280440405
0.12424375456151671 0.40097288536154307 0.70427924558389643
-0.14220404813769286 0.42828670405764546 0.80615891180215482
0.35555677663080987 -0.29305816821111552 0.73674515694671872
0.53106013372967587 -0.69826689803673325 0.55959916405693533
-0.4216907509601352 -0.89018706296756767 -0.29216494365158863
0.31439950537242034 0.3182613794451612 0.50114194009196211
-0.35604839889897577 0.48792918391227569 0.6221453988320973
-0.048289777231377257 0.50557164735829452 -0.636367904426408
-0.55063980144040114 -0.89265451636847715 -0.31794388005076241
-0.24031320409543827 -0.20656858929921151 0.74695432239046833
-0.64143703557447074 -0.5736639800628256 -0.1093829406625848
-0.74364560494505372 0.075967255097570963 0.63504562485377081
-0.74044593500683353 0.040339953947639007 0.6149534838618651
0.037423068687815308 0.80666014186320534 0.64267027022034262
-0.29202897867838035 -0.13054931437539641 0.80334283896552905
-0.037948817805761509 0.15621655409101098 0.74589799378362376
-0.55983286184454095 -0.097305448469280575 0.74322489887198051
0.45325713516570798 0.77939400890304222 -0.29643136862624508
0.22639966856057414 -0.017045866001281995 -0.5065275052312157
0.1013896048531787 -0.13362495977523603 0.79261883243392806
0.14486511226878018 1.0992112731879267 -0.33660150896073149
0.25991033277512493 -0.034211241228075062 0.79727795799077938
-0.845058981400298 -0.70906315887151483 -0.45237259824053416
0.016114183214001432 0.3610483060992008 0.80499146836891322
-0.24697900849841437 -0.30339726906746467 0.71773986668948564
0.14358094582625852 -0.26821041401287538 0.67149614610641684
0.040556489431147924 0.34741065719416186 0.79469142383282809
0.013930312616121349 0.67560635744382136 -0.54528482606739503
0.17076621867361175 0.93484332141344062 -0.21049738657476869
-0.33584195581618592 -0.48581340800503314 0.60167781452438085
0.26627032423959368 0.015436395264177172 0.77873908790825208
0.51025899805712349 0.94219212171291733 -0.4513058250971016
-0.2603644342238437 0.32263025065818218 0.78636291963324623
0.29466318430264399 0.20961310852650428 0.51926054461605098
-0.014760717095688047 0.81213038524885173 0.49314025348565954
0.81248479016456143 -0.15796820661413813 0.39245905515958596
0.061640953232046915 -0.36004590687248561 0.41770369851650646
-0.40801793268842035 0.59989125014836175 0.71917355986629006
-0.31342304587126779 -0.75957975136270472 -0.14152793970924216
0.16763866352550852 -0.052599926958431964 0.7861240115548761
-0.94801361959005281 -0.72135245902879852 -0.45106995797798471
-0.55267632766044206 -0.35330203178640662 0.66098672154222138
-0.95084180142098518 -0.754907107489867 -0.46055378422290955
0.76495808370068918 -0.35876588162883544 0.66641924334181146
0.18799904034394757 -0.014273145528994058 0.7990148434253399
0.029310785470037515 0.6399977730923484 0.67340414576792518
-0.80396436231016721 -0.79161260596134086 -0.42763773470699146
-0.5421351744597126 -0.40556578158930567 0.63828047011914535
-0.72266479079996127 0.59251229077148615 -0.33522804271206835
0.62375712486057033 -0.57122016325470149 0.70731701349985188
0.024861264387578241 0.047220390992466221 0.74253002705799753
-0.36086483270910691 -0.66582836858162886 -0.10169470583291074
0.42235326997231259 -0.15172851689731714 0.16730187202249996
0.39519620039943587 -0.057519220735975374 -0.069169687587267159
-0.46495671578770537 0.021815546881174042 0.77335336003455957
-0.46996985833321347 -0.76396057596554923 -0.29523626617735943
0.18756673346853636 0.0018544510014940618 0.79399382996927215
0.55554661530359439 0.87349981491076778 -0.37001661586744766
-0.5083285923498585 -0.16417138798387332 0.76415384764357364
0.67573376916913352 -0.62284695004880797 0.48529152880732646
-0.87480472897558825 -0.14931137144093576 -0.36474064775191944
0.40927623742304009 0.70367107019372599 -0.23655473083057121
0.094383582880605874 -0.12080542458365329 0.76602943146853042
-0.4149472191572755 0.11685463582001909 0.81171660481219909
-0.74965695031738544 -0.93488623349116362 -0.45509846305394303
-0.043595664142993817 -0.14887956225502874 0.75915504946033541
0.51079891338916639 1.0115575001496682 -0.47362729832398148
0.50848762134605741 -0.4102742055391656 0.73979561949581507
-0.024279608406312575 0.24801055360526236 0.74606674291559716
-0.9140776906751249 -0.1329733495619152 -0.25280065047970457
-0.53863536581894667 -0.12847833024250144 0.73869270880171389
-0.85403645678613793 -0.26251631245877327 -0.34026298150960366
0.58062188262375936 -0.44967275704211529 0.36483934004411106
0.05725397241572544 0.3607683654004743 0.78484630592658888
-0.40637111889291533 0.032337107394634357 0.67560233451158669
-0.39267436595754207 0.57255095669412381 0.65179054797066616
-0.26338487923399251 -0.49725824344893943 0.56558103066597931
-0.52815242930731732 -0.0050663047562091723 0.76189681082202343
-0.78295820309272379 -1.0202716749392886 -0.44288988303780968
-0.48221152588800809 0.88153691134711165 -0.25835374152758822
0.11225203707170794 0.39526699311188573 0.72273812139357341
-0.011975007804087862 0.2424060574136353 0.76044988799502644
0.46515922334995841 -0.36787484637374057 0.33275572196313397
-0.45156768393910007 -0.14382695568317749 0.80277264754879074
-0.49032923037712983 -0.65644463264468556 -0.27328994198554235
-0.45852589599585342 0.12796823810191205 0.80685990184857292
0.53852941384755204 -0.67544032006923638 0.46852211605669319
0.031730979018254446 0.57475756349375584 -0.5785337271082176
0.26889847711802561 0.65081262553368713 0.34782449798906101
-0.20062123767955475 0.33043907018224417 0.77579238928359784
-0.22535762413418978 -0.15204375258776914 0.76136897690399463
0.14958619928890776 -0.081338141764017546 0.79985512267312542
-0.98196898535651478 -0.76312075404848367 -0.56874741259493944
-0.84321788713889934 -0.65259671601875935 -0.37883826504446944
0.11003086097519335 -0.23706895472219991 0.68655545083287972
-0.20028101200955578 0.77181942857206942 -0.53193846775198927
0.73100997704608983 -0.50260754493774962 0.69435439252596276
0.76529150030902582 -0.39653171589574715 0.68839990544910457
-0.71153968564278736 0.035253846041461312 0.60105211478569665
-0.55301352790319447 -0.32824900508852073 0.66841111788658991
0.85926618915223885 -0.44261584668241261 0.5387527044107121
0.66548937530609165 -0.29985906561077091 0.34916347143454673
-0.7876263335399355 -0.93776902089911163 -0.47019338467359123
-0.62521840795040995 -0.37525210472698611 0.64001356457812808
-0.58492415605062775 -0.11614598609530846 -0.60712558356320223
0.8702141787059986 -0.15026993578961995 0.52987634462189304
0.21551590112384802 -0.13004306304818558 0.80072739582285291
0.071118147362225659 0.3984505006358896 0.77545401890888832
-0.3154549428031076 0.59954662590367414 0.62099364236780419
0.93693330929652618 -0.26093348548846118 0.52312354756536483
0.38309428712129151 0.78564355194118818 -0.33071939346872364
0.64624231631235929 -0.43668698412581786 0.67220188186742202
0.28721661739218679 0.16535533689113524 0.50578365262809144
0.35627703347614226 -0.29750267500511696 0.17380047325699671
-0.28804530378277715 -0.14838521714868347 0.8073110461155929
-0.73023486227531409 0.30703233224090232 0.35384631692582125
-0.48413074295604785 0.15344234228568543 0.71795099023370046
-0.25962051884773452 -0.68147341439213927 -0.15946986510321082
-0.39433267328690902 -0.3824277653635868 0.67576641511809266
-0.27007978458331211 -0.12350696368966041 0.77804712590112168
0.77082214571373642 -0.47955449535596167 0.67361333442559768
0.75426677327785829 -0.44561636942499716 0.40812573087063408
-0.4437810229451421 -0.38238847367326678 -0.5394125295062282
0.17640553504622219 0.75035203659275296 0.54971873521228587
-0.87253275906267458 -0.31213267052017235 -0.17517638422713538
0.15172176507914925 0.87893358072539085 -0.34972882583818099
0.21557935466446221 1.1783860866581042 -0.31731719712483725
0.71500030082039423 -0.29852922462525772 0.67086233610438117
-0.22638811102351739 0.49321483055007076 0.76561564390370362
0.711799173722933 -0.28690241403323208 0.69573399568744154
0.9376669469067811 -0.25668161711998166 0.46162172947620705
0.36348726496750949 -0.5423126438009056 0.59362672816172712
0.32638037484467985 0.7512416013278912 -0.28163804540127513
-0.069116923824741439 0.18275205836387243 0.67285477890903755
-0.43815907998912629 0.54157589487699465 -0.6426960593022325
0.041518247202375569 0.82172967902127869 0.42467989394725519
0.29709803954908109 -0.12938451401347761 0.74362943055366482
-0.28501362252847851 -0.38219584616350288 0.61903533892933105
0.028555568986745813 -0.20711197338399534 0.71470842217798802
-0.70863837955418874 -0.11453799487308403 0.54528811449141612
-0.35497411230695869 0.1991009973120681 0.79005577661449611
0.47602279946747084 -0.077746550278732118 0.3018878752199497
