# XYZ point cloud file
-0.11110461879903877 -0.048064050322986773 0.75006562342424665
0.24450471573856891 -0.36329764182387425 0.14147955904786613
-0.21442424658402093 -0.29355921487451053 -0.62521119252799018
0.35874190214665092 0.19482242913933234 -0.11128009784880177
-0.4733183804287755 -0.34660710270202655 0.6472760933703281
0.89847085873222543 -0.37900871321998131 0.53682949839580729
0.45488933565914014 -0.16826269141464301 -0.35269054282204593
-0.37294247110672529 0.037808418014371181 -0.72149068071986378
0.24763440753470434 1.0439283381848854 -0.36283507593767084
0.2329355546179821 1.0727636334968813 -0.34174496949662725
0.37246145321133994 -0.47173029786414733 0.20694881892875827
-0.60492038906065915 -0.1773852889830696 0.64725576053570855
0.48570374359800983 -0.13471699852827879 0.31809186332083783
0.21785406254805473 0.9834678336306153 -0.29136729977057207
0.51458549460778702 0.51145152878589273 -0.57766767333262692
0.28302730527062714 0.73142948671336527 -0.27804362363799484
-0.67927750430484934 -0.71244466077382929 -0.35643244532254137
0.024291380873478374 0.94200121714430396 0.0084187788949350306
0.26476298377707774 0.20265256615486749 0.6283098342923239
0.31151537586505551 -0.21167587507559205 0.73553283417922977
-0.38796950479787373 0.21502810559467633 0.62300191016410444
0.31798917757747613 0.90424770302697643 -0.33658768970158803
0.81635364553712897 -0.27945619361837037 0.6690235802329294
-0.16628437363585924 -0.26594251088100895 0.71899549288954034
0.68044389350375578 -0.63502984149450015 0.60280135723457562
-0.3358012130182555 0.50701536861795726 0.59819849208339804
0.34204987324284364 0.70358149265179704 -0.24486834605240837
-0.23792266360680614 -1.1037840413117044 -0.21065839400645636
-0.53100507849594791 -0.87169313622594702 -0.30426862515351871
0.16110574323708438 -0.048711110529102708 0.76623499726935052
0.10114880082095112 0.57230445612396208 0.66778251932388777
0.03546616305735828 0.8298124794953301 0.33867597039455077
-0.051084519253826954 -0.14610882862459817 0.76190637314707033
0.31709195743552243 -0.8221880716515384 1.0839452789869775
0.14769950032372936 -0.070170085818394234 0.75914816621960668
-0.33330888071132847 0.18381067122461126 0.7907794692575294
-0.20553901159777954 0.2791373806263493 0.69840926630388722
0.25742473315123959 -0.13327066519022024 0.77941072215383222
0.66578373715645434 -0.47026581660274047 0.71374126022348072
0.27460189250151146 0.16107858144051757 -0.42980473760159299
0.381935531102644 -0.75758625805164537 -0.40050826787604166
-0.011063265320077953 0.45391089989707267 -0.64442498781642321
-0.57392063416876837 -0.73195090365419335 -0.32613546426979845
0.46786369059306399 1.0791428344303973 -0.42673043033155089
-0.31968413046390065 0.37936475878894083 -0.67101075483618189
0.31526467720872464 0.55231207623222311 0.31661419097423327
0.36006943624074772 0.39707368167169577 0.23233866441270301
0.51577413609677514 1.0038090642188005 -0.40463094367847674
0.50824885928950891 1.0004341025565648 -0.40840888209372572
-0.40826031332543788 0.18291944878617294 0.73035124108511162
0.66854917200319619 -0.45241862551074874 0.6603871835577575
-0.047851148476810934 0.50582163700235339 0.76499390009306545
0.5254121338890867 -0.31375491353013718 0.72942916818052694
-0.70925309939093051 0.24818264387400646 0.39991305142847722
-0.64243728335805539 -0.65662533384791821 -0.40519151597586855
0.46581827235406781 0.77532015530431364 -0.28548579244582406
-0.38520604809209313 0.44308982723045576 0.80767382323682213
0.27314804732756581 0.21171578952590586 0.32970558172172026
-0.72133611317162183 -0.16426398915587859 0.46638135644214351
1.1217581449066962 0.14505872550922372 0.63948895648797333
-0.88411945110811585 -0.76945279789534249 -0.52717409253128622
0.22827223936474539 -0.06567821455155376 0.80294182951328885
-0.40718926358720831 -0.41742674855135653 -0.54236323089417482
0.17592795860347454 -0.3574941555323865 0.6109723581156814
-0.51853006961255454 -0.7129364084879497 -0.3108607859581074
0.27570069038441769 0.74518543638265478 -0.27769403098389134
-0.79143087027336456 -0.74811861316038453 -0.42882873373485175
-0.77530275283999783 0.5171325944074896 0.58547113230145698
0.81096595926167137 -0.47829006616333825 0.62530008783812896
0.49684489205936799 0.99336802075342789 -0.45764589296988234
0.18797374191679683 -0.38671633284342288 0.465869951167031
-0.40500266907446658 -0.057321302106501104 0.78232961837783144
-0.25678703639992673 -0.1975230646370425 0.74594900495718441
-0.5611319073973009 -0.6548112592570301 0.37168953141928895
-0.30303585587582482 -0.72432674770931582 -0.15326297410877388
-0.92324322960621519 0.4413611396663466 1.2608599935086566
-0.12377578466871597 -0.51068293557858246 0.068015620569784829
0.0020646712011904711 0.78624292955727282 0.65842956816342024
0.23251566926106015 -0.063610676020992019 -0.48140869740310777
-0.68364561075981589 -0.51265172501204148 0.44686827301352317
0.90109195910813789 -0.28320441579064626 0.033525821715915782
-0.39385852184248105 -0.38763462423221817 0.60896839439193329
-0.96688971505349564 -0.75089872181434725 -0.51867733859447362
-0.15256344819928991 0.37308261783048291 0.77323532807610462
0.63730935591950377 -0.1622289162026318 0.57452104503975576
0.6304844542524366 -0.42612094937489764 0.70316724590094992
0.18747974592859595 -0.34294100721280163 0.64393689003950172
-0.084393947500537081 0.62454919965588784 0.61302479535265775
-0.68225689185255467 -0.29713490022856304 0.66774897217411677
-0.1768564737304219 -0.43700531865767855 0.48032437964198493
-0.86717296034930058 -0.32101578000641418 0.022756306818157768
0.34929093476861528 1.1031212424207895 -0.42816202672193171
-0.30128212660765996 0.85461883569041119 -0.45741723080281815
0.016263776455404333 0.50093134059138333 0.76084844858048406
-0.20777453085072572 0.41816041982231678 0.76472809978480427
0.52634186867593513 0.73626251112758756 -0.2772279166882754
0.43095010981045778 0.73751186405728442 -0.27756124672703031
-0.16043915199559855 0.25910134336491475 0.76810484668420109
0.89490787912636627 -0.73635416161263123 -0.21258855282141376
0.80018473103794729 -0.26272536099364241 0.67324535413292708
0.92972586950406555 -0.22902375225965188 0.52736540727715742
0.091979491736644547 -0.38979044650272954 0.25833624017977108
0.17526289521502658 -0.074209087834373522 0.25696786085890722
-0.68157522111056323 -0.32707017785993919 0.65623964318445438
0.27511178267941272 -0.5100700908376925 -0.45155890901004092
0.264920354555227 0.75931221319674258 -0.25143808767312592
0.19135911658257143 0.42830146113056156 0.67455876738074849
-0.4129630777632407 -0.36777732811785491 0.68313034513675319
0.13698829679873548 0.90011028509510582 -0.32436587537507933
-0.45847712454266176 -0.24767476255047582 0.76771910251061293
0.047992803435972675 -0.68060590768086016 -0.73005575896796593
-0.23394585485700681 -0.14421044260125937 0.76394898026970282
-0.77127923556069833 -0.10929297828500273 0.60135770856135728
-0.0041615825518350746 -0.30908479958214996 0.51038334841530997
0.023664099925093218 0.32634858372548425 0.7976388139608499
-0.39724580918858488 -0.66732148685368875 -0.18507854437994631
0.042395373138536918 0.28604194625416968 0.75021960002757559
-0.56212239407668108 -0.30724688601716688 0.66905254662182578
-0.63594360321676779 -0.21585388630495261 0.68420024792365908
0.36586073710522804 0.92077917809583476 -0.3607739295300405
-0.89530623912212137 -0.87764965103274939 -0.44407063145165893
0.48355441648847908 0.29177306411984949 0.22289724015114842
0.91926637569695124 -0.27067605701073139 0.44692354226165065
-0.78107126048158948 -0.98303080582504876 -0.39797289782481116
0.38361074698882014 0.68890463474013797 -0.27012203387399936
0.11180036902410961 -0.26770875876598632 0.6476118759994165
0.13493027819726855 -0.16222970662293834 0.80515709724310547
-0.44117250884195958 0.19790325541807796 0.59366305390538265
0.13825233284335425 0.92817849627538118 -0.32278562880948058
0.65364588795473644 -0.240213104491523 0.035691928779803206
-0.23502190263799427 0.31402645962699083 0.77340326754851318
-0.39685730220574467 -0.30425375197846805 0.72483664415424442
-0.2929016367132542 0.65192350322304105 -0.047091870485598264
0.77458441228816266 -0.36270405183353049 0.65496400910982899
-0.67030257758904099 -0.95448971090390966 -0.36294894526156618
-0.97278279965297809 -0.62728001475010187 0.09095783919230982
0.87211417200083208 -0.39012219301615203 0.60536367297402016
-0.52209805159666756 -0.66844763667490636 -0.30981185371501141
-0.88079935128087161 0.007343072435744169 0.0061151773319050307
-0.056099013032945066 0.31306570253730825 0.80180172440733521
-0.036546369950144708 1.1370914587407288 0.27880701602668267
-0.64825477333385306 0.39920301807581415 0.21044763166398361
0.56923526896807708 -0.6842143993026728 0.60715907986596918
-0.65474550640734197 -0.049674184396023779 0.73728065896910344
-0.51817463327760205 -0.60480331297209888 -0.13122684645601623
0.461136683073752 -0.14357171086000609 0.72272425000683427
-0.42394066191719393 -0.62524285726228657 -0.096589581622380294
-0.74427544973898341 -0.55344300481397291 -0.31821928929355359
-0.6954867535302478 -0.48664099002242955 -0.37316207942943436
-0.3196031759822846 -0.43628304476943147 -0.28591941071308291
-0.36703985646935067 0.022832902633099117 0.76830236632330973
-0.48253539923527633 -0.19843879840848988 0.77982446925032534
-0.6231402904341512 -0.79540104885212037 -0.35412463802458483
-0.20914669502248984 -0.40411453373620387 -0.82650314100319022
-0.65919359511361542 -0.46495052890811239 0.57901654631186616
-0.073275534508245421 0.12967499260536131 -0.27993281074581411
-0.47974179483124901 -0.62787557187861465 -0.2276795614281717
0.28347436901526457 0.72236519240087149 -0.25309834195387459
0.6758568388196835 0.12597037087904284 0.030762360741732664
-0.47259758957124465 -0.41505404872632545 0.64601412116726031
0.021906375019186797 0.89119756936930017 0.17657361939282623
0.20064070624086394 0.48162516811102574 0.59789047363779169
-0.52554331503066631 -0.065109765789275853 0.74062816627236749
-0.38579228488433825 0.49542151238670329 -0.6901661068648508
0.75156307219715224 -0.53803085819091656 0.47268648608511477
0.35704151830816322 0.19004577097008046 -0.024296247424800299
0.61535338997594202 -0.57536929921425806 0.42918780808136781
-0.77196796617146379 -0.4196022876680443 0.4541255455718165
0.21133843839184596 0.83532702065338293 -0.2028991207429911
-0.34528580561917721 0.23808026593059495 0.77962831369455543
-0.087202352607870459 0.77618237217370245 0.37694658286280713
-0.42456499552554883 -0.73433820063935062 -0.2542722562422064
0.025120873095392682 -0.18648289840452348 -0.14698744238223327
1.4107681818324496 -0.085824224028073437 0.70983535619070359
0.5897768923774418 -0.33183245698672148 0.68032632664091253
-0.56430766926905562 -0.079955491268557388 0.73383428921283844
-0.5335538502158812 0.023828013000009474 -0.02157393129574281
-0.088389327238025395 -0.50882554262093072 -0.1831745881259188
0.31031612409778653 -0.13952469102197584 0.73656248504132726
-0.307430502554773 -0.10468966403406066 1.2899036126876968
0.072241565891803639 0.47587878388348059 0.74679141236691926
0.48400509519683776 0.62734071963674509 -0.28198074188986766
-0.40352306148995076 0.56564993960648402 0.62783656681184397
-0.54638062923364483 -0.023550206520893457 0.73981112012409511
-0.6651779158696578 0.11592281445483321 -0.39273166103078339
0.14235252045001623 0.42646800812137275 0.69737014643203743
0.057830458654825279 0.31369540527994921 0.75800320649586794
0.18530253602024693 0.49615881976295562 0.66121266646605825
0.46875673235528126 1.0692219787275807 -0.44557493083933863
0.13004850825999537 -0.16895570627344658 0.79962895650285581
-0.71374212659621827 -0.16014174914650825 0.43083590177494102
-0.38631416436497723 -0.22232604850370219 0.79919208488674087
-0.72299786607989569 -0.97635841413384439 -0.37651916275169484
0.6617944695196929 -0.14573614507005273 0.37476808897831404
0.24351093142076952 -0.04684200290347551 0.80083394194248747
-0.22177669677442946 0.19519371654760675 0.77907440047208532
0.72892360590841765 -0.42126803953883174 0.64463315673846999
0.32956616954280538 0.77693550274468837 -0.30964796110731285
0.38044806161284761 0.55284211387341586 -0.29588926170116636
-0.28127508094716402 1.3817633694762628 0.83546730041105199
-0.56759962853070789 -0.20504959106681286 0.69848262051052679
-0.67779483295934551 -0.50846588979256335 0.41586350164771879
-0.62797619715102737 -0.5684041372056059 -0.39123056052002347
-0.62226479514777955 0.033643363812526861 -0.26987693188596751
0.037056800524852385 -0.38482022431841068 0.68729309201802025
-0.37806027119995367 0.39401440937605869 0.62826980366193652
-0.6117347170830354 -0.67656745602520374 -0.58743458246255287
0.55660410170445562 1.018188008671675 -0.43285658663293525
-0.67157588701368987 -0.94784219754882826 -0.38244678418814537
0.31885552034042686 0.70446469769226383 -0.2390381388642755
0.59415460850194268 -0.35382901082551987 -0.38358470937810196
0.65028563424134767 -0.43822136725807193 0.65804837544078154
0.80813339376384441 -0.30266802125596914 0.67874858165007801
0.55867967883837899 -0.49185549002369955 0.71429365698074143
-0.70496159587970242 -0.79228974059987745 -0.38257867060075412
0.74302721566836016 -0.43575434765885435 0.67101106024697188
0.36307279221222721 0.94211467817878003 -0.36685706079727076
-0.70147585420462555 -0.23071245182335653 -0.45679899677840119
-0.56707457710694831 -0.64408864722806403 -0.28355571267428914
0.27996719376352353 -0.45229238557115647 0.050120899809549257
0.31027220090572083 -0.02901510140580843 0.73703452098454392
-0.22739552096000715 0.51847339404779391 0.64826809036679478
-0.16064821981758026 -0.15488839379254826 0.67088191765200378
0.5804035647972654 -0.66223650660985856 0.63275644484573235
0.29308078483719147 0.74138905547493383 -0.29439935703622311
0.18465121576550914 1.0667113593777122 -0.27655546035802026
0.25740533942664801 0.74247246700503644 -0.1966352575638517
-0.61904678974750649 -0.96633526701478467 -0.33020983252242431
0.28646008866105177 0.27665626931838516 0.12828582563283319
-0.049563633957094844 0.78990302563399872 0.82449976667322211
-0.091110610178404272 0.99223923842273876 -0.11363427551195926
0.54290132696285731 0.84778118487951759 -0.34193720224910606
0.53111941064376911 1.0018077816332394 -0.50039021215494905
-0.19182277763202116 -0.13938179976914267 0.75379924138188059
-0.29076837933590838 0.46938766349251781 0.77472750646770905
0.44753768582188158 1.0862076614853495 -0.46585796816589209
0.78062499668726471 -0.40025446406660792 0.67895206979411959
0.2149949795448256 0.069970113477927032 -0.61499836962008381
-0.1011792949313115 0.50329366241068518 0.747595262873606
0.034598191808788314 0.26873448611638295 0.75053284561933609
-0.12508867789942357 0.011306644333599625 0.018755436598459241
0.33969936880572948 -0.13111060955502074 0.73237337920664913
-0.72502200594464883 -0.84455506507885381 -0.48503171717455373
0.86349498372047773 0.4659184633257385 -0.12287430013454248
-0.93985078339283756 -0.84055450475478755 -0.54893412314058665
-0.54898617512138603 -0.146038300628335 0.72050599098341372
-0.59749003942480305 -0.71827634131888329 -0.33114955729353035
-0.27585495527779536 -0.2507891215421687 0.7377270670638385
-0.70196583851260907 -0.52760344918767732 0.046681234890071366
0.57001366999106118 -0.45540677095338822 0.72250351677685565
0.33376004721538699 0.071782804223462726 0.68263300279461703
-0.77163651915710219 -0.26514399325982918 0.61991724759513289
-0.71711005025994812 -0.38814704165114167 0.62633074301534997
0.023237875268871555 -0.31196689303785097 0.4858645311808818
0.69166509488797701 -0.45398209242182008 0.67309020989941004
-0.49777496277021438 -0.083861023390725542 0.7534213469963138
-0.3275714782833683 -0.22484223366493405 0.79880511678196875
0.38100570403427625 -0.026681704147537122 0.46607534643258219
0.48925177799906727 0.95697572996868019 -0.4445282178159804
0.21337291666426594 -0.099852059332334875 0.59773079330779666
-0.38120282145260109 0.47001794564805688 0.61721772661897845
0.36003676971163046 0.79286827523510439 -0.31734677251644605
-0.12173260387226925 0.75202946416834648 0.39364211872070953
-0.43544272093369241 0.86768112077825732 -0.10468054999112653
-0.18740768192461932 0.35873206379795253 0.76097739127107467
0.36024428814526654 1.1514102171335809 -0.50379947192122998
0.78558778641629612 -0.38840867052373884 0.67849540227533112
-0.62679733083732625 -0.37488319592725672 0.63742229804315009
-0.20721599116367617 0.98839437170670874 -0.25807091375020974
-0.54929258015804905 -0.298023691327157 0.66359199985122963
-0.24992416502139481 -0.18591241126979696 0.76124402175213035
0.47995864772813945 -0.65141162862261348 0.50750507499988551
0.34966914403805927 0.59495245202164759 -0.33162999219266709
-0.28836089051490266 -0.36915607648557369 0.37282192848749673
-0.78892456063263383 -0.994459246131707 -0.40458992482624367
-0.0010056333047616661 -0.47830512267508096 -0.2008268997338174
0.27428751920302474 0.74167665355702694 -0.26582406227722544
-0.093758153849737624 0.18625301628343394 0.20903788176489435
-0.28046560954349253 0.0073255135140097849 0.69785430248821001
0.34331528606261319 0.75957221415992382 -0.30693859103062593
-0.28588954313187198 -0.47765652408799708 0.57516534026668609
0.60827547896589795 -0.015410613783214844 0.60298742121132065
0.86740299693836942 -0.42022811662583681 0.49834493923311385
0.747934465218699 -0.2949254442013971 0.67910395337214347
-0.073116044600344487 -0.50457245045674859 -0.10064295005058987
-0.13124305166912364 0.26547398847263626 0.76857905241912405
0.31801301951233896 0.082680248536601386 0.53307349887115762
0.75598224824284177 -0.37816170271216176 0.63910261127061574
-0.18242886514861123 -0.28851353754403863 0.63244600969318476
0.35985907045890198 0.32745431822348658 -0.34123025057844814
-0.66347018582965811 -0.56909365966378633 -0.18780893959612222
0.36204736799729353 0.57871664554177571 -0.11748067554800556
-0.44090198554424909 -0.00031263308641849008 0.72310466998545309
0.001700667960293778 0.46814724796944351 0.78214449269552944
-0.3671483932617976 0.59364209023059433 0.62043352783864947
0.019096624494745917 0.48216889862085299 -0.17938084420396549
0.27329375396766942 0.96364701580454626 -0.33929251575835906
0.3383426366709843 0.046234360708685918 0.65057610716532643
-0.29406692221385811 -0.69059553017315478 -0.1332416670562413
0.3716824107040777 0.51529492680388966 -0.10104773912213716
-0.22761193429099702 0.31354718071090959 0.69708927763231188
-0.78438440963450073 -0.2470310449022044 0.20947103481702101
0.242221689867816 -0.074569402338705792 0.79893606780636617
-0.31328161644750807 -0.23822573301909578 0.7725555698206783
0.57398129308654156 -0.16640403326288311 0.70942276497413204
0.45790838851571003 0.7865701747770979 -0.32414257218337639
-0.33766078564647639 0.51146780524524438 0.7945514203822821
-0.79472083316382403 0.014387409329823964 0.27330159055688164
0.52029459646347931 -0.68590999547592357 0.54475860066407478
0.19666109200387893 -0.21677649654064002 0.73409821661866026
0.78140692195470152 -0.32152313528413912 0.30730448627998719
-0.55600601797277704 0.86850398298527409 -0.59958424275273359
0.4495848678320149 0.75261820652165068 -0.27131399242812826
0.31450986368926248 1.099955088245657 -0.41971484464266595
0.36664974874646994 0.53908988649912115 -0.058028837258893518
-0.38310250592855066 0.26463757817122868 0.60805759866644138
-0.032303037791710842 0.16028841713630571 0.74501056512059982
0.47287889984168885 0.46904574676849764 -0.60543117470306562
0.0053996118537336102 0.81797216143552243 0.48066455457071733
-0.5233002892029317 -0.78756721982191413 -0.38484560228067188
-0.17495637670361219 -0.15606577885629225 0.69310881167178451
-0.015198905245465966 0.31548012529816472 0.80296425987293496
-0.22818168455266541 0.38294125542780399 0.76880145013502599
-0.081468025595109239 -0.31484684089935 -0.5998662885077497
-0.05943090051929989 0.39447140827128413 0.80864288171648901
-0.52059425597661013 -0.094550614664446031 -0.65401711765353276
-0.3833108891365411 -0.72127320543162998 -0.15683015387441479
-0.75750112099317102 -0.31313243377431865 0.44832617190606427
0.14659372999213183 -0.58127513019751498 0.37997551984631706
-0.82141459509179215 -0.83185604394939894 -0.45555379502801863
-0.35195979607337602 0.19426855028890699 0.77593707860874161
0.035419047603062914 0.30008183295619761 0.76279006670248783
0.28200336075062182 0.72432183519238968 0.10624925588850331
0.8622989513935817 -0.38593034768247048 0.62189787233559635
0.19933170192119221 -0.97748630372863099 -0.17767514499374393
0.1664919172522028 -0.065570261154074494 0.78666750694187471
-0.1819554679947597 0.3613631056302844 0.75608724329228316
-0.1292045053017592 0.90496185857447209 0.17187186802146392
-0.54077872512978953 0.32463346624343536 0.26032621832777636
-0.1175025888222736 0.99698601299807099 -0.23536178896456406
-0.93608079989698734 -0.77664086153980905 -0.44336852383931102
-0.16251112964989556 -0.18452602557730913 0.21577379144632935
-0.57021371047186742 -0.89641229375602371 -0.35607159782633779
0.65641890566462369 -0.60189799908942376 0.66175959774000503
-0.22449582813896818 0.10002921952779031 0.51719924261671224
0.14989919159281406 -0.092933631767571523 0.80371520144737829
-0.28054538477386615 0.97265921397144162 -0.13439534148006516
-0.04152316949014967 0.26755321610229799 0.13778099820228462
-0.50192106322105712 -0.025020591558390759 0.75283315421421015
0.83651563977272936 -0.48026308644939197 0.54286469092913769
-0.77280508249612856 0.26418887178135075 -0.33360849127896763
0.16851338860419407 -0.055907134159229432 0.78542431789537304
0.12692468284757652 0.60242751090273217 0.65474388195018385
-0.047082280019949074 0.15227279905698965 0.51320754241534416
0.79001809425498859 -0.22798295786902378 0.38087891662928897
0.31125964390698879 0.24230558526651835 0.43695486263204408
0.14967385079409645 0.83609777814937458 0.17495044602077137
0.47684166083579616 0.042444206223172687 0.57702384013767372
-0.67937584222651459 -0.2583058362030588 0.68086510712472403
-0.072340979777847814 0.8454585564824959 0.27389466095945636
-0.030821060966827574 0.33577362386417819 0.80840297332342104
0.85412367049325777 -0.41883478800107188 0.61248933498649905
0.087511938070891304 -0.037733758310885102 -0.54200236227063492
0.52524293452202464 -0.41424450997379791 0.35893135546603894
0.11068346300954346 -0.13295775701129386 0.80139234488653166
0.73909695133148379 -0.50407954352277584 0.67433885421058726
0.15722992735621055 -0.066188704452307068 0.75608413678846631
0.48285787811385816 1.1846562300303818 -0.50323357048717732
0.44994529501277292 0.51180282734315719 -0.19720747568220887
-0.89206075396045303 -0.12089172005083659 -0.36463185023488975
0.29425609828014743 0.18718077026959978 0.47703042324067901
-0.19534278926824644 0.32677573954250994 0.73435993420409318
-0.12069758353657978 -0.41782816734543349 -0.52607985817009428
-0.67455193871836183 -0.58944679729283678 -0.23729230482109109
-0.014766957651102253 0.61356601309882297 0.69303651876049344
0.84102331447685419 -0.22803452321807161 0.63936862480187528
0.031295470456475627 0.36276503983375541 0.79901099038607271
-0.82306596052447656 -0.38192276304718886 0.079897455675849827
0.75732394389949675 -0.48716096895441829 0.67061288494005566
0.41209681720057567 0.90937046705601698 -0.38237539653784047
-0.37575874727652092 -0.62492854731754965 0.030403683910328994
-0.47839083002807303 -0.23963518176001619 0.7602302121807849
-0.26814097119479463 -0.039514748401779265 0.73669194277190186
0.045490709564953491 0.32990160452244788 0.78402583960263605
-0.80154667112802391 -0.72157267955264026 -0.41587637547745615
-0.51106360355460989 -0.23920981613597525 0.72764661159051336
-0.0048950126888902545 -0.27471314542950176 0.0076581719759545308
0.74861719966187135 -0.20075831336047223 0.37671876463484111
0.12659213523234225 -0.17324175497343131 0.79260566889423956
0.36397847707672604 -0.46249798519553087 0.67727862604332678
0.021436633499109625 -0.43792538656933322 -0.38029068331328197
0.54205159024369554 0.22076725674179531 0.066228766053599841
-0.20617011178989131 -0.14008250448361093 0.75845526975096789
0.34987231801770236 0.71308857853269303 -0.34810534156343387
-0.39579804890359593 0.19327032221722718 0.64590046245388777
-0.63276308577690532 -0.039447653604013366 -0.54264423978598231
-0.11154302935457228 -0.31350039518831818 0.67027422542523851
0.044609113819768176 -0.28265608051348146 0.52158294556411278
0.34676455821410279 1.1555266875964407 -0.43946915872372294
-0.55716577516228583 -0.038058510646242549 0.73564149661832268
-0.76556022463738715 -0.96302276572653245 -0.39622129883319701
0.079512169390039134 -0.32773459194456711 0.45583488359643809
0.21814268652057223 0.96322457877157275 -0.28122336576226914
0.65011233696089388 -0.44615078866223712 0.68580407508532382
0.78186388977566246 -0.54692364888457679 0.72373015513820604
-0.16026091402548115 -1.1042244645399752 0.45558428810685392
0.29819265701007414 0.32873962137204082 -0.52475385504128269
0.18800956724181273 0.28088919667089574 0.69494485825153873
0.3961033843091899 0.7660632549930656 -0.30977296829433776
0.73763289441797308 -0.43492621861404812 0.66127462469842868
0.47797954555732058 0.51098689986466761 0.43587587460931587
-0.76364912530936024 -0.31053860653963561 0.63162136079601616
0.41184631324438836 1.2432551392653708 -0.46762138072385895
-0.9222238863233021 -0.66742788008971887 -0.4523503273531535
0.28032742575193748 0.66645108680172371 0.3011864922193066
0.62311594574409046 -0.6853150348442143 0.57828812786254602
-0.23988986586601602 -0.61487186345147071 -0.20877960013379315
-0.63772689513259406 -0.6297203060854224 -0.26623583213972601
-0.3795800650052108 0.94483819064407815 -0.18072391514458985
0.46774813962228201 -0.081174188107328904 0.3177534657501262
0.68451575211488525 -0.62028839591470919 0.62289170770053381
0.68100873273581453 -0.45413203193286589 0.68886332617179313
-0.52467775988683929 0.16768301321319212 0.66620746174878143
0.15658294516921512 0.26676718828683521 0.61554809015540357
-0.18562111589807806 -0.25579503138033255 0.72344221014574117
0.1694113103161321 0.81118799875520931 0.49180354337434196
-0.2460365706828318 -0.0653647704300655 0.76767802179194433
0.42582937774730212 -0.55040718792036425 0.65144945254860787
-0.53540911320159967 0.44350463557513575 0.44984081324899527
0.18191343978990382 -0.36534256684135014 0.37671664295258545
-0.21607891345476471 -0.40279437798627171 0.065658027514123418
-0.37197130326237549 -0.63538000517630344 -0.058876355742063069
0.22258174519683926 0.16833987784900994 -0.59774138303635382
-0.60967215157244858 0.37960968197878353 0.38878208220356747
0.37960776715895506 1.0206367163874743 -0.39648314323299338
-0.29527201521593494 -0.066271532894596419 0.76648711273068848
-0.28092280411169934 -0.49249343797258671 -0.35552603673168726
-0.83696184787956573 -0.31139680303978978 -0.37432265737182746
0.17797859983253961 -0.069853455380501472 0.80087612415175258
0.58580095016796641 -1.1011131514621535 -0.067527873000145178
0.19978755867136133 1.009122584327677 -0.27270520820975186
0.092010344532095445 -0.13651068329068639 0.7550533561151358
0.1188112418234164 0.97117824337775727 -0.23165945895115314
0.13441009699626161 -0.1337768011573961 0.8088633263499716
0.40890296063042264 0.67785992248300064 -0.21231423219970225
0.63245779733720742 -0.67836035032444197 0.52555434938695988
-0.018550613432694263 0.95904422035920955 -0.28710746899077932
0.41226832116273204 -0.38228468092522727 -0.70199355928558127
-0.54724292865675705 -0.57170318963028754 -0.4093752523270453
0.37449806988128209 0.80960706703927698 -0.3226788804713383
-0.88638593806365851 0.2134052442902199 0.090120508103529673
0.23556142272599789 0.58386431801578675 -0.41873563238374878
0.29200570504456813 0.080344584761560256 0.60325862066870251
-0.36597063507475713 0.2680608238543245 0.76126940844347324
0.2214110020854978 -0.15914429113547035 0.78342626588762165
-0.14244762344150796 0.49453614714646843 0.74595347003128687
0.17113914446064271 0.80119005983135994 0.28021764443176878
-0.91950393274823661 -0.78269093026257952 -0.44337582498773997
0.46854497736567424 -0.64338914726253016 0.54525799472456526
-0.42890209867422424 -0.32070989079560119 0.69975775130440709
0.68747950094267196 -0.20122707824158692 0.36765660064853911
0.38028376237998884 -0.25073022135185274 0.22740485617118189
-0.52229232438159556 -0.062676991318100672 0.72124703845739191
0.46837804386055826 -0.62960909143592159 0.47299377019803934
-0.43765666875487064 0.028533215012418234 0.7646765458708753
-0.44057025373214742 -0.17220448015422307 0.80078123422036818
-0.57740626155155983 -0.12430478520049726 0.72893051407265297
0.15174867457236996 0.40097922461075886 0.70663625447323852
0.050405452412352503 0.32293392469960436 0.7687924623052691
-0.47898728598099449 -0.51412938063645663 0.45624905456181963
-0.00039468247793106315 0.81833604770509094 -0.47365293569088962
0.86609764043101301 -0.11862039176314942 -0.48508150789027482
-0.71219695030628438 -0.9443942667579277 -0.432471947267695
0.22474867481081073 0.78659357615622638 -0.14530749580424285
-0.45370450145995989 -0.62231995448908028 0.00014376186477171871
0.18727113107427051 -0.037772974747175558 0.79974409952741254
0.23947617067214644 1.0447733102079679 -0.3515417306624613
0.91166583323539285 -0.32629631386171065 0.4642692754837956
-0.37420279535006351 0.20610505122228573 0.73084524072228874
-0.82189422525456823 0.46158381111352842 0.98253222467834256
0.37142657118392997 0.69249559238156622 -0.25593409795741806
-0.57256469843209246 0.74920124062592341 -0.37053707080542964
-0.68951195915442121 0.57295253611708352 -0.41549486489816445
0.050114237490880953 0.64460528838599074 0.664591508210572
-0.52054297164853214 -0.38492462100985803 0.65483629990952075
-0.07200990191997203 0.21070961870502325 0.75521239242002736
-0.12554467481047826 0.60414462665392854 0.72585431488236551
0.37792314726234633 0.64865578023785209 -0.20508302954650404
-0.3552141342544477 0.89076329609443006 -0.38959117527163301
0.79052933699118189 -0.36058064699712489 0.68016057960673137
-0.61364758160430766 -0.1798243784077922 0.69872653430106624
-0.90442202652381454 -0.17643100005845547 -0.30168765407863418
-0.46796971707561763 -0.32976018212922398 0.67511536188157706
0.1721700553618053 0.18021129053080209 -0.57443040561564196
-0.40148774649548447 0.4120862991415053 0.80210067461578127
0.30305320758860788 1.1636138540628371 -0.40303378895449526
0.32497294311236891 -0.60048314315931861 -0.90622826299335912
0.14074244396461033 -0.11971742436788313 0.80873294296256049
0.29938941453094436 -0.29573994828105254 0.72513537806669959
0.35714316752819641 0.20424427669233902 -0.50525954422693253
0.67438601472959991 -0.59328773379679234 0.65892253053780259
0.30021234028348065 0.4743321110993971 -0.34814796236461021
0.39948606701712297 -0.54108483123265683 0.43693316322671549
0.17918895367676413 0.92430197861108954 -0.21176981120742866
-0.33589861985839153 -0.24781809848710923 0.77688337522700834
0.030240688202206378 0.64597006288894931 0.66926176129877213
0.41954802120003443 0.71743947443780243 -0.27072627378292857
-0.96817635247430012 -0.90865717674386959 -0.48918316616111035
0.23552292661001673 0.013740134269882409 0.78992760584278621
-0.020699404450926551 0.28560038181805281 0.40075022305550689
0.70062282987685798 -0.38257200082724463 0.64959549777174175
-0.095611091346780697 0.75362411630864656 -1.6237048845942716
0.42461398256423699 -0.044683751815026262 0.70260845013936901
0.15836998004790548 0.37076172793056816 0.7067013075478954
0.34265588899966115 0.31678878638106156 -0.17883553437687283
-0.7644130916712677 -0.048492662841808754 0.67181041652155749
0.37155288400212871 1.2321801754036636 -0.50379577737799153
-0.3461029248060159 0.54614178554741977 0.79324089949817633
-0.40741145188226913 -0.85589049774392079 -0.27861697309841205
-0.44675522220449171 -0.076430337680564175 0.79676311001990285
0.28261874053677616 0.63321535716650346 -0.37153313506254904
-0.27708556907508797 -0.11492679289242069 0.77930995250700441
0.34119223482452199 0.26261356675633452 -0.186981123570785
0.56032286551709998 -0.33710402166828768 0.72818951823185962
-0.86367903223322662 -0.61163469201446485 -0.37209019472236982
-0.091723552588875989 0.40274542524626633 0.80757638202510584
0.3084164512385037 -0.045842908671912985 0.74551133234172795
0.33684259189254373 -0.50687052474349148 0.46823236981291494
0.16933634984877521 -0.324512123584348 0.64199829799519925
0.75454434366733558 -0.47103224137815214 0.24791534111887081
-0.071363085998166653 -0.52657516882207323 -0.2123409266128089
0.14906582584556638 1.0899102169685599 -0.3513063351824588
-0.46525066580849916 -0.085361787063072514 0.79257215077272569
-0.56739931568628599 0.021878529841751648 0.12987278810269309
-0.86366009455488957 -0.74184389374200643 -0.42380152945462157
-0.14827000007001079 -0.1762736739974653 0.74652822290970633
-0.084209887868542666 0.75023054268720291 0.66633678620868153
-0.828936478605518 -0.31694487441411967 0.099456590649342758
-0.14494283614740411 0.49687584931682283 0.74953530086008868
0.13937002939805865 0.40270901454244501 0.70365324551274
-0.17715539582950068 -0.61665283086811762 0.44552651149301958
0.32468519179439426 0.43291269246146746 0.34291410323121418
-0.30770334674452915 -0.035000125231026136 0.76302202381348749
0.22416829415769879 -0.44053039445532405 -0.21520733390330449
0.2994078210776534 0.64469975040233474 -0.30055290166584037
0.25803479618099878 1.0662424698636839 -0.38062565318865538
0.26516005358543548 -0.088838219541475638 0.78820610732343788
-0.291882491120524 -0.27156326453787782 0.73127685524297448
0.7579055928031373 -0.19466093574673971 0.67219222656174615
0.16594345090350782 0.24360951441037781 0.29089822656472109
-0.38864415666259067 -0.4001639961021306 0.66197836665553389
0.19118639035642104 -0.018363362870405631 0.79757081010041375
0.031644528536904915 -0.39122679093056068 -0.46298539002786931
-0.26564736900017749 0.72134773902575655 0.35772674462463172
-0.28068426983168582 -0.68715630015158791 -0.15333094925514246
-0.21247904499929948 -0.1245361424019511 0.73577268091739789
-0.42080608027986965 -0.26473058349614176 0.76689073517700379
0.2978195094698135 0.25847848840756082 0.57729457384314742
0.80501088601162163 -0.17055458847493565 0.40866632220880739
-0.37860010837123337 0.62207273657378082 0.68402342424139384
0.077141532224180409 0.35955597713206378 0.76787609981061955
-0.44861614372645597 0.53268930535323866 0.75659466744829018
0.23252500211430327 1.2314233799253698 -0.38636093889387801
0.4825029723710319 0.8004132442156896 -0.30401807420921045
0.10283142772551024 -0.098180250578817629 0.78204770186982309
-0.43370314609684524 -0.034086449444075351 0.75566062921758892
0.015029112790531762 0.95254605974651052 -0.19560771372308494
-0.24375741938654905 0.43282561209332338 0.68514638500949232
0.34120970425355068 0.86033287656255641 -0.33044812248949107
0.26451688485367608 -0.039336651583412152 0.79469939982265103
0.64192648701816335 -0.38166607384009432 0.7217237349281227
-0.86949504336983985 -0.3458211625854466 -0.20996553277000807
-0.44651522015241296 -0.71521722430582635 -0.24912406077416271
-0.42284048370406158 -0.22473867695077709 0.79123461020430241
-0.95472718180213079 -0.89301192656955708 -0.4613150052312136
-0.16468657139771992 0.74170419975296453 -0.56570687891673543
-0.52142059543140817 -0.68197220684885984 -0.31141863022813254
0.3467115476655076 1.2451527703719056 -0.41264404912986841
0.40123607192912836 -0.41059572778233555 0.71209700944724297
0.20825468610160947 0.91814978055022634 0.054228157111241515
0.31894434311151532 -0.59183476719091743 0.41465966369115392
-0.52730047672097369 -0.60358208962557525 -0.099605265691600664
0.18486092528711673 0.90230858363082667 -0.20911918867608392
-0.73904456750666192 0.068437272017486173 -0.13945224357557251
-0.37618845685562086 0.27462805403678869 0.70759904427290721
-0.063676449578500716 -0.0021174340911125356 -0.71229245093480564
-0.67368300852964103 -0.98138998508581521 -0.35628906136995653
0.11224130126339116 0.26914489387245544 0.64196930414635389
0.13253129657643559 1.0616872929395993 -0.25503055714207079
0.03229372565964006 0.65942364465286074 0.66477081040201647
-0.18451798650810058 0.29493981591711504 0.77111067822449719
0.40686452762522585 0.66334551857505464 -0.19305306962360547
0.38361257613033395 0.75831361324373969 -0.31085617580268554
-0.80901089142726867 -0.93444289843738804 -0.4667356850470803
0.38707298883015007 -0.0062885352969228592 -0.038702734349833179
0.85765005330575761 -0.44823084866491014 0.53397961816838979
-0.055373191105216435 0.7829101400421572 0.53696960359767232
-0.21150540880499058 0.38594948146092511 -0.62030982302819027
-0.073622909461850128 -0.30024118690684265 -0.013715668590407404
-0.30574341156433071 0.59843447027289742 0.77128018496794581
-0.094765168550281054 0.64464354029386683 0.72089674740855081
0.66488743414605977 -0.61598978628439216 0.47544981359811622
-0.48801450069207863 -0.74498776997213012 -0.30060306582169716
0.12233828502708111 -0.379959315272417 0.27825204831427008
0.15674947418197149 1.1278357021913188 -0.29728253471235
-0.34813541121699654 0.4827157933375692 0.52157406279501117
-0.072133758913369483 0.38915011157154344 0.43768607776463853
0.20040647915782994 -0.37365212222455568 0.26489193593392102
-0.54837333641011554 0.091199358410627873 0.56368999626603511
0.62247390363765209 -0.65695248800208805 0.25366398152463177
0.35266392396319368 1.1516405841927588 -0.44936220373335622
-0.8878635682554239 -0.9764996777226127 -0.51734451898641787
0.33070398828504111 -0.018077686661909675 0.71763216465361523
-0.57125654009438609 -0.3676144510207886 0.64980033912116575
-0.54064434529455818 0.17930887544812935 -0.678263660247719
0.30901930685339174 1.1298117712112785 -0.43220571251745454
0.12482602078080429 -0.17840269574880629 0.76602821966743306
0.26861993244592419 -0.021154203646656766 -0.15047559833623225
-0.4047098171861343 0.35062786859564943 0.68127125660804744
-0.36878775092733118 0.25129796850542574 0.67682414096819343
0.66437909726251476 -0.36997812402408137 0.70670263292809921
-0.8554235245293742 -0.70609278593832636 -0.39348786976550443
-0.06569787986580522 0.85642237783567954 -0.73886175532675935
-0.5788641210471237 -0.34596780580176034 0.6566619874296169
0.25857204081716034 0.37338980233076602 -0.31664576368652497
0.45889886663065926 1.1580923066240203 -0.41921388581837071
0.19240990957248183 -0.18599202500248979 0.76839456627399727
-0.040195674212517574 -0.33684391751206744 0.53125216629284466
-0.4610210252041389 -0.31351452934902202 0.69477538166743358
0.37798252018763456 0.20367718317318384 0.33400096975804061
0.11658639872031618 0.82953825997479758 0.26594964125246534
-0.68341931022215796 0.085143889320457022 0.57658816431256277
-0.029204124097275574 0.44122815936400883 0.79682654628631688
-0.80331038822455314 -1.0117025993029845 0.37825880891166008
-0.77400234368279275 -0.21769990760422786 0.57484364627751638
-0.73634464930326704 -0.21057876301108092 0.68253900838842974
-0.31120976215363783 0.75462834050142646 0.30791143558681178
0.68336131424329327 -0.47405206161024416 0.70910993419006019
0.32931696605089389 -0.3992407627916148 0.5277775116752057
0.56437052645739705 0.8322137056313893 -0.39273175830405904
-0.18598716504678858 0.4292948369737668 0.75725128676525344
-0.63504992129702309 -0.31493287028133055 0.17746194872531262
0.52352118412160031 -0.66089262359662526 0.45970670239653799
0.49110668134262081 0.83953069512407752 -0.35186934389395752
-0.14997032915115582 -0.39523435159019293 -0.55742579779367496
0.64499282584675388 -0.098816980610905825 0.39210056693113593
-0.14088687953865353 0.33423745412774053 -0.24522637521774016
-0.70185436669379353 -0.83492132297418076 -0.39166753685455902
-0.79390221300307973 -0.39116206917880847 0.52539106157473903
-0.17537733881864526 0.41765202312407013 -0.71398376827963617
-0.74234168618682528 -0.68849315778705655 -0.37053084848754025
-0.72067634489103671 0.32874854910006723 0.29873035988026864
-0.77834068694644731 -0.31585705515437557 0.51685005074713075
-0.10892587968757539 0.27432728155259056 0.75472315239457011
0.36990681333312114 -0.24999488742582532 0.18641923526733173
-0.56463379328497831 -0.54333724446652676 0.39964545046081135
0.39209745233349391 -0.030551497922889137 0.70395191775800825
-0.36211148087694145 -0.074570887034502986 0.80645417147370857
0.80529381507615128 -0.40162680746949508 0.42338547027760676
-0.20469472275292322 -0.43301025679372496 -0.52443584020694445
-0.048210365791237386 -0.10639625958851684 0.76301164510606867
0.26816579759104453 -0.71089131428870322 -0.20772630826319904
-0.58719654669407095 -0.59026993460743737 0.0072275257446801078
0.27426702125686298 -0.0938136133526557 0.78255428786679282
-0.33041632623218042 -0.65782158743352914 -0.12603037213862933
0.12991532339091094 0.35101254721373465 0.72106401567332412
0.15367851293597656 0.32160924954414272 0.67661843061554983
-0.3722319066908657 0.32778640110237234 0.47894428661572697
-0.21291377832726166 0.54595263675368089 -0.059062989367312468
0.14359597607770525 0.47986903042833218 0.68619667527772599
-0.4661293137390019 -0.28812265730614617 -0.60820831464367053
-0.3390962236152415 -0.70245973621678215 -0.13005409342817487
0.023221654791227841 -0.070190283473237525 0.75536021275161502
-0.15105494401632225 0.30264383834068909 0.75883282586121403
-0.13765032160688495 0.73026447311128906 0.65537288149180029
0.24112773637204654 1.1873836452678304 -0.44830592418584558
0.060455873771131152 0.44601634951759239 0.77342965928033003
0.33186264094453399 0.37865502951559082 -0.24227798175098414
-0.50129521175076519 -0.2317999129188415 0.74223100749783555
-0.18406694322339234 0.49224234706204584 0.71253670108043465
0.76569837741441926 -0.39925469007023295 0.65545485011056392
-0.40792072697445114 0.13235411146352494 0.79965594819114116
0.76169256180318801 -0.32265733654095952 0.65203777188132861
0.2906639082995115 0.16904610208993165 0.50179181731927081
0.759103671618238 -0.43022194578202577 0.68330888933867762
-0.065385017183035465 -0.49433013411039384 -0.015043270714100387
-0.17809178045554219 0.74256018732823081 0.36305153675629143
0.29659826835756231 -0.1057057049405361 0.75557102032166767
-0.088846114663145848 0.42207778099313931 0.80434965937387304
0.53481958272275154 0.95619532240299288 -0.38892021858052672
0.1043805298783429 -0.36946766341579185 0.32543034064104326
-0.37114724511235497 0.26037277967119299 0.62548933796651873
-0.44821380363690544 -0.362983949249579 -0.32961661564053379
0.47120933873691939 0.39906194974781584 0.034345260975861436
0.12208539701714116 0.98446107623449708 -0.29846491701836442
0.67287218805708626 -0.52937690357337264 0.42253600909606526
0.20230637186025024 -0.13157550602295975 0.80336055844397158
0.1066690111951738 0.72819054769284497 0.63093130693972022
0.28399817354774726 -0.028732713229088436 0.78357441080319035
0.15977664742083153 0.46286891053269708 0.67079900932209569
0.079037722286551926 0.85589376654860838 -0.13924355383844045
0.0045410580584093196 0.3079259842953106 -0.66881835152906177
-0.36367756699213594 -0.6402167767936664 -0.099658188504157863
0.48802936214120685 0.84371513754317995 -0.37691716665080399
0.90005279763292023 -0.33935619117597748 0.59232109907539687
-0.69887515144101187 0.65833474198139319 -0.1065807379258068
0.4597252100107605 -0.52684881954840179 0.40354151802501192
-0.41144222495612359 -0.75382349092738221 -0.17234506245106829
0.27139641427609451 -0.048108298956634599 0.79052716229864828
-0.7170479908365115 -0.095898473862091382 0.52161986870412136
-0.69994502037944306 0.17070479266189875 0.69846233777654909
0.34805881398783445 0.66926264344677344 -0.21774105199975047
-0.18874665064572671 0.41650668943102875 0.75887078163082577
-0.16925027706486517 0.36857839892832578 0.76167293376040313
0.61129335022775599 -0.41678392398799846 0.72679842634453529
-0.63799375181475959 -0.93873348677554391 -0.39428724523681424
-0.07113822428023564 -0.98589280035960591 0.38742721692550575
0.53855901394608985 0.2889666664965197 -0.24424312592927855
-0.10241623060787131 0.66032322130173871 0.72772163889240638
-0.26800810998482039 0.01687911483966098 0.76374546276447397
-0.94615576256370559 -0.69723076772333936 -0.4340658137152964
-0.80104586870807015 -0.67773490594060437 -0.35981903942496452
-0.4398125979209011 -0.25614288278765596 0.76979308266251323
-0.62895122177303353 -0.6607949026660469 -0.31383821275852775
0.091279524753185015 0.5120685710832964 -0.57058484861355296
0.46527956598104936 -0.60529885484390045 0.44418310925092541
-0.4578956290715519 -0.77800184395873684 -0.26481683700094649
-0.3462213321426173 -0.087815028396680761 0.81170228333553496
-0.42300654508544655 -0.74588851661057132 -0.2381690868661277
0.37804859969466964 0.69872314608033115 -0.2713157045754766
0.0051377878016634071 0.61333626763511861 0.68507501397462889
-0.065340005024267178 0.25729072456343083 0.75106676489200375
-0.21879256803517588 0.46939806217091595 0.75353302415573786
-0.46786926289332875 0.057878617878555527 -0.42388150529395219
-0.56898744484040353 -0.31243970540649224 0.66977214516875705
0.40806711728269729 0.063763104187641417 0.51299796242723161
0.10949797281435636 -0.16615098446955434 0.77358193320841018
-0.26645607602441856 -0.57479192192208162 0.11404378480322386
0.021409614654832154 0.6081046197916995 0.67804036099233755
-0.74895753420993261 0.3476709575525545 0.307431444572968
0.10120660853351637 -0.30920911726066302 0.5204269118676379
-0.5792326590426411 -0.59945426328572537 -0.20380728509689661
0.28865746206238452 0.14367992510251271 0.49667372226512185
-0.10250184205545843 0.32259503442270221 0.7842237033021302
-0.22040003425815335 -0.22488704832887541 0.72459007120698793
0.16366194628830577 0.85931527093918592 -0.35179865234770702
0.15862861642514048 0.78048441545008584 0.565803938292742
0.44519600440707929 0.049636654357704035 0.47441528195834515
0.076003013801532404 0.38153398608871436 0.78064706483379176
-0.27681197932749235 -0.55553972761092796 0.1939025647338628
-0.17712967833714011 0.32549814019753387 0.76505232851613947
0.49970838893051184 0.87619910993581585 -0.38002327080496379
0.67610863519114339 -0.33439385195170612 -0.089212009367267697
0.58624754941378843 -0.35396621343301526 0.72764918324003602
-0.65536015845565032 -0.8529907440190212 -0.38380447943243468
0.30136247667084959 0.20990896251099156 0.52935432926476444
-0.82151238322683406 -0.69512099068479838 -0.38108240349181344
-0.16307036035513978 -0.78371589141663867 0.47259837342999766
-0.64279936475953026 -0.92630884258661794 -0.4028246226130392
-0.42582232870837178 -0.78564070823730581 -0.32858959758962669
0.37425321068731421 -0.19522021105510001 0.73370193432474728
-0.62407012311211529 -0.60423668853174339 -0.23567248257688433
-0.05069389451959605 0.51532716681946766 0.74949263482508144
-0.3904979545448839 0.027118957434138613 0.76776670049546425
0.091253716827150555 -0.12325023967559057 0.78374350839897211
0.17475455298373976 -0.51309195020905962 0.052965128642059156
0.2819394059955691 0.65189425534714673 0.35846850200298519
0.059465244059129674 0.82642489308856359 0.41675011553681252
-0.66019066971297313 -0.31990867453778016 0.65392012393553323
-0.11025175005968357 0.34354824420703522 0.79879893864493212
0.54359701443146324 0.85013159817414918 -0.44564985255909662
-0.18873660978972318 0.70627488109625824 0.64159521084184234
-0.25566543852701251 -0.35512484046152926 0.60942908730518042
0.069449830087571662 0.63924601851980123 0.66098701675119109
0.36013191172593118 1.0173040092060113 -0.38512704217238181
-0.7584930774323797 -0.26377246399977805 0.64640135177605096
0.29557537977050874 -0.23019240548873077 0.73441512486780347
-0.61283257884001108 -0.63154852281881602 -0.3910535963762154
-0.78259235726249754 -0.94835065503038773 -0.45356955542853861
-0.22612812868032517 -0.46165639834553418 0.55625330483348989
0.39717805237433979 -0.469038164947154 0.22698756060834668
0.058989162166014353 0.8283842779946633 0.60873225271510201
