# XYZ point cloud file
-0.4969055265876563 -0.71502977722976213 -0.29284835091628914
-0.71617082600431092 -0.44194119434017143 0.26873751091665632
-0.48430528941792006 -0.66141740312203234 -0.26770076919563124
0.16909180886378383 0.67952742372053487 0.6040630564789371
-0.032161095114936478 0.34146503057490074 0.80679442975099747
-0.40357514574048481 -0.74734281320152673 -0.14488186669970204
-0.57301047600348054 -0.26230064497427996 0.67068319091472439
-0.85051471257192657 -0.85806077002857106 -0.48542334702329804
-0.59227515499641448 -0.57822345849782875 -0.099595572273802446
-0.57297144253890187 0.61739865416767037 0.17544662142854683
0.036640247554945993 -0.33511296372778521 0.43303559289474336
-0.7541675076283143 -0.94467301350503807 -0.41443676823221764
-0.32298959794761384 -0.02903821274185181 -0.31329848127632687
-0.31908666177795741 -0.41716728541616099 0.64428116917667388
0.32169554762126706 0.034860481905601981 0.67267821172269215
0.43476577217477352 0.66172298360510062 -0.18100150575819818
0.066739340067703323 -0.26670235086718574 0.56375683702180801
-0.80352946517275137 -0.91850312884141927 -0.46544973740911999
0.43667063550216345 -0.54076881286082967 0.43111972642851981
0.71874502920776662 -0.28897791208008217 0.67614068923641568
0.15650139466036284 -0.02995910312185579 0.77023235526716682
-0.72849751801231966 -0.55420810448723423 -0.24886173150102309
-0.22257427204521041 -0.31316750541291416 0.62246689945838263
0.38105099722458657 0.65010677106815007 -0.20290659469834615
-0.1813842080429694 -0.068643509733211205 0.2914397479314399
0.69995498475530948 -0.54166098009967323 0.45358177454040494
0.28897396733964609 1.2466914367944195 -0.41734308888588423
-0.499614991674178 -0.67181260416925148 -0.29626579471964476
-0.94594232300193415 -0.6749593170472008 -0.45707616584727084
0.13508281578125669 0.47786302975400674 0.68302831597616631
-0.36581989448953278 -0.76890654059876484 -0.26483055960683188
-0.22345190738193133 -0.3613787153002832 0.66665041533012115
0.33032019160921156 -0.16916306013246141 0.34932975916128939
-0.34811089091442671 -0.546680094806129 0.26847302983978771
-0.23638027687809249 -0.097711835835584848 0.76454574649137541
0.1315440717528521 0.70789548804438729 -0.45803204583828361
-0.4034458302915066 -0.21793551628600083 0.79293353509436315
0.21165481434585653 -0.13123378654166196 0.79654626000731277
0.54737026413995116 0.015913526174587078 0.56281528986973939
-0.46354893784267948 -0.75165978650565157 -0.28227589986514623
0.2682719209328539 0.010647622162313963 0.77248533395594166
-0.35586992908682735 0.31010810637072117 0.62563671201233362
0.20230572777785749 0.73956480867398966 0.54026190960504472
0.20448204678075776 0.67285844911759618 0.57883298995263743
-0.13122587927731355 0.39950853053621049 0.7796717166271474
0.07617573423002022 0.82861001060315598 0.58474669838321702
-0.68071691644427035 0.50125335386062875 0.24147637156251456
0.28357900810268344 -0.098325910296351182 0.76749102176823492
0.72908151128198928 -0.46959083157027348 0.69084117039615478
0.29710759813648036 0.51009899405808756 0.012712690827786588
0.60399017906343477 -0.64977791201376833 0.64103257839031613
-0.81526200680279803 -0.1422464425130634 0.17125845788201843
-0.29243858489264041 -0.13151647949259204 0.80271090529030253
0.51194025411688138 -0.24776058965613124 0.33463329782164486
0.084865119711543313 0.42908468930927213 0.7644801853438743
0.65973942708444433 -0.43731899935986163 0.65405620160411715
-0.29593987654585729 -0.13206813095235814 0.80779995872062393
0.42397391400142648 -0.17407605356937994 0.27343120023675915
0.11932448240986615 -0.22657893301327148 0.70866635501344
-0.90366378595679109 -0.10978757837149056 -0.047081358360570036
-0.027401769583227265 -0.31503759299355694 0.50206115471033463
0.10180775437857614 -0.14293865826821461 0.79492696074966496
-0.40115118902594432 -0.12800900845765595 0.31337571768174222
-0.59880277800154103 0.090157467253989765 0.49567169566229374
-0.33952177800289274 -0.07130644107779216 0.80084697495086665
0.28790037901655441 0.71882361335998013 -0.25576727372934194
-0.074115713477021061 0.26505095654019684 0.75039409756607434
-0.56382043502749712 -0.3180273742292945 0.586924454276323
-0.26362765210087158 0.3266135176130831 0.78684614377403506
-0.44753644504371359 -0.74768901100644813 -0.27228743909918762
0.28102237508814687 0.05689234254941522 -0.14208981174335378
0.20750219844656881 -0.6171523854683505 -0.066668923806330938
0.17984767284711434 0.01947932875938263 0.76253706191421067
0.53897072386103018 -0.55203391937382529 0.69525400522663361
0.09098429275085107 0.68059181224195497 0.64474882606535466
0.15198433278492063 0.88261075228568786 -0.029069359073822909
-0.76122319089062629 0.012692584675295659 0.59486258319611274
0.20442129470655845 -0.17176472741858184 0.77300226686849349
-0.56406492348339143 -0.35485753450083668 0.54506658696358201
-0.49361249708483868 0.077933260185641728 0.77173224466547907
-0.61249617955132396 -0.6534506433441547 -0.3069856026479254
-0.064723463278510807 0.20772914773908524 -0.58755151730307986
0.18500817027306959 0.2609999337938812 -0.54254040807285264
-0.64249668739699595 -0.81760008612629065 -0.36402557258373669
0.29525059355109429 0.40027322001405996 0.40428899041199529
-0.11441261609437903 0.13733599369568039 -0.34769099756436361
0.2104506518655771 -0.36376223178324163 0.2990651972902878
-0.62625350112031763 -0.95690670508237707 -0.32243637196725139
-0.45738355094409727 0.050537843860730014 0.76156812622470049
0.0030665519962246313 0.47136943915102991 0.77810729229457642
-0.42933575362147947 -0.0099977311377110745 0.74865104439057717
-0.25951668554207319 -0.076133260494969157 0.7511439585345947
-0.63642178706599251 -0.081422030804281231 -0.31457599907666456
0.29619689604272903 0.59482665018904224 -0.016905724684260548
0.73699282113656905 -0.44330610681100513 0.411051579681601
0.31189397321814449 -0.06855241978505755 0.73389826276235404
-0.62561883336707858 -0.050438794629490413 0.72722190844875456
0.33032575791776164 1.1702510835301339 -0.39754037680130949
0.25048555239017167 -0.054671507871016045 0.79351608871268908
0.43721902955529068 -0.44148040215091822 -0.236396893784379
-0.64782196908721323 -0.014754083495116088 0.51581606299263427
0.8128965408263904 -0.44240183431416202 0.45149927523670819
0.28856993237380157 0.0031133914229073412 0.72617300034516497
-0.21445969696058842 -0.4189036286955905 -0.55904064539130793
0.59772894212240368 -0.20775851546871671 0.7052290078100647
0.18450309772115281 -0.17448390109261003 0.78405434323646617
-0.27689089155262958 -0.3550141059405294 0.68171520570698618
0.38176103183878562 -0.36018505227574793 0.34455574200324435
0.42385592513027182 -0.61526125597836101 0.31436194747045576
-0.090085861262520384 0.54583764682780078 1.1703816419465394
-0.37025859923230664 -0.81730843381867158 -0.20238916083784453
-0.16262697540874638 0.3336965027586114 0.75933364937791836
0.023273673995874655 -1.1067442894945518 -0.67536075126403539
0.46244751657697325 1.0458849408073454 -0.46278219941899401
0.2710534889555789 0.43835300151608181 -0.36953550786947531
-0.61400207510308846 -0.64632175729255736 -0.29652555395843372
-0.7144835304788375 0.62171835554186061 -0.21385304909144942
-0.50069213553685921 -0.66112987129164702 -0.29570496581578176
-0.7867298393238773 -0.93468223221956526 -0.43697880494766927
-0.7922467244264646 -0.43953505453640096 -0.058964394094791928
-0.33557687620835808 -0.49999281427053277 0.45145744398704224
0.06034247175640961 -0.45848972659618037 -0.11047446379729919
0.4395423774850451 -0.43299652910353581 0.71542090654313739
0.38071453837790847 0.79693652154001571 -0.32252868591598371
0.32985409931116694 0.22508325553699726 0.28665807580455649
0.43995867401049638 0.64088794277307448 -0.17351819421056902
-0.43148103149686534 0.028016585540111549 0.76334972951871194
-0.64508578059292787 -0.15809568845447597 0.69928344664070785
0.1904346140636729 -0.36983657453828123 0.62033045933206132
-0.47418738292905649 -0.021479694991868747 0.74807964855746079
-0.58187809245884003 -0.051008223712285972 0.72525614762255231
-0.53445109860406048 -0.082159846818084414 0.73247128622837643
-0.011151955922292012 0.25392984250338824 0.74150866530561643
-0.053831117852955135 1.0049728211856559 -0.21936488268409171
-0.61592772457404021 -0.75511361362807095 -0.33900185824643891
0.27024774403307084 -0.0077553843129336553 0.78470431390387319
0.80124026311511942 -0.20841697732329889 0.37694317778430531
0.28195271818790779 1.2080067151771992 -0.36672092885449281
0.64492807044763834 -0.060355076340099956 0.61355696914125524
-0.40967688564317783 -0.49063095234421361 0.57988809904803595
0.22450261248381587 1.1704063942410987 -0.32384596169938717
0.9243640475359598 -0.27225063256706417 0.45283742996866394
0.076358822305975682 -0.38454473804641809 -0.54357504543898827
-0.88335876342014896 -0.20692682372468973 -0.29068162136090336
0.38367296738929979 0.86436796504330227 -0.35114066915498654
-0.43057443656555427 0.19004115740341065 0.70122617704895696
0.70750003608365941 -0.33351313821313622 0.64858479325780394
0.28200035866037232 0.11669356638890882 0.50008452886495292
0.16984480097512722 0.92888885749186345 -0.19666030810506818
0.23854668961596581 0.92266086796301838 -0.29143401787163015
0.23251991637132186 1.15768220163236 -0.32651275109206601
-0.5714618576014846 -0.6450525083396641 -0.29110922400464645
0.087925389267620613 0.45095564332228588 0.75060615117484808
-0.11191151349456063 0.028210344204180338 0.74271374165534532
-0.70783840377659812 -0.60998115219779137 -0.26878116731680457
-0.31341761185424932 -0.35920628668737598 0.68211850896022952
-0.041180178245273091 0.34581205847030883 -0.16494695391795133
0.3484087257383266 0.74074659747871463 -0.30306154829986909
-0.14425676294125778 0.54106237477580654 0.73868285176495796
-0.38958905123958509 -0.51642700688785559 0.47307842943912704
0.18828255815627148 -0.00085329854821214468 0.78943469603082228
0.47920345383923268 1.0342134033708648 -0.50685466953486014
0.75917478484294887 -0.49502193716948684 0.6584575138966926
0.37845010254023181 1.042576682446223 -0.40358317060024973
0.73179893780591998 -0.30555330029073557 0.63973022888960607
0.43453835419869158 0.048424910827863377 0.57031242434378449
0.3234388571301996 0.72564264970501258 -0.26582271108538258
0.45226570912589836 1.1306406215718894 -0.41342344364250216
-0.45552098174924571 -0.23091855355558 0.77219190662460591
-0.50515437693735499 -0.34364290954102428 0.67408747027395322
0.50864250209998851 -0.40460689474074285 0.72775191105659509
-0.46710767555198984 -0.56966993022635737 -0.42375953427144353
0.10835712231087413 0.53917297811077702 0.66190813615000366
-0.8479570461580348 -0.10955470534836409 -0.41959635570741582
-0.22106190586116148 -0.51402040907326318 0.22429906803463773
0.20723212464895391 0.040756171915236505 0.73846104051544437
-0.46498533194764036 -0.38767174884672784 0.65748548887807345
-0.6248864856485673 -0.98856070386513129 -0.34529298526878449
-0.15029635487802928 0.32335586921043102 0.75316517980271946
-0.63588286951326567 -0.75792668875435809 -0.3476368576996034
-0.31745356744144682 0.24440181589705201 0.79362837381231799
-0.21276080665576091 0.43689248371437595 0.70636375879208302
-0.75023172320398057 -0.5417307678352743 -0.28987245561483732
0.48887604923310102 1.0983173975984077 -0.42046988043824207
0.026521389816899332 -0.26389786230087564 0.59538904940427706
0.17519480009951849 0.0081062002236267361 0.77815765276471183
-0.60553449070581722 0.20080529855993401 0.68578875204408618
0.028962179028299229 0.50294649089574373 0.74535085655554667
-0.64471134292979204 -0.34567392199324254 0.64057282289929773
0.14846295352236516 0.0013899355203994546 0.73919384357071927
0.1533808789227995 -0.066239401971406098 0.76719344046012949
0.44310367164670106 -0.66171380303013094 -0.36160461823782519
-0.54745260036146692 -0.59809013510138964 -0.18927094891788521
-0.061675003952084917 0.19606056118957227 0.67165147899477695
-0.21521233317015864 -0.015389989024312767 0.75513826254892535
0.88630442661462228 -0.26232929933797688 0.58878186216830919
0.12785023589677258 0.32989386314645208 -0.29470137482091019
0.03749382209625185 -0.70512651235281765 0.64099913084106319
-0.57570810852598453 -0.21989657144477803 0.68834167378725475
0.27392440366713422 0.75026191322005298 -0.28593303959264915
0.30311460957470571 -0.11077786336397022 0.73812004258588715
-0.88843465021043277 -0.61504044284984882 -0.40115046449266423
0.13043166864397304 0.39147690806290103 0.71584545079862316
-0.79519932120383041 -0.42711380985807956 -0.1600050733269871
0.39000859384900521 -0.20385413410620656 0.22913213534415533
0.35708732504428164 0.54931030927648594 -0.11090667336464222
0.14362722956820795 -0.10147236610511223 0.80558990524869145
-0.50966669030055223 -0.53405253916114725 0.40976516008218056
0.65147479927871133 -0.43673043034213244 0.70758942085520538
-0.23965439840338498 0.42683365368723991 0.76482127228503316
-0.59706887581333346 -0.58228557181608154 -0.17458420673551522
-0.74935877501082815 -0.32861825271531497 0.63697791537921589
0.078963994464441134 0.79845893539310864 0.62630609797819403
0.32157517409504122 -0.13751424193908313 1.3717843723883654
0.41377765619193663 -0.12229961281686186 0.7199847212160293
-0.77038858532160814 -0.73824309093112972 -0.4129511863097779
0.23016615567270438 -0.37977524229115667 0.65473908176241835
0.31010530656957447 -0.2044317906924632 -0.1588395131102196
0.21641094562527452 1.0370430672645898 -0.39824643756931621
0.40642026074286774 0.031575780221224425 0.39544604844133602
-0.58826332885803168 -0.67615053010441917 -0.31683582423082868
0.63309141629732735 -0.39225953984341744 0.71070685373083897
0.19636638342040946 -0.10437674337687386 0.80451638783694257
0.27866643098236565 -0.38435117499107707 0.64544958717313072
0.1275390473312159 -0.072054625709777387 0.76510909966564355
0.12643554817779212 0.90723241273196931 -0.060594509307611233
-0.24479249336586928 0.44518406778017083 0.66436078575428326
0.025108533823794743 0.053564486859766003 0.74236969096166838
0.49158843083007864 0.90687759356839082 -0.43255142651927159
-0.20912545567995566 0.67147600571416777 0.71321748344269054
0.1681913297742621 0.89290224216819625 -0.17412463458651217
-0.48471985775014892 -0.65006859783189752 -0.26773104572345474
-0.52018157364009587 -0.5052529368913028 0.55344346373035691
0.3354492678708878 0.47202612956242973 -0.27949131341372002
-0.76973517053664731 -0.36369407303408829 0.60431652612754228
0.43759186489451363 -0.033194169458474088 0.32881231979886749
0.27315515005155411 0.71078108212554292 -0.087115698671070163
-0.61932469762693321 -0.023421993550547526 0.73369233234003062
0.79343715522797775 -0.34033663511792844 0.67326357279361382
-0.082116345567463167 0.23090090949949893 0.75942588288948976
-0.23891642516512235 -0.21987946735026975 0.24696940802420997
0.42546720316402653 0.45448084320755977 -0.22721013699595183
-0.11197216851621339 -0.040513188386901655 0.74993841148075013
0.23300298855771384 -0.36098983965757947 0.15210509737948463
-0.22167371813036973 -0.30830840875016829 -0.63019976031129765
0.34477098957113528 0.19401069819816086 -0.11329971762451763
-0.47652310292280076 -0.33441352548970205 0.64813636036646294
0.89476679305539686 -0.37660848479813436 0.52333288778420339
0.43884405726479025 -0.18529610637991401 -0.3567707413522907
-0.3681962754656295 0.03746059440227667 -0.72575328135157768
0.25315202526939729 1.0426305380011189 -0.35657787667294194
0.24013081040885487 1.071369271212171 -0.33523706076997506
0.36292119123716482 -0.46894782852077976 0.21934630363346841
-0.60322340255202422 -0.161896646034831 0.64678107829075593
0.47365560452680322 -0.13190045250552185 0.31754518950416255
0.22217741894644338 0.98436023899402159 -0.28655099397221662
0.50316110017837135 0.49807910286858403 -0.58317633041990646
0.27789550903519178 0.7323849638840203 -0.27742725651748401
-0.68148569592614661 -0.70498221722540655 -0.35482672183359298
0.037710017583023614 0.94936046093775395 0.013074142766638985
0.25909624602063053 0.20121190562160685 0.62233116945689737
0.3066601678078722 -0.20645316157753379 0.73534647447528911
-0.37860928742939576 0.23004476983927269 0.62405425855030572
0.31593408618768026 0.90178469936743877 -0.3346460257026127
0.8113127422036972 -0.27930175770389276 0.6545659069463774
-0.17000101777664722 -0.25633335944226054 0.72093511919263875
0.68399990539671096 -0.62194095539512384 0.6112563466304568
-0.31641911971574799 0.52068895200475307 0.60087713282458566
0.33419701520525691 0.70233135842336547 -0.24686295224074861
-0.24722196975724386 -1.1225587517980891 -0.19219274196735192
-0.53806884575923664 -0.87454607795575767 -0.29752070651039375
0.15765624987743365 -0.045462985586406823 0.76437212641706154
0.10890015637050121 0.56463433984914735 0.66313428137292085
0.048586451213401549 0.82996418655229154 0.33883521789047855
-0.053680414490161366 -0.13862069489467732 0.762460279490071
0.33102502981199899 -0.79753820026200772 1.095450664489249
0.14412220729230474 -0.066152153525439017 0.75787646426761235
-0.32444123701721495 0.19268561642178694 0.78973511911349981
-0.19743632035198222 0.28725489795745962 0.69829396446643344
0.25329814312021792 -0.12983784852377345 0.77757391795493724
0.66615418778412572 -0.46123483173525348 0.71375654525753163
0.26247393229172911 0.15256132447070736 -0.43146301112049912
0.36807036044862285 -0.7904707879013273 -0.39351594021366942
-0.0089883848836830316 0.45565137746894946 -0.63932463747335966
-0.57896869973968756 -0.72988548368045414 -0.3222799798250211
0.46569197761296532 1.0652646942303785 -0.42580480367128359
-0.30839891292939248 0.39100289049986325 -0.66696614117854836
0.30766432597683391 0.5483262821995285 0.30810446793285884
0.34850522782635074 0.39662566366442986 0.22521924660595438
0.50949427001825165 0.9894459172636052 -0.40721598795691882
0.50220998936682126 0.98660021441995349 -0.41059600502885019
-0.3986357133392846 0.19520550127527336 0.73001531309595258
0.66751464400988114 -0.44400450748413034 0.66050847076556529
-0.034707970215410944 0.50256119516134823 0.76326885456779614
0.52173090981551162 -0.30816813381883312 0.72775008519369777
-0.69162260937526843 0.27709711359036771 0.4030118783453176
-0.64474483330345467 -0.65130424575948487 -0.40522417000543065
0.45547443686132971 0.76792309020633898 -0.29112757008001111
-0.36440432665295097 0.45106076433190267 0.80857335803444741
0.26318064144538122 0.21538063497757975 0.32705289346713329
-0.71691812079364925 -0.14260824506779191 0.46816049893448941
1.1021089375901176 0.11555851120929561 0.58245874668975439
-0.88080005336849565 -0.7538757821566181 -0.53329852544839618
0.22484910480651554 -0.063902297081075421 0.79989291927127759
-0.41176658047861259 -0.42323623301630253 -0.54576126329600605
0.16993368643261608 -0.34835442116241588 0.61739057762267002
-0.5246470962888401 -0.71281033465595456 -0.30611902425678394
0.27110852708886535 0.74637177041874625 -0.27677540476308593
-0.79085309694295058 -0.73618893966638344 -0.43040232677952162
-0.74372402715492347 0.54411835580395929 0.58995096623522159
0.81119118306674975 -0.47100366643729608 0.62060103237272379
0.49175891922657522 0.98063572610694716 -0.45783420861963542
0.18018434388306814 -0.37825301629427388 0.4750463320692635
-0.40238076802144029 -0.046746301302322602 0.78068946136880335
-0.25878313983778833 -0.18775418059767235 0.74624079608064875
-0.56691004973116754 -0.64383045654806792 0.3783346783518251
-0.31281135880626232 -0.72869616872125442 -0.14206204485658702
-0.90759357203128221 0.43447424009644076 1.2560715462443426
-0.13389740978568887 -0.50818151879964069 0.080253699842000259
0.023475069274549676 0.77686758356191232 0.65829356636383096
0.21903271080700382 -0.079270627689010942 -0.48368352823604788
-0.68664642855029656 -0.49719426619870455 0.45023626350878132
0.88963417902429187 -0.29150633382071955 0.014591578565818608
-0.39838788044113327 -0.37607542702531394 0.61160727187137631
-0.96090283303174573 -0.72904879628788111 -0.52508415350433779
-0.14122529564615083 0.37599599225361335 0.77230258266749807
0.62836685966164985 -0.16141426273584103 0.56614577115909093
0.62924139013246028 -0.41811670503206622 0.70283783478675943
0.18191379279937714 -0.33398511958041532 0.64946555549561502
-0.068578393707914298 0.62599729242321844 0.61336196179009761
-0.68245431474328488 -0.28241815926081504 0.66647508288085611
-0.1838697724908035 -0.42707219769919402 0.48805163925448625
-0.86040302628290544 -0.29269361152060425 0.026545620998820851
0.35292065929280936 1.0952707572162659 -0.42261277184635659
-0.27588333827649469 0.88270561638304224 -0.44417011597357892
0.026963271254785037 0.49533158223081486 0.75781295280291161
-0.19333569138398299 0.42248832927156577 0.76462191202997509
0.51358680418827829 0.72685855997291604 -0.28584326630191015
0.42104080223244122 0.73213742897495782 -0.28213383340509424
-0.15289711357030877 0.26405067510981506 0.76698203194571413
0.89152436486976638 -0.7586669372218271 -0.22844241964948431
0.79475032445936677 -0.26288771621882456 0.6589580635711183
0.92139072581165848 -0.23209013642786647 0.5050143129651552
0.082038151010703331 -0.38378111364851697 0.26951057505421439
0.16487708789777589 -0.067349952087287335 0.26172128971352748
-0.68236006191748799 -0.31245873633279486 0.65521295941677593
0.25912070894318784 -0.53803418382520984 -0.45029603817635255
0.26087290546986464 0.76088977867548246 -0.25054442573929236
0.19200897906921877 0.421299131984606 0.66759179733374019
-0.41683225455558826 -0.35668629835577081 0.68400810222508923
0.14235286130706704 0.90657005066606988 -0.31752430624952055
-0.45975630626595154 -0.23689488725981889 0.76604421020706148
0.030848956711556963 -0.72585966759285458 -0.74090947127025331
-0.23506638620577469 -0.13502782012382997 0.76379850646610592
-0.76518381809329328 -0.08915084795603434 0.60115255480245366
-0.011219549048102406 -0.2994859659867577 0.51715383544141069
0.029398382884780139 0.32366598877756458 0.79409652910588768
-0.40535853117219456 -0.66790818173850397 -0.17649600298702062
0.045574484778146962 0.28537238451506974 0.74688370621991496
-0.56379427410585559 -0.29412140485213012 0.66857297486173017
-0.63486877578088297 -0.20122361480030082 0.68286799269877996
0.36259052170330985 0.91577884375536867 -0.35973021133263572
-0.89340806303400311 -0.86089921665040747 -0.44575686142319171
0.46870805024671114 0.28936646713398617 0.21286470286995751
0.91126409622788263 -0.27207476607614556 0.4279343676852605
-0.78331254304529674 -0.97518830681796143 -0.39562320692779451
0.37435942825303781 0.68597851857402548 -0.27323680319075372
0.10611712676129836 -0.2591969948262367 0.65171143038725354
0.13186184687748903 -0.15707792859030723 0.804751663171281
-0.43140899470579674 0.2148776990238177 0.59498485735542062
0.14449207874768744 0.93429505504409405 -0.3157054779696491
0.64021827797568132 -0.24491318307712273 0.032054183947689552
-0.22379750492826311 0.3201573670336777 0.77283978030244782
-0.39972654958724874 -0.29343983957009634 0.7247681088995872
-0.27654079567819134 0.67738857700652688 -0.039384426968513964
0.77156642337312897 -0.35866282624188561 0.64663845117591201
-0.67497500629501983 -0.95269126363565326 -0.35860076246210326
-0.96934842207047001 -0.60015626320174409 0.096739339003402591
0.86957732135194732 -0.38682034811627264 0.59330425267176423
-0.52769459702150967 -0.66707131829007238 -0.30554521226925502
-0.86535332176001267 0.042890659927826258 0.0091793276152678516
-0.048672598768729425 0.31304473268732336 0.79941935465917346
-0.0010701080169155386 1.1340910448209627 0.28625804164418689
-0.6266503905280536 0.43242470278124645 0.2154553155774579
0.57282864919769438 -0.66947210264763601 0.62070043232034067
-0.64904791718442678 -0.034695445318469798 0.73523375281428471
-0.52347012897820067 -0.59799961230199128 -0.12398591965465222
0.45499391370419029 -0.14205159357333597 0.71765316647245214
-0.4312347745294714 -0.62171792803919823 -0.087552192386217698
-0.74273895375519672 -0.5384289275904881 -0.31735225579731186
-0.69395299470948779 -0.47401169543512189 -0.37364890380897897
-0.32703107624052941 -0.43684984099113666 -0.28081480590680741
-0.36283489686865578 0.033322893608585646 0.76712717082901172
-0.48256873515344512 -0.18748605937536778 0.77766472600087155
-0.62762764680308791 -0.79277157638817042 -0.35098253656906131
-0.21768015935135576 -0.43387961024869048 -0.84184017796841282
-0.66235484014664936 -0.45100936083506959 0.57996732735947809
-0.078393751192827543 0.13601385250406905 -0.27546762112525158
-0.48593667599410939 -0.62530362063846989 -0.22138830566067114
0.27800021685053977 0.72341794470806753 -0.25294466188864106
0.65823537357065875 0.11978509463709908 0.016329696904337609
-0.47680261529308399 -0.40350432157953064 0.64720543599689151
0.035432633530602109 0.89557094191712805 0.17894454221444178
0.20047331954125247 0.4754093213034396 0.59092841657733075
-0.52188167178357614 -0.052017858873999678 0.73903408969826323
-0.36818573647644715 0.51369499611934 -0.68391806701733238
0.75077158169901215 -0.5299116167892397 0.4755782163815212
0.34321342474885252 0.19076093170223096 -0.02629971985065005
0.61336612082699515 -0.56654963565366101 0.4392992110851015
-0.77219629076686847 -0.40071625026695212 0.45649139102111036
0.2110682851033705 0.83832852144150682 -0.20080562008321046
-0.33439826593191679 0.2473193367402442 0.7789642365432794
-0.06959313123361266 0.7828569629968829 0.37962498537035216
-0.43272255167361173 -0.73742804266009931 -0.2466378859271412
0.014043303896182469 -0.18630097040904436 -0.14015102695055326
1.394861363218572 -0.11982574759773534 0.626197374344172
0.58575738404556854 -0.32616292707892991 0.67817914462722406
-0.56059677197979485 -0.066286551138296623 0.7321327362264185
-0.5279508668456957 0.047417271560497909 -0.016726551749716378
-0.10003034945879596 -0.51480491971081754 -0.17319888307604181
0.30512710918935171 -0.13599271295223603 0.73467381582971036
-0.30167704449991462 -0.10781964902218211 1.2801019129201308
0.079832864776920642 0.46927818443509794 0.74246111162225148
0.47119506992900462 0.62080856880867907 -0.28905034976300747
-0.37852250793653885 0.58033173982700204 0.63138578015822056
-0.54125228563695493 -0.0099124419557510279 0.73822775986403677
-0.65120992401926192 0.14214013166052886 -0.39146106843831774
0.14502860155932895 0.42053997353471573 0.69163745830132584
0.061469612806132723 0.31162957524909252 0.75420714790358012
0.18748629560699936 0.48765502146605133 0.6541559106603767
0.46651923096318115 1.0558098874617339 -0.44415755564031656
0.12688212613295757 -0.16353638491670708 0.79945268900144661
-0.70921729215530727 -0.13790232486136045 0.43306081882439962
-0.38745242183113626 -0.21257150992807006 0.79750160784100288
-0.72660213385354666 -0.97191787224687831 -0.37291283835887867
0.65000010937921471 -0.14523565275326389 0.36725550769352289
0.23996526983377864 -0.045761209933839142 0.79722814541372955
-0.21477199730270213 0.20197408125219507 0.77804794980837144
0.72717036870146434 -0.41457234419219424 0.64121068940890602
0.32394851262031499 0.77547381964723461 -0.30968590051260136
0.36958346079068494 0.55014638412226247 -0.29905167608745842
-0.19324621792707108 1.3761935602237581 0.86353794815403617
-0.56706041868463508 -0.19147752053447742 0.69729146587696533
-0.68068622585427196 -0.49271352811506963 0.41973045703371881
-0.62948987343424001 -0.56158790706757844 -0.39122996618057826
-0.61270432267308794 0.057993157029147424 -0.2672827052856519
0.032069497724802609 -0.37509471429934016 0.69272996961291788
-0.36201269717565515 0.40853611021329761 0.63008055621073034
-0.61464237055359949 -0.6793326132163614 -0.59436312690523074
0.54964551471477252 1.0014405275139857 -0.43600604689385669
-0.67618266842097507 -0.94624147432761574 -0.37887073310295527
0.31175437467129385 0.70418419573036695 -0.24033285015505257
0.57855903697564837 -0.3788705368804357 -0.39200326931871388
0.64870113938262608 -0.43004054785269807 0.65830210775044229
0.80387891787669741 -0.30158166479877391 0.66560250246604902
0.55873867094783458 -0.48120789422601828 0.71845372684495779
-0.70735913848788212 -0.78548679878562644 -0.38128595939003596
0.74221113578617404 -0.42880963667845995 0.66711659737026707
0.36051209295871267 0.93688270544651386 -0.36535132977529372
-0.69436430065667931 -0.21388392194520378 -0.45951376486108053
-0.57142165284006063 -0.63931349843558305 -0.27936896027121705
0.26816969045539096 -0.45401482398313331 0.062431068393474121
0.30488389328676924 -0.028247748970904096 0.73271313784484171
-0.21025588038729925 0.5263856843407968 0.64979917348496308
-0.16358123638684863 -0.14493923325284341 0.67269701971070361
0.58396101748079632 -0.64763000877041899 0.64471823063218459
0.28790555883322355 0.74180719737426015 -0.29376601128649149
0.19377183055604186 1.0673380556130725 -0.27021358463399991
0.25303830547458395 0.74446524432278705 -0.19648640873885448
-0.62486538648783563 -0.96722679164185821 -0.32402138863676733
0.27507586890975633 0.28037747333396346 0.12627123778725746
-0.020099582628838153 0.77607093564124385 0.82653115744598971
-0.06987759203542443 1.0075759817106669 -0.10427197188677262
0.5318927185127722 0.83566864994013201 -0.34904220573045919
0.5257523327812712 0.98727836155993809 -0.50032265145657639
-0.19333127241741688 -0.13043719822454158 0.75401246841178171
-0.27158715700646463 0.47543594256260802 0.77564964538404446
0.44693546740645496 1.0736617078519235 -0.46274080914856164
0.77910082335291686 -0.39513538531923209 0.67153052451728534
0.20387550871134763 0.052463545721789184 -0.61928178371168485
-0.086797850708835833 0.50291489802860467 0.74684485497932762
0.037557844055586598 0.26866970737504481 0.74740023822016255
-0.13072371383741166 0.0228070545656609 0.025021438010206509
0.33424205484513703 -0.12815021599911991 0.72979198398798673
-0.72727349605004155 -0.83996000890806866 -0.48729554116120255
0.8416264366926669 0.44833054698783692 -0.15352956805322826
-0.93582975917215627 -0.82222994491155876 -0.55586752177679877
-0.54722346112550568 -0.1327033657947021 0.71903732011708854
-0.601840036925961 -0.71480092518451543 -0.3278522315203638
-0.27859813938761402 -0.24076454431591521 0.73831564455166721
-0.70296576962929058 -0.50997116999811976 0.052840834717503782
0.56942304208624384 -0.44593487711191959 0.72482173260689464
0.32717489879228556 0.070609670377214995 0.67643981122502872
-0.76975917966503504 -0.24751388899219595 0.61922947183073518
-0.71854832696853821 -0.37315808073793577 0.6257744257574771
0.015784555545659162 -0.30261747354735946 0.49311171434447587
0.69105982275685718 -0.44577066059193471 0.67215943796008482
-0.49492708357286919 -0.07154862944197049 0.75172437777694512
-0.32911205110325048 -0.2154552723770351 0.79766218666278554
0.37063905074310322 -0.023410995964997738 0.46391619053689226
0.48339903691279695 0.94541935101025931 -0.44529486790664663
0.2064872124949928 -0.093947487722613632 0.59861611962264938
-0.36181668503041242 0.48475636950136836 0.61971283898966867
0.35374455114410841 0.78989661329108452 -0.31816375496437566
-0.10326648536308491 0.76037994191515623 0.39674602730972452
-0.40186013261904585 0.90188548918738842 -0.093625996118721133
-0.17591897979552862 0.36337564254370047 0.76039499193039006
0.36614865546311726 1.1423487900576728 -0.49553484493581124
0.78372886022113963 -0.3837896052986145 0.67030539068509754
-0.62901585028534934 -0.36118718423864449 0.6372023323636693
-0.18037164005682749 1.0122144520654748 -0.24531295775766537
-0.55091352470297827 -0.28484380580548985 0.66330669407508758
-0.25164286914825273 -0.17645930877871563 0.76125154854960186
0.47948909299547915 -0.639518168134521 0.52261995783484849
0.34047126042524534 0.59301927299161905 -0.33316502222967692
-0.29461840688007657 -0.35773177153210822 0.3799798295234833
-0.79105396672166095 -0.98640394403846476 -0.40239775428437063
-0.013541010774762108 -0.48627003487123832 -0.19110117225016587
0.26960228053889423 0.74296965447925989 -0.26507782990779738
-0.096481085484797058 0.20015162935242437 0.21332325013693243
-0.27855769878883496 0.018220949920254803 0.69801443250830175
0.33686259120712081 0.75766557183695449 -0.30760863018981688
-0.29201488771297257 -0.46735189544690914 0.58049309813468852
0.59768779566140129 -0.018730271750736938 0.59048916698004206
0.86432804138329566 -0.41624039549305669 0.48920645928436457
0.7434006038804668 -0.29291996264398268 0.66890170501517332
-0.08452822657213499 -0.50783816602936216 -0.089324177318351516
-0.1241538452615899 0.26954783230373591 0.76724156825000556
0.30922682161389137 0.084591364003798963 0.5291595937573188
0.75307329559561209 -0.37323698309311215 0.63264845058828278
-0.18713628475851873 -0.27803084492994179 0.63597878625622073
0.34731388976601973 0.32260374883742593 -0.34413482602246681
-0.66488225423259784 -0.55617923280509451 -0.18329597336582815
0.3512119558966782 0.57789642211381609 -0.12208172965009112
-0.43660476576947582 0.012400520493685896 0.72230744919812828
0.012222635518294833 0.46318794944744801 0.77921528670906959
-0.34198484925174 0.60708725716746148 0.62412208375845424
0.017609975126333333 0.49353718622137976 -0.17481804401509748
0.27477834670867107 0.96242007116587347 -0.33527470275899418
0.33109366117642747 0.046329798506830722 0.64525099435161337
-0.30377424391700403 -0.69380706462553987 -0.12210090708845733
0.35981022610755331 0.51461411381153277 -0.10594989987437131
-0.21780716194130956 0.32200355655819113 0.69719052972195783
-0.77931229993048401 -0.22134905037438157 0.21339185424645457
0.2385884673275962 -0.072717461086180712 0.79588767773222102
-0.3153275188296597 -0.22848363992034759 0.77209459361463395
0.56745219125075264 -0.16595289819978953 0.70154164718088019
0.44835473993139074 0.77934991450842217 -0.32853656929208519
-0.31481783983761125 0.51785350867047963 0.79616105061680997
-0.78279625634034566 0.044456704579848072 0.27647955373797117
0.52203858732144437 -0.67244891901012793 0.56017401656994004
0.19208147791848895 -0.2102732881272058 0.73538537329673836
0.77272297103572352 -0.32064442562624396 0.30051613472739191
-0.51624009078908428 0.90907665739987142 -0.58671853275672348
0.4392774782653277 0.74625691332619848 -0.27669416779037448
0.31950702328046265 1.0940972584710715 -0.41331613386453547
0.3551371796480618 0.53846054845888491 -0.063373384928182119
-0.37224747058683577 0.28001939442600232 0.60941958721512357
-0.030471806995409079 0.16414343252566566 0.74331420940878878
0.46211444268073754 0.45542580446222347 -0.61003718740005475
0.023037991965684901 0.81481790359435391 0.48091260279752923
-0.52997290328421742 -0.79108274591251215 -0.38159035198076907
-0.17753305075557246 -0.14627818831792849 0.69451405945815381
-0.0086798608055667081 0.31410175558937814 0.8000128754693776
-0.21455223157511005 0.38823755952342021 0.76860286765978714
-0.092145063528657201 -0.33451912678786822 -0.60378328316023477
-0.049088570994186509 0.39257367670600773 0.8064046477692326
-0.51475260380427734 -0.089458904299881903 -0.65954156922621543
-0.39194600031068916 -0.72295713874424017 -0.14686942250905233
-0.75583795301429846 -0.29271976277715228 0.45050138055114886
0.13925042111133401 -0.57397158064803633 0.39484644865906127
-0.82097617428569003 -0.8198465417349543 -0.45762240032095391
-0.34255512794183873 0.20395491675481736 0.77511485401325686
0.039386182642918266 0.29888053701809136 0.75940310372370945
0.27682786421170635 0.72204704031179134 0.10074086056034304
0.85982446044577254 -0.38261141251366659 0.61004386735331728
0.19073038014051746 -0.99824879010666101 -0.15416152818718487
0.16327772438024168 -0.062466755552541331 0.7847036453934173
-0.17060130307015176 0.36597606495663304 0.75550936331774921
-0.10672961641956125 0.91750577841439096 0.17807416884120286
-0.52557668664653623 0.35259830330864173 0.26485649666626188
-0.095225930027638239 1.0154778358373404 -0.22388079897415025
-0.93174903229469797 -0.75578271813494868 -0.44630892590225635
-0.16923881404174623 -0.17325510212227124 0.22319168627293884
-0.576690380635974 -0.89908410408071437 -0.35106696517482838
0.65966050583582692 -0.58889568803891112 0.66860112267613481
-0.2232188782009612 0.11356201349644701 0.51947306510653846
0.14699560156600433 -0.089341437082138819 0.80210629762794383
-0.24961057832425992 0.99923479782763325 -0.12246734780497803
-0.044607926691738298 0.28063433455203968 0.14166765401081705
-0.49738031369864422 -0.012351655241518156 0.75123170395125349
0.83575613501726576 -0.47375898919354564 0.53790361577973833
-0.75088324676051199 0.3002934988585011 -0.33113307292469152
0.16530944507311118 -0.053017405676796692 0.78330203677149512
0.13437673897915814 0.59308051081345114 0.64941002101101475
-0.048645816526948105 0.16186638504780992 0.5144467227283922
0.77993959237874644 -0.22810345396004417 0.36950047192106261
0.30192880267679256 0.24299484901084778 0.43143555263480593
0.15430299946515991 0.83529686912120349 0.17310323584697862
0.4666732361858652 0.040957338891848272 0.56856563680663541
-0.67879445053627718 -0.24349391183088342 0.6793504946421649
-0.054187999882713278 0.85313653955768309 0.27749338398375478
-0.023182027214088352 0.33424133135456335 0.80563746545852233
0.85251915859841287 -0.41423717644875513 0.60277254350195442
0.077032666855477605 -0.051222928645414223 -0.54364162451777176
0.51767702456858222 -0.40863042661857651 0.36594871805579743
0.1077936092052707 -0.12802436639902814 0.80074897317116722
0.74036985071411676 -0.49482732384293415 0.67354268025908581
0.15353505769362474 -0.062333952488686784 0.75469107516750888
0.48472473598642019 1.1670792508209211 -0.49872584029544065
0.43633267500934703 0.50778044233858033 -0.20404717958691343
-0.87706685123518291 -0.089884737023226746 -0.36627703451053328
0.28548185625989242 0.18865355930922845 0.47246531539902747
-0.18528298637873153 0.33296980393055309 0.73394499490961707
-0.13193739721391756 -0.43542510124686057 -0.52709986380023288
-0.67575630368705486 -0.57726440204913265 -0.23365831103731871
-0.00017442392377253757 0.60892538999202284 0.69152563845730697
0.83413690076217795 -0.22999919643980427 0.62168064179677174
0.037904178211158213 0.35885401583646681 0.79527790292822154
-0.81902770140314729 -0.35669518329299121 0.084394305109185552
0.75815593971463313 -0.47871164403575173 0.66830217152093674
0.40707501738735608 0.90238285388681505 -0.38254833861560655
-0.38370830555994473 -0.62036050689759592 0.041033245439869859
-0.4793813083738005 -0.22851187554682162 0.75852137323708568
-0.26710483941884788 -0.029607590503214043 0.73642284069471131
0.050450991578515181 0.32690904720734926 0.78019240273761525
-0.80038759638144352 -0.70828516192389246 -0.41729354100920979
-0.5118326688524879 -0.22713719989958281 0.72631790789206008
-0.01557451173219393 -0.27129006096187835 0.016832912418401236
0.73784190778673997 -0.20072068936984344 0.36673045141634475
0.12330337532098978 -0.1676003524763412 0.79263278477137078
0.36110529998241447 -0.45196489884445024 0.68438322086617731
0.0080465696965092981 -0.45353220483355849 -0.37569577110326513
0.52556463848912527 0.21763906422701762 0.056463503850789465
-0.20751561979249677 -0.13107792587438438 0.75852498443773619
0.34269928697118024 0.71096394707140531 -0.348601647291364
-0.386802123263221 0.20779111076682155 0.64663028312270221
-0.62281557859152636 -0.023168375500748351 -0.54543785047836657
-0.11641729124548039 -0.30366220524959564 0.67397979796655783
0.037509704642865183 -0.27338136515449274 0.52787785010923294
0.35265670184783393 1.1463596694839888 -0.43280105339261254
-0.55233501206347424 -0.024248257305667931 0.73404141145065616
-0.76803126563204027 -0.9558311111789688 -0.39393444532012545
0.071506144602367705 -0.31890946096911521 0.46387912545475629
0.22171676708022248 0.96440238686498359 -0.27683003428208863
0.64921513328515368 -0.4377128608157721 0.68590133603469816
0.7857558422454487 -0.53668620340767248 0.72200957440819735
-0.16030135847936 -1.0981196474752757 0.47728100912173588
0.28823938349673672 0.32006381773172532 -0.52646091323046207
0.18634546353684756 0.27767800309612078 0.68914833691159316
0.38803986582487027 0.76180707785074042 -0.31222104378901427
0.7365975948852217 -0.42792234653451655 0.65775959261806172
0.46621156227671312 0.49818795259846804 0.41912273115010557
-0.76298897916210584 -0.29392789355260707 0.63072171847295344
0.41882603801207674 1.2271808003516231 -0.46104124463668406
-0.91663561473149624 -0.64632348566861353 -0.45636018316522886
0.27598417586141033 0.66093277838560138 0.2932792254168497
0.62704217303101561 -0.67113170463081562 0.59106058912200865
-0.25020428954956364 -0.62024924287865502 -0.19933940762071423
-0.64025881166338117 -0.62077720776945244 -0.26253064299628726
-0.34501422876642385 0.97742128262477035 -0.16820394438321173
0.45531480258581869 -0.078594291588877985 0.31624607971160579
0.68800063526531474 -0.60736064770693621 0.6302408760565914
0.68060291060417977 -0.44578919454800103 0.68808239331309373
-0.51377048899630307 0.18421011806656784 0.66645568766595886
0.15390166395865679 0.26725449664345979 0.61151584392845137
-0.18908348308757061 -0.24614330592547473 0.72506786367106102
0.17867873780564425 0.79857341713042307 0.48635046486153399
-0.24550080155871246 -0.056349225370072586 0.76708165261140948
0.42477050980091846 -0.53822563228695408 0.66126745713603974
-0.51425524282920021 0.46823374318498745 0.45378272006851361
0.17292284285093351 -0.35791414244068243 0.38641864200102383
-0.22461199644494878 -0.39645057437912024 0.075480781923021212
-0.38015256349647214 -0.63296429218911876 -0.048649894217662748
0.21256899385797179 0.15460070118346009 -0.60057183151860905
-0.58944842929869878 0.40764925055185275 0.39273591552041154
0.37887718480717902 1.0130088095756016 -0.39391269657353867
-0.29422029440062358 -0.056633321058690012 0.76569712266860712
-0.28976296028833609 -0.49848814693824428 -0.35140037703764193
-0.82796289046991234 -0.28759907536008145 -0.37625315968075768
0.17491434460719546 -0.067124073362489378 0.79863101593933195
0.59029466660746488 -1.1149265735860627 -0.040463054147071631
0.20582453951208879 1.0102337556600336 -0.26750826481065104
0.08841912615553682 -0.1305468109749508 0.75529859608990613
0.12729701763575763 0.97694677730476487 -0.22538948561343553
0.1315145755014987 -0.12924101255317111 0.80794882449026417
0.39834773541995649 0.67415823443443323 -0.21737699422973122
0.63536111338387191 -0.66544711796107303 0.53848377880758669
-0.0035353776665160153 0.97285334320282613 -0.27696584381423861
0.39477771581807397 -0.42622328062412129 -0.71834904586419768
-0.55085919155303453 -0.56968572080520297 -0.40909002176236697
0.3680849481105406 0.80579596478589144 -0.32377575963006677
-0.86447821363118238 0.25266041103528281 0.093885802376359351
0.2302495523782393 0.58476800237581261 -0.41622621863036358
0.28468545780051491 0.081635101981757385 0.59907475026113666
-0.35374680349517507 0.27825462902705045 0.76099377890150244
0.21755894709406243 -0.15470952199182353 0.78252209750970003
-0.12713488223343039 0.49599633855646763 0.74575675072218139
0.17513501887386052 0.79711275764055767 0.27632250111307854
-0.9157283781970964 -0.76304880746700032 -0.4461603236165459
0.46836267797616737 -0.63086334560129664 0.55968869623747963
-0.43191223997468342 -0.30940788532035057 0.69992686116478531
0.6765854635147488 -0.20019989419511663 0.3609568526107747
0.368642685981595 -0.24727015680601916 0.23328409663953309
-0.51864266269115467 -0.049103368801609371 0.72000712589746385
0.46660659403616056 -0.61887256356138121 0.48784896594477623
-0.43233491273657854 0.040161998881219851 0.76329264176717615
-0.44028356551281256 -0.16196819076400715 0.79854157105536316
-0.57475371927954289 -0.11067356104462034 0.72716829407521288
0.15372899809296281 0.39512591664220498 0.70070803915563395
0.054710244710013622 0.32050056428065155 0.7650103929283727
-0.4844852704570819 -0.50232907889437106 0.46145833351713605
0.0094226314037101355 0.83090993679178715 -0.46292285843363246
0.85028507721642121 -0.14682289917074809 -0.51696599534501431
-0.7158177452934924 -0.94120238179910798 -0.43125534323814563
0.22255795670319989 0.7892444588441887 -0.1448356768574115
-0.46047601626690976 -0.61593974666091311 0.0095947831319254107
0.18426384290667741 -0.035908135694787457 0.79687985282813223
0.24533134853627891 1.0437934368095187 -0.3453111676970444
0.90548805180786163 -0.32593211605970751 0.44813961850839057
-0.36441919115331778 0.21764736024040987 0.7306138797652082
-0.79659315444215184 0.46979218311166537 0.98292059666833786
0.36251495611601059 0.69009218274291317 -0.25882731104487711
-0.53907879054355989 0.78917005757171754 -0.36036199715853989
-0.65872302617279677 0.61333504342207168 -0.40898301162208561
0.062618281476959581 0.63710365973864214 0.66167450278983964
-0.52393802888970309 -0.37278014943988746 0.65521976983503194
-0.068003518611618352 0.21446332133800849 0.75356513934831071
-0.1062724882981253 0.60345536984981507 0.7264332988552713
0.36785819196584746 0.64648728126133626 -0.20911781918350059
-0.32550809263028457 0.92246529949956124 -0.37628117432654129
0.78790390603810945 -0.35704944200911459 0.67046998246500422
-0.61197985606985816 -0.1654678644037324 0.69726323770002807
-0.89090429000980675 -0.14516767244866191 -0.30234853294798114
-0.47089368931124304 -0.31785949573141936 0.67541779147879843
0.16322231323984049 0.16945266114546542 -0.57582732788925739
-0.3818721358049243 0.42095079415817782 0.8027342166225182
0.31104305980854074 1.1562985340622778 -0.39593437850954594
0.30522278485338794 -0.66634325922801851 -0.93550353366327954
0.13786747700312108 -0.11554190891480132 0.80754923795826983
0.29497292901268124 -0.28845766527056704 0.72737728666736778
0.34442665870336109 0.19150630177184891 -0.50969608160767876
0.67752253423502484 -0.58068960920936075 0.66484256253214014
0.29077586147448398 0.47306627374796761 -0.34872020879277876
0.3944103307412401 -0.53231307454190069 0.44979598848039082
0.18305171779150831 0.92752538601390899 -0.20796604927177675
-0.33793528488036662 -0.23801598083509168 0.77617021799871999
0.043764280697108582 0.6392006909846546 0.66689128542066811
0.40963127437121183 0.71278025720094118 -0.27506853935855524
-0.96444210972172462 -0.887679178793645 -0.49285710602525867
0.2320799973751051 0.013650829385929431 0.78556888199252306
-0.021687970018787306 0.29570821005175651 0.40197249405689561
0.69773938050475337 -0.3767007707458625 0.64572738477972536
-0.060247208747510328 0.74040263555649954 -1.6044506991094689
0.41756715236037101 -0.045014132835401233 0.69623621941066816
0.15946583913415613 0.36557374082109662 0.70078159944445595
0.32979987054318793 0.31602361559786418 -0.18126253575858264
-0.7569985618034627 -0.029875264071472785 0.67066379897607575
0.38039271084992676 1.219765498031234 -0.49471913598352835
-0.32124802088706461 0.55251018419465403 0.79538509175317351
-0.41653468246014586 -0.86354045302461002 -0.26963476107375328
-0.44410718719067221 -0.065784582348940468 0.7946077646167673
0.27634202681439279 0.6334587824701905 -0.37028120694097311
-0.27712683102297198 -0.10568405774701284 0.77853158992411053
0.32796981887762766 0.26127924162423399 -0.18905747219377744
0.55716331097126481 -0.33120833543416461 0.72632250817697575
-0.85939372752226184 -0.59189280551929291 -0.37333556093510545
-0.080216032060688391 0.40182823183003258 0.80583034765643369
0.30320976873775995 -0.044778521611020139 0.74145672532781681
0.33109545629938419 -0.49785861482162286 0.48011697934129849
0.16363474443428139 -0.31569607467040783 0.64720240862617473
0.74871523496607861 -0.4692100213881627 0.24864102279239475
-0.083395586812582523 -0.5345450047751874 -0.20254436805517173
0.16129006925243006 1.0930763913385126 -0.34197874806207196
-0.462666144129181 -0.074431683097700763 0.79036594857924491
-0.56107042923766648 0.04675320451832965 0.13450691684186999
-0.86100437194111223 -0.72504401878706459 -0.4258269181532075
-0.15074114084667167 -0.16745252645316455 0.74732801867130938
-0.060566704463665189 0.74639224521991432 0.66793828613782225
-0.82359840210561464 -0.29030851182856798 0.1036291690260871
-0.12936963041623784 0.49824894081701521 0.74937251780781544
0.14169446972793209 0.39737399976482601 0.69806798081625132
