# XYZ point cloud file
-0.62877663960127617 -0.79073753001191416 -0.34933619368924163
-0.22111106345281328 -0.43891521360770092 -0.84215225083517531
-0.66239132507959253 -0.44516922389405256 0.58030422782369584
-0.081852096628713067 0.13685909166730403 -0.27436480311658684
-0.48813962406525624 -0.62377573909765349 -0.21859541381178005
0.27529758145420757 0.72208422307692977 -0.25331546867275279
0.65255478578501802 0.11834715770605497 0.013525139516270102
-0.47751796597504392 -0.39845776531028654 0.64780159814696781
0.038664751817281129 0.89506391213201275 0.17808139738902184
0.19857299757463753 0.47217429395215782 0.58887391992141325
-0.52014760389083037 -0.046952685003700756 0.73887831752372968
-0.36349680999716361 0.51860172721644249 -0.68287354963836222
0.74956828798496145 -0.52681675697633601 0.47634393470126035
0.33751028378167081 0.18995095333026368 -0.027070095339048805
0.61178865325227938 -0.56331901543934371 0.44155956526227769
-0.77175876995911086 -0.39396861798824379 0.45671696231934433
0.2097974535106758 0.8372896923748836 -0.20100704869345343
-0.33036006364076265 0.25045021516581145 0.77875713049782824
-0.064686129289409644 0.78335008879880297 0.37876528468326853
-0.43545529676811001 -0.73703247128692029 -0.24312479913917429
0.0090073909297603283 -0.18648855317850577 -0.13786557890234441
1.394194184548047 -0.12502911649960147 0.61651676931293409
0.58417994966256814 -0.32440586561177281 0.67719657822129875
-0.55870081909145819 -0.06096430639191408 0.73197611363432813
-0.52824333899395493 0.053256840245657466 -0.016085254608288579
-0.10468908746601013 -0.51565826917894042 -0.1690745084162959
0.30254525030909829 -0.13505107685905327 0.73345713595350759
-0.29375939208285184 -0.10510676151244036 1.2799111079454475
0.081529191504466025 0.4665127084771068 0.74119929129887652
0.46713360791356784 0.6182177153167977 -0.29030635761778179
-0.36846997614407107 0.58452125662291743 0.63161629159514376
-0.53891809963035886 -0.0047262261872385025 0.73807669825382938
-0.6478430381717466 0.14909109853709435 -0.39145544901998619
0.14440931459163031 0.4177612479981736 0.689895822527264
0.06138696798704979 0.31040705142102487 0.75281564325578998
0.18671218587867666 0.48393431633549433 0.65226404214213218
0.4666849477786984 1.0509157413450976 -0.44249476584929681
0.12524026648606962 -0.16151190242835822 0.79872224423287719
-0.70825138612139882 -0.13089101512870549 0.43322057646202516
-0.38715156122915007 -0.20809650290076176 0.79739268994084433
-0.72723964165440291 -0.96905469650482612 -0.37200853403738954
0.64572593400066336 -0.14522380325010598 0.36557173108420038
0.23785577514177225 -0.045474485082678928 0.7957226871241474
-0.21287437177015756 0.20414114518130377 0.77751146762244971
0.72636172845256308 -0.4122836963735288 0.64031219289750751
0.3215940996733968 0.77360368056069351 -0.30983398575717835
0.36556586682617476 0.54846744930331903 -0.29986622152738285
-0.13025620742606669 1.3740907992646649 0.87474426241922121
-0.56633329049007131 -0.18605695067061023 0.69723190529242274
-0.68114552873752943 -0.48687598531783105 0.4205985485936381
-0.62995574771596052 -0.55892008139273908 -0.39027967810557662
-0.61109342048920179 0.064241145855263193 -0.26690594886363961
0.030305573205746561 -0.37137474365217327 0.69356495438815458
-0.356791703713075 0.41258484671863749 0.62984369226921544
-0.61533622831203894 -0.67844994762636257 -0.59454909272861656
0.5486221887438506 0.99586163938914685 -0.43487543669814066
-0.67725932412323808 -0.94413201473760111 -0.37752284862687091
0.30865488805245089 0.702535361682327 -0.24090061563624943
0.57110710848722979 -0.38167823600288298 -0.39235701132639456
0.64793478032528651 -0.42735520899127372 0.65795941594198126
0.80260676681631138 -0.30093898289224041 0.66307665091574641
0.55867208914925115 -0.47764028208218778 0.71874329236668633
-0.70766371296821617 -0.78236306464070826 -0.38055826060227993
0.74175266221325564 -0.42640704113713024 0.6661406228131197
0.3596696622376343 0.93399470270390061 -0.36470612078626807
-0.69239128391158422 -0.20901222261412222 -0.45966256079674039
-0.57284789944372805 -0.63714121146737157 -0.27731665300645858
0.26323380902894 -0.4538540813940205 0.066093757037526402
0.3019682093188184 -0.028365968457787716 0.73101940304968771
-0.20461668430020774 0.52812102398362493 0.64940101771733616
-0.16552065606403488 -0.14161330483427648 0.67271193832309528
0.58471385121675956 -0.6426746661756797 0.64698682658490902
0.28544732633898229 0.74039453766234131 -0.29395797322194817
0.19638690968093186 1.0659254270191205 -0.26936989807093958
0.25047677270941404 0.74321113493877222 -0.19698191977562729
-0.62639241587623751 -0.96573676148606413 -0.32173665845856192
0.26954899813642486 0.27978860985923681 0.12509323429331154
-0.0055954935031661268 0.77150976022628215 0.8279447938387765
-0.063740842574985024 1.0105913564695534 -0.10428486582265961
0.52911999719919667 0.83142891616214354 -0.34945796009707664
0.52505999556797756 0.98244178218414979 -0.49886074556391691
-0.19432130798889091 -0.12704885692462486 0.75381208475958239
-0.2636393491777258 0.47724769465449635 0.77580992226640788
0.44758026663870998 1.0690044775114365 -0.46082884078042596
0.77851286487279736 -0.39325415069024355 0.66996822927573785
0.1993712499788709 0.04929163113224333 -0.61905161851288248
-0.081905837612433086 0.50226013102128508 0.74632318330731628
0.037157536738106178 0.26810064360355024 0.74607531087625212
-0.13485392804741503 0.024879893108033402 0.026124610445902974
0.33157428578839143 -0.12743290420380904 0.72844234242709405
-0.72748547906669581 -0.83714162183530672 -0.48745605924159463
0.83651898825028326 0.44477318322953718 -0.15826123105040679
-0.93340680616839 -0.81572980604508061 -0.55877505427616114
-0.54610732226750169 -0.12742906507082696 0.71892051548350544
-0.60307932579515455 -0.71274607737438211 -0.32605049572356748
-0.27950157674036058 -0.23662927745979445 0.73846126926608058
-0.70344960570721349 -0.50450823135978373 0.054246373667190539
0.56913735421782785 -0.44277541612877425 0.72471499859477717
0.32358221194627257 0.069551625772335868 0.67439358209534639
-0.76814661820017838 -0.24075541852390092 0.61897086314968064
-0.71787071464991481 -0.36693841968280516 0.62567768893552511
0.012304865463081072 -0.29980232077600699 0.49440354414766041
0.69064031023907446 -0.44302100509948028 0.67165038332139027
-0.49348174599055938 -0.06667323395284197 0.75155981645679937
-0.32913957327456922 -0.21120253208520112 0.79758026600297249
0.365860489255869 -0.023369876117440125 0.46270663533731593
0.48223404541283255 0.94122873488776471 -0.44438741676686178
0.20277743956101157 -0.092706908194394089 0.5979428514084475
-0.35499229308201841 0.4888302865665437 0.61958251974274781
0.3513599346768751 0.78767207047942533 -0.31832200504531016
-0.098023101346172092 0.76144374010610694 0.39593997292150718
-0.39094627055453479 0.91124645659383363 -0.093957573733748134
-0.17228795268402197 0.36454525135085603 0.75988453505939368
0.36877444874071219 1.1386553439157199 -0.49298290337223527
0.78305659080616075 -0.38206003269698269 0.66861226928386053
-0.6288753771496447 -0.35545809168518749 0.63734178197331914
-0.17222334490590407 1.0180777491475448 -0.2449826743878738
-0.55094742505725547 -0.27948609543290792 0.66345918528635117
-0.25235802497729809 -0.17263665476183476 0.76117791047015082
0.47884327980157604 -0.63528839626114531 0.52587355333521124
0.33693585974438678 0.59147925233025567 -0.33367390380997364
-0.29757882866985508 -0.35407941139328969 0.38180371567759153
-0.79110423646863981 -0.98257595862948355 -0.40239386184320836
-0.018619798021667133 -0.48759339715854533 -0.1870271921033293
0.26715705957165004 0.74169595796527332 -0.26533603052787136
-0.10021295073058067 0.20257373032627757 0.21321339370915382
-0.27885478961902743 0.021744412877960473 0.69770586676179747
0.33428240322577352 0.75571895539771949 -0.30785644887335906
-0.29373441567512515 -0.46299313537042774 0.58202738962086187
0.59370964411957239 -0.020245600167525413 0.58767637508076653
0.86283374486854303 -0.41421731953186691 0.48772373889742937
0.74191383465113325 -0.29214426207914196 0.66673371956737526
-0.089110634054505033 -0.50809286596419434 -0.08514407352914688
-0.12255599452470656 0.27056964967531183 0.76647363356202192
0.30461879769813505 0.084068595505427224 0.52746908098124479
0.75196037635256086 -0.37148602104693929 0.63122627959787536
-0.18925814615518988 -0.27423912938213846 0.63660910525233128
0.34258994925999875 0.32107899738253387 -0.34475411989232363
-0.66542014116478132 -0.55207465476584816 -0.18181205747617746
0.34677876609286873 0.5760870151499633 -0.12336982835427257
-0.43524627404924954 0.016942333213777694 0.72212749951138022
0.015434751857083429 0.46113804463706121 0.77833667889466795
-0.33200024307690423 0.61078586908604837 0.62429820288306104
0.014923793927958062 0.49495686815977535 -0.17481428030582435
0.27485332843372945 0.9604790277727373 -0.33455523248847996
0.32726706904497294 0.045606168898505661 0.64334090274652844
-0.3071861751451026 -0.6935632982385791 -0.11767335260643108
0.35502056391602532 0.51293858523241054 -0.10732409269370713
-0.21535718991289166 0.324186176813688 0.69661067938619681
-0.77838389324075385 -0.2137627297119109 0.21373810421249573
0.23650815866061348 -0.072146215925686707 0.79448439922855663
-0.31571324983157867 -0.22423843602447446 0.77210632814915847
0.56491665377819988 -0.16599234408828989 0.69943091798881696
0.44544799983379091 0.77624734886752955 -0.32901338361484456
-0.30442956969128909 0.5199488965848289 0.79674864141534307
-0.77972140466308026 0.053242469797093239 0.2764036412234212
0.52207573839717059 -0.66772668283607184 0.56344474151565471
0.18986307190595275 -0.20813209040535319 0.73489376066171097
0.76927307462606742 -0.31951859981484998 0.29940124785002986
-0.50274058317179859 0.9213019355885621 -0.58639761039673388
0.43596606030220053 0.74327440255179067 -0.27748691825911465
0.32142202578676227 1.0910884246423367 -0.41156905873090466
0.35035806181021245 0.53664472017682652 -0.064867995568846482
-0.36954816868611085 0.28433582177013172 0.60908103390529611
-0.031237487497219441 0.16498900095408997 0.7422639983564725
0.45857263332744158 0.45289786592112635 -0.61080993384602067
0.028809440177630652 0.81252651617161153 0.48017724160589736
-0.53206792899482558 -0.79056195135468066 -0.3792837634363444
-0.17921254631964978 -0.14288171406790684 0.6944858855426812
-0.0072457307143639627 0.31336641935456733 0.79897452216887288
-0.20972505970283106 0.38970405888528803 0.76829072691780453
-0.096510838322223735 -0.3381101089267835 -0.6021662443505118
-0.045809392201504595 0.39169601985548308 0.80567255355198242
-0.51323498437128068 -0.087473458782289182 -0.65953547744555863
-0.39483816122674154 -0.72226296893891595 -0.14287147056568195
-0.75520771249982577 -0.28581070010979737 0.45068786159419005
0.13659521667095831 -0.57103369600551024 0.39858170468222376
-0.82006563319163828 -0.81519699052999783 -0.4584964509433842
-0.33917722899763225 0.20728048046528058 0.77486747431036385
0.039462291555184326 0.29798002006328805 0.75809495858405818
0.27358224160297107 0.71929121917836625 0.099102449454266051
0.85893371106086158 -0.38104672641013582 0.6079404592788773
0.18522811505846382 -1.0009137554434031 -0.14501428944772243
0.16124257674979703 -0.061494484359907897 0.78353149522628485
-0.16708427590410135 0.36710248636646381 0.75497276200177055
-0.099915525922949389 0.91974974883647964 0.17749078978589949
-0.52242159133709776 0.35996298071316457 0.26458902142706364
-0.088787524474583268 1.019523767403415 -0.22351852701785369
-0.92930360587640148 -0.74889977980529565 -0.44820861528688383
-0.1733238955167824 -0.17063226457357339 0.22474387796284034
-0.57856475304082355 -0.89815340982623959 -0.34866807883956241
0.6603095207250631 -0.58453692987174788 0.66973117063218712
-0.22496313117581912 0.11687952669222978 0.5191383617598575
0.14521834263745503 -0.088069828271136075 0.80104204693177294
-0.23962619814291619 1.0061003361922758 -0.12255230243761694
-0.048446118103057101 0.28260293606734876 0.1413905374406248
-0.49536749880714082 -0.007491843105775331 0.75106338915339421
0.83489730016654384 -0.47112413614563553 0.53713281045214334
-0.74470909479947833 0.31025334052357945 -0.33162930498841803
0.16324736443239252 -0.052138673450940365 0.78209437183685715
0.13588872901794058 0.58911702428862545 0.64797305879630329
-0.051593307188281923 0.163637529067723 0.51366192811314626
0.77644751544414947 -0.22764055686788739 0.36738610821868001
0.29688978853594883 0.24167530630547596 0.4294254970241429
0.15423592482935411 0.83304856409792305 0.17184866480788585
0.46224419479930345 0.039676079463167202 0.56623707408633273
-0.67759320886304897 -0.23745302102435084 0.67916382512210127
-0.049133315019779689 0.85382258027988622 0.27667940975745431
-0.021197845722662922 0.33348393659302022 0.80469396727206899
0.85178040996015658 -0.41227832338379755 0.60105122206404715
0.072617923312113919 -0.053869411095044173 -0.54257914112851324
0.51440511746748996 -0.40673833973856544 0.36738767846645182
0.10614558698392407 -0.12620064120824126 0.79992930740545987
0.74048539743990194 -0.49166398905795528 0.67318853705263582
0.15120975927065183 -0.061237706888076948 0.7536065239712304
0.48668595381016855 1.1611189207459385 -0.49588563924593387
0.4315844051920551 0.50573120362918045 -0.20553292179175742
-0.87239679989219132 -0.081109724225134405 -0.36725627688918649
0.28062442139840865 0.18770469059735784 0.47060967170286006
-0.18250874666827377 0.33454285701172193 0.73335251897469256
-0.13646380720769979 -0.43860825254737612 -0.52476650409850478
-0.67612579144562757 -0.57329155282152522 -0.23235154719401052
0.0046415232530170325 0.6066480727098893 0.6908191521556386
0.83216682662544827 -0.23023793474195728 0.61848908765935384
0.039348047038392675 0.35722479850671895 0.79412001842040603
-0.818083188326864 -0.34924735350595526 0.084836953333256915
0.75814519578900608 -0.47578409376690767 0.66769094995065004
0.4056384844262152 0.89917499582498084 -0.38207187082050353
-0.38648938714515624 -0.61826295727681391 0.04466695175731239
-0.4789511147778982 -0.22359154084748512 0.7584512685078586
-0.26739248822026829 -0.026122848457460712 0.73612724440194199
0.051073180203072277 0.32550983805738243 0.77890561825928906
-0.79937367271546833 -0.70355873855235873 -0.41773620107155374
-0.51145757980468609 -0.22203498464786353 0.72628988498778391
-0.020472336119755519 -0.27058862930328953 0.019480262729691944
0.73407462415597302 -0.2004282153307661 0.36477663659450421
0.12160471999806327 -0.16551943368991973 0.7919448690521218
0.36006925327004158 -0.4483401658462689 0.68528523289037047
0.0025955362213632149 -0.45639120041867542 -0.37233901577454986
0.5197176171482818 0.21603664017482016 0.054300382545740433
-0.20838431065099927 -0.12762101946265059 0.75832855603973215
0.33994048274103816 0.70917399307972318 -0.34881655954608171
-0.38453988672962125 0.21210833756776948 0.64634360968151761
-0.620161479716556 -0.018550991202689993 -0.54553609795279812
-0.11840159430195818 -0.29995211382892073 0.67458059240062163
0.034099933004146266 -0.27062754974787295 0.52882949277324975
0.35523868521217594 1.142518801261776 -0.43062617917697743
-0.55008507105988413 -0.018977160429187734 0.73389024046794837
-0.76821060899217342 -0.952278583817185 -0.39365404509391411
0.067868841649833644 -0.31630658981956417 0.46535943335353913
0.2221802319417443 0.96301306255647701 -0.27634442497541478
0.64873231610965454 -0.43492178801623882 0.68549907596161752
0.78673601859654552 -0.53314158501027631 0.72154786185356024
-0.15824376667889184 -1.0931308735588376 0.48440556374689248
0.28437428656679131 0.31815302836806625 -0.5265588277137585
0.1840324377873922 0.27579733794859895 0.68722103049180738
0.38522775888384209 0.75933784987155395 -0.31261224369835361
0.73604460795757487 -0.42551163140946824 0.65685275533355636
0.46127183505058611 0.49287943070116813 0.41596393192122072
-0.76163724585111137 -0.28732876875733937 0.63045076758613483
0.42247590754236142 1.2215767854847244 -0.45808291030234294
-0.91389892432460917 -0.63952352492112374 -0.4581485783113699
0.27278718797029899 0.65732121286098821 0.29117310645677819
0.6275661978669802 -0.66627531997814249 0.59369797459987161
-0.25409079512077071 -0.62071639941496537 -0.19517711229958223
-0.64101308520941203 -0.61756083551023599 -0.2609682196981673
-0.33356713240748226 0.98635492014842496 -0.16833050656140536
0.45021774209879817 -0.078532535359836397 0.31547339227287807
0.6885159394035596 -0.60299060287538797 0.63161256001064103
0.68028450761727488 -0.44299952295316541 0.68756407538618625
-0.5099601277973429 0.18957463634190796 0.66635925028846366
0.15091268197924834 0.26625289958333176 0.60973967506789073
-0.19048565911521342 -0.24233452729272908 0.72527498084204289
0.18119641853425994 0.79332862951840721 0.48508713100931722
-0.24575390275184317 -0.052970083233280896 0.76676309844334156
0.42437803044538536 -0.53402019221613028 0.66287652830393107
-0.50739743204276522 0.47520168331235246 0.4535925257967115
0.16903270956775934 -0.35575258916507224 0.38840116669358338
-0.22848227957746081 -0.39459326068974243 0.078501738715530678
-0.38305451881053409 -0.63145673823656001 -0.044912389488541038
0.20850433553962322 0.15199459944027094 -0.60035944085614901
-0.58320106851681208 0.4156260422204141 0.39253359393887699
0.37892919653585999 1.0095013078927404 -0.39274491192725947
-0.2941436185341797 -0.052969935264312928 0.765428107939222
-0.29329762723827812 -0.49926494489582529 -0.34846314175110749
-0.82507671271926264 -0.28073326033404067 -0.37689079773828027
0.17300427246758238 -0.066214867781271058 0.79741348734387429
0.58412131708631865 -1.114869198568873 -0.030764260168855806
0.20719164218988073 1.0088578769861691 -0.26689580680092639
0.08634347004543419 -0.12855497138965966 0.75464368415167904
0.12904974766962285 0.97683632258101971 -0.22504140340044998
0.12989068071720289 -0.1275427195408303 0.80705626994342161
0.39454004779127017 0.6717554377561531 -0.21842837452748753
0.63536617160399367 -0.66093153062529542 0.54128841178277121
0.0001686444166422163 0.97525439094241628 -0.27639954903073516
0.38622477910768932 -0.43256589962986358 -0.71944266079590058
-0.55213551338298794 -0.56822229477801711 -0.40766091065909649
0.36576722377098214 0.80336226621963036 -0.32389899774981146
-0.85769207645490564 0.26404607381802525 0.093392142678350609
0.22764225554429207 0.58404044733659122 -0.41601622690936679
0.28057824246668617 0.081085871082072547 0.59732205835243768
-0.34918759001196831 0.28160640663477654 0.76084022214935842
0.21557496750578586 -0.15320036248105806 0.78154959538352564
-0.12176487969182381 0.4959701859271568 0.74535396197980397
0.17489820986525206 0.79397539906435566 0.27481772045199371
-0.91350396900432029 -0.75648307887225208 -0.44790126509865402
0.46795068940542239 -0.62645978831503046 0.56267696370469444
-0.43245233993751864 -0.30456802328955579 0.70021619915747735
0.67261034001128306 -0.19982151286434816 0.35951655324424081
0.36374976345423782 -0.24651046059064541 0.23444498511869227
-0.51709769097341374 -0.044000231995232841 0.71987167589047907
0.46547988143190089 -0.61501641580562361 0.49110390304337592
-0.43026962113769951 0.044509859525345918 0.76308719968622363
-0.43941433318997136 -0.15737477797069355 0.79835737862065237
-0.57316126884782626 -0.10526106846960603 0.72701175049996891
0.15285887278409505 0.39241116366044615 0.69892350139263471
0.05496495805591195 0.31920955555907571 0.76366950961971547
-0.4859854054515238 -0.49762717553524727 0.46303816306701862
0.01129937606064102 0.83311199781602308 -0.46172560060364098
0.84292401427485608 -0.14767948320414548 -0.52383544561497786
-0.71652944088579029 -0.93864532666099865 -0.4307170309936339
0.22052206252552731 0.78803561629857843 -0.14538981752486002
-0.46283423545142943 -0.61339573124426638 0.012798432201581278
0.18228916238855175 -0.0353457512322366 0.79553413344777191
0.24698340140359143 1.0419758912933954 -0.34418520189939983
0.9033376692362296 -0.32479605330403905 0.44546130840554987
-0.36120323019685996 0.22136622989124621 0.73036243643991661
-0.7770794855606864 0.47471429293797707 0.98554334943845845
0.35912540599264564 0.68804247740725333 -0.25953680927335832
-0.52859156402338181 0.80048744684406525 -0.36050925565312042
-0.64925341959601424 0.62481492969883878 -0.40935448023505572
0.066432018101216794 0.63380333114006326 0.66071657578463849
-0.52435151770029176 -0.36754861021511309 0.65560115490142579
-0.067851175012074716 0.21530377026532466 0.75260012499350637
-0.098894434346138205 0.60266185601302547 0.72627189295085692
0.36399463978707847 0.6444535106039051 -0.21011631998533531
-0.31657535593953967 0.93094390703989094 -0.37584078764422202
0.78703850361804684 -0.35566197292094315 0.66851082458728239
-0.61072158336724391 -0.15978526456056574 0.69713287820297332
-0.88673370351008929 -0.13632888040922997 -0.30319500927580023
-0.47141326342878398 -0.31286318608148633 0.67573931798732545
0.15944147760756999 0.16726961427619713 -0.57536007819131463
-0.37293639417978053 0.42404708783197465 0.80316652574333602
0.3141959402212986 1.1529280850851451 -0.39395251062299863
0.29416360310307788 -0.67617323128209872 -0.93820067088873671
0.13620420464573457 -0.11399703135518102 0.80659117650389334
0.29307283814165008 -0.28603803078999324 0.72707977222276021
0.33965117722363392 0.18912501709663165 -0.51017785472299337
0.67811058988538797 -0.57646199829076239 0.66580570471122069
0.28691645729956017 0.47191840542845775 -0.34906116980078572
0.39221609788854506 -0.52923595086691488 0.4525602265796298
0.18325953441524789 0.92658944642936669 -0.20787367389606715
-0.33818458979855315 -0.23365811936557068 0.77618073472871174
0.048058102233210276 0.63615770287537066 0.66603484220969555
0.40623136674233873 0.71024045867849828 -0.27584889313475003
-0.96209138256376603 -0.88051146419520698 -0.49554402797140717
0.22982697905269101 0.013431957663044836 0.78392165998309338
-0.024799248930703843 0.29710964758117342 0.40097257847302892
0.69659251330023642 -0.37474636222890656 0.64465903901355937
-0.048657859695573791 0.7400761957267139 -1.5989227130186663
0.41428358887574135 -0.045561461664339498 0.69422177118627815
0.15823042538096543 0.36307563012721644 0.69895475291463782
0.32464314031536556 0.31492192925591644 -0.18203512831120783
-0.75322217685867554 -0.022969267493212264 0.6704589082305521
0.38442717513331015 1.2152246996197411 -0.49166560358196421
-0.30965848691340758 0.55460856085745758 0.79615977826132145
-0.41953219764550953 -0.86394099294214199 -0.26552624402367364
-0.44259230233093705 -0.061322770380813241 0.79439114351524864
0.27354468097671947 0.63238947002085388 -0.37032874932141446
-0.27727931494273772 -0.10198829829771716 0.77829991439252133
0.32269143206671946 0.26018978156494543 -0.18968027984138836
0.55593814623733728 -0.32930641186114684 0.72532160951977076
-0.85740764863514429 -0.58568118360122545 -0.37408556808609106
-0.076349496504187986 0.40129010222788453 0.80523115181184046
0.30041356572761013 -0.044745935581633756 0.73981748390743007
0.32876030848357485 -0.49477609683172863 0.48255550957398796
0.16116421336456499 -0.31278901875216047 0.64772575239319075
0.74547673697981087 -0.46737008961866611 0.24930418516833264
-0.08818593272461539 -0.53578605495906118 -0.19830170031949734
0.16500553559616704 1.0925509130148456 -0.34069555113466343
-0.46111512406828004 -0.069843520895004563 0.79015730365514436
-0.561083684671702 0.053182289980031161 0.13493608496770015
-0.85932827056691474 -0.71933439257132648 -0.42688660033831205
-0.1520658166940787 -0.16410861344674088 0.74720507402145486
-0.050968038425324824 0.74444972681311583 0.66801989632704917
-0.82238712720783935 -0.2825198410263503 0.10394357617566996
-0.12383418810938873 0.49821423652445729 0.74900045808073124
0.14093075360346341 0.39481133019580872 0.6963282709347336
-0.18665008927397453 -0.60479133616967895 0.45950782976120585
0.31056672643584005 0.42861591229791718 0.33285434152658766
-0.30548891197412464 -0.021511921995241545 0.7618857676954498
0.20419536418155265 -0.45458029878083961 -0.20293148819038365
0.28913310310052132 0.64386383984598727 -0.30095757883611185
0.26590558130402209 1.061937474633063 -0.37259215133243728
0.2589277646822663 -0.086180585086839789 0.78380642173170756
-0.29577784819648789 -0.25712358665852775 0.7321744912769752
0.74857307136293838 -0.19683004387667907 0.65462289700786158
0.15329133651959881 0.25036152817572654 0.28953328364674569
-0.39414398995570288 -0.38445992138762075 0.66442285013049052
0.18618990692507431 -0.016613698269574151 0.79296225541371435
0.012706916928370227 -0.41347032661811034 -0.45891876505825735
-0.23556506233225782 0.74192827806088157 0.36246203299875468
-0.29414569307496397 -0.69128643836550552 -0.13791445730915619
-0.21476916692813974 -0.11166335899485591 0.73591992443766863
-0.42259979813295079 -0.24955078818942122 0.76561867705348696
0.28688195919547854 0.25401257730659643 0.56785809833676737
0.79030323590608598 -0.17223563875151293 0.39113785852283911
-0.33796913697346831 0.63660624865765603 0.68857736720757146
0.082040201337944429 0.35339435318626222 0.76204101687418202
-0.40991332408784498 0.54784314149648239 0.76011536842406358
0.25326713566514258 1.2233225258946183 -0.3743895340863137
0.46919411152060908 0.78841609667635193 -0.31040001480524282
0.097985368976795995 -0.091821773663265605 0.78037064572371762
-0.42895159208427458 -0.017988409205035971 0.75414011452811813
0.03106785111569077 0.96525856412648614 -0.18747340194454232
-0.22446744683524811 0.44302028647510183 0.68558239153321843
0.33549989654600632 0.85509485973490085 -0.32963429150040113
0.258438330142571 -0.038599803631389706 0.78907231865930072
0.63922283863626761 -0.37320530570949273 0.71785350611641796
-0.85901753666195368 -0.31098870615189478 -0.20891462463870702
-0.45667082519967694 -0.7160252420651394 -0.23860773816716119
-0.42340066192746373 -0.20995381441712158 0.78926552623070911
-0.94905969319162575 -0.86541334803049375 -0.46618832034432778
-0.14581520603044695 0.76379307406466435 -0.5525669755851812
-0.52905677650476091 -0.67967264630141755 -0.30466863398809352
0.36083825089083332 1.227381270998436 -0.40305002144679669
0.3972969957485657 -0.39812764586766991 0.71674854626942874
0.21152166653642301 0.91208371800179444 0.051391092366442237
0.31152494745291959 -0.58006087751795599 0.43345696906352771
-0.5343129800037616 -0.5930269437422655 -0.089438974756848921
0.18757202698502473 0.9046750973866251 -0.20567785315830989
-0.72239561193340451 0.10827563228028003 -0.13639313182090973
-0.36004604642792692 0.29055326692816119 0.70772252312823447
-0.071611429785965575 -0.019977964354414679 -0.71620534657983015
-0.67954177880126698 -0.97771328114045253 -0.34979087417273469
0.10878649642635452 0.26939864746423847 0.63691751323064061
0.14743204831439405 1.0645287903528027 -0.24698806250841976
0.050684577534594544 0.64916016495405593 0.6616166228354583
-0.17248907962431237 0.30137782575669436 0.76961042431096338
0.39212029584080699 0.65753617660871932 -0.19950561368561992
0.37303239452483372 0.75235554419125239 -0.31324233544938451
-0.80966253395958332 -0.92097172134712446 -0.46878403559714954
0.36662515461631529 -0.0084223816563933074 -0.038517624628799041
0.85479986261347796 -0.44074497293198289 0.52513683171842018
-0.027839673869682002 0.78044554921852205 0.5378642732018708
-0.20353845919845326 0.39666784978065883 -0.61440287855309883
-0.088287490321674156 -0.29564594338059558 -0.0016966515967045126
-0.26763397773212261 0.60512767086845964 0.77473141998237871
-0.067002843084775998 0.64028257653292386 0.72123190895077904
0.66463408882601638 -0.60182686943634744 0.48742622302606975
-0.49733241468178457 -0.74604937326288079 -0.29194044669393548
0.1082208682024382 -0.37192189487622695 0.29170745023844979
0.1746049007541266 1.1276941596207701 -0.28774608177084815
-0.32550706040272992 0.50361943395750286 0.52423338872585568
-0.070052223939270686 0.40081004562282585 0.43759198169735747
0.18588385350283887 -0.36661948196942373 0.27811292032476764
-0.53790446861563268 0.11639124767225573 0.56482348410591321
0.61750836307713008 -0.64986744626861337 0.27143259924512186
0.36071751892189419 1.1385257367034662 -0.44041216575868702
-0.88602880367350467 -0.95760085606970424 -0.52308489777114886
0.32159664932613541 -0.017878129753227778 0.71112488852437217
-0.57405013864899934 -0.34924190631673646 0.65000454249854123
-0.52303692001245272 0.19814533594923023 -0.679713935826884
0.31809728171549057 1.1205213951983546 -0.4229001144224398
0.11911668873432724 -0.17012772125868625 0.76598621347221396
0.24934442667043388 -0.024260195660578576 -0.14724054555600219
-0.38362632565938481 0.36831539255061729 0.68228442997633287
-0.35491990132692464 0.26817652151013016 0.67708488734803574
0.66106184665490209 -0.36232972439299765 0.70163469518052679
-0.85102054330005483 -0.6829622907400823 -0.39547371068203496
-0.043531756194261195 0.87214817797686073 -0.72079260176261073
-0.58108400597756771 -0.32735099728463535 0.65654182631997848
0.24442247632271175 0.37203726902192202 -0.31680607619458812
0.46099858767337165 1.1359352965440825 -0.41514245019865115
0.18640600119119421 -0.17854734033196462 0.7678194748016498
-0.049986294041741042 -0.32380091983021209 0.53925671355304772
-0.46408016138560848 -0.29688191065302005 0.6949402240946263
0.36041217854826368 0.20348328465592014 0.32650785161808571
0.12508367039205748 0.82545349331293716 0.26288209558340725
-0.66866886860645636 0.11371248190847627 0.5772962362059193
-0.014884632166766609 0.43604804949694342 0.79354695330945901
-0.8048730185129217 -0.9965104717157498 0.38548072176422643
-0.76889720622713398 -0.19123840633332079 0.57478031312771805
-0.73196386471315478 -0.18806931466323218 0.6805172289178909
-0.27672265974054455 0.77954505450560063 0.31387654490280958
0.68391080222077039 -0.46207885967894802 0.70825522104004257
0.32019741381353128 -0.38788175376237299 0.53693887431205845
0.55042915275150139 0.81533292943807711 -0.39982983502575387
-0.16695299154800991 0.43382563636877847 0.75667791366294779
-0.63549310474800702 -0.28924513134857266 0.18373535729946333
0.52222143162437606 -0.64590395291871205 0.4785850671442109
0.4791199342589112 0.82633277260461846 -0.35678983469880343
-0.16452177538073087 -0.41567731928593787 -0.55781782342935315
0.62821627312757022 -0.099180514424235811 0.38164680625395953
-0.14211336867577051 0.35069953974894963 -0.23896704646707612
-0.70521220015384678 -0.82642480762415516 -0.38941991833500111
-0.7928737643375845 -0.36581963801971451 0.52637688834501795
-0.16630037267006581 0.42410675045201152 -0.70792558519983295
-0.74217742384571062 -0.67319378557215415 -0.36985240451856427
-0.6929405937165809 0.37090125723077705 0.30261140973597911
-0.77581958993219424 -0.28943859007125194 0.5179264988079737
-0.10109333630611639 0.27893576865508618 0.75247530167233734
0.35283951747956654 -0.24664036221062247 0.19393297866817782
-0.57063067301372783 -0.52540098073255725 0.40649494803204256
0.38200438272893755 -0.03116197137814336 0.69619476545737946
-0.35924783989686437 -0.061113852078352071 0.80438511500611298
0.79799128737480118 -0.39600539204955465 0.41705321936850481
-0.21829785963419268 -0.45017787475587001 -0.5235393972663509
-0.051881996013479093 -0.096848668577063535 0.76266148281374413
0.24982652294003715 -0.7312694973426388 -0.18672276065515447
-0.59267821245393204 -0.57462007072031307 0.017119271116612822
0.26780228266604456 -0.091055854856185281 0.77818415499142723
-0.34266757284337657 -0.65821800224153337 -0.11169680094209689
0.1307419014706499 0.34477910153787272 0.71415855698259989
0.15125069743273234 0.3172182464471871 0.66963846229458746
-0.35854029516990682 0.35114257744928823 0.48128551877920422
-0.20363241183205982 0.57160398574056814 -0.052704292450409085
0.14724540005952769 0.46941514008795227 0.67859997459617638
-0.46687148871363249 -0.28958428491769195 -0.61351234592367554
-0.35137232135533414 -0.70389292028443218 -0.11509689863731509
0.018851948449347011 -0.062429815712317538 0.7543429167182385
-0.14029005615960699 0.30814129694722991 0.75709433098349876
-0.10316670979387066 0.72941503953624665 0.6579350829363495
0.25839071593402374 1.1816569420993597 -0.43535310991818221
0.06999075214374717 0.43716196559540577 0.76803393090394678
0.31521741509435386 0.37634644582786658 -0.24510368621591638
-0.50151413253498767 -0.21503185034218597 0.74062540677252287
-0.16282680668546856 0.49736808705436131 0.71263359542452953
0.76288783109628788 -0.39189791706740412 0.64777348088085063
-0.39601207128302351 0.14631132201565555 0.79801971076453171
0.75605880449543328 -0.31862482912172074 0.64078062519697099
0.27747516430906582 0.16962816216180476 0.49549478619361764
0.75805681449326456 -0.42144192158029503 0.6770180710442979
-0.080852104918198942 -0.4943745107176567 0.0011261091830601089
-0.15225485509576719 0.75705527470070821 0.36653611862151436
0.28922733899550734 -0.10245154350801178 0.75150316042333465
-0.072643992219327824 0.42008566437303485 0.80209835094688486
0.52492707275483896 0.93716419272980456 -0.39281751529677855
0.090904963947139539 -0.36020640950027749 0.33803757675631729
-0.35789625251381363 0.27908009977419534 0.62629185899002593
-0.45337703167139187 -0.35621613938275831 -0.32523482378830693
0.45043650046420491 0.39415764316188562 0.02298182687958672
0.13308570020334187 0.99059071531249576 -0.29016243205128589
0.6683868714167418 -0.51888816454166653 0.43030818056100451
0.19710669848917661 -0.12652160979679539 0.80076722668223965
0.12346791431111304 0.71154257738582549 0.62590973869730604
0.27735406874580337 -0.028592765557472255 0.77743637153477962
0.16143401218546227 0.45300045116369669 0.6627867860777954
0.085660638558414881 0.8649405059451476 -0.13471748089503244
0.0017379708571019226 0.30248024191197698 -0.66607817338640274
-0.37506017358485222 -0.63795241440567763 -0.085909036730853927
0.47666915091718298 0.83067680029888802 -0.38087380923973058
0.8945175255690162 -0.337306100489764 0.57352284645119767
-0.65262841621920176 0.71416058209875177 -0.099292073210875742
0.45203953095463068 -0.5161609315957727 0.41809765890985595
-0.42254380272791625 -0.75494987006983516 -0.15866190465544605
0.2651135853234835 -0.047113671196100881 0.78501025344611364
-0.70922380472765445 -0.06751012203535689 0.52265125428530546
-0.67922103683419577 0.19605586379818529 0.69826348481084644
0.33573572978210509 0.66626399412827264 -0.22128092856002723
-0.17031087386284627 0.42135181426600754 0.75821879069931697
-0.15430379919306514 0.37340721137454325 0.76041870341040863
0.60963878383666859 -0.40632291922870734 0.72568066968693046
-0.64471029975021521 -0.93775651270738902 -0.38926907174623082
-0.073687683470154752 -0.97680597187541385 0.41602416667024844
0.51681596761041637 0.27923100530853573 -0.255663785728375
-0.072583973817030856 0.65560384959909968 0.72853516046688505
-0.26499118538390176 0.029265427212857187 0.76255603591259735
-0.93758638496916835 -0.66734355390704492 -0.43923965752883909
-0.79853526525074647 -0.65755805742979301 -0.3598601535469097
-0.44115360338071063 -0.2407963503681334 0.76822573010315764
-0.63276183993407997 -0.65124266437904521 -0.30945054888920431
0.089254122746674991 0.51353233555163347 -0.56451391532061201
0.46086356380420046 -0.59206140835291021 0.4616604526763286
-0.4682621221292953 -0.78049899257282096 -0.25390827209771416
-0.34393203969354436 -0.074702019173473966 0.80963763051401827
-0.43397921988455423 -0.74842903132650762 -0.22636437260265829
0.36581058495846652 0.69384526850654504 -0.27482914271101677
0.02300754393809723 0.60559047089168239 0.68228564336579822
-0.059818176291906777 0.26077103859409001 0.74829373853694214
-0.19580108563488663 0.47484265563071526 0.75380790795214381
-0.46134821048384111 0.076758608895066471 -0.42137933886395729
-0.57059450783076682 -0.29385936128030599 0.66934492083783148
0.39293915442796123 0.063495838926774351 0.50529978551650956
0.10410527040568507 -0.15806105815269467 0.77326789737548118
-0.27851997258784378 -0.56802530237534132 0.12934469627592016
0.037680510356947972 0.59990358987885273 0.67472296820636757
-0.71863597403824198 0.39111315996942597 0.31138471316804761
0.090511323938313237 -0.29755713011167684 0.52831907779354736
-0.58431930350585715 -0.58846122133144507 -0.1963621957476569
0.27527290046156172 0.14507965708800108 0.49107355555267596
-0.091708907310970478 0.32470505770900648 0.78176093435620153
-0.22450875343498078 -0.21122741295768632 0.72581035377845637
0.16672775105258952 0.86470759455590329 -0.34494116991978352
0.17243108961289511 0.76098912902206051 0.55918683619263732
0.42897674923902329 0.049357627988056318 0.46640625064040719
0.082325656845048445 0.37403470932327876 0.77475263448327425
-0.28823793731456337 -0.54632561152327819 0.20826068754450944
-0.16404046608343692 0.33134221853095713 0.76364522695711301
0.48879311240243795 0.86171425873189833 -0.38392302542388101
0.65731694030809473 -0.34500044970204091 -0.093093827188891254
0.58247722448241812 -0.34585516706390679 0.72459022804793527
-0.66056469521963512 -0.8482481967820743 -0.38003505631386503
0.28877475534693708 0.20831352651419666 0.52143814106146635
-0.81834699269151479 -0.6741934718889564 -0.38211153775656115
-0.16993143594144422 -0.77214574275289083 0.49040292042790057
-0.64925110772046257 -0.9248919041751622 -0.3984863690001621
-0.4372819022541381 -0.79251185602476437 -0.3188758655446815
0.36673722085097182 -0.18995981377972837 0.73085704508082827
-0.62760905671521128 -0.59151998921504512 -0.2296721798293504
-0.033116217751906651 0.51111251795295631 0.74726777001645495
-0.38422784233656415 0.041992914151053329 0.7662669380722722
0.086433802885856559 -0.11608773967762098 0.7825838798806366
0.15864041840787346 -0.51433452176661221 0.071447447500732508
0.27502416496913729 0.64101469745099804 0.34768065522317926
0.076848502569936583 0.81976159640649837 0.41464107951220797
-0.66043785156892798 -0.29951536457609262 0.65301406187916378
-0.0976003335337019 0.34486194548025906 0.79644506186597752
0.5317445913478589 0.83400941347580027 -0.44971569210287043
-0.1537179495343155 0.71015780328444755 0.64474415032959698
-0.26268287036107651 -0.34012929050043961 0.61425194976968811
0.084110289455086029 0.62760949880894423 0.65642823282779972
0.36011262499883601 1.0074401536393598 -0.38112851401556114
-0.75529117945774038 -0.24042456221419783 0.64496226844531357
0.2886581208897584 -0.22252270299993415 0.73422901738313939
-0.61643046036937688 -0.62469100792130239 -0.38932098092022471
-0.78443865752814679 -0.9371731641043255 -0.45424254524965058
-0.23454619787810715 -0.44736799089518242 0.56417225229620271
0.38403923145875485 -0.4643209114951905 0.24196254679875295
0.085832888698821774 0.81167731681031907 0.60699535792321413
-0.50812158616788539 0.057180053018933918 0.75719072291667011
0.27076278806157639 0.84779802916835467 0.048066762816585396
0.74159227435210007 -0.44027714564515424 0.68683352059576297
0.69411666467989008 -0.26164524998853333 0.69700704033145655
-0.64679719185090434 -0.93485657303065017 -0.3961215390177113
0.15418245726272639 0.88559433307175417 -0.096708276059688458
-0.2391031638282497 0.54035540170427043 0.77568044064684472
0.27641273734997496 0.61660285995664821 0.5262607998944393
0.49020862414464017 -0.58688428276103133 0.66025575027394012
-0.20829737113230162 -0.1931044995941682 0.74220873504104823
0.065539484188705699 0.27393018248787393 0.7411381258196208
-0.045256706761833243 0.24001369431783748 0.75811363718695191
-0.86816195546205432 -0.84724626381447177 -0.47937798705516776
0.44085258555836915 0.58144141060927312 -0.26618136776200885
0.088149363071009734 -0.24064260776530988 0.65934992889876298
-0.28866027398826555 0.54425362029701096 0.38934540815968433
-0.33877478154485363 0.1112906634866464 0.78617139741260544
0.10397518263434335 -0.40082268337950067 0.0035702142836946393
0.59010600119237766 0.81388932614478104 0.68560848092917581
0.047642823132426182 -0.12905701437510897 -0.021676588459440538
-0.75616135956045483 0.41626485684054271 -0.73374683896770776
0.18674695034297295 0.10868483444043053 0.33795213302918548
-0.59706470399294043 -0.29190538526406318 0.66374386462248935
0.54047461502978833 -0.46550051422932637 0.72063879793400609
0.023010098464383955 -0.0055957944611244592 -0.67994559533091525
-0.7576554732153169 -0.88524202608067659 -0.43133882054421058
-0.14101145596971731 -0.99967622492382358 -0.4974284920548282
-0.47939370103461165 -0.080169277345990775 0.77983924908282987
-0.64928980961435689 0.11478238955844233 0.7697369659258495
-0.59719913679513636 0.025487037279393832 0.74520296365861682
-0.060211690394586292 -0.28017545796949683 0.65747487322310505
0.085947364330357101 -0.79666387914251025 0.23178979631931895
0.17274714603783214 0.063844633916942728 -0.5428713802110483
0.77595017902893493 0.0072438106873060626 -0.046502612062793602
0.27397253039354685 1.060218042231414 -0.37970675865820525
-0.5615387075653604 -0.0079204866976860799 0.73328882972618636
-0.91559272948856507 -0.63593560978977171 -0.43178257153911304
-1.1419921608196772 -0.40671427178773656 -0.17740939654834698
-0.21186893657626804 0.76413046551155328 0.064887138763385366
-0.6486439798773076 -0.17495300539937775 0.55803280849393921
0.057334263063826274 0.82121062178747262 0.46731310434371309
0.68069829495207645 -0.35822638855596273 0.66415170316954253
-0.54085366066180374 -0.093472700527543306 0.7300724480561076
0.80173460390156137 -0.33690226237248566 0.66802169633669539
-0.57353764895269843 -0.46903130114704772 0.29865454657866763
0.33580058160696957 0.61862916727128037 -0.16868662182476157
0.16206476454014995 0.54077293236446722 0.65148368842439908
-0.88517642196548696 -0.06506612372935705 0.037990628402242876
0.13538207393394064 0.39581539698893597 0.69331761292901106
0.27576218827531063 -0.12184743962823608 -0.33879860427687447
0.68942142417220698 -0.15559245458738769 0.34251924197650574
0.27961283003271653 0.74243362097565324 -0.29120109205418387
-0.61162199732244882 -0.66092220679087554 -0.31378852350567144
0.31043798169897197 0.99654092754193035 -0.36030117583106858
0.18292897747970371 0.62788559423741619 0.61015284195126718
0.51444108861823123 -0.14394459771023715 0.70456730150491964
-0.45586897648135372 -0.75983341877282506 -0.26796623160037214
0.44707906037298439 0.84979346315862847 -0.38824933722019139
-0.57038298001611221 -0.97650668894893411 0.63936188515650727
-0.16665649618092404 0.17626221689196986 0.76413258126365058
0.69769447735250556 -0.41871785899356256 0.38981385023049775
0.75563788876008797 -0.32808056107301553 0.63150102062848745
-0.22002812991846832 -0.63663275891022186 -0.41758165128052305
0.02467115678187537 0.82924945228000535 -0.032440612292427673
0.32174893086219758 -0.25420682654338067 0.049418441982661321
0.39043756010847375 -0.15145493042051905 0.18768544872079929
-0.23656116042261099 0.40818197797498179 0.76754557122599287
0.11140391030935781 0.64755428512807689 0.6398506775577637
0.31133172767734063 0.67008223093326458 -0.20548005583887274
0.57620571851582358 -0.10785399412978514 -0.092499233874507425
-0.57242727160471985 -0.64960813168555531 -0.29893395699993341
-0.3335559017853964 -0.060236443570890419 0.78587186445601986
0.44198412432808187 1.120273818279278 -0.51112301954742101
0.1573135087019093 0.84389533633142078 -0.35715299931170463
0.95426779340142331 -0.54291461479169145 -0.22133373312186855
0.34573649138291751 0.47406722901668674 0.025207549202379553
-0.19926752432550021 -0.15837341957923856 0.74896885607499009
0.0031664864978264706 0.22749648364870856 0.74865723507013193
-1.0411301748415784 0.19601576559628642 0.35705502938148648
-0.38566263978305981 -0.16453170582372767 0.19944262996036777
-0.76647008542094719 -0.66559588052361773 -0.36554475045473822
-0.10064758474712132 0.38665331208500175 0.005501094680550267
0.33347379475552541 0.080639317584683345 -0.21500418479515915
0.23128074741423743 0.024862299837171031 0.73742389746873194
0.75030672060125658 -0.33158392314149615 0.6257820149368829
-0.045455373328970872 0.58352644363247586 0.71421198877657055
0.095310506547005902 -0.37802534054294334 0.32496498815232933
-0.11753770648419204 0.63055138364357788 0.74408363215967732
-0.42557155871067298 0.80104094378642277 -0.50934180585870514
0.11262978438736398 -0.13200896908322513 0.80279092844543598
0.29790863644625998 1.1043667781190676 -0.40747207435468802
0.62813784339320933 -0.17194427234211407 0.35868163059361713
0.028052864708398406 0.63376765324644802 0.67307571953463174
0.72655281327804222 -0.48432286244037825 0.68561923858503881
-0.54876345209112354 0.20354371204162192 0.72068595436227589
0.32288079500193656 -0.075340267771423441 0.72570451305343475
-0.30879788422125332 0.57643304458220879 -0.28815670122377846
-0.1879743857127425 1.2315895402580297 0.02841083801207489
0.20416097166216612 0.053727705699009309 0.73545089476927572
-0.32444200756615338 0.55164660207420591 -0.84769847498183459
-0.29852336872938001 -0.10983745504591291 0.80296961742077855
-0.40068679114517813 0.067915066834970839 0.6664028384818419
-0.91484515087410401 -0.78947717146748331 -0.45381987042644312
-0.25054755475420287 0.67019560707873516 0.67027740385343471
0.37434512927390284 -0.2485439376716303 0.26146554116513876
-0.13445906855762635 0.57997121801614515 0.73885810768701177
-0.37258162128578531 0.003688376400100557 0.76095080187755748
0.049385630357183796 0.10137342716190578 0.74648094173194934
-0.71338122433768003 -0.59093519462913324 -0.257363107534335
0.1122487527405891 0.84383364480520617 0.21685697302668672
0.47810907270145353 0.16260260946870142 0.34606771347498899
0.28700787367425717 1.081327431255406 -0.39618463006214988
0.16646869556462507 0.090713652084991825 -0.19333313070622182
-0.10552690688655941 0.22566328624155463 0.75812567253913699
0.18429527963226666 -0.17624125863255657 0.77606019399491011
-0.43687006606967738 0.16074744685210884 0.79058425800420373
0.24209802232927857 0.6490584876899963 0.5497263040791367
-0.68315953985429489 -0.93469254428730131 -0.41572112767430269
0.39677161007956951 0.69534888400090566 -0.27674893369429832
0.14206057965695762 0.90068449025679098 -0.12094189102895037
-0.73826339139930286 -0.024761156610048296 0.69678225828949003
0.34594496987000389 -0.51901717170941852 0.60098821829126692
0.31105624267544041 0.65334660020475743 -0.048088474532137937
-0.40665262984544914 -0.76963018156378982 -0.13372815901997726
-0.42891419789445262 -0.62199620613127848 -0.05694104501827546
0.29120976251460418 0.11496762679455808 0.47400948585463176
-0.63230883617455858 -0.94004086631055817 -0.33130126647174762
-0.73663599292424609 -0.49063694167100458 -0.036587831698232876
-0.11009493447509833 -0.45715977449296819 -0.48132206809354372
-0.46695154773410374 0.46027368317985418 0.45971671727400754
-0.43571052006087996 -0.32235437521843413 0.67848312392043653
0.30336103899282396 0.73085732853782148 -0.28211811346535853
-0.20416948284851788 0.67674937938564361 0.60124314141290114
0.61094392800923036 -0.60912241758955088 0.46625901160735239
0.22724072313664301 -0.41623292594290051 0.47844466945095121
0.67321219114765674 -0.63601718805355423 0.56706082462164709
0.57895719668486445 -0.33044282801863845 0.0048200628796504219
0.70103056281981335 -0.4527577052830381 0.70214300704850885
0.25615658429537147 1.1905057380361492 -0.34484974812402847
-0.43225619795695369 -0.74102400765373955 -0.23650282751195917
0.090604859460985621 -0.1454663542422896 0.75315972791350738
-0.40709656304169917 -0.11362352306056978 0.81104199190760795
-0.073151659928719193 0.27128156761636224 0.74291084649379435
0.095561766562260009 -0.77486206633127208 0.25712554848958113
0.30516501433254895 0.22382558625018467 -0.27658553930537444
0.311243507715115 0.4205618272823739 0.43062917228256303
0.7641734042827697 -0.31494892585877488 0.66011158937040015
-0.4015829909416968 -0.25083212744095862 0.76943786419507454
0.43877063488908719 0.78358045129036724 -0.33673900501848131
-0.47678851266681743 -0.33359583954602434 0.68097370145210512
0.069949100724734703 0.21938701010527484 0.65212153010518215
0.73986184637797925 -0.29561318023887095 0.65567801367783574
