# XYZ point cloud file
-0.43151784792670878 0.41498506482989228 0.78583103225215822
-0.80382718125318497 -0.8736886610145822 -0.4484845928953396
-0.057631718467209936 0.44339729745113576 0.80029660791880453
-0.088166034813863092 -0.35928472812681989 0.69382959681880862
0.41643761749562636 0.23960910404757474 -0.74260613582126211
0.31028765292258242 0.66331011239346171 -0.092318227999623304
0.21376974576807939 -0.30728227859406765 0.69422510592057129
-0.51876379685017504 -0.021855220038217382 0.68876125567305202
-0.7381580173937996 -1.0224965148915546 -0.41412324508409437
0.78690682759656561 -0.60436761283384932 0.38444696875826345
0.079501378798214617 0.59580852299143228 0.61697353927675991
0.32633066045143089 -0.11299341397548002 -0.25495645019284652
-0.85162403655848351 -0.30057867597372212 0.078894212068373548
-0.44644474746232099 0.57142345702887276 0.6644977651276669
-0.11367000376357517 0.72015166816237741 -0.54087309062997768
-0.38027060893152953 0.60889280369456333 0.62947661939004007
-0.60812331032848466 -0.22023918207136806 0.69325793643433009
0.69242977739636835 0.36691140383314735 0.5020295069296683
-0.42754795334228124 -0.072188183410681894 0.79639257304178379
-0.6289004112168417 -0.93470818758761443 -0.37424594876659079
0.54590081338435859 -0.071116127569423426 0.37710139222500949
-0.17154585973540648 0.7159606575050228 0.40875211969524017
0.31302447222605601 1.1155472894399772 -0.43609675778069246
0.51839273811326692 -0.22658941737918603 -0.25506866634659531
0.010342327383259686 0.38871374366336653 0.80305698986013141
0.04844109453963874 0.48868754647590862 0.75570866550852678
0.27466458041461195 0.0088041404435559301 0.75347321157476088
0.60200157716567482 -0.038962929680352865 0.4306383339863995
0.12005123586030386 0.83611997290316609 0.5417949237808255
-0.42447331513777886 0.61897779711423428 -0.62790458221393308
-0.39908614163982481 -0.104336846140475 0.8153209789893392
0.55390353786162017 0.7802295106323367 -0.3808199100848757
0.0036976956775855996 0.30117743624221749 0.77905367662872393
-0.31106263316076976 -0.014300592271067281 0.77049499522334841
-0.44035961972679427 0.17260824277969 0.73002699209209077
-0.33424782795859365 0.29794563233812976 0.80842105486564186
-0.57467457808421685 -0.0013214464206319221 0.74475747818469173
-0.34507357575815423 0.12111187195939088 0.79666110277611502
0.25330019293722117 0.81011123377675354 -0.26822364972711732
-0.15360924252119279 -0.48205773205138858 0.85407881422756304
-0.31431607439023068 -0.21426128332297711 0.80378849014722853
0.049184049077792835 0.74649086793591923 0.65652205721580792
-0.74234096224394452 -0.64666305586972861 -0.43041729687126384
-0.023844600829489693 0.24540606645160246 0.75681877293531663
-0.38548257837599209 -0.53761207618466411 0.37671181383939434
-0.11160653047539881 -0.075750931462179594 -0.70528478423329588
-0.095457130391782385 0.29780485016379821 0.7751393855995925
0.115322992439717 0.3361682583910115 -0.59557374326904622
0.31613266716539634 -0.1699794532970591 0.73562075368927893
0.15780934731914087 0.70234843881369713 0.17995652863671729
-0.47473156736124533 -0.59326624199203604 0.16012724619395868
0.26752687863711522 -0.35027795666788908 0.69538296650250153
0.65858142947539555 -0.64467520459642902 0.61683914709977561
0.2324825030750155 0.26329459990413451 0.67415179735229636
-0.43852830925362607 -0.095900778811516929 0.80749248003547436
-0.56743569384039638 -0.34308892592001161 0.66383615943618324
0.15169045301342088 1.0747245163756833 -0.1125887017620073
-0.36856217132120239 -0.0029134820715519538 0.73159546240279205
0.28308562379029212 0.013948545358014819 0.72828971048222968
-0.71871133553122579 -0.53510672741026877 -0.19105465389141507
-0.55657534399815312 -0.94924665537065245 -0.31066624414385036
0.27724809760161406 0.92093078792116234 -0.3306570973588947
-0.025766965741663483 0.22606525031175462 -0.16665573309908766
-0.56383459023560878 -0.63988482313126216 -0.27217404947578849
0.34299457577454184 -0.28987455396044659 0.18192319951173808
0.3526959559735996 -0.28912880191409585 1.0512603184303302
-0.48969753217853729 -0.69798769851985298 -0.30169928043254313
0.14080921620154108 -0.30018373720398372 0.63746259187403531
-0.18938484412093715 0.49484995761668671 0.75064563291224573
0.33578427181424608 0.42436113008443943 0.50555134826903192
-0.54972245605348835 -0.32706494873341097 0.61300584858673624
0.44597126914164598 1.1206401202347589 -0.42584397084993064
-0.39133356953930054 -0.3783776170520019 0.63389613518997123
0.22438342269273903 0.14622598215333404 0.68961321927023533
-0.4543551226131628 0.24618477912823078 0.56996129775348336
-0.67520333754883932 0.4112966321622249 0.30506462381219634
-0.46934786795671002 0.46763282204513068 0.67761531307467671
0.11447608526665576 -0.32492627603878255 0.5105449886284017
0.22774617525491614 1.0441221971316317 -0.34577068792454035
0.77266673292192323 -0.29948873726978054 0.69955974789018782
-0.73057369673574968 0.075742320308228805 0.58116964349760103
0.31489974578819613 0.26048488458434971 0.52536876631082485
-0.26252806380244298 -0.43579046253077269 -0.33307362592289458
0.68786946377960945 0.76178638393375486 0.26922474584566736
0.16020200672781471 0.23597539089965291 0.71715178617032116
0.12459353284688035 0.50568399691225352 0.6811777239736152
-0.1724661992789347 -0.44203103418684986 0.53214250632857052
-0.55526107161397942 -0.13545206064920734 0.7333167625253818
0.35116166859998899 -0.12419264479541781 -0.15694957203957571
0.81026884723174675 -0.14217920987962884 0.44922054778195886
0.73479603915212621 -0.53042862668354118 0.66186716651820809
0.8276662815818554 -0.48847401767413512 0.51913928683176991
0.24849939728522052 -0.88729244791329887 -0.38330839157973973
-0.21520755828541116 0.46528747871462439 0.75420855565002221
0.14281999534052225 -0.061608768181887541 0.74726340536260949
0.38454156013611751 0.50592636657083734 -0.12990516834885213
-0.19616746150843234 -0.2854544497549778 0.64994866825347941
-0.18455229236949933 -0.24351889480459921 -0.5272063791344177
-0.12472067669697218 0.59377687096534615 0.71774125234048114
0.16092879897154333 -0.28688533437393993 -0.4344913608058345
0.17132419850332425 0.46978238410571738 0.65145497914422457
0.80977867212444288 -0.11863988235250122 0.4878273479834192
-0.29628507429667827 -0.38487723798919227 0.59780895631760878
-0.064557683484551376 0.12458522106213366 0.74517371656490994
0.3929364328618572 0.84696731062376873 -0.33780024178171075
0.28455870545547057 1.1434042918526188 -0.40815600796225837
0.27731873721677935 0.69739779029622007 0.48384086717614316
-0.70342211400804366 -0.55419798291902378 -0.34063640738971834
-0.4268002987056736 -1.4805892201343558 -0.38115675615258926
0.30099687546749898 1.2267403712453495 -0.39825974890353066
-0.6443930301187395 -0.23472249902783204 0.55887258602177781
-0.77159933129639668 -0.60296764510475054 -0.2748609765050043
0.74665672548188233 -0.37077213195631842 0.64037929852254116
-0.53757762620249583 0.79309966644158969 -0.37032012619279797
-0.20790264189318375 0.41641746228879928 0.76321190643317571
0.6246182280609105 -0.053544632396149261 -0.032466410934066658
0.29225813078549656 0.70014960005151661 -0.22183567833930873
0.25735997471030103 0.81143896832764018 -0.2804508090175446
0.33758747286210422 0.64061279619403599 -0.0088144746964253784
-0.54493675978015332 -0.80519378719647516 0.099407475852834715
-0.34544818881177797 -0.38692395666721868 0.61565074310183654
-0.59396982755230887 0.092660607598276989 0.78469518088522605
0.54159110849816905 -0.12513962636299691 0.70954888277904971
0.26816800761335813 0.78746152036794914 -0.29038230498887607
0.67512050570400639 -0.17264477846191628 -0.25688582494661993
-0.45763399116876435 -0.13575160023208444 0.80292296405500885
-0.5930416265318641 -0.093453231964815586 0.7239462481775778
0.63540801317363815 -0.38535811336574177 0.7250918099228425
0.37914184142535312 -0.29294237411983293 0.27069444901207085
-0.31893997465764556 0.96066691145530214 -0.36336331664680444
-0.12633761932926557 -0.14881156050177502 -0.065974030802189887
-0.63920519444231605 0.90273518330326308 0.86421555224284674
-0.63573134899236106 -0.18737292377418857 0.59321454831199816
-0.57200440356575388 -0.02841679837224742 0.63086594098710513
-0.74395066133421128 0.05626426837081322 0.58047499598167995
-0.39064576294737208 -0.70554604621545547 0.077404986566220302
-0.44151554489238176 1.292006151454812 -0.21221856565946418
0.17546897421593854 0.51736567383416876 0.84293602930651446
-0.54911153191942397 -0.89189839479981892 -0.30915527159057454
0.31299517237591701 0.26159219326867245 0.50462611693856019
-0.32194819486333781 0.2658365937737468 0.80577788038580422
0.62421233535643417 -0.24103979949238141 0.35790251822252195
-0.53840356125367794 0.43865311271394347 -0.66786633996331091
0.70981449809955954 -0.17361682533892875 0.38077412117222842
0.69284131419706441 -0.33757421388925035 0.70462770673528041
-0.4843377780633098 -0.38829413238295185 -0.5523308764048398
-0.059519160471586119 0.21405375863447507 0.71326611865870149
-0.74286880190683746 -0.45596080382622972 -0.36660414809123232
-0.22084120578447042 0.36521555760720759 0.77053207927066225
-0.66221958220089849 0.50268815320198978 -0.2768437514664317
0.32057841339215187 0.48464851910479023 0.39245207190743514
0.81527105582437187 -0.50222717142436224 0.59399466219485397
0.20706403761211334 0.96075484632300512 -0.27279901749418123
-0.28367964514983957 -0.74537004128251194 -0.63440729048009636
0.25550233901620878 0.75917587742109127 -0.014097503456550697
-0.26085792274174935 -0.29862472794956396 0.72302244536823501
0.027333425381170784 0.60156402144317855 0.67251526524161775
-0.54017782333511466 -0.14619978495981467 0.30642541783788779
-0.20841155414635537 -0.87161710701948181 -0.36888482503752495
0.17131060581323965 0.9419957349773842 -0.22287316517565259
-0.73041454361704794 -0.56701408533907216 -0.2606506821059611
-0.29563354127350472 -0.12632981254758491 0.79874626348175859
0.85534549862121345 -0.20354746638068466 0.6326115104219685
0.38598811144571599 -0.068625201823322435 -0.046948919276054824
-0.95610998377766654 -0.74707190752791863 -0.4400079129273502
0.5540037788394585 -0.77579750739737907 0.072718279760091598
0.87925652866115911 -0.16117397973062264 0.55243382366594673
-0.48047003598603766 0.16882408680474192 0.69935281479487088
0.14522270335111465 0.5951025743948799 0.65096761992584362
-0.74515154625384383 0.093634726647510824 0.59855589185541724
0.2686686119040651 1.0893613797280111 -0.40652632657440435
0.42833935019238467 0.70966099127223803 -0.23943025919916217
-0.4909859938711465 0.010277183814563884 0.674551124015764
0.077753391892260382 0.35690509814305482 0.76198352058256802
0.029903286250632988 0.60900651907536485 0.67509595909190168
0.13454291634310422 -0.27021059681027992 0.67128404489953297
-0.65218649034296838 0.17022984656793749 -0.091149920130714435
-0.051223908035870735 0.61877880859200918 0.69588271979398542
0.72533069358073377 -0.3067642543735456 0.66641864107202586
0.89592713910818489 -0.37150865347478934 0.58786821910964804
0.79089019945100958 -0.39322028783115393 0.68504282257585913
-0.45879821642799445 0.0084697730489713408 0.76323684012979776
0.68757238420645272 -0.40172179197857183 0.65266860527812831
0.33776814553712065 -0.34909189518314054 0.29713060914303391
-0.7467570635158518 -0.37768195554795181 0.35049900452234084
-0.2514061589631158 0.67826423944351077 0.67877650406708234
-0.3950558585495676 0.00073945901560534821 0.76880413563455896
-0.49884905952506209 0.27904438566107803 -0.49426674560611872
-0.33009754829935911 -0.64354392812890993 -0.11178331170733813
-0.3501098168842125 -0.63258460344614331 -0.038090280587933734
0.076658519664974278 0.38122154030264088 0.77886161888001659
0.081510453374223246 -0.3054085226392802 0.49994162358222205
-0.00440159151923325 0.34717141931740425 0.48604572300586035
0.78026231621230835 -0.39371721665574722 0.67686024282568802
0.77546590753045486 -0.40522778423757799 0.67694095441412472
-0.41663092924339296 -0.01932100534688086 0.75656705726135876
-0.4345009647108995 -0.020834412966294735 0.75578742894250794
-0.25071190244486097 -0.20313906737974374 0.75060660002581692
-0.50027161404626863 -0.55308921831862179 0.4359020588101794
-0.38479086384401651 0.15241064423459072 0.79236054253327914
0.19290851932194464 0.45114848942360553 0.22699281044258335
-0.44623669647287745 -0.37971705430793357 0.67437066384497601
0.40156412774070915 -0.56192255428416082 0.1563672272402723
-0.34298864744646362 0.13332299645338619 -0.74787487247587059
-0.27621619974130329 0.95850852732016012 -0.28880290490304539
-0.35291380157915864 -0.058476254123967841 0.77696559905618834
0.32590114969691264 0.31640764217048378 0.51765964358712324
-0.072161555667522137 0.56438632988515458 0.71491594859471697
-0.79630271386296414 -1.0205670932273225 -0.43059277738387447
0.12278851006776126 -0.06772945347259629 -0.60494755356036123
0.33573852164571782 1.0597460381176314 -0.3980053181220562
0.18147377148368626 -0.10715317973929483 0.8099562153743971
-0.079888669860949335 0.18892204074843555 0.75276165911324533
0.23326575895198509 0.27909441514337807 0.0017799852829458729
-0.35485351819720368 -0.22424965101184124 0.80352355744900805
-0.67074089013924354 0.22043651468894332 0.11851603938155186
-0.77496728270570792 0.44517472443828776 0.059729305379610409
-0.68945475424867375 -0.16712344538839119 0.71341093776634157
-0.71065563120854769 0.64436976777941535 -0.22617560627926636
-0.33095497517499695 0.40149325872649033 0.79596995416706484
-0.39234906489296328 -0.34578659317180005 0.68328754396934777
-0.256393864035938 -0.64714153835414923 -0.15963163519930745
-0.20251116066910324 0.40161342065443861 0.76205485554534391
-0.75835140182097049 0.15916242191276186 -0.59079651937170219
0.42450517100926177 0.75826651225411901 -0.29531281591306779
-0.56485420653897833 -0.83873726374415636 -0.34509191514258131
-0.72517812889911148 -0.34520295547025626 0.65231622216914875
-0.7318112958369607 -0.16060849030993474 0.69793153373853656
-0.86235823146816637 -0.97670366330561986 -0.34623883878288897
-0.75727407787324807 -0.50716611516686783 -0.13203238069827883
0.29824698699558638 -0.13694759869260142 0.74278815046488411
0.68771663029732899 -0.088943110949361248 0.42432848960427094
-0.15214497569112773 0.73303477702256092 0.59218942853946821
0.097135157847867859 -0.14043776580839751 0.79259942371981751
0.46333893824361638 -0.1600937748347091 0.73233574575545823
0.43771537913702296 -0.60218218048492833 0.46084137177188289
0.044820325001747818 0.90449083600253566 0.08604178746629465
-0.11074440807770358 0.16993833178539308 0.75438604647867002
0.78513703664416035 -0.31490407552500521 0.69612615904206088
-0.59098817950935878 0.055659352575216481 0.2367526708523453
0.21079824319692086 0.77389528659467288 0.25399038852807543
0.87685566911340374 -0.36526898005372566 0.62448409543159933
-0.8768602663167071 -0.36758915260490177 -0.096333647177123893
0.62180337826321086 -0.43290677744197303 0.7229135453575406
0.48662097439401109 0.49706365971014232 0.1844720968605813
0.28496732313194428 -0.26361173384704362 0.22456141643631256
-0.76797887376626495 -0.22756503088178714 0.54424462334358381
-0.076822936738494718 -0.95699270176329598 0.090655985336813849
-0.088145036043693281 0.36108806161127394 0.81191140524438765
-0.71248266530998183 -0.56076158729830805 -0.24567592439953856
-0.19213709438654281 0.33833491054125187 0.76565385010006537
-0.59824406632343674 -0.79026228047437463 -0.34530737744876472
-0.85338488414948888 -0.15327371665201861 -0.63774315240508095
-0.1458270007624769 0.20813188747888756 0.76260948444044985
-0.046469335032176318 0.11131754714228936 -0.28530978038464028
-0.6302834806947315 -0.57324262704585127 0.06112621606805746
0.32252679699466924 0.59919452679103724 -0.39091231482453104
0.16202708239284469 0.4297565734063955 0.6802097561771383
0.60104842404098591 -0.30840021940227569 0.34825968031842791
0.16520650485646016 -0.36217466207322602 0.36361676133070198
-0.35485844036632574 -0.47263997011493419 0.60931811531798097
0.12582413473093013 -0.32306915347641851 0.57057801271316322
0.55558298127899164 -0.15182869064747884 0.35301949732003912
0.10392746714742174 -0.097195837967421816 0.76533770653206012
-0.010722855844571555 0.85919951268058625 0.24541129598261868
0.29416705807631338 -0.026792161201822928 0.77423173452511129
-0.56352394244609805 -0.27779852256987514 0.66863080748268011
0.81505675011558587 -0.28151139213879617 0.3943682304976015
-0.48449165144553863 -0.64515698183168979 -0.28750624226537802
0.48403801285038384 0.41595702486640196 -0.72888816153341729
-0.27866305185168105 -0.1645041264648377 0.78755027694011304
0.40114264612643247 0.66709530260124783 -0.21478444434263189
0.38091876689572324 -0.004530156947383901 0.69405905763859721
-0.28911469364605402 -0.16387989894915389 0.80311484881912421
0.27173507773615846 -0.12036690221232593 0.77917149343708125
0.054218252740123596 0.52169812610195709 -0.58983886284222287
0.34605503922772129 0.28366669987874005 0.028453190254767335
0.40507929665548303 0.52879130628125814 -0.24936369704875183
-0.21346636506015404 0.50524469578862075 0.74672070887207198
0.20319199311646585 0.91927617344733203 -0.24541957810936132
-0.19485916916907353 -0.034028016799104499 0.65640765281797187
-0.038279828527821635 0.23936616925346321 0.76015683199784156
0.50930400264864595 -0.16867601398169807 0.72272701309357501
0.66205441382362196 -0.20964384662788582 0.70885219134127198
-0.45361789449179923 0.15252459331055146 0.68412219128472174
0.70482185488083182 -0.42937052756327265 0.64537915998709927
-0.25134437040841995 0.33267695970230093 0.77355859950450245
-0.78690232638853086 -0.43133918251871428 0.51430516951771121
-0.25066968782339405 0.97107769004841238 -0.15481138927781224
-0.74694203709631068 -0.31808563046532523 0.4080302501618025
-0.18095848248721946 0.66780699605392968 0.73308298832188967
0.10144714596155247 -0.23938151409538566 0.68721007782528254
0.70475150924878527 -0.32655660661978558 0.681419021620016
-0.34902863284150953 0.21061343628478824 0.77799133051019886
0.36527305668898791 0.40243876800376643 0.050527785489776988
-0.21496883659517341 -0.088203739267214587 0.76243536893584007
0.44407770475321584 0.60975751167576675 -0.29065213292745717
0.2436206763590878 -0.0032780138564465489 0.79918137704507686
-0.11381284529537616 0.86811255364689899 0.21270763806456472
-0.48627336862903459 -0.71188515417169107 -0.30037744578545134
-0.71361693402554316 -0.4698100192770065 0.26182820680169527
-0.47420065637153641 -0.66053858548290112 -0.27560952167028674
0.15435180902041878 0.69698700503344657 0.6128667491806965
-0.045833497318159999 0.34283225725106981 0.81157568053718698
-0.39016938821292602 -0.74189912300156546 -0.15940536345371914
-0.57041800678247245 -0.28150376124669396 0.67188844475753839
-0.84884467668132402 -0.87893632231413665 -0.48043779098999195
-0.58571622022525816 -0.59345903360430441 -0.108614887104169
-0.61731904947682548 0.56592111930716804 0.15424940475326387
0.047683498736143193 -0.34792438846489571 0.41904037941814387
-0.74717296656624654 -0.95421037417502319 -0.4159479163146802
-0.3250515518209216 -0.046009893636108856 -0.321707824904367
-0.31094571260198123 -0.43293517261481096 0.63879430244946889
0.32905738171348453 0.031884796331556942 0.68121343216203378
0.45346174024371955 0.66756417036106885 -0.16711620993641496
0.07542662218682139 -0.28087924482429472 0.55431128161145082
-0.79880700833285534 -0.93302083036214079 -0.46311761903107218
0.4421042698325639 -0.55056761630524598 0.40972867511931454
0.72400647152232622 -0.29533447055193385 0.6904469709250538
0.15898297823328633 -0.036431208446788155 0.77373062392353198
-0.72813917570085351 -0.57738881416160215 -0.25219858279443308
-0.21553265784398956 -0.32956515415129051 0.61620606520740928
0.39659799953207298 0.65205332006475469 -0.19417677784234755
-0.17572614885620386 -0.089755675991798789 0.28150152311661181
0.700021624643135 -0.55235348958523911 0.44322920531310395
0.26824443801549336 1.2594338459352459 -0.43938099111051265
-0.4898660485111801 -0.67056946341281964 -0.30302923735246878
-0.95250379192344425 -0.7109079087867114 -0.45075793022625721
0.1257300040914604 0.48622697658672909 0.69184038121597879
-0.35166884836604329 -0.75451627693361711 -0.27717616653046928
-0.21616041881714843 -0.37702120166874131 0.66075500493720263
0.34458102573531768 -0.17695834571284674 0.34323254644339229
-0.33646313040525122 -0.55835912028834134 0.25399131963658839
-0.23609487450779376 -0.11184093432372677 0.76519074382725094
0.12576466532644837 0.69434140095287677 -0.47259798372694917
-0.40090779081377903 -0.23240304621067409 0.79574272030993498
0.21468089466849705 -0.13890309398832645 0.79870067744588269
0.56193995132075969 0.016801286817944572 0.58100655629884379
-0.45151292188662318 -0.74471774058523366 -0.29146166312899435
0.27172279691036039 0.0085500060081153961 0.78047456933549597
-0.37358049938708149 0.28910136877235981 0.62211107896159135
0.18905980803526212 0.75935626382831067 0.55004886884966453
0.19353944768301723 0.69087817867360712 0.58994380536395852
-0.15008301123604539 0.39687877088530144 0.78129831450954335
0.045364256049989393 0.84672912107209264 0.58377930407028877
-0.72161156152302564 0.45042219498740277 0.22461046486454528
0.28785649289014614 -0.1042624973039894 0.77190608928796323
0.72662392126159858 -0.48426678231790188 0.69236225472604751
0.31110216935379498 0.50481562243305511 0.019014024609436575
0.59701658815296632 -0.67056755795599887 0.62067409732394552
-0.82686823533970255 -0.18429372285659618 0.16471832597510705
-0.29198876885438629 -0.14500116598360702 0.80481732207922185
0.52584558465538933 -0.25207558779236727 0.33172729423334779
0.072431572083210938 0.43738220609267042 0.77226081191204266
0.66028252146621291 -0.4509226866647893 0.65251951838525102
-0.29554412073554204 -0.14540426129887862 0.81010124406526707
0.4399136729858828 -0.17806368403721162 0.26966739326810441
0.12484716644403271 -0.2393133629030606 0.70413412222378646
-0.92301682786695682 -0.16046446615482868 -0.053351218723751259
-0.01774960657845881 -0.32964382174747353 0.49039366378993776
0.10448258017254197 -0.15269377897097947 0.79510222435239797
-0.39970380712269726 -0.15407438517872407 0.30488299935197283
-0.61143222762336702 0.058869060169097764 0.49154136852257224
-0.34131806766349637 -0.085033838103313997 0.80373706925977295
0.29576014207436963 0.71479768409233468 -0.25604242713686531
-0.083859750762306007 0.25902169989993595 0.75309068127514145
-0.55977125401683381 -0.33871775402515691 0.58531881167111166
-0.28203431245140642 0.31779475196668017 0.78772066319613465
-0.43518372978830655 -0.74008001990069783 -0.28211137233370742
0.29822100392129869 0.060587862152430283 -0.14411177365985317
0.222002518964727 -0.59569800714139731 -0.091071632970125549
0.1822096451932147 0.014856779823634092 0.7677639657144546
0.53585131736348046 -0.57097213813144165 0.68082049431289171
0.069547679164154275 0.69486937059981013 0.64895059023834989
0.14402884707301133 0.87483827642720691 -0.035816521473527985
-0.77286833129398769 -0.015395608511591163 0.5943599990233821
0.20824785162706227 -0.18129500896126149 0.77296334249000154
-0.55915130890758658 -0.37584416771534368 0.54211718492877381
-0.50300500568905893 0.061575855841911498 0.77471825366892944
-0.60638575277256379 -0.66189167249191083 -0.31104759408135152
-0.068667418519364531 0.20710427250682439 -0.59434782434854228
0.1910648219923754 0.27166343952018757 -0.5445679247129398
-0.63423324742941301 -0.82089413133108824 -0.36744825261735237
0.30531112506830205 0.39987002584331677 0.41633242195009679
-0.11343960957236643 0.12618209748009956 -0.3570785688888698
0.22362824502667777 -0.37044082587551141 0.28228642535583859
-0.61539978877645396 -0.95503885998200833 -0.33051529108985722
-0.46506768893003958 0.034031069422722382 0.76416925457512441
-0.015215253043146859 0.47802445519363879 0.78269848087696658
-0.43405738442633535 -0.026770260957915681 0.75084775018189731
-0.25993444853137859 -0.090897017588935647 0.75176344034978193
-0.65012231088000405 -0.11629202009535788 -0.31972263202830931
0.30866275505070817 0.59043174768154039 -0.010647139220234081
0.74158240842507972 -0.4500672948319453 0.41036196991710483
0.31744813958255058 -0.073696532062127673 0.73955754044721189
-0.63103987034077136 -0.069816382298318658 0.73051370085556755
0.31997294426571088 1.1833827629756195 -0.41120477767660546
0.25349218088180869 -0.059004899203999095 0.79921938538925907
0.45208408122937449 -0.40702906437932462 -0.24460575851225919
-0.65668762115019774 -0.044468792109577215 0.51317263458370022
0.81594362038310564 -0.44990071219570371 0.45793854243041565
0.29386281329118091 -0.00030220508014533465 0.73349891347975849
-0.20549150929517079 -0.39346867600341096 -0.55751983048683051
0.60442927286591086 -0.21258560096197776 0.71706992229717947
0.18796911157489227 -0.1841418211085335 0.7839035691160241
-0.26996504906411278 -0.37078020937822842 0.67738577505062558
0.39366973049273568 -0.36660739369119533 0.33090937687897082
0.42954927193252601 -0.61886768246894608 0.28742663149833803
-0.12722923244234341 0.58009992879888372 1.1770144551617392
-0.35575070621754445 -0.80409212983729539 -0.21763111457923756
-0.17831571715657546 0.32672510925497544 0.76055701611647031
0.038743665566350671 -1.0102112336125479 -0.67807094646568267
0.46845934770478692 1.0645942416823155 -0.4632038079155798
0.28155189439845074 0.43900445805054744 -0.37000590801208055
-0.60801542799449049 -0.65549272062117403 -0.30085574011290461
-0.76985276232935984 0.55203866634797105 -0.24037463764596012
-0.49117666386391878 -0.66044766363421292 -0.30233327245694497
-0.7810076525030798 -0.94761177906735838 -0.43669875333708408
-0.79529038206195679 -0.47328151045646916 -0.064894252601293445
-0.32513767074479549 -0.51474039196186894 0.44027527991201687
0.076459287179039492 -0.444825738673714 -0.12804705355671153
0.44100644386625376 -0.44846437548106977 0.70622258484543465
0.39162763012704715 0.80118446340133875 -0.31851622518545319
0.34566774737084849 0.21957961484802091 0.29396788737098056
0.45927019029074678 0.64673034351137737 -0.15902314977531873
-0.43786133390715598 0.011879938449546934 0.76591075305826273
-0.64669748491816215 -0.17805762682958459 0.70220312063704426
0.19766140308513691 -0.38390100936513427 0.60859836811815882
-0.47897772571902753 -0.038713994047987477 0.75067947789268707
-0.58677426175971892 -0.070129028597238907 0.72817183912573391
-0.53751285421239814 -0.10035919470180765 0.73529212385167675
-0.018463863672650405 0.24942951186107631 0.74526907375877904
-0.087009043895768912 0.97670793253417987 -0.24822510068616666
-0.60796148515338988 -0.75897780495834688 -0.34302261017000912
0.27346277467802693 -0.010077605862282901 0.79244391766000533
0.81583466003414884 -0.2077892220075146 0.39948139320357257
0.26444525215326564 1.2191394392430857 -0.38506692472328119
0.65826032998108275 -0.058541560935942982 0.63613992763826133
-0.40042391829844171 -0.50646160131705464 0.57355979117965283
0.20478751929557326 1.1740455423717071 -0.34366072146545079
0.93531307131836883 -0.27215464003793421 0.48593157881359694
0.090213773422140875 -0.34167829753552414 -0.54367711607928193
-0.9019351398734532 -0.25357498248885335 -0.29226108028580633
0.39252264435732087 0.87019481516058672 -0.34903364028948225
-0.44431606409784408 0.17093917901042843 0.70092738203567073
0.71183232532787599 -0.34219803155942596 0.65796476094389078
0.29276898117114669 0.11032793238408356 0.50573421805286145
0.16156740434366412 0.91966877300060013 -0.20776335330659457
0.23548617857094101 0.91773737621290685 -0.30022999114548021
0.21459956168313354 1.1613647525467643 -0.34516207748256278
-0.5641999519394254 -0.65092132488362697 -0.29636609095242328
0.075102674615358467 0.45960213823465246 0.75825857729211066
-0.11359264047281492 0.016236114268155077 0.74350937395475647
-0.70547952210896803 -0.629101797302833 -0.27220976175004186
-0.30652164823826578 -0.37510135140929179 0.67846176704266803
-0.040886289163934109 0.32461730301365677 -0.17599696396004738
0.35886700751097678 0.741675899802968 -0.3003108638736709
-0.17118319368453516 0.53981307700522585 0.73708846952915152
-0.37943650630430437 -0.53172464806190334 0.46331080962584359
0.19020142000843343 -0.0049526495237710577 0.79499327051330759
0.48556071248361654 1.0534888740116264 -0.50786512668734929
0.75604952695860028 -0.51008285905811235 0.65943659744268146
0.37945074441733873 1.0535819463103531 -0.40856611435239643
0.7373751905957473 -0.31253917732017555 0.65296460130760181
0.44705863662432677 0.046860567251061802 0.58280425357957633
0.33325414816888355 0.72437927937381286 -0.26377890189234598
0.45483448480613298 1.1544122317136241 -0.41476958030419553
-0.45278756681921273 -0.24623621586205147 0.77507513796034821
-0.49963630217164656 -0.3610990731099859 0.67396612295756064
0.50975353159346781 -0.41881695798490792 0.72286913161272537
-0.45974745704340059 -0.56473277198349603 -0.4251196955008183
0.095578326079326814 0.5477007541714487 0.66886607556245536
-0.87190942372780267 -0.15606738224554384 -0.41973669252047152
-0.2082770162568961 -0.52233547111704404 0.20726973294167905
0.21048789413942082 0.036732522261704759 0.74448631710868085
-0.45813900482393777 -0.40459362897231976 0.65576417296844269
-0.61371516685627991 -0.98464504711660172 -0.35309785332871257
-0.16496274229120012 0.316213935211616 0.75449897684386436
-0.62849332774187694 -0.7632483403361725 -0.3509879867344905
-0.33260085750995394 0.23320157748159609 0.79531498478238838
-0.23463944426244687 0.42722436286381615 0.70447005558368936
-0.7514726044310116 -0.56630090032874314 -0.29160578263561909
0.49589183698250672 1.123738481868112 -0.41751023956814848
0.034452407320761935 -0.27849895310476214 0.58683339598273854
0.17716887862204977 0.0035556795537239339 0.78334177795968429
-0.62309746048524683 0.17820943833001746 0.68536406773542069
0.011161718545558585 0.51034121656194653 0.7501181388219198
-0.64066422873962114 -0.36550476372899343 0.64141610991917908
0.15131452060555262 -0.0053962767885309404 0.74257523123596769
0.15634827173140309 -0.073903938122534818 0.76952555875378437
0.45385768540951155 -0.60456654226124584 -0.37181300875738188
-0.53980637646584828 -0.60721631258660924 -0.19744365896963778
-0.06635777300985346 0.18505273544149681 0.67248138623146758
-0.2171407116827444 -0.029130420504868582 0.75599396863847801
0.89523574773549264 -0.26359732016009296 0.62002677444301391
0.13520027410825008 0.32279231883897719 -0.30066713980586357
0.042351860492068738 -0.72070129134049932 0.61796900934612964
-0.57442259167566956 -0.23901766384452561 0.6902329394815645
0.27961880886590507 0.74547798384509534 -0.28845494342921718
0.3084439918704085 -0.1174649873024709 0.74188287774494377
-0.89394767276586196 -0.64763900007909125 -0.39754041734108814
0.12329345223509947 0.39729982495228278 0.7246917332175915
-0.79998648911539938 -0.46093362682045491 -0.16420966451815033
0.40596242714138953 -0.20690918121000745 0.22231508075045348
0.37351445761565039 0.54831243030715449 -0.10227269648998494
0.1457924211830548 -0.10919045490639778 0.80773837539162763
-0.50041240672746223 -0.55138057579436683 0.40102050774863152
0.65069759842013397 -0.45090890394931638 0.70692306538914451
-0.26296640566452556 0.41963041620743091 0.76401353180150089
-0.59108559768818392 -0.59600745809601552 -0.18206694131526113
-0.74720022723465185 -0.35026440912468271 0.63868207902353191
0.048792555579328933 0.81799099577503931 0.62676454508241441
0.3023562579964274 -0.11851073690176328 1.3892481349834558
0.42045155022375447 -0.12737869622367626 0.72698137382999839
-0.7682806130184181 -0.75540634224418213 -0.41110156453045033
0.23623826986377239 -0.3941110668055412 0.64356696296965588
0.3277308266810639 -0.18938071833029024 -0.16569057277229504
0.20418771601512375 1.0317408055569794 -0.4162577971348842
0.42229853525908467 0.026601027985500458 0.40188682291477384
-0.58099991637400272 -0.68131885792795455 -0.32121594777394247
0.63400676150338597 -0.40472653076238352 0.71226675645504578
0.19891579952146365 -0.11124914714214551 0.80748091363923891
0.28454590047353001 -0.39851841660128606 0.63422609723566126
0.13039356353169218 -0.080445151209965537 0.76678067797240423
0.11526007950519634 0.89712498587284983 -0.07056658139869576
-0.26740236054028443 0.43179454656675542 0.66090862420094254
0.024924835120161859 0.045098549236126217 0.74466525675473072
0.50475368638048046 0.92305532951110703 -0.42513608139310399
-0.2475547625179555 0.66948276265117812 0.70623377429718204
0.16166679960645247 0.88294435321307052 -0.18379548301588855
-0.47484091384430904 -0.64970489205524018 -0.27548465932481569
-0.51145573042453041 -0.52242162932197012 0.54857657050348063
0.34997850314053736 0.47299403791613059 -0.27529474917421481
-0.7672239067011084 -0.38639807209684207 0.60507823269526995
0.45460393990950365 -0.037654565205922808 0.33294443579123367
0.28144399300229672 0.70622223002502427 -0.084161562116200628
-0.62577701764962779 -0.042585880650728214 0.73699673215266515
0.79669705075161268 -0.34768384680779452 0.69004555219135533
-0.090851011864158338 0.224203112065684 0.76215236170520484
-0.230912548142852 -0.23837187899663359 0.23526266681472485
0.4448563882989589 0.45964252010625284 -0.21591380593219966
-0.11182787146401729 -0.053037635218979418 0.75016378351885749
0.24799876517722019 -0.36110419587333276 0.13504378101880476
-0.21699241266752978 -0.28541024315041508 -0.62582234774342282
0.36329846567064905 0.19561257672725318 -0.10985502144134429
-0.47098773934721905 -0.35234468763329918 0.64682055540879801
0.89928857429746856 -0.38247238161209829 0.5448133771153465
0.45594218384817253 -0.15193441036808331 -0.35240444401066995
-0.38380758423024819 0.031147415012930502 -0.72533676353538645
0.24447591064990881 1.0419475230562947 -0.37022426718680634
0.22889021387634934 1.0710796958499786 -0.35010523887604172
0.3748429496534893 -0.46872330765102088 0.19918509418011432
-0.60450055931594537 -0.18355216761463389 0.64774996321811606
0.48991481390096858 -0.13591794596062901 0.31867373439152047
0.21484551671767349 0.97991266586182491 -0.29814676573590937
0.51675367239860037 0.51927063458403921 -0.57203580686956634
0.28446089746623926 0.7277649527572807 -0.27917208656544013
-0.67671971719028789 -0.71620343321600188 -0.35646130769736484
0.015000457615858664 0.93573512011939464 -0.0025510404066331205
0.26490963362469877 0.20018640509013697 0.63214942848852118
0.31175006784404502 -0.21614879697274691 0.73506589867038663
-0.39266480788291158 0.20812485861742935 0.62128740284912354
0.31903755183807192 0.90273810544339739 -0.33835299396320195
0.81767898698504915 -0.28314372171290803 0.6775717012394491
-0.16498676678293211 -0.27135311534520756 0.71754314130727259
0.67727055249248203 -0.64097692189839695 0.59617309360077364
-0.34546323233321363 0.5018320293439027 0.59354407041110235
0.34546198686798846 0.70159161549476412 -0.24325161848590149
-0.23387422690766169 -1.0872682301994665 -0.21928743438392395
-0.52606654355149995 -0.86826544271597239 -0.30673124327024492
0.16051140493130767 -0.05254272343059796 0.76730971380623281
0.094735367613903776 0.5746860195183956 0.66999684693386286
0.026524965003916989 0.82852890422159842 0.33328306747232972
-0.051049670715871187 -0.15107818809534113 0.76140678046295029
0.31119727265702046 -0.83334384476143875 1.072987285503312
0.14726373742014864 -0.074270883394655485 0.75980230706717755
-0.33703622160503333 0.18046362826942275 0.79173942789723917
-0.21043194109775865 0.27468371033649586 0.69793161198352927
0.25710877390782017 -0.1371923295153632 0.78021146932854535
0.66410296743351438 -0.47638945138501665 0.71230641476898171
0.2751594458531148 0.16697732518259922 -0.43036808581072172
0.37833543144527582 -0.72535331738139952 -0.40888887594474621
-0.019853706369313606 0.44693829335933621 -0.65285987982613669
-0.57035977270490967 -0.73196545093882293 -0.32729767346821781
0.47217036790540234 1.0860137212281495 -0.42444086492824873
-0.33463807299139514 0.36389099462298535 -0.68235114933403906
0.31758157572256707 0.55091856716964838 0.32167154013786181
0.36464039909788326 0.39437558815958873 0.23717514368836135
0.52246476010960485 1.0108822008862886 -0.39856232236754074
0.5146470002049508 1.0071339565576203 -0.40277895335033165
-0.41217749068105114 0.17827046195652496 0.730409700333988
0.66755074657651825 -0.45787637626565747 0.6591099147311521
-0.055730229839054957 0.50746997090594181 0.76595947197185588
0.52526505299806736 -0.31850707200876816 0.72950739050219404
-0.71750518493000293 0.23688385728325922 0.39448544792130136
-0.64062105739098119 -0.65940785305882699 -0.40480185249347311
0.47229564279647462 0.77753489178932877 -0.27911455338798419
-0.39291285244758445 0.44317574618405864 0.80724799536876013
0.27616187384164803 0.20728762380066179 0.33128974511508247
-0.72241928486927165 -0.17313069138518156 0.46532780811284979
1.1345476499706422 0.15208537545594769 0.67927682838012338
-0.8835061559986177 -0.77922461405026677 -0.52400307310889271
0.22747206158718214 -0.068958637585359028 0.80473348573465486
-0.4082728115270724 -0.41470024655419202 -0.54238234085233117
0.1774583324991621 -0.36230252570101218 0.60640350267932952
-0.51482076225046569 -0.71151891333328621 -0.31256993680351375
0.27685810497704288 0.74132030913978841 -0.2791923846313491
-0.78967950182241964 -0.75503782844463263 -0.42743234894600768
-0.78605071032091978 0.51406286090173836 0.57889956354320304
0.80955679862212726 -0.48381063267062263 0.62711679491465233
0.50229158358237846 0.99935378426498378 -0.45342021631348572
0.19041116248554246 -0.39017104311317929 0.45993329409645156
-0.40549072733643143 -0.061830185620689981 0.78364552194488013
-0.25597648692661412 -0.20281082154510788 0.74571871841209614
-0.55687723405552525 -0.65987696667758389 0.36864019301669604
-0.29824567889601905 -0.71853979458892514 -0.15848808143290505
-0.91512395538680247 0.46170634027484736 1.2686674162711489
-0.11964609823953154 -0.50924633120948659 0.061502749845921301
-0.0099219914895858352 0.79256415209493714 0.65636789769467896
0.23224237901304612 -0.051373524897316614 -0.4827155683797919
-0.68074735040311829 -0.51972019536372205 0.44555559352585128
0.90247092051093958 -0.27415481194001234 0.04470733934852511
-0.39118479555789598 -0.39332471220776011 0.60741106109067822
-0.96724243564165846 -0.76417183353790108 -0.51541667861186191
-0.15888273617858228 0.37177303780747106 0.77381254433546509
0.64016330128413657 -0.16493186917870784 0.57971938893484243
0.62949168582612813 -0.43169748248121831 0.70210866254064719
0.18872790748993218 -0.34790298436156863 0.63985087623345649
-0.093860753521701312 0.62386075518593032 0.61035678673132665
-0.68053956138295213 -0.30267886744336625 0.66868057913505563
-0.17370837540841499 -0.44164103852519343 0.4757400506940499
-0.86965737307757873 -0.33468527022757932 0.020589552773348174
0.3487710288019823 1.1058334969999599 -0.43255647645565531
-0.32184451304522366 0.83212235587126671 -0.48118871636500593
0.0090333075519186679 0.50310054600432252 0.7627665697633379
-0.21503039426586223 0.41697614865964638 0.76453890855489348
0.53450748171702855 0.74006386686731762 -0.2678995200919605
0.43650342477653581 0.73840090318618756 -0.27262504428301604
-0.16503475543364843 0.2562217551893049 0.76889230522258956
0.8804946698581233 -0.71176931090956508 -0.21005576064575759
0.80163466578275866 -0.26625180097476253 0.6817250713116163
0.93353756394474097 -0.23082735288413581 0.54174144616159126
0.095453058856049822 -0.39093333168445898 0.25172845680251932
0.17842653619796778 -0.078158915722518429 0.25397664803370645
-0.67962163012714427 -0.33273999573096447 0.6570061256130435
0.27465162144920097 -0.48462812903155239 -0.45596702495464037
0.26586139574594903 0.75515891211318387 -0.2532011523208979
0.18814709349992853 0.42910542685773301 0.67891786337889215
-0.41043322634501145 -0.37313425449239457 0.68247731998045857
0.13200744406358744 0.89248052806430156 -0.33358203130192976
-0.45686122760942993 -0.25240395870905186 0.76876348475964384
0.046094841336947745 -0.64645240519901304 -0.73034487143493365
-0.23370429234205314 -0.14930609902454606 0.76406421299853911
-0.77232252760045661 -0.11576031532666864 0.60154182945883505
-0.001839380178013883 -0.31415465224700601 0.50607988149983996
0.018763558383639634 0.32628189310384226 0.80032586957550222
-0.39300330383607029 -0.66471738840358263 -0.18880157899994288
0.038535319453721684 0.28446432637119212 0.75245210994591005
-0.56016214548168364 -0.31289546619619202 0.66946881712387363
-0.63493338006480116 -0.22132425451558024 0.68522460193219992
0.368202567593368 0.92106532080072245 -0.36082393141905378
-0.89283162704623642 -0.88763721398578177 -0.44259393650067302
0.49024619706546524 0.29084088628268834 0.23042533108030483
0.92253137872515367 -0.27188739561827546 0.45907357740324706
-0.77664626625842903 -0.98771791774088147 -0.39829965752524465
0.38796964079178231 0.68820939390894331 -0.26703322266420848
0.11305916920631276 -0.27288680321658987 0.64461556912861262
0.1345026723450129 -0.16652781590495103 0.80506605530614195
-0.44589921425267054 0.19032123060901274 0.59161614531064011
0.13294562347913619 0.92087225298832553 -0.33242095053291898
0.65682031945419794 -0.23289529971625722 0.037665276413227033
-0.24065551957308973 0.31159132820710855 0.77376808221871407
-0.39486334402385115 -0.30947281347026312 0.7247824904598783
-0.30548031185242586 0.63458180095299976 -0.061468082114570777
0.77473998864739002 -0.36733193285940757 0.6593206249665684
-0.66545290445645922 -0.95488807884721894 -0.36416106942962401
-0.97182909515843452 -0.6401454768438537 0.089022436042654363
0.87233289610707487 -0.39456777116238584 0.61220059453815878
-0.51884074280232362 -0.66794061164388374 -0.31136751606990742
-0.8894615509382815 -0.010008961576959408 0.00062449539210085447
-0.061242559110898043 0.31224841374388568 0.80371214627191989
-0.055605360883780541 1.1428116496435132 0.26307843897335736
-0.66064085992158095 0.38324729577460914 0.20021912886849158
0.56625720292869453 -0.68993241200718725 0.59737547521919687
-0.65533506307979206 -0.053929198992382688 0.73883156287858043
-0.51479835066085045 -0.60731821160879296 -0.13403290337003426
0.46181986731290081 -0.14702270255152783 0.7255165719510579
-0.41985954386562785 -0.62535503522684976 -0.10043203423269098
-0.74415016465320516 -0.56189307523193932 -0.31825639313836085
-0.69634380438597532 -0.49433282848253235 -0.37310310120001944
-0.31760900672997927 -0.43462463393827377 -0.28901251049498278
-0.36859215836159986 0.018208397737280002 0.76929050082023487
-0.48134198883208601 -0.20293711116715585 0.78128834129352676
-0.61933425044957513 -0.79595151682970844 -0.35484628225586956
-0.21384743259033456 -0.38754156472703283 -0.82357972951073322
-0.65625621412949808 -0.47108876512222597 0.57864126731853194
-0.074927205707442823 0.12420791867858849 -0.28516010323933116
-0.47630191893861351 -0.62781928510516938 -0.23020794225775987
0.28514203306393604 0.71867119709817295 -0.25392178888547257
0.68377123619615254 0.13041014320432787 0.041611940289119076
-0.46968760333666015 -0.42050018139258949 0.64524551609406888
0.012665409539945216 0.88720592360432793 0.16812209180796778
0.19795587004051463 0.48187938522392493 0.6018277680347186
-0.52598542284108607 -0.069981735141631418 0.74186992066199586
-0.40490559299325923 0.47480675538464023 -0.70560178335554191
0.75006573454107439 -0.54107592757954404 0.46998370911473408
0.36191759372030674 0.18951036459488879 -0.02275747192457267
0.61433641872664602 -0.57710939224486157 0.42211888229422101
-0.77031641022155117 -0.42763625543394124 0.45335505604688642
0.21024289290086173 0.83019622471898735 -0.20697317994031117
-0.34985002498292506 0.23491383894290863 0.78019815830240802
-0.098305588735964733 0.77215504141372815 0.36922539977399005
-0.42013333931051378 -0.73023227853823869 -0.25747859146882845
0.027601721225018139 -0.18472744024707932 -0.15168937160433238
1.4245206064667801 -0.081569604498080039 0.76658359563366751
0.58998017903743261 -0.33647242333076566 0.68076253686831834
-0.5645865094119511 -0.08481397262452095 0.73514260098835571
-0.53850006394112349 0.0095650284699440036 -0.027250389328010272
-0.084763091432703774 -0.50147910952021046 -0.18891449473947475
0.31052837965816593 -0.14354154255786877 0.73736656499032271
-0.30646480116702701 -0.10072310792909889 1.2975299551107025
0.066087617918537234 0.47783138890074017 0.74957026279941807
0.49067768130685607 0.62964786903134051 -0.27482539674766571
-0.41463006358508281 0.56199317420235673 0.62243329668713798
-0.54734251563869307 -0.028277235507177423 0.74104362887818453
-0.67732439236125774 0.096725780977000575 -0.40024234335862197
0.13824318464505581 0.42709279083461738 0.70091213618005099
0.053667059172237686 0.31282859352868542 0.76059515742221961
0.18135273762204918 0.49795371776701192 0.6654527699657713
0.47297241215964902 1.0757627413790631 -0.44345178108723005
0.12970573709686661 -0.17334506559793539 0.79937730187806011
-0.71505062131065777 -0.16955626602139962 0.4294401669385266
-0.38502677263837359 -0.22683795501744441 0.80023852722026945
-0.71826917793776524 -0.9786974125279162 -0.37738541898887412
0.66631158059622386 -0.14643276642367287 0.3798753302259783
0.24268801697112075 -0.049894604949145105 0.80302290867007819
-0.2256142808946251 0.19176113399581851 0.77992091958047105
0.72834925062009326 -0.42636367753126425 0.64572452708977401
0.33188954041084706 0.7748786860791439 -0.30953114364243817
0.38448102294430875 0.55267659396994961 -0.29301741950033922
-0.3019776589891805 1.4101171813544449 0.81998912744966646
-0.56659552046422412 -0.21049288906695729 0.69940301044955433
-0.67498158701714406 -0.51571699145865946 0.41437301494189782
-0.62715161636688066 -0.5723127727191013 -0.39112639447893116
-0.63060649784891964 0.017190303562957254 -0.27592963295519901
0.038542496357990785 -0.38997667260003688 0.68323642647395921
-0.38576754631405574 0.38833710632933105 0.62515950352932492
-0.61095214867744208 -0.67553838433966185 -0.58469156878050299
0.56436774810813439 1.0270696238860157 -0.42521013321454149
-0.66682811997174074 -0.94815427867202295 -0.38335194393029148
0.32167184974593077 0.70177591584310228 -0.23828285660428961
0.59163436907255829 -0.32921054864548172 -0.38271561780152297
0.64952291955681218 -0.44351964582919656 0.65673330644284
0.80900342472431852 -0.30671140528541763 0.68633313020264985
0.5571525714912795 -0.4979470180736385 0.7102280371639349
-0.7017927582828305 -0.79573554764084165 -0.38238804216473721
0.74202088142601141 -0.44126435708324419 0.67227785795223838
0.36513492237538614 0.94256986307377932 -0.36734004245113994
-0.7077996121906569 -0.24310640809076123 -0.4581143971887105
-0.56419628781343167 -0.64580136444165159 -0.28495931836734201
0.28300646759166703 -0.44599375655046103 0.042521061697494034
0.31032968544072581 -0.032152044216581466 0.73966073526696086
-0.23644515144775902 0.51543909562885215 0.64522256222804053
-0.16008728776178316 -0.16081500460493814 0.6696500114631796
0.57745347922032764 -0.668390707407295 0.62385596940900623
0.29462549716847342 0.73807157594748141 -0.29536113996196889
0.17907577263731156 1.0638992863194394 -0.28625320634168894
0.25852741727469386 0.73808627145689876 -0.1980580304877364
-0.6138789134699083 -0.96479152310523553 -0.33227710211368588
0.29040684552412266 0.27270139745017463 0.1294903376449259
-0.063268545562051415 0.80110494635001661 0.82374684097789874
-0.10544782041922041 0.98151581647110753 -0.131406273653214
0.55121178369340917 0.85330348137536216 -0.33265702773810091
0.53714630330119917 1.0091974912138388 -0.49525224920078692
-0.19165486021857525 -0.14457866517594464 0.75364766639249225
-0.29911606523093415 0.4689551675200665 0.77380443491743023
0.45060093501004062 1.0921877938570637 -0.46547522106104822
0.78004153551430555 -0.40548547278567337 0.68254031139522375
0.21213648861312517 0.081195156734551688 -0.61585286106747361
-0.10930632599646373 0.50384992410687257 0.7476102266216138
0.030894342228645399 0.26686566588625649 0.75263318282251923
