# XYZ point cloud file
-0.69934420461221947 -0.88135038149894407 -0.32673972110190042
0.2643926722397959 0.6144641143118158 -0.24121773784175304
0.40777577645750851 -0.45254007911308392 -0.3106029266674557
0.58535517997332709 -0.37281470674452105 0.63840292809434285
0.74179407260575847 -0.30528216505242556 0.61861438510681821
0.50027652402608092 -0.38855196382756468 0.70136866217681249
-0.68872754195026797 -0.71462564673112339 -0.35957849740890058
0.68430342398780819 -0.38705646654962056 0.63702456611318814
0.34397746379443861 0.84281487929720822 -0.35573548199901517
-0.59065632450500205 -0.12657284320858675 -0.4960263035366097
-0.57841101479106249 -0.57819521527279127 -0.23764408288840477
0.13881527045068287 -0.43377174071957486 0.14839807997857779
0.25172066941039339 -0.016675921388756731 0.69699613626728607
-0.14298725092263986 0.50974919662066431 0.62842090297867093
-0.18921074621865674 -0.078614072559078083 0.67660835164009892
0.52533841267416226 -0.52287795133495418 0.65453730200346638
0.24917701025014899 0.65943900413855816 -0.29228950832825851
0.24519344596042075 1.0107304102095407 -0.25628188116500039
0.2248431736729507 0.66450388531576521 -0.1985229566833
-0.67199150648688877 -0.90167618493234125 -0.25149024771896822
0.20051238820878692 0.21608787646315925 0.12615345718830207
0.054448368491534949 0.70865346257956596 0.80052046487722661
0.037300429390260681 1.0014327765950162 -0.10127247883458645
0.46870341986586256 0.70161655252673294 -0.34593594479018175
0.4915889793089317 0.86558401600862522 -0.4798913905311516
-0.20994830692785293 -0.058776634277803858 0.75091623873433178
-0.19740346153261112 0.46580999816986429 0.7538077102817291
0.44656728938431273 0.96912157551179379 -0.43728520006614713
0.72161469775077758 -0.36884346949875146 0.63416541850791086
0.082155632446088589 0.0022099565078649297 -0.58221288516868963
-0.043958274659943342 0.47228643219265742 0.71713817307227901
0.032545283123168622 0.25498042809232613 0.71369174440487448
-0.16868344847998151 0.028482885515334011 0.052135855946709553
0.27560209302852445 -0.097740160929665143 0.69930226376983451
-0.70428759405087038 -0.77342811196889627 -0.47538584340361822
0.71386949304464831 0.26474681673927369 -0.17432178891133265
-0.82671207859089646 -0.72333138127855234 -0.61109113646224644
-0.50620897996275249 -0.048918111558149957 0.71783741256190758
-0.60902523022053912 -0.65301775186653199 -0.286600008302486
-0.29712888161326645 -0.14629329567202118 0.7457008312033746
-0.66308781497119307 -0.41780963411408245 0.072935025016156452
0.51097741856120804 -0.36378702674886737 0.70246789350931138
0.27276273160827802 0.055192551470999496 0.63906183888370682
-0.69340292881378829 -0.14277373039567637 0.61327962798702229
-0.67650277046847995 -0.25347412469402997 0.63223455518653249
-0.054432740767648813 -0.23484570314979153 0.5238707694774849
0.63202766181888947 -0.38967178854664308 0.64759263169960413
-0.45566936147853521 0.002545967671674379 0.74736514862406289
-0.33606070865166637 -0.1189859064842318 0.79921528093619743
0.29069321676647841 -0.041488972468645746 0.45467527449867817
0.44667113591589991 0.82870485607185784 -0.43119716819419263
0.14425573251382651 -0.069588711782071322 0.59016399841427214
-0.26797103693310426 0.48869173210853728 0.60259039433791228
0.3107229882960309 0.69416317759885793 -0.31577575874576069
-0.026941539179675067 0.72638414340122948 0.38003564519535726
-0.21798738874174989 0.96515456434948166 -0.10458212951316725
-0.13609792372184581 0.35784948566943631 0.73541676844429582
0.39939073043878204 1.0645927010912462 -0.4623461838815196
0.7256850726273425 -0.36154216975612208 0.6316771124602536
-0.6049256999963516 -0.24545999697004295 0.64944093979808559
-0.041155303283561928 1.0461036155744763 -0.24189320017876781
-0.53130030863874689 -0.18135321820696157 0.67365715871109866
-0.2655548242675867 -0.093139334910938856 0.76198463964816776
0.3979567966377292 -0.52363255480131965 0.56155258963339261
0.26792543520608497 0.50391360992839762 -0.32929811813513366
-0.33551103359350498 -0.27888124489671573 0.42309126127229768
-0.78367212715509349 -0.91130772620926837 -0.37524590320653672
-0.13304077394724367 -0.47448317048626126 -0.093847974113318688
0.2354945163638712 0.66296538518795223 -0.26455953350990613
-0.11368922127249881 0.19592573681291028 0.21965533679450755
-0.26725854704833207 0.065860108267777565 0.69176707452840991
0.29150629680909107 0.66532793822066494 -0.30591647769844255
-0.34075024853175451 -0.34663249631754939 0.62003954811287598
0.52101247920330906 -0.060137382287338004 0.54895429282070096
0.7930295405865122 -0.42343710732306905 0.47340229172584269
0.67928489858590269 -0.28689997025771496 0.62621544247169147
-0.19158951783740386 -0.47713236058309133 0.0044641191093173216
-0.10478105993473985 0.27172620792217383 0.74140507669667843
0.24481423068916019 0.059631612691779023 0.50781258793301243
0.68898770251003238 -0.3521843130391461 0.60189326587489389
-0.22553115660620948 -0.18973890565212545 0.65403435618384242
0.24037352753264823 0.2400371018868761 -0.32761496406647073
-0.63332759944156447 -0.47957363439623496 -0.16281297361348623
0.28435234937664067 0.47998917328328927 -0.12675117455451557
-0.3967617314015921 0.070509590280973228 0.7158401188204726
0.034792183699398294 0.42551025043071455 0.74225555825676115
-0.23212843995956328 0.60073418421161928 0.60729895040870274
0.00029813680359180861 0.46237852078590175 -0.17203250817143423
0.28123232969562706 0.88709799911184173 -0.32563882480340367
0.27251503250454545 0.033172231573662947 0.61263646755959833
-0.39282592621284529 -0.6380178287797833 -0.023694645841096706
0.28457532260413004 0.41782677624126896 -0.10937360776085447
-0.17779258491343486 0.32532599048065114 0.67710681168830855
-0.67578254776882651 -0.12895035141862909 0.20225494973327485
0.1923245121889392 -0.039243339848014314 0.76060781315560755
-0.32642946982576737 -0.13216911858978109 0.77631487934939125
0.50139877332776506 -0.15943283936161468 0.6589368606002064
0.38780276677648384 0.66362542032940752 -0.32699551978097496
-0.22521737250430429 0.50704619385107164 0.77605734663770387
-0.63778690199061971 0.12673954270970966 0.25148351760458465
0.44925513539943662 -0.54640153314195317 0.59284730342988357
0.1360450245770215 -0.14665925781556949 0.72083310831922631
0.67213874057506973 -0.35462916037887582 0.30961260499913079
-0.28014378301761028 1.0597112405986135 -0.61284069330906366
0.37646935134757792 0.63029831961125515 -0.27791480572407978
0.34861331827271796 1.0182991939820876 -0.38992642637211283
0.28579708441953139 0.44063466952009939 -0.069760386204595681
-0.30812203690681716 0.30185847849539615 0.596207442905621
-0.037681674005962895 0.17324899412183897 0.71781394951319522
0.34393093622424797 0.36040338643563558 -0.59702891937933833
0.084926389695552496 0.75361075332049032 0.45990293341679611
-0.56944610771883852 -0.74137052610069909 -0.31949666838263502
-0.20050647565222601 -0.077240816161010556 0.69702523507307035
0.00027862409814577438 0.29947740015900637 0.7647575072379369
-0.16413489176842544 0.38319259480216411 0.74476133147554102
-0.1895523386933875 -0.34629132864240286 -0.54575359035561077
-0.024707090250662977 0.37095510984671631 0.77232174854140134
-0.45375784619109594 -0.019121262002738268 -0.68866207467400653
-0.46521568609697272 -0.66279294077222284 -0.056975523908902259
-0.68239886766324576 -0.19115872130614425 0.45008271489947793
0.036541146518997425 -0.47111508453461048 0.46418425616182102
-0.76292952497684807 -0.73756268026371052 -0.46859021623617469
-0.29373679582164203 0.23174305579346027 0.75866052906403203
0.037998139462333991 0.28071120458063026 0.72391516089837604
0.25450190474789247 0.62702060008798688 0.084489593297056853
0.79893616459956474 -0.38295948829576454 0.57341133676943001
0.021872653162538502 -0.92980797369320212 0.027306960232481581
0.12101672837051036 -0.025090182984853104 0.7555899911366688
-0.1315136549652457 0.35965679081611557 0.73043871387404713
-0.0038439854101091075 0.89617438480785672 0.17092910676884832
-0.41074378980500337 0.39654212616615664 0.24940872599083197
0.019208507301699207 1.0260382934553864 -0.21843114071975422
-0.82117323102231843 -0.65276820533976565 -0.49226794214146807
-0.21550700073390039 -0.13797556427971008 0.26061889474948985
-0.62281381063605201 -0.84140148638305123 -0.28069981469347038
0.60615454878244868 -0.48876489749834873 0.66138702544384698
-0.21513239588162536 0.13829294666565176 0.5168064981537539
0.10556788446063436 -0.043220657455488976 0.77389821355421873
-0.091020036385879577 1.0375989282692164 -0.12306800584896282
-0.06523058032689244 0.2633362267493099 0.14571457671485999
-0.44905346219827835 0.053174951865948394 0.74409036116204441
0.77167204275037915 -0.45478297163428782 0.52357653843282415
-0.55529705732683943 0.41876385127485288 -0.38681489225627219
0.12337631564333074 -0.017977932238925687 0.7536005411740534
0.14823838343700013 0.52485141464387053 0.6113441527448813
-0.06537204756099213 0.16454358639519601 0.50585954569487668
0.68397853960123145 -0.27522179283758508 0.35949839267421568
0.24202752368291824 0.18938407498382437 0.40888439249251674
0.17854664491956318 0.75962123614722465 0.15853538312102411
0.39375719280429222 0.0055495521416896731 0.53534445176904955
-0.6259915384002579 -0.14048348385033885 0.67912914270720437
0.024701610690608389 0.81485746575540041 0.26499184943440657
-0.0096201239306486497 0.31819306172179984 0.77063466062863695
0.792528912732955 -0.40580396750811532 0.57091913471600719
-0.028515847053872501 -0.083869362558226024 -0.49953855770699573
0.41660124201949744 -0.37738379641000441 0.39931246836167444
0.066338568387572794 -0.070265358330983935 0.7779264460669324
0.68694876963191887 -0.43414820571321028 0.64876381651689097
0.10951996515761275 -0.026537749603078697 0.72958859461436454
0.50445795671647575 1.0597463929310125 -0.45957474764939288
0.34454279966480256 0.39876085945834361 -0.20478032899287824
-0.68945600822690589 0.032904781772036013 -0.43659926284366291
0.22601499936131364 0.14694022577082611 0.45069710607667601
-0.14867774080642604 0.33203709507094781 0.71093703674488529
-0.22995039913047721 -0.44060479171661832 -0.45635969933753984
-0.64144522327302644 -0.50150827680919352 -0.21647634090268064
0.040513883214595925 0.55791488310664772 0.65991224252243752
0.76512790504371275 -0.262168658770914 0.57237091411334196
0.045189464035470417 0.33259012590092596 0.75651168845626704
-0.71805497527681483 -0.25692251170508124 0.072576702224393719
0.70418257159203979 -0.42642013197550876 0.64118100623054231
0.37467276741819505 0.7984752120963825 -0.37398495097915641
-0.44561762491653467 -0.5454098321412898 0.1194435979153996
-0.46536673132488049 -0.12899333908919569 0.76277414955713052
-0.26246881749977125 0.026753004851946538 0.73028436630700799
0.051738944678886234 0.30374958230672844 0.74202814668103301
-0.73263465550265183 -0.62365124237569336 -0.43122533600644719
-0.49172143307677763 -0.12938401333002703 0.73139335674416506
-0.10608249810594217 -0.25646580320113987 0.080037480947627859
0.63993264491914637 -0.24637979819588662 0.35829420157093606
0.077866172770215125 -0.10276710009327361 0.77242844669132471
0.29160423903204202 -0.34863762410500154 0.68641242774577904
-0.11779150304388442 -0.46386317387230019 -0.28246789438281572
0.41568451562144654 0.11786288256897115 0.05492529220431619
-0.22221220805302944 -0.058312238949454351 0.75549821141091855
0.28716140325738032 0.62028541616477517 -0.34556150203254321
-0.32977564055267639 0.23773283424303832 0.63482124385815064
-0.51700906912244871 0.065647341188981745 -0.58654590115768568
-0.16296352337488595 -0.20871309986792513 0.6892475799036073
-0.029837103700103063 -0.20839717669509913 0.55144046677489111
0.38987798203769153 1.0661971178150742 -0.40244802477255759
-0.49419721027467967 0.04499654945625331 0.72684503822225976
-0.76208692717498649 -0.88194217453179502 -0.36467025774980188
-0.0065651424813484294 -0.25475879555925135 0.49801770401616263
0.24119573533868433 0.89767305507604023 -0.26952671507326298
0.58938713848935254 -0.3750447405146573 0.66213521204174786
0.74372106830116369 -0.46720193217188499 0.68857936170780931
-0.28304428169824802 -0.84371793961717612 0.59991042560189345
0.18290868988172337 0.2527438296904212 -0.50680207375185282
0.16038897423266513 0.24370817919835663 0.64984972360580029
0.33453426443566836 0.65856215877478763 -0.31087481397596406
0.67730464961158421 -0.38649864286745317 0.62963631509657314
0.40997592740587846 0.38372840067088587 0.37691746301616913
-0.69697465022633387 -0.18301709995684212 0.627972029552472
0.46875367074702418 1.1370065839004324 -0.41715701500866342
-0.79143359288424686 -0.54050149799743286 -0.51064392118407564
0.25571278477672021 0.56598756434652309 0.26676315356303903
0.56638444731109749 -0.55510026354413933 0.60888906393661801
-0.34119169420720674 -0.5824600296017135 -0.10535486506609071
-0.62312220847041933 -0.55067207582855526 -0.23546891958949367
-0.16109488281528439 1.0413538750120672 -0.1732733710223664
0.35603427783099606 -0.10999603455307039 0.32344465070615902
0.63302140999331025 -0.51262835394853878 0.62890759425235299
0.6228858718682303 -0.38590216414790685 0.66184222882822596
-0.4316738072589974 0.22584246671282349 0.65389639192420113
0.12559495486877881 0.23645042437397193 0.58082506997939842
-0.2196877797174499 -0.15480924298491006 0.73250328678424448
0.20767863636225831 0.70973157925077857 0.45782388066369384
-0.24629891826947448 0.0052571903226737021 0.75989786288055883
0.35502830723594969 -0.42128752914822343 0.67058207412527437
-0.38379869036257563 0.49792606430456871 0.43667129680689065
0.0797390780622107 -0.30261646965835121 0.43038149254204883
-0.29016481593968479 -0.34812637372031363 0.14070294073797984
-0.44417718437656561 -0.56793498757268224 0.032061940112092735
0.10016700606620332 0.1028595542179459 -0.57114281930293442
-0.44713624603342805 0.45164652881264317 0.37338189030432645
0.37590668877528127 0.91789288954363535 -0.37793073138936129
-0.28784151482753972 0.0072186068544272952 0.75967514028433736
-0.35614209554516996 -0.47518048551137082 -0.28368300120637835
-0.68752654475735175 -0.1827634377693314 -0.4275594136561407
0.13278098080198308 -0.028644075544035363 0.76740870396612348
0.47926925265342368 -1.0296444221489449 0.12127176014572538
0.23995084524970087 0.94806411847095284 -0.257841570583351
0.044512766304018125 -0.07490655779036931 0.73904100476147194
0.17256844177277073 0.92997362275710471 -0.21951735197426958
0.089127611841890109 -0.072376788239353007 0.78275405045237045
0.33308233809660781 0.56615314362315838 -0.22057743185162271
0.56843218446618937 -0.56087207027089914 0.5640546476350381
0.073213534816751774 0.96215556479263087 -0.27109745006551411
0.20810889974351376 -0.49694710499523981 -0.63148399231276553
-0.54872218272583673 -0.51734187546441501 -0.38151912313214731
0.32526006457017809 0.70708675602008231 -0.32097351823038334
-0.64916664545112879 0.354038752095308 0.045719968107999387
0.1736401991781209 0.52198183714582991 -0.409164453705543
0.22761285555991617 0.064542871171627991 0.57220331532614255
-0.2923842656504656 0.29749590512003626 0.74347293166542539
0.16725770423987851 -0.10154625413415908 0.75600526472695884
-0.078097564910109829 0.47060061060476238 0.71819576957791109
0.19342219831339735 0.71481605615142485 0.25594224029286639
-0.81261437120425006 -0.66301709949054843 -0.48708302711170448
0.39046482396350002 -0.50974172267698625 0.5923362049232852
-0.43738675215437273 -0.20182556818167485 0.71418434960319499
0.57700429915505169 -0.23627885500640533 0.35872099825104531
0.25886395828573316 -0.24780629852418568 0.27305057656286258
-0.47110044992504196 0.021499218591534586 0.71529830668632899
0.3795824899337189 -0.5128704514311142 0.5311815666048274
-0.38930831438672586 0.095421858831645529 0.75393974342868386
-0.42355998801161954 -0.07230337373675029 0.79717159858581188
-0.52484711336140033 -0.028577759457857704 0.7235657774118267
0.14400952062979799 0.3481858459811748 0.65943001007687085
0.053904069280563405 0.29753376139858245 0.72765108009047452
-0.50919830401206145 -0.38684650703397006 0.50364213381093714
0.048150090616200153 0.82588139144917228 -0.45820962331706017
0.67551226987570667 -0.27669343345749775 -0.49477688920173513
-0.72106812746498217 -0.87615215078411524 -0.39530995927189716
0.21021321586811292 0.71290387421619728 -0.14835923767206927
-0.50357460103009899 -0.54042890552262091 0.077712426025020154
0.14322128428071379 -0.0052578631150819732 0.76324560744717029
0.27759256992110959 0.97906722865413875 -0.32996633372802531
0.82679181936971036 -0.36785094173412503 0.42475914831934025
-0.30988156622450291 0.24495344718831363 0.71569047809332709
-0.62142132601290634 0.48342951102087817 0.96441788987761612
0.30357678369842939 0.59090160961462057 -0.25961908215509188
-0.3301215069536978 0.90328247241065585 -0.38839021292199338
-0.44021946990360816 0.74439780960414026 -0.45578452359392663
0.09518302071002821 0.57524356498502982 0.62802521914783438
-0.52262043495914989 -0.2563300453034586 0.6736244472360462
-0.064100676951992286 0.2194066498089349 0.72737504281229137
-0.045731241224892194 0.56563281617607597 0.69956445254960631
0.30366239758182922 0.54530776230780864 -0.21171451744399672
-0.16160885525307223 0.99877011943743199 -0.38335392740953689
0.7285939882791338 -0.34264347097122805 0.62903909273004222
-0.56193470055020778 -0.075370199402256005 0.69595657767794328
-0.70931785603271946 -0.026181914575404752 -0.36727294216468565
-0.47111842056121223 -0.21016933416347799 0.69072686215236034
0.062459105651344771 0.12502117975028054 -0.5482828387147356
-0.29341709175860226 0.42533289497417853 0.78375780681411777
0.35989848283031056 1.0843152466745976 -0.36683788758010993
0.10502511617705351 -0.73295668282024939 -0.83676788405563929
0.095881552923373969 -0.062326330016907461 0.78105541527501243
0.23233213187737634 -0.21574920387312735 0.71305155149967869
0.21744818831379942 0.11598788626795514 -0.48156356714123028
0.62430770807554625 -0.48640458317455437 0.65580791709754327
0.20985202402153813 0.39660808961021443 -0.33974686570019008
0.29921997961048608 -0.44697705813687705 0.49432184218935049
0.20458132718546465 0.86451891050453344 -0.20507072648860658
-0.34697433890854579 -0.13887008964185937 0.78087150389965321
0.080154167232370011 0.57980788379367132 0.63418217054446835
0.34607895902025504 0.60392183125406018 -0.27601802608878168
-0.86394814988129054 -0.78741954775451051 -0.53861251510471841
0.18986922846738397 0.028072433456581281 0.74670072269126919
-0.032877908929523247 0.27792869877962861 0.39168965522967403
0.63290603835122561 -0.34329846110973411 0.61835841383680457
0.041595473111983652 0.91265514436720885 -1.613345966328549
0.35545924087184733 -0.046312320059158862 0.65747833246849918
0.14593901940367704 0.32207191187704626 0.65973793648764101
0.23296326352128427 0.23561275862853809 -0.1691124809845943
-0.64959562037620899 0.050030016168027769 0.6548023471492288
0.4350959174102631 1.1429361424530753 -0.45124429200595029
-0.224845743787083 0.53895912193105144 0.77611217978868341
-0.50330862100321039 -0.81007919058641253 -0.16744421153318656
-0.41357687862501913 0.0074292510751029078 0.78853359913284615
0.21971226675374983 0.55859067321188427 -0.36541709321681437
-0.27880344799894619 -0.033156984901061767 0.77408133525303202
0.22561547616443056 0.18411278773218187 -0.17240478263330106
0.49550719469882654 -0.27829431926606063 0.69457513083741862
-0.75325818118188526 -0.49337726317991742 -0.40835848324769164
-0.049845516788194544 0.38214172520207218 0.77360509390469057
0.2501624969625903 -0.028738314569354606 0.70593344047254969
0.23831174779103459 -0.41049886150334497 0.5202714674697948
0.095698594149038474 -0.23553969765463592 0.65494646504621956
0.64670870518132606 -0.47470872357254268 0.28364051674019275
-0.19673275071450635 -0.51511787584071755 -0.10350389686515316
0.22619209274926755 1.0523558737302627 -0.32355511594946662
-0.43000668335604852 0.00067630600924153961 0.78480875609039336
-0.48239379600247856 0.10535434884809564 0.1300529214258539
-0.77314339926745201 -0.63179919894452519 -0.45412835655466999
-0.17657841523895423 -0.091142820675514838 0.74598155227799379
0.012671396531098 0.69385733451888965 0.64422446115474474
-0.71124743649125821 -0.19164640977476799 0.086924701662264514
-0.079493466237530452 0.47278791277833609 0.72182875873903063
0.13364249756166752 0.35167483643275294 0.65770024331472721
-0.26647099861692292 -0.47966094363876871 0.52414969413915968
0.26437204477473147 0.34956225645365591 0.30953178597624875
-0.29381552676125922 0.033804640773131375 0.75489176797849855
0.065732946504049372 -0.46353344161739529 -0.10549453155145905
0.23687427981854964 0.56328830718325973 -0.29834171813050825
0.29708769613059355 0.99778543418295162 -0.35563441194076184
0.21215859886087374 -0.053267472354742329 0.75041544401718352
-0.31386021770335248 -0.16306614693494137 0.74147490643625913
0.68223824282373569 -0.2172956797099832 0.60780502612937948
0.10704986153853957 0.21061446123637589 0.28524023945870236
-0.41586677851902099 -0.2714983849892757 0.68755502623974474
0.14783001695081599 0.0090302366224530584 0.75959406775859994
-0.10769476023533064 -0.42916432320040809 -0.37614631788874009
-0.13709534849231458 0.72939576980172893 0.34891390406915823
-0.38209964743529679 -0.63913772806101521 -0.042797371030697917
-0.2267945950902337 -0.046732000788768088 0.73399433242905077
-0.42148085033135463 -0.15092064605653224 0.77192233448568848
0.24354169266890957 0.20739372001678902 0.53510259161367335
0.69935199201120879 -0.23129936156328545 0.37395155118125523
-0.2339326109732327 0.62223650473824677 0.67163135376875882
0.08092732356009491 0.32407444699982907 0.72370599596365759
-0.30505876429331291 0.54190883274414281 0.74263597796726799
0.33241256472871944 1.1746875892887094 -0.34077448483196371
0.41090653765160456 0.66953272953260823 -0.30922682057655348
0.059658486780872266 -0.04437943943383732 0.75884477718370036
-0.39640076752129894 0.041581569831880161 0.74816215994156221
0.095892900161547417 0.93778787049957657 -0.18419623413037356
-0.17018065746110378 0.43303484823950922 0.66469887816204976
0.30935395031773583 0.76584463703350625 -0.32513962289339948
0.21443642053911849 -0.015539769215701993 0.75217151791253789
0.58108180432481205 -0.32408136938778798 0.68488901353832232
-0.72240641514312565 -0.21362686343653695 -0.24971345875726747
-0.50861229077529524 -0.66277061867978437 -0.16630821765950765
-0.41691335950125896 -0.11654013123858868 0.79166620416122035
-0.85525546508912742 -0.77268203449179373 -0.50383163158525845
-0.079412442961536378 0.79762240313089294 -0.55679574042919255
-0.55305921940874314 -0.62632956686180008 -0.25345408812233106
0.42002165168293826 1.1539823233319897 -0.36530401726008754
0.33321130669941401 -0.31093179566548795 0.70583233986313898
0.23425377217800683 0.83088091753853455 0.044245456126991822
0.21394512277223965 -0.48237120520120286 0.48824399638892291
-0.55108616883992567 -0.52583675066137081 -0.039169224977493977
0.20354142769879638 0.84097050361536962 -0.20378761701961134
-0.57743322238303418 0.19048026851550448 -0.17162780129854571
-0.29979695096462822 0.3062838849718591 0.69189153916371438
-0.13914369680366157 -0.022011693617892125 -0.6947843194664115
-0.71018137287627081 -0.91229473608864275 -0.29174956638694061
0.090245242567517647 0.24493386492176322 0.60814371434365322
0.2071689476585778 1.0194191870492704 -0.2350953430311733
0.083929110186574341 0.59152353139491742 0.63004337011114631
-0.1435675658917448 0.30247598791744357 0.74590122441164342
0.32992801749870937 0.55209996576663667 -0.2022521625822653
0.32311075245229448 0.65422485487802462 -0.31142619331689314
-0.77641534898519204 -0.84951089800574964 -0.46328957515373326
0.25350027830138955 -0.065136075091215273 -0.0045466700659162473
0.7897896405638023 -0.43733807945341452 0.5086372896262672
0.035138677117477812 0.72936757657289009 0.51712139680608682
-0.18221118875989756 0.4286149154443622 -0.62197833714601325
-0.16637387603558629 -0.27548786542605691 0.059757376115728844
-0.18368648532537302 0.58264631769604991 0.75444288082792577
-0.014389836895613628 0.59686956634296262 0.69382854412073502
0.59100503061661014 -0.52986610847358251 0.51031504153384755
-0.54116599895218598 -0.69342006994671734 -0.22553918595814726
0.014581186555581271 -0.32429911263501715 0.34675307608767492
0.24398527821658689 1.0833747685829731 -0.26895682566388857
-0.24280413093031022 0.50292062200301457 0.50840501918363068
-0.056032293791377696 0.37875802722096796 0.42288161037984517
0.086501767216964565 -0.326801335452368 0.33233091585341179
-0.46185089938673551 0.16161026880322052 0.55617990364273351
0.51835739475479237 -0.59548411196304452 0.33538800579013772
0.39313987924730553 1.0614727100346888 -0.41216448686777152
-0.82930686107569551 -0.88065325878209388 -0.53901164716128735
0.26927928112112354 -0.012096032332263196 0.67731610734930858
-0.56027757613302842 -0.24051759418325486 0.66447336831625825
-0.42221094959457633 0.28871425071718704 -0.72336150084636652
0.35365362376852971 1.0512955518521063 -0.39802122629865266
0.073319006136320919 -0.10874317007523399 0.74996733628830814
0.13992502238552917 -0.070433003302221853 -0.10419577149692327
-0.30790535387270879 0.3784410831297465 0.66577491924508303
-0.29862649047244871 0.28595156731721538 0.66268403444340973
0.6016453643134323 -0.32145295985189065 0.66845093891548824
-0.76388767291605064 -0.59485716599090621 -0.42100849496536374
0.017976532337548756 0.90852681725866224 -0.71634773998792023
-0.56272623437321811 -0.22139953248232508 0.66880387958299981
0.16400357279494537 0.30543888198576935 -0.30289350074720445
0.47621702618060552 1.0319241605048188 -0.38635340092649229
0.13693884971008385 -0.12010504683747014 0.74775630941962334
-0.11054890296260456 -0.24615474738968365 0.56786883593340942
-0.46283348540599634 -0.19532792754266176 0.70792359294251117
0.2891291568093709 0.14269977887879481 0.31420325538604388
0.15755275045616995 0.75523830081810606 0.24673879862243053
-0.56088286430602607 0.16818970782458453 0.56227737782569309
0.006394620190369793 0.40667343479823959 0.75865963237095091
-0.86507079669862097 -0.81289902442914574 0.44891439301190816
-0.6832512825770658 -0.10082481847007077 0.56652969422307797
-0.66034933913413685 -0.095707394626825454 0.67395170183420805
-0.16182599922064345 0.77589647762136016 0.30167525193418543
0.62969990791724995 -0.39791532637328558 0.68050528368867091
0.2379843844994356 -0.31979156792449071 0.55664118032142573
0.48288722368045767 0.6845942263315794 -0.39466743367887192
-0.12327309176940232 0.41894389273733695 0.73137408859428343
-0.58593797825217242 -0.21398410613086535 0.19571888301269569
0.43895048850693863 -0.54457802694430546 0.5195345296352345
0.42423083938301176 0.70777519850494586 -0.3527279250799128
-0.24912533284481797 -0.41524529010460581 -0.49759674892701067
0.53516072339244003 -0.14616905698417715 0.37208397327365317
-0.14117278418327212 0.34767291002996287 -0.23375115779779443
-0.69448137583017355 -0.7601592058673865 -0.36302183343271466
-0.7282834363717352 -0.25639824654472992 0.52704045950919198
-0.1512888405504399 0.45857621885257299 -0.71625461247479083
-0.69358510044775568 -0.59888681755760453 -0.36854258975163856
-0.52927043600119206 0.42542407382420361 0.27623617728789696
-0.70177338160663405 -0.19013222487590239 0.51525255749313681
-0.085902672522093604 0.27691589495949104 0.72690020546081935
0.2450182341836451 -0.2512347014083573 0.23701930231272739
-0.58046181939184516 -0.41476685828640986 0.4449636991254633
0.32512081487127675 -0.03083495178611767 0.66063086555691797
-0.34367997102750369 0.0053004505291022533 0.79763149377985632
0.71650515737709464 -0.40554726155081289 0.41712111460511503
-0.29337288914877246 -0.44251515643583439 -0.46403759743424033
-0.079500031030008911 -0.040358417097466404 0.75162052893116105
0.094280262598922637 -0.70977323740033316 -0.050517169482946267
-0.5940324402180952 -0.4954051282688744 0.059299934954655464
0.21996061084568586 -0.058426264417460738 0.74512345149713521
-0.41596696312131132 -0.60259809553611376 -0.026740466581433475
0.12072760938153804 0.30993311293333636 0.67606215003521397
0.13394158639129905 0.28242776804912539 0.63421332878974468
-0.29069271600064717 0.3639744554923029 0.46944551516215105
-0.15006791103327988 0.57310423526231025 -0.059194037988998804
0.14591593502463868 0.41611155170881658 0.63965004442622453
-0.44899533542989079 -0.2422345525200951 -0.6165259144151527
-0.42915992761706345 -0.64485342220762387 -0.025270903660988386
-0.0127513011642163 -0.017583712251129369 0.73830364721652453
-0.11584181152459372 0.30564651024541495 0.73239244179873619
-0.032265811457360516 0.68642781966463406 0.63610295843553355
0.32323367737736652 1.1332550321466204 -0.40454123840335543
0.079073451685180929 0.39833592959340902 0.72912219690965729
0.22770696642319993 0.29621445145762798 -0.23387108820284452
-0.48271842678275556 -0.12272718969773427 0.74486689847312237
-0.112366089317883 0.47624499124216862 0.68836865686468052
0.702951152211852 -0.36750225537898762 0.6166914918284736
-0.3482601975643782 0.18234589086900377 0.78363629179925387
0.69218912336851923 -0.31218031646816269 0.60512468136596431
0.22355442197234876 0.13318524986033248 0.47465501023082002
0.70229584094259334 -0.38506139177798637 0.64430681404353507
-0.18033983488918037 -0.45516982822025082 0.086905942392921487
-0.070568601307842427 0.73163533522860646 0.35221423307111888
0.2377907565840518 -0.071814171678474981 0.72085854172967334
-0.044643403973133544 0.39827390067832952 0.77029439908356578
0.48381656076597845 0.81091807567344609 -0.38211361062236915
0.0026255808890273125 -0.3076904101254947 0.38764005924844369
-0.29959879004999657 0.29609322244958614 0.61307800210399921
-0.45480858623468967 -0.31432673454363125 -0.29832078591497391
0.36403524117717206 0.28982308233694287 0.016696977013684444
0.17725060859922542 0.94811745057698038 -0.28199378426186872
0.58540159888178078 -0.47621913515330527 0.45300559067614365
0.15248783990415693 -0.077493785532306736 0.77244528319659
0.15245642979744878 0.63973970756691534 0.59341501472645497
0.23198739840497162 -0.010535792439524905 0.7398706931309611
0.15581576681631859 0.39949234950675011 0.62409918244904161
0.11801252622241931 0.81848221778592012 -0.13620195206979013
-0.046358259722655171 0.29502689418786798 -0.65675205489390354
-0.43852193877408296 -0.57894525309519207 -0.0074195783191530751
0.42209901136968175 0.71424205853138167 -0.37560977996827938
0.83039869445982439 -0.36125435347064305 0.53707480841846156
-0.43283726111997467 0.8056865929169218 -0.13319557102169699
0.357273572639494 -0.44813698013483905 0.4594001988114591
-0.49108274675264563 -0.69364568256407455 -0.072823476007232379
0.22003766308120221 -0.023226456348864555 0.74859324030455388
-0.61662273916277799 0.0055998475775883849 0.51306190968221888
-0.56157068365703733 0.24177505659276163 0.67981478593031519
0.28241618910651617 0.57257508562728476 -0.22232251587856067
-0.12758266052794959 0.40809737246547095 0.7330927465886079
-0.11995998446039291 0.3641734002464011 0.73500254482086658
0.55219052382576372 -0.34291914289148417 0.69675462635034346
-0.6745549007260343 -0.8789905650842893 -0.33316252856542772
-0.1954846024362642 -0.77414899108106916 0.52821415332675858
0.39594093778307354 0.17045511424912652 -0.24287005382168769
-0.016917336248392478 0.61149897462407865 0.70162987224106255
-0.25346566532392423 0.074670631600954898 0.75217767492262499
-0.81247194582776738 -0.56611482891631149 -0.49264847078582585
-0.72837405032550839 -0.57529500236499631 -0.37199962695985977
-0.4360264345335958 -0.14315468699654987 0.77362177764607321
-0.62039156285210184 -0.58749718410492757 -0.28206534328970112
0.050402229178314439 0.48758082872107378 -0.55726066580966982
0.37124429641908196 -0.4999860496278547 0.50416246548255206
-0.52675020079736246 -0.72551568016583468 -0.17560631256838888
-0.33227680788587333 -0.0061597660763145975 0.80304748066897425
-0.49704282389987342 -0.69431636522897155 -0.14546457081301456
0.30941640267738119 0.59597157059767714 -0.27444206005652561
0.05560226171120769 0.55474895384994682 0.6506774338027026
-0.052538722105207603 0.25762012513072374 0.72141338734238092
-0.14205964884297662 0.45832654547479179 0.72972327999499775
-0.40417782853779782 0.12966487441016009 -0.43438850947286967
-0.54943378761868344 -0.19244742454883557 0.67932367633157442
0.32419269548438301 0.030015034798618889 0.48405943797475581
0.0604628241250601 -0.097566518441435185 0.75651808207482585
-0.35144849809701084 -0.49487991353380845 0.20654045092308482
0.067036200953815073 0.54774037760276229 0.64252278954681175
-0.54401889501865042 0.4476718300767068 0.28278563609416874
0.020352501446453841 -0.23346954571742112 0.55163231204363994
-0.58227885797030354 -0.52441430792953447 -0.15954867245082682
0.21941938874624911 0.11233943131682311 0.47239403157507831
-0.07203009665096749 0.3164071268115608 0.75309347226559975
-0.2464808568102913 -0.12855554703452882 0.73149041400424486
0.17504613000725633 0.8139881039012401 -0.34012741162720661
0.19834508238484916 0.6794526037600348 0.52837431508785548
0.35426585288351176 0.010829192700359869 0.44816082032260685
0.083729806695691633 0.34216307662799172 0.73528022572608442
-0.35543656163012727 -0.46544847669462713 0.27912692393593264
-0.13305586507264938 0.32796684271366894 0.73922094765534108
0.43808976985510195 0.74272676035392915 -0.37747091357671225
0.51972869681796974 -0.40334739125692676 -0.033133431487665232
0.52279475982087775 -0.29444272828871243 0.69310190956834261
-0.6688462538774248 -0.7864577918342448 -0.33966690035776603
0.23854725356503392 0.16602869035042314 0.49519730481508928
-0.74241010436384003 -0.59012395415317398 -0.39938738031789911
-0.26697575597392231 -0.60464980286043424 0.57020066277449932
-0.67450082469834083 -0.86639513913683475 -0.34621897597863327
-0.50355770300879155 -0.74612672334952179 -0.23687150695294701
0.30797650969420531 -0.14946791006660104 0.70336960432450213
-0.61135707846335841 -0.52479030822299411 -0.20238688761854906
-0.0017432590827158867 0.47513448212039611 0.71544330434270065
-0.35181008987001516 0.091294372259726503 0.75695725552795512
0.047359469659138731 -0.062524530828124092 0.7631019265136294
0.036486216751788758 -0.47709181135467171 0.1621568644190936
0.25867890460260007 0.55020272370892431 0.32010284325150451
0.12321187086663676 0.75449725253078903 0.39476578207916746
-0.62145009116111205 -0.19581723939005863 0.65868681812683283
-0.074480310054435506 0.33465672976488592 0.76701940491285803
0.46837754872828757 0.71077070864170089 -0.44152381305075128
-0.076076611562188867 0.67470021853597206 0.62454854888277622
-0.29805800244942438 -0.24367788486226793 0.63924093650336666
0.10920326099229993 0.56718465110369765 0.62283072837843312
0.36013888286625795 0.91923915511172949 -0.3670770693293498
-0.68500076652084407 -0.1418100491255663 0.6400283876903996
0.23087391905987709 -0.16619504078035358 0.71454159450591304
-0.60129094072488154 -0.56599260667146023 -0.36817674706293191
-0.76443897759644186 -0.86861022363677365 -0.43830424245106236
-0.28740884095158714 -0.33735546565010099 0.60302285154669799
0.27158772066658265 -0.42737899985089478 0.30406395974771017
0.13469850083846219 0.74066282463865007 0.58110528790809846
-0.4505087647388849 0.10971158852740932 0.74714989172309831
0.27052158518472952 0.75441243980314476 0.037686763699164683
0.68696536819102805 -0.39474443096499107 0.65562200617431987
0.63246903663221399 -0.2524350733424835 0.653580846358915
-0.67494879563072341 -0.87648339278826071 -0.34156578016175387
0.17711538548354952 0.82278544297823308 -0.098957080848217638
-0.16911962535982245 0.52094773229761415 0.7532282825850658
0.26673193833212017 0.52805394116773385 0.48852540390627608
0.42441380931987327 -0.46766750937521945 0.66816625175763744
-0.22967093018996332 -0.1129076024491787 0.744939584617484
0.057845489929629013 0.2569920358189956 0.70720050091968512
-0.041745164018171632 0.23884128903677443 0.73051609781319526
-0.79841895683756525 -0.76513446352357939 -0.50013164250392073
0.3584532788263522 0.47143423766998893 -0.26560689686965899
0.031689385220323163 -0.17314303254463803 0.66284446780479112
-0.20946930455586238 0.54210959725275731 0.37528176512060263
-0.30537985713429194 0.1490441264546577 0.7726107570749956
-0.0095942835161767492 -0.38404192667426063 0.083677621013314329
0.57409543953567876 0.65613457520300256 0.63519469959810593
-0.036748497936486269 -0.13686207962364566 0.026453497616165667
-0.52946410361176044 0.58148928691825608 -0.82000180672277967
0.12633584732787251 0.082967498830603614 0.33945158174732981
-0.5702733463652675 -0.19050131608037096 0.67243758772024131
0.48124400568420056 -0.376944686879574 0.70342173546762421
-0.065517757597727322 -0.024090556239960037 -0.64983161144523161
-0.73777308491717064 -0.81673784808304684 -0.41368248428024579
-0.29574914046811585 -0.98735877291241969 -0.34577222815101538
-0.44635101830629664 -0.0079445668453445861 0.77528705490691907
-0.55407530808910443 0.16690682319053951 0.75398376281647983
-0.52540249772751413 0.085969956002559828 0.73460526404545701
-0.10908936748878639 -0.19709401691116707 0.67057029611650343
-0.039852717381095859 -0.67792114399929182 0.34425702350692111
0.063982963754123767 0.018728987050767143 -0.50641392358157078
0.64590459831305513 -0.11323169046915948 -0.03801416504570887
0.30297820927829044 0.99461497034314805 -0.36253796119222448
-0.50170268870318657 0.055044911498584398 0.72545614398710256
-0.79392998044066132 -0.5366882072068051 -0.48182794906530158
-0.91741672169115529 -0.27017873550340499 -0.27002574604891738
-0.12021039851428977 0.76392486558297357 0.055617335127355894
-0.58926888008283507 -0.093434076359632412 0.55883836302511414
0.10919966509856843 0.75782262854310134 0.44667986541834459
0.6179373909851944 -0.32600573162158769 0.63477209335514084
-0.49735022461948752 -0.019562218062712133 0.7269624369544041
0.74295446233932749 -0.33153004316569123 0.6258005940001492
-0.57113782219770992 -0.3757683643758773 0.33369942235915495
0.27828642512246976 0.52430390036083407 -0.17101148443279501
0.1652929656719751 0.47749640244371089 0.61290531379479685
-0.71536055474987581 0.030650494506397508 -0.0050466375746458514
0.12873282015822735 0.35315753256487747 0.6552060530618169
0.14517052280335907 -0.17349243472988962 -0.28046295040791425
0.59234273680219918 -0.20514683311266602 0.33812249708839492
0.24483402303516705 0.66252710873459641 -0.28959598270086895
-0.60725024305924802 -0.59971968529677233 -0.28137653854167843
0.31747012239760486 0.91798022533162937 -0.34813284319641014
0.19164868814548519 0.55341203581251186 0.57316466243649633
0.45193543253512725 -0.13491950348493709 0.66575383018702894
-0.51386362785902806 -0.70793628629246441 -0.19104622291646045
0.40003554783313267 0.74021120251196604 -0.38190790939793873
-0.66307260567315407 -0.73513041124466216 0.71065306840590736
-0.15296671209973622 0.19378619374295464 0.74416282176109894
0.6089790573109074 -0.4093008782334312 0.40520589302041166
0.69116740226006379 -0.3202443831869235 0.59807474884512857
-0.31614380801399056 -0.6213138624657214 -0.32829290516699317
0.067345334188886663 0.78949557516456781 -0.037515628431669557
0.20373523771466984 -0.26987276340672961 0.10678153409582847
0.28491218013217301 -0.17559839764970375 0.21908642055586247
-0.18402969210202103 0.40179373508255506 0.74492095248399348
0.13430691623867552 0.5818784785661244 0.60579853263292538
0.26328034530287597 0.58050769661334267 -0.20686592013454397
0.4425128186926236 -0.18549655001509202 -0.054273267501653955
-0.57910780247898808 -0.5918377805609738 -0.25915563556699106
-0.32195394719457049 0.003972612507345423 0.77984868313087352
0.45499176346023262 1.0289013894968013 -0.48008357810182223
0.16326653239929687 0.79561706684334887 -0.35262068661120993
0.83295155862328341 -0.6358018946071945 -0.17363217980035339
0.28001741549988196 0.38191642222870903 0.01833286655850852
-0.21778115488744221 -0.084481843275067664 0.74860715724419458
-0.0011184274120170645 0.22360267630936548 0.71943185290843337
-0.79715388687577371 0.28878874620953249 0.29817044189711117
-0.38368786846922132 -0.11735169283255165 0.22478288704217797
-0.70849683101172045 -0.58787440058737495 -0.37010603396521247
-0.098147091730618641 0.37087592179393242 0.0074096964771490637
0.21837073217753206 0.013349482352777831 -0.18132157022916973
0.18854148961528883 0.033677527346964775 0.70442358271105632
0.68519918302711702 -0.32255138816803652 0.5939776543259605
-0.003904745598283299 0.54237829524912096 0.6848480138036046
0.0044663244753631037 -0.32434317417819314 0.37772960292206426
-0.057349477532238402 0.59285637181657624 0.71844257241739595
-0.26063881334492833 0.8982379605038564 -0.53179705741068761
0.072266826383538874 -0.075000808693635734 0.78041302117239741
0.33319802487479144 1.0377619123049082 -0.38509135187811727
0.53222466163706761 -0.20707551056496409 0.35876146978657153
0.063216666751411632 0.5801308820681581 0.64199840027586941
0.67318190782320786 -0.4246017538565488 0.65975652654117001
-0.46118109046398181 0.24039589009992093 0.70610435095761859
0.26910072885062053 -0.056401386535053 0.69389938733838674
-0.2273249792484085 0.61171559841326117 -0.2998914602144469
0.0044716936908953953 1.2603368704686266 0.045731159184046799
0.16500894998368298 0.059572160551535025 0.70285091748988737
-0.23406660823844883 0.64629026637838627 -0.87753746866654758
-0.29756168341446632 -0.037051349541606625 0.79789229388963068
-0.36190753971301193 0.11127895681705419 0.66015868629784835
-0.81920685017376094 -0.69745669773600838 -0.49032947488182299
-0.15957265488659245 0.64636301006612407 0.65199883349401477
0.27128493466356973 -0.24760029598130151 0.29700608915334015
-0.078002212417722872 0.5482721431069999 0.71318402128493652
-0.34702711201909442 0.057942438288935257 0.75354603578598067
0.028164954355658689 0.11352216325485298 0.72015629892059163
-0.66792386737068732 -0.51572297341547513 -0.24889309282265182
0.14852480238942933 0.77713653788711834 0.20320481283471681
0.39654547506023652 0.091357779027094743 0.32850279909561775
0.31854140409015569 1.0150799480390249 -0.37647934296616703
0.075775512612630269 0.046579356313112885 -0.1605140712804185
-0.095340295546994414 0.23146025912313267 0.734063920610877
0.13569685325657066 -0.11732626261276191 0.75497071740222355
-0.37963140681999785 0.19678474184707395 0.77635856312368468
0.24226300631717645 0.56354285663876302 0.5128687584933922
-0.69862961421793501 -0.87442375248075033 -0.37145968972141463
0.33575712126605978 0.5912891394252765 -0.27670331168104423
0.16968384988818375 0.84205830324890363 -0.12185253199918922
-0.64000749410270708 0.047943966067440114 0.68202306278509028
0.2674690358452757 -0.41215410004527187 0.62269221286407217
0.26845922982287757 0.55935052148413189 -0.055979419703980016
-0.48167791013907968 -0.70521351395072129 -0.04293692680585659
-0.47788950895989823 -0.55768504696341392 0.012822472210970659
0.23057091551910647 0.083864450492888709 0.45818338826567384
-0.67025320682193201 -0.87676073595465387 -0.26708730516606816
-0.67927377671358036 -0.40585103414383372 -0.028566053871744712
-0.21101494801902609 -0.46013634210686072 -0.40531855333111233
-0.35633380708628959 0.47905911960084269 0.44401123350788119
-0.44261841051794748 -0.21849591863403517 0.69500296323167876
0.26281134013722585 0.64561309125529209 -0.28097591304513125
-0.12153595564196912 0.6506441283772687 0.58259877891059353
0.53128970144270737 -0.5306495140150278 0.49795722295041012
0.1398953742303426 -0.3427030965738882 0.51384793954656449
0.61100546073269091 -0.54429807724424772 0.57969670638283355
0.44861564710793378 -0.36947679130234701 0.062257409999273428
0.64660189619322994 -0.39479082048711983 0.67309220547752102
0.32503348995327208 1.1354508776911336 -0.31626744201306889
-0.49434873947473101 -0.68841365303633606 -0.15674001857662123
0.04721996359852465 -0.088685689049579908 0.73862931030819201
-0.39068330962873055 -0.036220576802532309 0.80687947832451656
-0.063080470467905436 0.26769759624337741 0.71671062716239664
-0.027055591135885959 -0.65579797844512089 0.36406116734804139
0.20224655857348883 0.15201545033635899 -0.25350819815157866
0.2705660504926708 0.34441742056303093 0.40043794691940149
0.70236622961253858 -0.30880111498449003 0.62054178095129231
-0.40373128175732853 -0.15204619722946938 0.77572888881951219
0.38302864140070408 0.67274327567620085 -0.33421046711364455
-0.47852886440655684 -0.22669192856645404 0.69698240398098754
0.052145491161251223 0.2066089270632489 0.62651377006078146
0.6761883784386391 -0.29031871815693133 0.61727077629328297
-0.46297960698668672 -0.58479675865925806 -0.31436957996481441
0.19896013505011201 0.00061527210593337323 0.75723257943471234
0.14860283172695354 0.52397630349657032 0.5239807207723064
0.15546833920060965 0.14012814171888599 0.6784002637465032
0.019201076501544789 0.51744515263946833 0.66491083693525788
0.25354970708965174 0.64419877521577262 -0.27932486995304928
-0.60196930806576709 -0.0022486536539965407 0.48461601584868585
-0.47659682921570867 -0.10308822709473922 -0.65936249538052039
-0.53401883338689216 0.22911713812164033 -0.41137341308392994
0.49030032397582057 -0.47975887382130911 -0.11345691720841411
0.22081065679261913 -0.32794731452016929 0.38534085362094417
-0.13340234545569019 0.49869432171098221 0.6498948075105111
0.85613121678377802 -0.32715271090964559 0.4695069818323041
-0.46259151620915884 0.087647459792378701 0.73893512910886794
0.59602329124800812 -0.38252135119287545 0.63842400752689787
0.35066426747181012 0.039415475291107671 -0.019990165902018076
-0.028163254523571268 0.99002418518347213 -0.37094189732047544
-0.6787303359945952 -0.060781088246017356 -0.47399159169365901
-0.56120744987438009 0.23501460985607731 0.62334575127749714
-0.52496487828056859 -0.73021469584458487 -0.1179738075254505
0.26662244242212368 0.98614748585214962 -0.30199077456222323
0.471872876716387 -0.18339064612049627 0.6762198359832079
1.049549738734229 0.20651002915542771 -0.12013853403243102
-0.069050335627483306 0.493308002976375 0.72245966782468996
0.27961780886447257 0.34149639994467251 0.49763154663582054
-0.59184571696820154 -0.85332475730304402 -0.16682602676512048
0.15360892189703074 0.096388105629532372 -0.30741716608359915
0.43946506537819552 1.0407519932400984 -0.38303229426382357
-0.22049802992038114 0.47087688619365797 -0.45725809817797658
0.67697670033361323 -0.50958541835934335 0.58485286053319951
0.10270574426716794 0.5282757552815962 0.63016713843751559
-0.39832273822298025 0.22084619384570386 0.65748385950678423
0.046039779399212444 -0.062102096388076955 0.74121637668961915
-0.76246281625489831 -0.86770939597676811 -0.44219887541196712
-0.29213650177969974 0.31975527064635201 0.63557893340855331
0.29983981137810972 0.94667618341367188 -0.34698951992247573
-0.34461359586316043 -0.23422249363206291 -0.58010530126124138
0.16932276508637245 0.32950746403389813 -0.37822649534292452
0.60099169582369327 0.84040051116876724 0.0090265849274631105
0.22341567484261693 0.11121465685415144 0.45610794146646128
-0.08924836890343657 0.40358855262149651 0.74811716975909559
-0.74522274879211237 -0.77755837433418651 -0.42290703530009477
-0.54066448496944453 0.10640134915590649 0.74281856215953912
0.28462247494617687 0.47041078067844411 -0.085668046222601602
0.67355481452619692 -0.30069638275478972 0.60086473641074667
-0.40500488499665932 -0.16181909504614367 0.7615414990832039
0.11787982689874626 0.49964411148860843 0.62495372444173314
-0.150362782995205 0.16022627845797027 0.74060323586029853
-0.11837004611629459 0.65895955259159844 0.63929836879341573
0.62444251326310429 -0.42567731653735685 0.67811128933316822
0.27660936098476241 0.51992029146118146 -0.077427398612976761
-0.10261853832893519 0.81512029725159785 -0.08174153283635377
0.33643860422822047 0.5865008743727893 -0.26589798414546584
-0.18824739191503292 -0.17572408942822026 0.72248365013620974
0.016400146188073228 0.31036525304861584 0.76425863561455643
