# XYZ point cloud file
0.094875392435990497 0.26919440182185694 0.48502819743640097
-0.21859029458109319 0.00010967042524173687 -0.36190350961351331
-0.43770576825595442 -0.41972809867337946 0.053102258075728881
-0.24433190035258334 0.070331922886789244 0.25582941722753721
-0.17707292181555373 -0.231735583473823 0.47835792974617536
-0.63207154027787205 -0.50647092488432044 -0.34943723003419336
-0.0026392700946373387 0.27497227453157019 0.45040592372464705
0.086916032399615123 0.19325812446905713 0.50102972048799832
0.19532497958874387 0.29834386164317561 0.20903395232760133
0.16808206164889117 -0.2525790837237436 0.63443840191671397
-0.44434785952592837 -0.62562032636838105 0.20120092072307122
0.028207768157495913 0.023690909348423994 0.60331976764258954
0.06599303263726547 0.29558302780854562 0.44021312219627995
0.21088756478005083 0.60049411453372536 0.065579627060340109
0.013461255549860981 0.39416242891681469 0.10695399657611915
0.24257799833073446 0.69707384698187513 -0.12556902170375031
-0.61418884274418295 -0.42216898191431357 -0.39667626537992706
-0.12583857974809728 -0.044351678796977823 0.28612266939771153
-0.61443359520319818 -0.58492465299086893 -0.15466941792792663
0.043883517413943973 -0.24559570088372529 0.66476707077129948
-0.017583776026658171 0.16206051882008551 0.36931091047358372
0.019263065746439031 0.020458319988281015 0.6142375676583669
0.22720129141433082 0.76431213371997697 -0.13984709100209369
0.012579380909645617 0.16060821985955953 0.22052072363129471
-0.091614600034809812 0.20959396459084742 0.45129530422190151
0.1206020582981287 -0.2879067084843786 0.60452347019569275
-0.04012444287924638 0.44430337156538074 -0.29866110838528803
0.030898042186377164 0.026279207960732243 0.60129328535750115
0.17420452507936954 0.29441965949429449 0.40808927816164431
0.017852946985015397 0.13486238648565121 0.39946697403351417
0.11613439006437916 -0.23709037803163446 0.51320455429209477
0.092447032964525735 0.066867507698125994 0.42520063065091263
0.21706736564745654 0.41905738406552084 0.1735959258541715
0.1054774869969992 -0.036356909163640483 0.53575439001948366
-0.21169634698792925 0.12376411250367986 0.41315073732745
0.19825459381589022 0.52508200896302837 0.14166682181888285
0.085657931144713789 0.23283240939483082 0.50306809267935826
0.15603812370364456 -0.26078850572382345 0.63248523639026399
-0.15718288126157551 -0.16759967248788121 -0.059047252184072932
-0.028453517347970039 -0.23617621980039571 0.49650711520985497
-0.00032635888448188932 0.015492822434331893 0.61477926298958874
0.10158034240217585 -0.2377623258907014 0.66427232978807438
0.022688411342427488 0.021877409789264946 0.5872862308801946
0.47831498754841295 0.55166590464990961 -0.12882558164479896
0.13594865977996165 0.10023403140803638 0.15859313055397012
-0.21664591837221478 0.15694773126857375 -0.33691921891487009
0.080191273401607241 0.052569349701935275 0.44648344068433826
0.055044812651533562 0.28219105605434924 0.43399867222102251
-0.32884307003232344 -0.3757686881204727 -0.10765608613002124
-0.41942269966988355 -0.28870169814222735 -0.12183022527919177
0.15419378188794175 0.3558341796400773 0.39050469283808598
0.19209802767184225 -0.20105573901438617 0.62739286536660266
0.10343526322564615 0.22313796960478391 0.50473909494192226
-0.29866189090356576 -0.024488378285562301 0.011440619711589273
0.11200642045430091 -0.23895979847988547 0.66160753040642672
0.29276704360778766 0.36774705193723933 -0.007096303211203395
-0.35552233713610532 -0.29982410659847025 0.16820465453265751
-0.16046394057051866 0.096926558556513609 0.50682739412574229
-0.054496529511417258 0.13267790650622868 0.49710657163931754
0.097350469853776433 0.20373346084735117 0.50698179536340315
-0.54587160633850651 -0.40593931642852965 -0.30897602258104151
-0.16656255940158188 0.09929100266130915 0.47967606678914981
-0.16856734297754017 -0.17080933120832764 0.23171969691878119
0.10429261394982554 -0.21716903167320034 0.50658623484359566
-0.0074422153682525138 -0.002115110956755123 0.61980756458372732
-0.029410639374868749 -0.1495448523425853 0.63595568446437012
-0.29585974162811396 -0.38014762132704827 0.030022473572397734
0.09037551980181556 -0.053029001810890319 0.32070024794798319
-0.072243818337857146 0.076543068685266114 0.5414726064217199
0.18562234584393006 0.26100008290056603 0.036138647568142945
-0.0072233710359063397 0.27902938150690842 0.37084898842828812
-0.18443630869032146 0.10498210679509537 -0.33756551169583804
-0.11106983860527377 -0.027177772574984882 0.54494831656895459
-0.085736052343695079 -0.070844506981231126 0.49253455160727078
0.40565702881207522 0.59022147632483035 -0.11786292506834925
-0.10569980062763376 0.21764993462022431 0.43083497847378371
-0.71190280270505124 -0.61601962002072175 -0.27145622754555698
-0.10089503672176386 -0.1076082376470624 0.47333178340147114
0.26696549658732049 0.49379751384348403 -0.021818826397008842
0.078161199322060226 -0.19886187322725146 0.65909027132903297
0.12405204611004782 -0.25050041794554423 0.6941181834516893
-0.49202818126961323 -0.39059709208543503 0.54879198805123375
0.016371551171095709 0.014526669701770023 -0.017474434815683046
0.10696559911862272 0.13519523241277787 0.50220843319514497
0.22047316776417558 0.2757615510584045 0.054540163798007843
0.1113574366931907 -0.22209222055701744 0.65112744718378446
0.20699458556055339 0.12835761912096866 0.41197652695586778
-0.25346270165425011 0.10695402648211101 0.36955982614577293
0.48285602750788714 0.63272704121309409 -0.14577724876100201
-0.53695451783760129 -0.3300487442843229 -0.39833084123247353
0.19208975932685174 0.26790552297804276 0.29261357441164787
-0.0065842305226529868 -0.28084321566751791 0.63062805705457381
-0.37220022298231825 -0.39008248173057464 0.062783614210039362
-0.44141765611079686 -0.33644318508956245 -0.12482628295219761
0.21671449358898889 0.80701625773715957 -0.1941748999008831
0.028802721394465207 -0.11621309474713759 0.44240526044122064
0.043464468587708971 -0.26603422030746554 0.64867156117735403
0.089757828733654094 -0.20758178183022391 0.66315238520607767
-0.032299298873539328 0.31352534678284155 0.35427649181816501
0.089217631069102576 0.13397117892681687 0.46477690269024119
-0.10486708051991782 0.019166514215914143 0.54909134868086984
0.23347452299795798 0.38693110830535637 0.3037406748616841
-0.057565650997417936 0.11946083619193676 0.52359151425808537
-0.035223509627992797 -0.1892113109349029 0.64018602850436845
0.051697315765468793 0.47830375458595842 0.1744991038340947
-0.10297064396082298 -0.15603161732501886 0.45725835810987286
-0.23070206485570249 -0.18649136243975359 0.21723560012548743
-0.37418228642340734 -0.33428091867336862 0.1148758527901937
-0.063266344355619814 -0.076967876004033542 -0.066797949230033515
0.028020147360298828 0.46708419848547383 0.13456589652995321
0.33919491344874142 0.46452352962840565 -0.048891469938689633
-0.066800350608287345 0.13186806597390141 0.51319831681842798
-0.34670342610804245 -0.34353226277904392 -0.049139386818616557
-0.30716365446530275 -0.033366652217259818 -0.30531067750769614
0.031442932832027502 0.021417083628599343 0.6126336371101353
-0.29505835176451112 -0.69020938096685391 0.29871217567968866
0.28496029664052108 0.53628381248795354 -0.036158199648007303
-0.0099585532418119682 0.011926904572162528 0.58956283069519166
0.25351011325851996 0.54646984277625021 -0.032300430491082145
0.0059409827400810078 0.011210595889133729 0.62199543376097066
0.18841856761234216 0.21518011399085235 0.11798959235537622
-0.013327567480490118 -0.2947979857345806 0.60430075291267116
0.2328481664844842 0.61520585553252038 -0.099779521736960058
-0.24743303786889265 -0.54503623866657402 -0.092671757567603236
-0.42092275224614706 -0.35062385827860815 -0.18988603236520357
0.23378780040890862 0.31447485665231623 0.035107021706660232
-0.049909227377866322 0.45981045374284935 -0.09545543888215352
0.10783977668397891 0.22209790489795755 -0.004728099196757464
0.07051807537324245 0.024648235471357804 0.51460831093868675
0.015398902400715023 0.31719013784032146 0.42272052594911413
0.019088062924261545 -0.01816682587285981 0.625331506522951
0.10512377905428483 0.34712598106255921 0.41390069910674232
0.21521916197251162 0.38580989237993807 0.22704602338026106
-0.6149522262641085 -0.43246152989659575 -0.38829486773274324
-0.064585064328539388 -0.24787643914827096 0.6017625232143925
-0.17860602224886635 0.036052307999073524 0.49861918425174578
0.078842666699457956 -0.20235708411131381 0.49786314863824044
-0.053582799340659543 -0.18139439363500187 0.40716014876804291
-0.10641647850752428 0.19182424346497337 0.43605081247354366
-0.076650920834133496 -0.26318237598014843 0.5647401192210858
-0.063654354030202934 0.21845781324981142 0.46129957505431818
-0.12972415617532881 0.1264455024464298 0.52500393992805428
-0.13920769464084407 0.1765446455382112 0.44039284083886199
0.13030632290908736 0.19590436878280837 0.4775226019370008
0.095687401611574657 0.19842692799121678 0.50208409481161953
-0.27680406985959916 -0.10435364014928389 0.37832952973439576
0.17577615310074429 0.5097917149661233 -0.14703041509177958
0.089207246376752647 -0.47684082462612709 0.079530213490968504
-0.69098401970620882 -0.62296451039988876 -0.27715924173696888
0.1937252449605035 0.36292059627070627 0.081655426543734255
-0.37105897762840989 -0.29485115442118454 0.12335204545711448
0.041277794883596799 0.029615544925947451 0.60769948930533557
0.31268922868614485 0.54964706021587983 -0.070631701084611878
0.16912706012534234 -0.28707631422423441 0.56202240653396829
-0.0017369069720274966 0.28515965567748935 0.41821444213794717
-0.078339096024766186 0.65286886368719443 0.43333531634460309
0.18346908628351649 0.23914522689345663 0.087827785300281291
0.14667937904354594 0.77223382329307688 -0.31983430319012424
0.080555850671188367 0.68367749175109771 -0.36124420092413723
0.17228962825683494 0.34536802016785262 0.38557955974846037
-0.22486189946944304 0.014709912515416729 0.46313357108344022
0.045480150228934722 0.18825566546991904 0.49485180000060081
0.13533724961806198 0.39772800294480232 0.3824648028548287
0.16910650781001316 0.21018906123839859 0.11973891315354517
0.19709546257593186 0.76730068991211042 -0.26631956153617536
0.15271089932923593 -0.21373911546778762 0.65528055550990361
-0.16586734946815068 0.15219792672202359 0.42476854213906068
-0.23888384294539033 0.11810258990195602 -0.29547406462089476
-0.19063980365323493 0.035103431643983607 0.47690011672067789
-0.065148345909257346 -0.046804227350974836 -0.065945176493407254
0.045524136823925143 0.4131510698510763 0.4042092427648295
0.39481241415064022 0.6156342883362369 -0.11437536951501426
-0.38471330246377078 -0.74700879238362372 -0.2763256477437428
0.010955860051843694 0.014385765754696883 0.62027343485544162
-0.00035139976243848264 -0.082550601856159478 0.62834223832742742
-0.018552743460547871 -0.089424371726730623 0.015298878859262621
0.052656516758805193 -0.24816801344762307 0.66320689910800212
0.079112736188848745 0.12496651768202283 0.061550268302087471
-0.08385853399579718 -0.23465855823173831 0.5325911407863283
0.24212884812083146 0.48059424046247012 0.0075577330097276324
-0.13227609651153474 0.063354099664197583 0.54841831026927856
0.16945274582254671 0.35413647819682015 0.38272725951277298
0.20641943549761801 0.23435142139674159 0.086668971301449127
-0.72966912071102019 -0.54496776816117254 -0.45026703810151203
0.064339124100970257 0.034142576499560456 0.60073641857391757
0.046322824096638224 0.18288820779483012 0.33305961378180937
0.10369744612909658 -0.20133457727337417 0.638349734057301
0.31841283562135481 0.73348899307296067 -1.0615941528769919
0.090381557730732018 -0.037084902158248279 0.59495277491690635
0.12409652656312772 0.18113477243850826 0.48476720764959563
0.043145550989356046 0.028589543433749476 0.16986161845378014
-0.14970183187361091 0.27095297615760577 0.34064169383582327
0.46549361587211552 0.64994172548524665 -0.17010512375896578
0.087623517393791428 0.46544071478932719 0.38022057198074571
-0.54339900036189803 -0.55160487895718879 -0.0337670359222495
-0.099259231067362397 0.1732850659959313 0.5006550825218693
0.13726775179516124 0.23640307488985246 0.022866906612032209
-0.077890188835645274 0.10748422132803531 0.5340204545106646
0.023924262056684235 -0.0029745639463915619 0.17143615888046432
0.075051702419114893 -0.1438178075243321 0.65998041671339613
-0.47979343218156256 -0.28317683403390809 -0.30682796060985845
0.091284995250226458 0.28474517320855641 0.47616936580313129
0.063911711280846439 -0.0063621122387559903 0.59984749292332773
-0.087229281690905464 -0.20623412759766069 0.5375616221830366
-0.054032232942187342 -0.08367132988042858 0.57646028031029128
0.018890737149061212 -0.34191424684697908 0.46548061736901014
-0.31132397723559113 -0.36427361583963797 0.10792285286684343
0.31787320513339512 0.63359255004607273 -0.11190173490986553
-0.10572745499832972 0.17361525594941299 0.49608083673901504
-0.095692723031714499 0.18716838022066107 0.086300369367495744
-0.57201577074538346 -0.4077654480855446 -0.34516095175829753
-0.072084919570554837 0.046975428257891499 0.55297394517831477
0.17989254401085036 0.46160235797216481 0.32868365199933458
-0.26638888697299767 0.028615524783031809 0.013871147316563567
0.10538077064116316 0.34945563925027201 0.41458322975822448
0.12800696538156997 0.20056048690032746 0.47345620001604344
-0.25669706676081105 -0.19451019926694346 0.46090587007366335
0.13479237670016694 0.13964864043609482 0.36131480252842246
-0.059781970755608205 0.14898574911348661 0.50220727373217544
-0.23265072581984306 -0.36753803595777507 0.17413021258559466
0.14667158319491724 0.23809128680414993 0.059181159825488723
0.32915885700716674 0.55938035469924074 -0.085372661186670168
0.047870787625544753 -0.0051946253601618531 0.62138969812198286
-0.1315495332745211 0.035564356004987419 0.5359947536136167
0.16950346253530746 -0.16339019114917769 0.63284920197183758
0.047500633021008307 0.096314552105346452 0.33824205948595371
-0.2007191005633045 -0.016244354642927672 0.50116923936735458
0.046621103947143368 0.034830680738774211 0.6037627023368527
-0.29082189245940371 -0.37689595340549831 -0.019269573198002876
0.14720236575240164 0.53522691426507019 0.14792784124336827
-0.40306526298149259 -0.4113544999589272 0.088083641395263659
-0.069588886240342152 0.081186423520450829 0.52498351368542961
-0.15675986001186418 0.07292881566609738 0.52860381299729098
0.11197828003527729 0.087781122144068136 0.47617259939897832
0.14085229315533118 -0.21752829391122164 0.52196873711750058
0.10806990262417648 0.5244957642447291 0.29433905144788175
0.10974792787759008 0.2051705367939371 0.49929861361927574
0.072001111398659973 0.50414617550433261 0.33871077858241133
0.41472327288001015 0.70971356269779051 -0.15119013510849794
0.26242795452474416 0.26025579932391851 0.067677124652147869
0.0047451046532880209 0.026264644352478772 0.59767144308345022
-0.081904976634219417 0.18464288492709255 0.47052577276414836
0.23285609594193801 0.58414375604053048 -0.045927044083388824
0.075261113687504808 0.35319285476310214 0.37444136766416436
0.24795422708909548 0.36444579465556026 0.012990221764687379
0.05999999047953021 0.011005038497539116 0.61606481997063556
0.095395410472995851 -0.17421161770550114 0.66816403604795227
-0.31087117192099811 -0.028470556265928204 -0.20372603096268402
-0.46030282018521296 -0.4356418316166919 -0.032566633688256186
-0.14359267719780588 0.096071419987664719 0.53424879496883504
-0.70979750815068343 -0.52711920037569682 -0.41953806368609997
0.13677178185492153 0.54341356419188958 -0.24122455182192898
-0.46271268819187772 -0.41570604951469659 -0.10672463096828634
0.45667423415423058 0.66166019539466814 -0.13578832764399595
0.0011455062143017752 -0.1349432101842159 0.64907044231133315
0.25216078359835131 0.4488988487519478 0.1238402872270388
-0.12679016700834106 -0.24580660409674954 0.51878474123360829
-0.38675390099509904 -0.29720016774072971 0.031534498123447219
0.23349676003771702 0.4621342579828247 0.016047220468955337
-0.10596714948653213 0.26726658496257283 -0.13972101689390756
0.017035190528275582 0.32071812467153304 0.39001429450889263
-0.17017250133412615 -0.11237197036253671 -0.21869483207145779
-0.69968812646885559 -0.63515422667140531 -0.19675274589012859
0.084124866185367159 0.14967765355940785 0.46715831394084278
0.2982452055863456 0.6101801696397936 -0.065179342364868664
0.17329274410056816 0.36029247211309734 0.37810140666534814
0.049053172038246148 0.26506405040167236 0.46193188504462956
0.18273542732520837 0.207655631091968 0.12861610777621174
0.21368711221939563 0.27615411806536028 0.052857015417709742
-0.70930654205181909 -0.60336736716150341 -0.35162819650107446
-0.031039116606846745 -0.13436217360457969 0.27066737704553823
0.13463862470957955 -0.2876071501691867 0.59895160938915049
0.19039817499639761 0.4692410148969397 0.27003787784565175
-0.011334793745382418 0.27241094973200874 -0.23664059384918285
-0.18904732466797391 -0.17602542936360321 0.2052103594872719
0.10747205177252457 0.47682185650677583 0.36492934289405288
0.15046484591311846 0.40647224266562798 0.37771372238803685
0.0020974721630246801 -0.29747497749698182 0.57622390659520062
-0.4928245166164783 -0.46615436059029325 -0.083855633433818619
-0.13625881814717225 -0.17662610280520047 0.40182817917685498
0.33680687233405426 0.65401337957499528 -0.097571100030065666
0.076608975930889389 0.42066580939858089 0.25650489272839005
0.071793195693764689 0.25569067333573858 0.31564430154022721
-0.12105608218486318 -0.18951070429291911 0.40820807450810903
-0.056358195533854655 0.26787512006251624 0.30817314866773665
-0.07709429348133312 -0.36901259248731944 0.46982270710420954
0.40606282080954692 0.5851573833853515 -0.12001791276521687
-0.7698697396547225 -0.6369171791200845 -0.43361169392951099
0.072491717125048205 -0.0057558487678806003 0.58565580662876682
-0.22958025914858002 0.033065380149494672 0.44397575395937527
-0.097129782258045333 0.25396293479760834 -0.40167550704933674
0.37952028363256662 0.58848105112304827 -0.11586217174980455
-0.0118691870163872 -0.0072423607031470716 0.60716405068920343
-0.075617003213547904 -0.13327588184292627 0.19734338890018127
0.034376023691489357 0.37271677414980486 0.35171471493176693
0.012085218420863145 0.30309521099037406 0.38089920605716016
0.10356583864499963 -0.17908570954121855 0.66118617511718281
-0.54201809872158768 -0.37193120257697965 -0.31750203414947697
0.20324679878876989 0.60599107267608288 -0.3303749894206584
-0.22240389506169828 0.047381471975957684 0.44192372159229465
0.03592213344708986 0.078700102818808071 0.079713940173371439
0.44425584404239915 0.53231217559632271 -0.082460180207658287
0.0032695473472707584 -0.022747411314375021 0.61877464612222355
-0.11746780091414218 -0.076000377360349231 0.49039961182228842
-0.1829256661262286 0.04531677547521476 0.48691549906079828
0.082490730276017971 0.022241201825070889 0.40227309394804395
0.21535075267179932 0.42679849903725675 0.19962000302462746
-0.078725829660313523 0.31444745792965939 0.27770242621675956
0.1113755624783043 0.27930042499671148 0.47512403102668477
-0.70675934425097364 -0.37613513215524408 0.32286914477368972
-0.21131757376884089 0.15592543392313507 0.31175399819364258
-0.20695746226734205 0.16691016818469054 0.38921522862987001
0.15406388542607199 0.58292997478796926 0.10236688237335576
0.091119137659710525 -0.20936336634606101 0.6751377271975505
-0.049857457544562084 -0.15671422629370385 0.552314592643811
0.31179685555972414 0.24595203817742872 0.031688790997907321
0.082457540396787141 0.33133826405844863 0.4246674449550964
-0.23170017805480436 -0.012828636725129267 0.13512601208422859
-0.06749930881896897 -0.28588866362518273 0.56489498248862147
0.28477484219587401 0.2827870245827438 0.038447523286314712
-0.32652341502138804 -0.35952087828362944 -0.1390267127072225
0.092251754069654773 -0.15252916179555548 0.4955377847829473
-0.0089906565675650918 0.21230548086006307 0.0050599396750941328
-0.60151527537194205 -0.52051261014376515 -0.2414862492870492
-0.29331307079910551 0.045662920567556373 0.30754325165364438
0.0017223632096123181 0.28286544584617024 -0.28602785027314498
-0.50797441630975282 -0.38315767020416358 -0.24640000260069428
0.0044788893902422966 0.47893155525842346 0.060482414565404138
-0.25276585203861179 0.08656373242778212 0.29271996296774344
0.055316556980896055 0.22842704989381168 0.47390749170995733
-0.063633074734094963 -0.18882854838151131 0.38728528722682454
-0.31237014961053472 -0.12010974772163402 0.3244247094067641
0.084464059654951781 -0.025198020771201812 0.589427110790127
-0.082185893812369737 0.15175860778244749 0.52374219605515748
0.094897724433718439 -0.28492382194521781 0.54379615288940353
-0.34251432432616424 -0.36452167231134419 -0.13575033086275001
-0.031488868217455362 0.054271746158186085 0.56568142648666964
-0.32048696569164636 -0.51180560203828795 0.19132171818067217
-0.37460207848652194 -0.24698549788556284 0.077418493862633678
0.048442887204225168 -0.0093666106302691676 0.62067722569471706
-0.39072100478342037 -0.37630454231255384 0.08766848886204387
0.1146513169995074 0.18255337962652202 0.48960927137099058
0.10823258227846204 0.16090645583499702 0.48020904051732827
0.030896769542671093 0.33593001310579262 0.26506451471424186
0.07388630984071573 0.39673541121630757 0.032075035704209491
0.14713477150797544 0.23217799106469195 0.45107074369646832
-0.30255297817708843 -0.18356996441247192 -0.30079085236327557
-0.41581266199224814 -0.40490288728684609 0.084692107771793826
-0.0078521766079633071 0.050498052100478114 0.56689854829748842
0.055928526236051157 0.25621094555577173 0.46111093581778739
0.16664648813716396 0.47478506718785268 0.31492660171825371
0.39567326108765033 0.67538903758140045 -0.16220901349915937
0.12818927566826602 0.24848807023660846 0.48080876934636263
0.056766203905016688 0.061882288050756906 0.13126651681604129
-0.16213027288477447 0.10313275337472647 0.48916338320069502
0.098335359580369444 0.3617671022571407 0.38838535228113258
0.12907367497421177 -0.22141967270506457 0.64636991295211033
-0.029605943495216891 0.26525802058281611 0.4650844996086177
0.14146117178711332 -0.20108060759298946 0.63712204862722277
0.078225104750119609 0.048597181282887869 0.45861701421098772
0.12637151866827781 -0.22233975889138402 0.66203762298769431
-0.25974711538987172 -0.28500138281161302 0.22075737046256466
0.15962353214010233 0.5060853193743613 0.17224723471112607
0.048196469543633713 -0.021089453990783824 0.61265893817408434
0.096462983156605953 0.29267122041349614 0.47088700345315504
0.3611750490805099 0.34387173918664932 0.0021365768034354998
-0.1285989143620557 -0.15789088151080638 0.42022234655220653
0.014429966629634444 0.30535771652927385 0.35195025558585347
-0.29636490608146882 -0.19869423424164298 -0.099277509211452536
0.12207229338053656 0.051972095929232409 0.27586043308282721
0.26064420889320994 0.56018000498025478 -0.064480450636868525
0.011981006303691838 -0.2877741498405294 0.54520623601818108
0.023035218402458493 -0.0030828171176379704 0.62794311236314992
0.20451592713688224 0.36591980414893144 0.36490944605644327
0.066251616160882765 0.0086861438882306352 0.61157622370136555
0.14468861080098655 0.21877055250978278 0.45117903235976481
0.20036968132160876 0.47739488926648177 0.025250369563920454
-0.035168863418190394 0.10965098556267228 -0.18239063140925271
-0.38215666404800414 -0.35138960908072114 0.092253842906232314
0.28662589503129637 0.28750785675068596 0.02474006485365263
0.18844220492461655 -0.25820074403963866 0.61907947524019435
0.11553347210466955 0.74292547865760594 -0.21798124487962417
-0.068120275562542285 -0.24880846560787834 0.52091431590370663
-0.4632488494799214 -0.4425508742332494 0.034472125786836783
0.059280977663377109 0.0062644799193803669 0.61646410412424113
-0.14704187558034265 0.20620923140787364 0.27253748557104374
-0.063601078566161512 0.38587159113149549 0.32643378767711312
0.16961006499704251 0.23499317832983563 0.10400383870148068
0.078857525802805223 0.32596524818107941 0.42777025224633358
0.069752350790846809 0.2947149187105621 0.44419279247671911
0.077288850581312185 -0.17521737612256616 0.67283273561260037
-0.66510396068805755 -0.61995581930976851 -0.21284271167815408
-0.40523034944527647 -0.36958375967350993 0.50105743886731324
0.07827195651389289 -0.064731635620037586 0.17630179618412289
0.1534727610966532 0.41857450760370596 0.37551531510886305
-0.037943031946031353 0.16157010819421638 0.49999933296596033
-0.55925736400541659 -0.34558888326679249 -0.39516949409608509
-0.50918275432391291 -0.35538246509795574 -0.26585155407139571
-0.15800992697493405 0.081752874548872673 0.52447724666314721
-0.46556916694069805 -0.37532301318785544 -0.15417278054326272
0.057180876570395292 0.23153581414798252 -0.11693114691780662
-0.077722034355318367 -0.26321862764694864 0.54812157763156333
-0.50148903704769188 -0.4836861418321049 -0.045626550918041686
-0.083219059819389582 0.14214857668764824 0.5328203104802095
-0.47229493450212889 -0.45767888061840417 -0.015039072099364212
0.18739515424315273 0.24008154157096967 0.081098556006241385
0.15709374950389568 0.34755948033672135 0.39151396578235076
0.058030350433760348 0.20626677564191645 0.48452449059755931
0.087835512257512113 0.36528137551721462 0.40620406613168458
-0.13044549042393502 0.12501328257695216 -0.19037112435098832
-0.20652814550790499 0.065165010768950205 0.44567106411546126
0.081597622278135523 -0.019622067277417221 0.4970890130892498
-0.011658046881798223 0.00095801607069079253 0.60660870404431821
-0.30170467528844758 -0.26132915089220837 0.24628085748845646
0.15810082571003897 0.33829165125355121 0.39327123620550936
0.0080701846862974019 0.50637701927166934 0.050470556579614551
-0.081978176170674752 -0.090726132011806015 0.50536153614641188
-0.4071106297572854 -0.31117018820124853 -0.058443684015871147
0.070767405983263615 0.03863687563523821 0.46004726179627781
0.06923225201063668 0.25013586534147753 0.47958628294921019
-0.10210726568154468 0.03910612818609005 0.53714268470728621
0.21120525961661657 0.44942740443408641 -0.043818735469275616
0.22648726756854587 0.37314332597372568 0.33794267598427963
0.081729723192718734 -0.038558256407611569 0.48860015036336352
0.11571421382729541 0.21541458179590708 0.5006084183674212
-0.2832569299338486 -0.22618605608274728 0.2872182056547577
0.057800614040072293 0.27676832735850554 0.45372019691498056
0.3066964619382197 0.30436531056431543 0.018467436722434893
-0.04918504437829211 -0.37831373173578053 0.29716715384180525
0.080939906405249978 -0.153782412124847 0.66379059181687061
-0.6043843527627113 -0.5431333478221676 -0.21404693837588237
0.094445782082870827 0.064224346646033548 0.46525963486220517
-0.52693278160141577 -0.36934394249580904 -0.29164391105931953
-0.32289337584088273 -0.2560398576053583 0.50509386046527616
-0.65817459916060805 -0.61181278288827534 -0.22207200329328991
-0.51274949690336369 -0.51649537266519563 -0.078583500937881204
0.046297159418964173 -0.066593674044440609 0.62548841623640472
-0.42054032420297738 -0.31236794007747892 -0.098617517369978938
0.12474778827792063 0.32140256182877025 0.43123953419271216
-0.055923830915056844 0.20336720445715928 0.47388132995136101
-0.004080249013357462 0.020497078454672329 0.60135466565508566
-0.21156473082220811 -0.30705422241937819 0.31043455780492252
0.19326922296488738 0.26010650472346797 0.31699088132723391
0.21482636175237768 0.44575797374657311 0.24148975429289385
-0.23129050936654152 0.079767786562423157 0.41387195522724118
0.073448852977457971 0.26334659220448076 0.48083876774740991
0.31525873796167225 0.26857244980248812 -0.0023215099269762
0.15346459919866262 0.48452005498891759 0.30119998938119646
-0.15831493567732155 -0.031021508050001395 0.49180364288135292
0.1740489830733945 0.33488899996417815 0.38966834675657047
0.33099730772666902 0.47074378199588224 -0.047077488513331392
-0.23241373886621364 0.13580042370013534 0.37101048147627402
0.015694082098587997 -0.061185293770403493 0.62223397805548875
-0.45877719754878254 -0.37634016906648421 -0.20424366787471485
-0.71256673377234125 -0.61779474004146906 -0.32763219471293592
-0.19498327349836764 -0.093497537800405872 0.48744505874736033
-0.10872203307874304 -0.26826005284047039 0.42631565123606696
0.22476799598103309 0.442400908613096 0.31943744566057397
-0.074589305576155118 0.24938846985049234 0.43712995414822342
0.23994020182130751 0.37991184741909112 0.15760198989814789
0.11678279895722253 -0.2213638408750323 0.66701231917699078
0.13974625851751774 -0.1606383818105796 0.65256290602904754
-0.6644843808541534 -0.61945850442474071 -0.21905086777178814
0.22191066744364535 0.45936288937611724 0.056972942440558033
0.096524287476690396 0.42361868157058169 0.38980882854506615
0.20512751024842377 0.25357532676510369 0.38736414449638451
-0.02643578568290364 -0.21565102440242051 0.64930230540818579
-0.092514028466839343 0.046234867977468841 0.54564729051867444
0.085248608599073905 0.17327273155493772 0.50348948795360748
0.056072061072984777 0.1931598282921542 0.49668881449635016
-0.67172041270410143 -0.5298432166947542 -0.38967290716059716
0.16521698306626575 0.13906563853690468 0.12094069903083554
-0.049883848650945306 -0.044081123122651694 0.56101168150876801
0.086869861726347114 0.42451265375279001 0.19770402169828902
-0.028538347055766411 0.22677102814897204 0.47903783422248902
-0.19572183928329939 -0.26409051028606756 0.25971124869691736
0.40548456599460952 0.25670681906022008 0.47103293017204767
-0.12050197114567862 -0.1174480056012836 0.21800359840434111
-0.0063676897635791818 0.5811143865165207 -0.59392170298935432
0.021488185310173276 0.026268928297281779 0.38526367476058387
-0.21213673828732815 0.071148227340938314 0.43523606578719548
0.035194368100380062 -0.17816070947589552 0.6710378254483107
-0.15343921530355337 -0.13199515331648815 -0.16285137802456892
-0.66244959729546316 -0.57153516204457555 -0.29738026373387055
-0.60423481270915291 -0.75626275707868695 -0.10256647623373175
-0.11255166637162206 0.17188603656187401 0.48825687419554209
-0.088340074739795826 0.33340356147279016 0.39744275058219813
-0.10221688883094865 0.2593701617505072 0.41607777976999605
-0.094069755196766983 -0.03305024765710865 0.54258901976917462
-0.30477332793221301 -0.37061876192827564 0.39945497527121349
-0.099749230245403081 -0.11936561474604795 -0.036475935079892191
0.11393501008447553 -0.24744989336582207 0.32520933575137834
0.33089312152999628 0.55464693870517789 -0.085964050126190905
-0.10450980918335753 0.22723565062161863 0.42521222494268657
-0.53193330364892644 -0.32193936232325865 -0.37871174984161071
-0.43117206135813657 -0.019584629177270857 -0.31135995907967823
0.14354009505906359 0.54004428766992907 0.030271210219317363
-0.1755855869818658 0.12898842454689297 0.33317402640893129
0.21475599935636447 0.4564123728059809 0.25484973345366868
0.10498218176634425 -0.1893967428075079 0.64477825362644414
-0.12815925945115195 0.17409147857341944 0.44736158131862064
0.16365849654080619 -0.21265631354853365 0.65484340738211499
-0.29253311034091445 -0.11420482787759018 0.24869946560665424
0.1537229653634303 0.20624584977307825 0.13622660904927109
0.16723590003871169 0.26053238941954482 0.42698597890039092
-0.18390783689149118 0.20487394948210866 -0.082779860261286572
0.12677456943271101 0.20256278116037463 0.47081187359242088
-0.12738326018398868 -0.23309928728089491 0.11065319919302613
0.093356837277470961 -0.19524153504988195 0.48997651818749333
0.18427227991369979 0.30860531100304811 0.042362353310210182
-0.46789470344851103 -0.38808973222952148 -0.1479026563764384
0.30857527590448097 0.48389723612930563 -0.046397608647629464
0.19301525800485217 0.29608419466508329 0.39462076583127842
0.10090409689268062 -0.086932555244400578 0.62474784845166509
-0.4893284787647898 -0.47515740475149704 -0.051095065044460208
0.28446627090319654 0.31404738277013539 0.010622822153326935
-0.5757700653789618 -0.27515794128579374 0.5681314392996194
0.018466209554952817 0.20160683530930154 0.48895287005377108
0.040159763474038726 -0.27327639689613609 0.52439900916789106
0.13714102341942905 -0.20534542980999138 0.63354910714498158
-0.41170973012972473 -0.47019050337904622 -0.067129300350990018
0.18222701561610799 0.47662060378119975 0.056808654322003681
-0.098969469517823927 -0.2211188334005143 0.31638040076075802
-0.02905452265539963 -0.1582357413580357 0.38413147225487299
0.064921322745254681 0.34505968288341227 0.42063429714089084
0.18441853688835941 0.33474393590768342 0.38436542013467145
0.16551503470615461 0.24745502675712855 0.10447291534764981
-0.0094142554099376288 -0.24879569642759869 0.28442352393926823
-0.45255693876005809 -0.38364973947894443 -0.12128145926247878
-0.076554190577509756 0.1422325537442885 0.51817813322246897
0.43438131284247194 0.53858397992496798 -0.13218959403721761
0.2005018775525349 0.43886463839750933 -0.047445735449425111
0.052399041504902086 -0.62825903681256312 0.24314799706395984
0.12079277353603583 0.12907627748218237 0.24367489095488357
-0.079890941117516545 0.059948757413763376 0.54420377933222486
0.061741514554715 0.17209868669013964 0.50448055493774624
-0.12120027683268203 0.49791954984066528 0.0021446365621753671
-0.15023712792529653 0.0044703965859041461 0.21155588854711943
-0.50787919162254347 -0.37055093958089103 -0.25473442381360467
0.02564765528547594 0.23220423910633403 0.12870314402157618
-0.034533771400094129 -0.11084854158549412 0.17607537984435129
0.06216569201855085 0.03223132371510079 0.57737350511034291
0.1327907837187387 -0.20608696826587308 0.63074104835832978
0.13969505581667641 0.3639936999389119 0.39486687498912887
-0.13535930201993829 -0.16915523843446278 0.41635347280872265
0.13922819527844355 0.42361707347856381 0.37875314266271443
0.14771055008882158 0.72975437987666369 -0.35246459878446568
4.8457895576808907e-05 0.012611215415055221 0.6181828990144026
0.36308031567327731 0.58287668873439369 -0.10796500949631656
0.069228551421837758 -0.18221001939339698 0.49085626094498697
0.16515631864692243 0.36103221001706742 0.38145473597960294
0.099720005305350842 -0.22980377332914004 0.66884626164187633
-0.037430984156289551 0.34279692386483129 0.37144955100166033
0.060829781665801622 -0.022916558361415373 0.60108302440095374
0.061408956238813511 0.4530341397037761 -0.12297826350010789
0.32521022124462495 0.94508686125915853 -0.15633694345644608
0.062187900761367702 0.048568133654272982 0.56731729485584426
0.057188429566774578 0.49122191312567698 -0.47239078229946763
-0.08440019276114813 0.11339859489174997 0.54546411235585857
-0.050439039746979275 0.2080601692625943 0.40966499053841066
-0.63978617798907045 -0.46286292624058539 -0.39324025263927714
0.12905303396976475 0.50446251389969965 0.29877560273564296
-0.046568537566486351 -0.17798817888946056 0.42096202362946722
0.123716592328141 0.40001468825876485 0.38589285067501378
-0.06486939108691224 0.17999339935819589 0.48197937974426752
0.039723978762425921 0.10605011727764169 0.53752091511880029
-0.43926478708575589 -0.29940450127027513 -0.15475405901404726
0.21620660801129662 0.44441601590759566 0.17404863003383417
0.10617692530017768 -0.023288474764129097 0.43561472043008043
0.34666048221459 0.56750197023136528 -0.097464129702699576
-0.059138839831192891 -0.053485270159898346 0.14780882089513139
0.041490570545324137 0.20517093484816504 0.4876172528253076
0.0042475856170686721 -0.02031285388603743 0.62220518078882892
-0.032828385779153743 0.28616640044915342 0.44837857766868089
0.20846882743824954 0.28349793576670762 0.38043270934129708
-0.67678755833575877 -0.62016490795525669 -0.25032578074392153
0.19721692699441307 0.22846682031417825 0.086967751784198494
0.22500674703094997 0.47678939157753941 0.038975183125718731
-0.14888383978298403 0.2690144044435816 0.36175296526951617
-0.067874522889909222 -0.18730506847547246 0.60040050815763912
0.16832792243147998 0.24071379476486693 0.17502049851010529
-0.46447690745543502 -0.44611378443952726 0.057033152508954063
-0.37904016195062218 -0.32499589666716999 0.091534453000640753
0.06428020827347139 0.020520691736435837 0.46026515850089023
-0.65537059493316829 -0.60501939067136346 -0.16334203407761733
-0.36401293271821411 -0.17126854562129448 -0.020480783034478145
-0.32747465485141503 -0.38480712482999485 -0.070989668339231426
0.051092191117564342 0.45014208442412185 0.19443808739397619
-0.18614159020410692 0.02372529444254734 0.48846235666068744
0.18554678235405844 0.29056649323534223 0.055178485831141641
0.13727645797825014 0.48334010241347802 0.27770487197071314
-0.026250362118186987 -0.29426567109220464 0.56280632455003843
-0.092422348513470143 -0.16588897989726609 0.51539274799906043
0.014689587461603856 -0.28852440754452841 0.61778620666057094
-0.057273848759187077 -0.32153958781246661 0.33490880912448029
0.099356807219465187 -0.2120136474262177 0.67255999447628512
0.39514500228256766 0.67387593736284757 -0.12261306844150184
-0.4694281171645599 -0.45591536113866182 -0.021434270041886375
-0.013546098615188545 0.0048811197495390868 0.59238405486912915
-0.10869127641125742 0.1410293160349376 0.52956087353902948
0.057977542379558017 0.21489189739591877 0.47688777353783135
-0.28845982583412139 -0.35321434675959273 0.41353395450973485
0.00010685068044133383 -0.028966291946327938 0.129085293981479
0.14514018233576328 0.14244581029858838 0.39935822895397166
0.14994807342113145 -0.19850864484187913 0.64640108632084592
-0.15241707855831035 0.068389569511867671 0.53546055641643231
0.24931285432646086 0.27002806676805813 0.049459494561645084
-0.1999118709438166 0.027297573657254076 0.48297690261936388
0.065301504098507809 0.14018772619063014 0.47562220029859165
0.14282677508751579 -0.18800897425258334 0.64072352934742571
-0.42502876426654362 -0.4119442759523958 -0.11057161157916651
0.060097916869630043 0.021425471220411635 0.61315874044901819
0.16792086730802785 0.28833943897467007 0.37311089681634868
0.079806753758866741 0.086697592153210212 0.53719814310848679
0.13878024567451186 0.33727041022331672 0.40015664793160233
0.18146355854821253 0.29261910159047094 0.0539584366667821
-0.14498422470450006 0.19120608314600551 0.26195353339383731
-0.25365263329427501 -0.061101040793327732 -0.34916456593651768
-0.10749701215529486 0.26480959176174251 -0.26147627415392982
-0.096203679069700038 -0.44081435047991296 0.2463005056452312
-0.077964186509143427 -0.19400152279127036 0.45916139100427572
0.098739286970645226 0.38249635706196367 0.35692762964418645
0.20660859977902918 -0.2656012848862232 0.58827774823707657
-0.084135600300732832 0.23748124656918529 0.43503587335851396
0.075402628725195098 -0.20735567359573204 0.64675989344728624
0.032935116302480812 -0.095939356954857224 0.27965779065449076
0.21669085917047204 0.68879952745096318 -0.19514642573453575
-0.25714631100306451 0.066335146174240522 -0.34335928992330877
-0.061761735562740949 0.37383262454603683 0.2944484657917531
-0.49810736264239197 -0.47536692032005778 -0.0066533760606077019
0.31027158844407632 0.55940881190775305 -0.063645847488385116
0.094690556836709211 -0.10723108191704112 0.6381322078286179
0.57284890879465045 -0.2019480615786482 0.29598372760527258
0.11277653439504892 0.35925185749834382 0.41104687636334503
0.15767319356208931 0.14586886090447843 0.4407376515230424
-0.60025788511844225 -0.57444626688869393 -0.063763974845448476
-0.036386303311189291 -0.061048927418083709 0.093001075659619126
0.42434825739658977 0.55108956686072652 -0.089519169621701589
0.0061201006392964455 0.32855414987745551 -0.16785847454037761
0.060245641518194989 -0.28104906933083224 0.62758071589737918
0.16260855117968967 0.31266125011720702 0.40341530774103218
-0.026354703275355829 0.29666909915515949 0.3676567519553775
-0.0054436130686136147 0.018030353988961828 0.58865699232106994
-0.71140676471313402 -0.61802293111981577 -0.32969050923297621
0.022315782596860831 0.32116241145961877 0.35878825920626745
0.31096167729726187 0.51417882307085361 -0.060559271792546228
-0.27746337232532803 -0.20466177739248242 -0.22792084522232214
0.041909679931583205 0.086410553309779425 0.040080925646028803
0.44809307741940535 0.34574660364444409 0.18160420661204199
0.069787896278324824 0.035469351681930161 0.4538550205337315
0.0866593772109297 0.3100451611972932 0.44677791416906926
-0.64235868812104779 -0.53735392275401139 -0.30742860774547737
-0.101158243795406 0.28127964608326206 0.41146497513550156
0.14303106813532207 0.17493226725826799 0.18540870401418241
0.13561726662868731 -0.1945909562687142 0.63218153562899848
-0.15583843788079976 0.060521437746533985 0.52812188459236553
0.1593902373637886 0.28946166532405621 0.41382863146584636
0.0098666069242639154 0.18062294730583844 0.49649996600960039
0.14063483826959905 0.49332972485541737 0.30081823724451034
0.078188266908874648 -0.21967436284581426 0.67437393772971821
0.15692941064783378 0.21051330116880324 0.17692728829539142
0.15420992007077061 0.57018138067897017 -0.034888438793595163
0.19600099709645363 0.22551928170447777 0.093279393323455584
-0.1046824512572551 0.00024069894130462899 0.55375475447652711
0.090345463028771889 0.21979081924479479 0.50811272271555041
0.053738463334221429 0.27727631636290162 0.45624364986029087
0.063717392180200019 0.49420386293429885 0.32808533180958499
0.0893139224878709 0.34184751371244348 0.40915877762046066
-0.086362503120990697 0.17826527179310611 0.48175249251318147
0.08182873412733524 0.50131904372878977 0.28041544418273218
-0.70819277294020544 -0.62777118299543244 -0.3049205380703971
0.12716817921815149 0.35294167605167809 0.40710494478946502
0.20150341793538601 0.75750798812387699 -0.089198661330277679
0.29078239181371829 0.58553670681568848 -0.095857358826144656
-0.17471592682463977 -0.12789104684841185 0.41973188294353014
0.058970888621633424 0.16553230131757962 0.50574006768749213
0.13291664291937463 -0.21993465588135852 0.64515090457002056
0.19986107765568267 0.43027498136651676 0.35021627325940718
-0.24121632321524997 -0.064991107951758081 0.47517804052157009
-0.35525960965300452 -0.31540787365629613 -0.054668778534649354
0.25293134130939249 0.42232433956794069 -0.0079392023275524463
-0.12032938629193346 0.036161530884592619 0.54598914204158067
-0.015034686388520013 0.0060371046204015233 0.59220667538976213
-0.31892641024373886 -0.19540945816709224 0.25846166114055347
0.41675525247726442 0.5484345688484229 -0.10897852884925198
-0.11524538972249471 -0.25623143792884151 0.41205455238968125
-0.007856934497622356 -0.36144755527404637 0.66091807612058995
-0.073773286729931359 0.3567250525178538 0.27623641581447445
-0.20112938389634891 0.035519111275067461 0.47256333460777261
-0.62130881804914062 -0.45682414909002067 -0.38214866426012034
0.085147051879269131 -0.18138263511173025 0.66098957860913132
-0.061980014344484552 0.083465186931864166 0.53802864462147071
-0.076304417937521324 -0.19703165641100595 0.26966077829364293
0.24180383781028167 0.44335422008525416 -0.042755761413019219
-0.15189789306978171 0.17037678445843529 0.42608673745080078
-0.023138631662709741 0.11734079140973339 0.51916682188160923
0.15109179888170504 -0.27794995231868069 0.53692616739324439
-0.25074279737377403 -0.18506295118739544 0.41673296728997278
0.21863692345907071 0.45854788528016532 0.30719625681766638
-0.19356321640303326 0.032776165458084539 0.4794713461658901
0.28222778749053229 0.33140612807357606 0.0073231678451898385
-0.0034862203086633986 -0.28723708804200843 0.54699430899350077
0.23103496540029114 0.53920503236371942 0.13016911648290888
-0.18816231739220332 0.11029197142853406 0.097165522331719184
0.32209618947049146 0.48781438370980945 -0.050678199996152307
0.1943351845337136 -0.21135590299823837 0.62805451709284754
-0.00010537043366871945 0.022433040879698607 0.58574192372001166
-0.10269569151632893 -0.12427246498288752 -0.049325812442632344
-0.12031745049510895 0.027255983534000827 0.54495940664112874
0.055024202668968292 0.23716390438163715 0.46989875841758821
-0.0044190713171253504 -0.070415639403892616 0.62125790783738322
-0.48439850278773289 -0.4717111851529926 -0.048751230721121502
0.13191979269851939 -0.14764176063842638 0.64822548560772997
0.048043369218572413 0.40053550035799024 0.41488294585014107
0.12193116524020914 0.058766332684447808 0.75870959015644168
-0.21815648379985444 0.12885946744639037 0.41003869539617793
0.27677618262988019 0.36637408538808541 0.0018386695629022242
0.1071856879193603 -0.035997907742294 0.55109247949417495
0.056366676246967257 0.33947885021239682 0.42652279456291831
-0.19801641527057259 -0.10937363194381533 0.069354114087544383
-0.59525229243060152 -0.56398167059781701 -0.073940099153718269
0.1519050843416552 0.26316080942298858 0.42848883991886277
-0.041359132316082646 -0.060434597716518323 0.10572490692586115
-0.094833077684537886 0.10002628871663385 -0.0084615009129021812
-0.025591816389258989 0.27485841601204175 0.45589249503844753
0.1043416322070361 0.18686383188508546 0.48635915672131913
-0.081602396845963487 0.3694664802031063 0.36017027472355251
0.063759403988709634 -0.032178808032438333 0.60430764615865828
0.024099379140928204 0.32786598807722733 0.33169644015865296
0.087913959564938998 0.062133261436811416 0.43706214254212106
0.093928555244580908 0.31195215152944294 0.45520570161214496
0.26143008006731361 0.51734756918800895 -0.010978412843981628
-0.082813033829662153 -0.042034433766829166 0.53403138154941454
0.10246003795936814 -0.46838089064360156 0.3232606435901183
0.084361751590762771 -0.071876698234119907 0.60048554635680551
0.13866957462523077 -0.20173862404965937 0.63443411038684994
-0.16346101946296235 0.14216446206922598 0.37562969075391073
0.11015696147501501 0.20836978792443189 0.50379039891012789
-0.40797807923198515 -0.40295512466053085 0.094549575771971428
0.043193510846718242 -0.22568530239803197 0.67156412310127067
0.28348493037796152 0.27848849484152216 0.046586061664230377
-0.38830799366058549 -0.3542038084933512 0.066917530635274267
0.082478511328602164 -0.20993348028443848 0.65263335839923353
-0.4245001988879975 -0.28616048642912273 -0.13670808650148836
0.14682721698485249 0.35826561942628232 0.39408928973161994
-0.055045376696840051 0.18057181104447045 0.48839049132806422
0.14665948615152663 0.63430573183500927 -0.2847390102355955
-0.364106313548475 -0.18369644709247859 -0.2716842792194632
0.072416873543426269 0.061867475710846775 0.34535148596718579
0.44779678650144811 0.44629858491910984 -0.085828664818237907
-0.010281409449056809 -0.035549761784119283 0.11716848647126281
0.20611527153816106 0.66355492605668087 -0.20318399522250882
0.012515947049382636 0.15049949994131678 0.50664229307160003
0.055246726244686975 -0.010969887239559828 0.61465166205158284
-0.074255623123677825 -0.24973617882884303 0.57944364176493635
0.057552388542078087 0.040256105037901002 0.57146908846117139
-0.028333935888055883 0.18209819580966338 0.35362968062259653
0.37963380005741088 0.59357406677710978 -0.11487526570382661
0.067286433357814923 0.026300735904040695 0.48491331812953814
-0.044689319315881382 0.28967689784312484 0.4480357224346222
-0.056474082761828498 0.33506671395617488 0.41103402741110856
0.052822608440470042 0.3859078483226383 -0.30782719746000181
-0.21193679894512008 0.087224712216369349 0.18287667423534673
0.099820328082696141 0.34788991334071778 0.41538101608257494
0.12617720963731988 -0.084024592710181478 0.60505043306879369
-0.13663174806697323 0.15109334610635503 0.47963999097236309
-0.70337255309999613 -0.61117217582136818 -0.32579108372180238
0.074690839751968718 0.27569630678463408 0.47096925204003037
0.068990986748438565 0.029093865054870549 0.59269546329301659
-0.58502085293962713 -0.45544798486576876 -0.33087854457357585
-0.12150992303664238 0.18648741640585861 0.44656474091470882
0.044006751627310499 0.24042836866622658 0.50156782752998819
-0.2867612110321287 0.046517652412523008 0.38049064180243791
0.16984449373209159 -0.24019714818912902 0.53900017395781241
0.0083070637215385545 -0.2409231125189612 0.66198123234273609
-0.072004481743950244 -0.20734679040287485 0.48721276851059725
0.2841608750318923 0.54436882690478072 -0.034051221859862424
0.057865033720544051 0.30626630840422442 0.4110051451676085
