# XYZ point cloud file
-0.52346773766647026 0.0012531591283524435 0.80441077876713818
0.19887530145246934 -0.31740874103343808 0.75055402813493144
-0.37132189810757321 -0.96038190138839852 -0.37243246849789635
0.38595233011339758 1.0538017132420365 -0.31579619223940814
-0.52724790283034384 -0.15595166186743858 0.78266962300128995
-0.29895806792969815 -0.37758739516486983 0.60390199533277888
0.55259101630978691 -0.38124105811714681 0.67012486939239668
0.30348415119673611 0.011233007057591671 0.49842930671094532
-0.55079295748173074 -0.48952703703179257 -0.16267919647705309
-0.78274573375154333 0.59061489268617784 -0.23511801832417056
-0.015728825896078824 -0.27360523869447961 -0.38951576156469159
0.88946941839948312 -0.39028133455330671 0.45293516651088872
-0.13593296930249466 -0.61856471699020643 0.63774643229464312
-0.72432773742388434 -0.79649583932008161 -0.51015595365163691
0.33982412056310007 0.060066616894969282 0.41480210575788679
-0.6250189100159611 0.20607163202095702 0.80560170792064234
-0.016560446235741821 1.1305918882043486 -0.15321895661547735
0.12008547591132057 0.48288899863535839 0.79778288950371801
0.44951728989307327 1.1886219223989674 -0.40896203862401226
-0.51607442419068494 -0.19736668217437447 0.7530228815107245
0.34833145352090611 0.7787254305122131 -0.28012555140668915
-0.085968831391149969 0.16146123947958424 0.64215746054509459
0.49635004640791092 1.0800893886675071 -0.29232821704955114
0.071710318789084404 0.041117539950826565 0.80273811383099369
-0.34456765923860733 -0.14777180500812337 0.76083880369914691
-0.0052447091319463013 0.10370058862422793 0.73799104514768832
-0.57763089364973563 -0.93352869361053248 -0.46761692038008063
0.27516300013525985 -0.23314227570192259 0.43642538384544594
0.43341581763915027 -0.14231140645850449 0.82175511990564498
-0.36932886806675391 -0.644290341675541 -0.22586775325614195
-0.7542693496780366 -0.68932129742496695 -0.095274599387111358
0.80511795182333756 -0.49601511318186597 0.49936993049150447
0.89926240228894194 -0.19294899544700161 0.58872815252650224
-0.054710614181396444 0.42310259999629096 0.87955450961998682
-0.55777559745142913 0.39097218381701149 0.50960087655917041
0.069320807882511382 0.60220848218015721 0.71853115214780239
-0.014842661053371842 0.63359810127138783 0.72508600766010733
0.031617921295109319 0.11998914561618212 0.67533209441600395
-0.33910402127710348 -0.76813123828519636 -0.24747960792041646
-0.92172921584552547 -0.97207637255992241 -0.35152493207530799
-0.49539557012000568 -0.36790071690881998 0.7086282440053342
-0.1023998252995062 1.0881684625478969 -0.27266108546354761
0.22578240051686738 1.0219901310988098 -0.33912421110762558
-0.84184444201332198 0.20675899272139153 -0.013180043315800916
-0.60962480194817115 0.25688602987810683 0.62819740462716656
-0.57928364122281195 -0.58794917151370951 -0.35088870144025464
0.29312907150371093 0.34649235103390419 0.47506131959468423
-0.034845825803697217 -0.27285752155884113 0.54118599492563746
0.20784215001859607 0.99619245027797332 -0.25556787218477073
0.67758044403058726 -0.51890592590917706 0.54938496691251792
-0.48197879456816928 -0.049211923206033958 0.61137226511831289
0.015271035457264936 0.26915065063418631 0.67489750763673584
-0.48223578453425819 -0.21641682717534216 0.72915360954638686
-0.15910778989158469 0.76076374768623545 0.49684731877771249
0.041084419388583981 0.35901947482637819 0.70744332476309246
-0.42866388818173906 -0.28230420658755406 0.6210662760068395
0.19096916144473308 -0.080239898997167103 0.66089896155161476
0.34455263494868493 1.2175342801915283 -0.55946796675255062
-0.65993891230412771 -0.86765789476039101 -0.52104243444280751
0.28246080859737255 0.88528280277509985 -0.32389558893953474
-0.065148348240462894 0.29972847659012913 0.75520488990336521
-0.47406604563311294 -0.62626873329852684 -0.27376223295380875
0.76166197521652368 -0.49429974567421331 0.68965426493458359
-0.46252054281437793 -0.38731336906509384 0.69787419219398572
-0.023050998995604033 0.75729729508388566 0.35205784472939694
-0.36126591890979487 0.072594731436895543 0.77887861574234751
-0.33606899790289901 0.11047444651042682 0.74790209063034885
-0.43210824986782992 -0.10207168156842172 0.77613312547150048
0.3268164496209387 0.70933761034678877 0.065952165429728815
-0.16622743719833277 0.40457616006421437 -0.56815511609061087
0.66766097206584796 1.0599290053327104 -0.69679627155738544
0.20705274893500647 -0.45672871060165177 0.62429363251783432
0.024501905385109879 0.54272910953615083 0.67024979275867036
0.15130534294905562 -0.33717966560410595 0.48071962688760284
0.11902386678967058 0.17877633274900573 -0.68181577145557437
-0.0469510020631283 0.61351856927099035 0.83343729719100379
-0.43386058970824681 0.48023239984921684 0.51983068488001383
-0.17241086537699157 1.0014532354276713 -0.028481238092602723
-0.35967189646006048 0.67276367214464905 0.62529123796786168
-0.1440674633421839 0.48852644275305579 0.74606006013175019
-0.30166782652883128 -0.67513178118107486 -0.37150201782140879
0.70686821546666145 -0.2997993460424615 0.77387011162883379
-0.11213537490411341 -0.19659473634874924 0.5807044030824775
-0.083753103678631646 0.44658778554168954 0.83601409675596994
-0.56661221450738175 -0.30180150699834085 -0.56445981557647862
-0.39549086536173128 -0.61845488820471806 -0.1795654227332184
-0.010246573590706909 0.47182445355106051 0.7408674457311224
-0.67453212800351015 -0.56632936847206761 -0.56771765227323545
0.026368169224095794 0.3257405956538566 0.79622727883821032
-0.084153689060650905 0.49075278515074094 0.90687787270799358
-0.35492946705972983 -0.32111866432910841 0.6827294764834666
0.20893653358502551 0.73638311148265778 -0.22877910393070167
-0.28177184666365473 -0.73395378007001755 -0.14853066517914604
0.43555862986131988 -0.31842192058470431 0.66635194894959326
-0.69379964950858408 -0.23579992794519278 0.74374739012323721
-0.24595518697456775 1.0430783945061282 -0.097995043677093996
0.20931144819776382 1.1064388800679446 -0.53199218866425468
-0.42579492295296095 0.30507900503148599 0.62807892783986397
0.54769033207224904 -0.33473665665380814 0.75071406799010854
-0.69596862547924943 -0.16833757563073748 0.61553232937807234
-0.43745082666382107 -0.33051865156862803 0.73532874714547436
-0.50511767770723015 -0.11899429395524841 0.7876554540362708
-0.57849465096777219 -0.019158939276898934 0.79374953864555264
0.11256110305668088 0.44204785798479573 0.6566590202235103
0.72986550751035484 -0.20331957653870836 0.60391730056988369
0.113441847093533 -0.3706141126048621 0.081957755888670825
0.64741950564809958 -0.83821455866284822 0.48252026695256411
0.59381650326061308 -0.10381286355448083 0.58132441157883363
-0.53272167249441438 -0.66033909822686798 -0.49381059008716921
-0.13533006938904713 -0.21829365821553237 0.65249242085131787
0.30379239261524393 1.0227144220885966 -0.15066074853821565
0.1332993428816982 0.52128268831871427 0.6592423173854618
0.45568437987791288 0.016978193032524569 0.57379771249136535
-0.20381312503581928 -0.42520798000608062 0.42762763576810059
-0.25754770625113554 0.22777798545751482 0.68273447686041022
-0.46672194177121895 0.59326696742450258 0.66102936989428374
0.51085849289183738 -0.32757457516981381 0.58844084959318632
-0.73681472863704034 -0.35129603268087761 0.75769885128001624
0.32225100123723927 0.96055634120954458 -0.40472315972696649
0.18244615915146323 -0.016230242744074364 0.84471316269341701
0.26445678227799441 -0.27248698242385849 0.60953742336978678
-0.48021739466715996 0.92643344432470665 0.02183917969877669
-0.58850939289362891 -0.56513574937039213 0.45330910723721951
-0.75693214627751626 -0.51388297603909949 0.11395617486161713
0.65062246745593288 -0.51204605754177868 0.62065145401565669
-0.37955797627563559 0.20804064596687377 0.70116524490322618
-0.11481251299179718 0.64328681633835005 0.7906480115431096
0.88762026833456886 -0.32512631730988506 0.61784033471671718
0.27932222252498029 0.8501326720041793 -0.36390161133727794
-0.41675112036194051 -0.5489626490365942 0.20217810615883725
-0.26929895283046079 0.12629433602218398 0.73629071786548428
-0.60786877075862034 0.39074789177452951 0.50719210538478698
0.21983786090102342 0.7672214083231772 0.39245714622379868
0.49367911742509474 0.75885712800742056 -0.28763225564646255
-0.33271883032129246 -0.046200116049931239 0.79475999453594337
-0.43465189097254964 -0.75599690447515755 -0.41205321436558151
0.7969990510954581 -0.62849142330070595 0.67434304050667748
0.89629255181350054 -0.57079481766440976 0.61879551380963926
0.94703870545101765 -0.29046062825107288 0.48668719585874332
-0.0664727904116722 1.1283321263581296 -0.074306343215636339
0.25529890660675214 1.2148674300171765 -0.5407731586355089
-0.71043383585087039 -0.50803709520384377 0.28878804300877414
-0.39405069476717358 0.10303540322638849 0.6611029739149421
0.69941918008216497 -0.49957305593504797 0.51314890548413672
0.39194778186474188 0.84867485914270047 -0.40894339641273891
-0.76898243065751259 -0.10329637341963149 -0.35068910143678966
0.68585803128222711 -0.49881337987872953 0.67625548199140795
-0.47229059109829041 -0.061720667198919887 0.65178995979948651
-0.31800495038871102 -0.045115392218114003 0.81542138402682074
0.02474763790873169 0.19305709902896462 0.93839631319848227
-0.55068703357073545 -0.27118014283793457 0.87239480266352309
-0.4663497072517071 -0.098724995358603351 0.68551978967548655
0.33217503743183663 0.56690262642601486 0.26997161444889706
0.084264621153818275 -0.24124480671114279 0.72680253382356597
0.27533789374891171 -0.28648594320872522 0.71495118600915042
-0.33705157802793373 0.24738748279930345 0.8970174631219856
0.15410871785513169 0.079677891640999476 0.50119209022866773
0.28808030506611804 -0.70621467969037521 0.38967970369115079
0.55792344775041247 0.067010960413785625 0.7285469171516441
0.58645088288987957 -0.25119143996426452 0.83096183606547802
-0.11825668398114608 -0.293964561470486 0.57891962259795449
0.070976394736244508 -0.18392366344733713 0.84033557699980621
-0.50726600653388765 -0.44372176421020315 0.5678154882091544
-0.73382324721603176 -0.22005561738507184 0.50095878128712323
-0.61934687634758934 0.48282600268319431 0.74400751313035451
0.44280587900144752 -0.13380103107088237 0.068664191145553666
0.65616615478026841 -0.35723227813133596 0.62567534553419879
-0.21640502135241757 0.71360997543964233 0.72989854874884719
0.34567791601213571 0.90713360174861846 -0.2859453068188671
0.42584941928068076 0.76490912346306583 -0.31523074548883923
-0.3681223389374173 -0.32376109773973916 0.83124155546941791
0.1687018425859943 0.35982778120873204 0.66881826595253546
-0.12939080690614446 0.73241115503953891 -0.7554232780123824
-0.60258046490286876 -0.720293759008789 -0.30307414678523736
-0.26172023883420348 -0.2729923392547744 0.73399165247805076
0.94221422772939967 -0.40398098802303917 0.61377912478291163
0.56257755271578347 -0.57325165420071134 0.42817513375252858
0.75196468504419745 -0.21627894085122668 0.50282652530572491
-0.50407909972772469 0.23133925253754528 0.64833259203043525
0.55260909577846906 1.0902889536451563 -0.275898131401207
0.426161868829392 1.1141748730239938 -0.48506859613745057
-0.27598231770379833 -0.22852908683897644 0.94292654606877591
-0.41955373412480057 0.73491101853564889 -0.25713133257128806
-0.45374359523677743 -0.66996845698870189 -0.22913076548016864
0.32932107784859443 0.060710699119346234 0.68186902633374125
-0.45554536865555928 -0.083092528319771208 0.8558954536852541
-0.45156592329118439 -0.00909752991634738 0.97402621195884809
-0.14188166616679609 0.61905814801116232 0.6466464154180942
-0.76110862681619817 0.28742424999628158 0.73808598689688765
0.70154508846561292 -0.30509839597262189 0.43704700634584714
-0.79094754063851624 -0.48158344985119328 -0.18789223971000002
-0.34199306699513787 -0.21647188689247576 0.84734663143065436
-0.19844016661860664 0.67994503349130264 0.51450060502173045
-0.57276131066928748 -0.19449745355197523 0.68411856032320451
-0.075919142747637558 0.59191838147581199 0.7006714083827057
-0.44172449415340242 0.054764355627848094 0.85867450711264315
0.37829579442133632 0.34828777426054147 0.45819755971714304
-0.41035242604657629 -0.69041825315112959 -0.0021469390773569685
0.62974183470436529 -0.35929403298791929 0.67631995683620971
-0.42652150595187877 -0.7152163240885594 -0.27298134103566341
-0.0014378797358611806 0.59483135462097847 0.74658266814464458
0.40949895035974926 0.31049636227540889 -0.19142860754426927
-0.0079815380588925677 0.56944831406600249 0.71294494742752068
0.3819199714688164 -0.22644961362125127 0.53467107511650802
-0.72773167192368948 -0.35334822301141244 0.64986409743678131
0.088907198563527245 0.76106528919576677 0.62722414608612898
-0.22075794095515278 -0.44800054582075521 0.57269760455145935
0.80621201809545262 -0.48341102481826059 0.66639022548024229
0.24950157780121529 -0.029544595269271667 0.81630357713572455
0.32482944035611716 0.2097980159421966 0.63554549192251208
0.22281671974952744 0.10898195145784673 0.71384981195133612
0.30756155370972671 -0.18312077158363049 0.77391077713559131
-0.66623686412367977 -0.81045419815543074 -0.46112147857151786
-0.48540056821260436 -0.78011403137514002 -0.41479249277397123
0.26851840949347583 0.72563909443272445 -0.24860138683330835
0.53228154526857985 -0.30000463648130671 0.38099845771979002
0.19046707057447776 0.90887076705155367 -0.61057723777661899
0.77089684987494245 -0.19152095446360384 0.80591082849070084
-0.35246056225077815 -0.48007605392446395 0.50704157943315042
0.53219906082824231 -0.39654886737432404 0.61684522601407643
-0.13114942855050149 0.38813887135331804 0.779263921660176
-0.43075486379774741 -0.71188455614569879 -0.38092900876668612
0.42148919285436381 0.68841869191938754 -0.096536444052697234
0.19755753864400649 0.36182481303440506 0.65065909451114301
-0.36715210916412655 -0.82175980198337806 -0.11570781662119689
-0.4032549719450671 0.19763034811671831 0.77565874427542436
-0.0089608654975741331 -0.12581023347161668 0.82870060401880519
-0.0069910591129520583 0.80134037909290257 0.22838224275959451
0.71770765626155608 -0.7521763899714049 0.57960692806868153
0.089360462872345003 -0.29740348593729804 -0.7287704188394164
0.41626922123718302 1.0426218361949715 -0.45526169401776695
-0.71592097520549025 -0.88277326611630169 -0.39374553875540785
-0.64528149214975983 -0.73499063648429042 -0.28499754246749376
0.46515882131606912 1.1517513284358545 -0.37209960074706316
0.31072452462840783 0.12120173504939702 0.66377130525901951
-0.73298023520826661 -0.86284016871785241 -0.46100032748297526
-0.25212140777441405 0.62152583022815122 0.71302115891466711
0.36814812042993506 0.77341508568788075 0.51262820918892782
0.80293822921715119 -0.20226204638696643 0.74286639654795206
0.68039023197357018 -0.36313161355547052 0.80498582681623221
0.62522232587197646 1.2876115933239993 -0.4118111632088679
-0.44175692667452893 0.89443700121183811 -0.4597154573684783
0.073849653548768046 0.27558252174916076 0.74570544854074328
-0.40079231645706415 -0.11595316349011453 0.60601065948142763
-0.35599422894116728 -0.037698193477065267 0.7961115883642278
-0.98396464486262403 -0.68099938965794493 -0.48618657490821393
0.46222001627969256 0.47903918842666249 0.61633813817857686
0.40533357783050672 -0.54297351286829354 0.37180437624374729
0.38150799046679218 -0.03482690215375106 0.44262281331982223
0.17089437774448069 0.55065011387626406 0.60456616026858168
-0.4941262838967404 -0.44414988370686626 0.68544244553614719
0.65556541940554958 -0.35828491724788813 0.73973186864680773
-0.1088806439154153 -0.56023303012357806 0.46890903275478069
0.11891496306393368 0.14017895726603147 0.79584284258028415
-0.70857387749834366 -0.30090807442374157 0.61074481215905774
0.13421372669685905 -0.1974033770282575 0.61690743219542288
0.11108537820708531 1.2454121740275466 -0.28417585400593914
-0.10260483716204405 0.13725108165857192 0.81363433868743407
0.14374135290717582 -0.17036109009999478 0.6751810163499754
-0.48226467567677389 -0.37175400607642173 0.59266115892718885
-0.28999467966630643 0.13398672470509432 0.74976672012566326
0.011432164008847501 -0.060039785158521042 0.6313572140959014
-0.51040088679825146 -0.13583181624695406 0.85100557381136044
-0.0019221609915387461 0.83011870196004267 0.63487674934445515
0.29512749920801795 0.36175675090178716 -0.57158929499308897
-0.64780705863656163 -0.1644597453903498 0.56044478550882726
0.5663339048219207 -0.45862616154386338 0.63476950129628396
0.024644713289435849 1.0177554491455729 -0.29811847888433274
-0.68735763313008569 -0.079161232003164717 0.47710180537472358
-0.37197587732558013 -0.26769085498997347 0.70903534095242238
0.37141373130390587 -0.19614440120805599 0.41941863386220213
-0.2248250019614666 0.065749105206420744 0.58396808168316472
-0.51820234586112512 -0.60909150558232339 -0.24511072054097394
0.16817878896515381 0.55668174747972765 0.63133945770761812
-0.24700144729007167 0.21222341415725499 0.77205808577048307
0.36571725712397196 1.1875328422591305 -0.27100866089059927
0.32340412749669412 0.31870733490394754 0.68732587849744942
-0.86759503292445483 -0.86957389442965027 -0.31489464834360303
-0.045950005894409784 0.25928663036924693 0.71361108127977246
0.065448299187330861 -0.34540073616561129 0.59884054634354733
0.56103183251982802 -0.57848512882058367 0.52807384986452632
0.36380991088568493 -0.20203181731428632 0.66703335725371815
0.2945517856585731 0.63125725413339673 -0.3347536839386116
-0.63239143864199931 -0.48991404926019921 -0.024353262086529437
0.059003228048517542 0.37787616581722361 0.72613242257658328
0.15505060525765391 -0.16568246716277812 0.56225586466713739
0.29155493032258839 0.9387177766519299 -0.19708148914329637
-0.11143167197336279 0.36616324403008882 0.71736473049580018
-0.71184530098969656 -0.71989583914006605 -0.37915313538407336
0.41941818030572531 0.07462313501785145 0.27905624281755692
0.44621322616585779 1.0922645608119281 -0.44133627271990061
-0.36717203863261361 0.54602139614997824 0.75821816041220158
-0.69833466118763976 -0.97817327768888562 -0.38833793027705132
-0.1739715139278033 0.35537444379824423 0.82901191554097897
-0.42308056076814804 -0.62841920152187303 0.094710513131834873
-0.32882833589121674 0.096551225956346798 0.8131804469361632
-0.30009263090608673 -0.70092749053948689 0.20940445428191889
0.48594955218839786 -0.090247556659863726 0.64212088144515178
0.58222434376991394 -0.32076396379245287 0.48840545899809396
-0.77879396906117204 0.42906566337576679 -0.48633855115692448
0.22604788796845909 1.0798223337963933 -0.26825058703764437
-0.42958700644307601 -0.83627903629691103 -0.18829669720013253
-0.12867435450064679 -0.34791315227285358 0.71603984328195214
0.84485023986964869 -0.36576184066518591 0.55147213281956908
-0.41600639118324878 0.558979099244445 0.65277464899075088
0.74054055846651767 -0.21783158225173427 0.61480106028568571
-0.59117861800526583 -0.71286320438705708 0.07364398909858938
-0.45419167214180511 -0.2139769156391429 0.93407772874267181
-0.4574992844221013 0.16816449481708773 0.58917520123421374
0.33671960161864334 0.25094562195781478 -0.12638933128724172
0.43515637627294623 0.76531970597820287 -0.50516697877061123
-0.62073773649895347 -0.39910986978767138 0.75867713548702387
-0.22165358205422159 -0.44671581951436901 0.68383110570585659
0.70591151107789507 -0.36854782296239064 0.74389585292765137
0.14807258532147571 -0.063382902982048961 -0.45603494958023383
-0.42254196759473395 1.042616910598765 -0.038871288265283965
0.17852904582092499 0.15665141178746955 0.63811998123350833
-0.50194316441519593 -0.75075347154946792 -0.3092054858891089
0.37712911235581181 1.0710667504853553 -0.43304495241263474
0.62665954259680667 -0.48433567377207609 0.78961157569275509
0.11365141723852101 1.1704561721664701 -0.22919842541742241
-0.37090047934320758 -0.17725604466135536 0.80067226220274579
0.87616498773089724 -0.30281019520673613 0.67204808976199359
0.70149112250598389 -0.418866363340475 0.59728011970571604
0.43723710470578325 -0.084900119121917417 0.7450866122503248
0.37388030665450067 1.1876330427102997 -0.3189208527905123
0.54433493925958487 -0.4951942311570825 0.37548147429203738
-0.41661757682015033 0.066043773651871529 0.65314941813627181
-0.12241734633454193 -0.35235638078982001 0.55365736559527567
-0.59487520140833805 -0.14340605277642782 0.73691399978467675
-0.17255119976577138 0.22712665291801892 0.6837327985765409
0.63847362959716225 -0.393964499149702 0.72490118055672781
-0.64784082310212732 -0.23689262472206929 0.19215027144498409
-0.45506481744297744 -0.38978015124112186 0.60848536471120518
-0.54157693342946445 -0.65975449118892726 -0.052364711031905653
0.013105828181456225 -0.39414909079308158 0.71518325489609058
-0.023581230996295055 0.12836525974611357 0.89717299751473822
0.55821592862891656 0.65207344169612869 -0.431670968342309
0.43806928409356782 0.89531299311180979 -0.47909260626586914
0.39036322658877243 0.044154048912284694 -0.14648450608431318
-0.77253682149066272 -0.42440303544167479 0.35669415667863902
-0.40927040822192762 -0.70458469873775353 -0.35465343977865071
-0.63813378344871108 -0.73748810785831731 -0.44351910424442753
-0.28461327064584463 -0.63514044267378322 -0.19983522691142319
-0.65667072686789396 -0.69914475925712649 -0.34842673493342202
-0.7957695524377737 -0.32342682374428522 0.35638732062916079
-0.17772764752465875 0.55991296319204853 0.71476249628608413
-0.30535722947923727 -0.092942948401201875 0.65064938062645838
0.12244151433862793 0.92788355095733088 0.22506290173116206
-0.24409667261794166 0.27441350277555721 0.88788464806013723
0.090054702408183473 1.1143027498831941 -0.37984250530739949
0.30174989348655412 0.61876983060977597 0.22395600946591188
0.68736317598314312 -0.75295358321563999 0.41512152319546436
-0.47699425312161647 -0.76808580645583779 -0.2913954190971495
-0.80423539867622917 0.0092789650818798641 -0.49552933351911932
-0.74185534179876722 -0.84623640420365387 -0.34584818769164904
-0.89817510795965738 -0.038142548069720394 0.53529040011854701
-0.119103835057361 0.0084700294287287647 0.68771203784210932
-0.17278581839275375 -0.19571827422805965 0.63070365270016282
0.1586111454531336 0.70814142819450776 -0.43716811181031368
0.21301957386686343 -0.19119749627753535 0.83403392121834585
0.31471170359380096 1.0745856221893137 -0.45016577434133342
-0.032608020139928584 1.0584981265979665 0.50751734332589571
0.74188732477611197 -0.44416301977779193 0.72871089351431895
0.012043279815609154 0.82262397290573697 0.3775055812103858
0.57223331148503132 -0.46735207429459935 0.70550225917599185
-0.10577839651613452 0.14309833474478806 0.69574517531289182
0.067201842575867587 0.4066231746312865 0.54462872136094198
0.73387519294968229 -0.23291898021461277 0.7178035002433818
-0.71340873499936741 -0.60473771181172298 -0.39574892539504214
0.28219042316358234 -0.19438063563827512 -0.6755148851426922
-0.54841913443632162 -0.73428804778047541 -0.32296763243994642
-0.51097802652265845 -0.83194985897438878 -0.32329698626791847
-0.84808646700130907 -0.69064709059979501 -0.45214641473029538
-0.38018824101452786 -0.68358896460994467 0.13785370959880883
-0.66764414593475596 -0.81882015235646755 -0.40088869459265331
0.080699830248093463 0.49917077403258325 0.59590981148557365
-0.34205363890063101 -0.24019022850020955 0.72328953772589877
-0.42465643166215195 -0.42525087434666764 0.66841662342331132
-0.38868351995147155 0.32422639426638522 0.58177795614060646
0.28192004830470463 0.61349314718878123 -0.28564714441825778
-0.087842549471162101 -0.10505029217385964 0.78698202941997053
0.11645126521170557 1.1041080418024176 -0.20191546357670287
0.026244953734661181 0.3294189398402696 0.74012544419333626
0.26190215676448148 -0.067997053566935417 0.73687473853251539
0.11156448500017024 0.12401033234508141 0.56714635441610994
0.3750621331920625 0.29797510024489693 0.21262717788463981
0.3222007217648386 0.76637294482087581 0.12652008332070164
0.52648386710709616 -0.27084770858089513 0.60615308712760196
-0.078897938213703611 0.31777132746923931 -0.64584506296265332
-0.26370667302426298 0.46710443436122828 0.79378152546350744
0.83156147844511885 -0.23039339434536821 0.66877987317241772
-0.43209801656764757 0.56359694885284251 0.69821124177375449
-0.67144835117881563 0.65391477934129094 0.029552442199101137
0.10541326401961726 -0.033369918788884512 0.77011618713803776
-0.38455430367011267 -0.23247742634587532 0.8494643421021042
0.55425298382900845 -0.42560756086596063 0.71009709343682959
-0.63523676236523663 -0.14648435959420203 0.7788285639441721
-0.48549775001935203 -0.41153864160674658 0.73527529054988472
-0.58672018129541126 -0.6072823755228689 -0.348626281083531
0.089979215787893807 0.53073482666535599 0.88976015410230103
0.68953091914969278 -0.14893175386945101 0.53912498148122445
0.12313509724287464 0.92180628068448822 -0.23017410270493421
-0.39304879760122091 -0.75161210969790426 -0.10329521616581117
0.41044582874591118 0.82835329223203003 -0.4550850341700432
0.3160832854470419 1.0478014717921069 -0.29859819925191733
0.088798124482024399 -0.3385112141458424 0.64969719600738918
-0.14463841977384284 0.16567422463477355 0.72151072586120746
0.33165758854984251 0.1389441893781509 0.38362973430053859
-0.39925416603975172 0.14945900499853426 0.51280723704380371
-0.84333911385318938 -0.1003830357277895 0.092484216885805104
-0.39266337978595356 -0.40507400128467497 0.61815013022709664
0.56589743041062768 0.33026422141163803 -0.1720930388288151
0.37091839466413301 1.2110858205765602 -0.43020306764517802
-0.81244949789616516 -0.71568631589630094 -0.4356585950877343
-0.15108667384296481 -0.20284124258000125 0.88523814816916779
0.044356228715086488 0.77746942866500524 0.36825101347571021
-0.16364090253845909 -0.22114726690301323 0.69155064602285199
0.72137471446149704 -0.27858393108785373 0.6663505400672749
0.76970534319499517 -0.25274503836090423 0.75435174862837595
0.50320024443764311 -0.72214163883763982 0.40092998677556579
-0.74240654913172399 0.24023470157471438 -0.6359117720446168
-0.095139863277950987 1.0807580500323444 0.059104696554829417
0.5736064236106504 -0.6930089186528976 0.57756837210438539
-0.66339897134713688 -0.48059196252586345 0.64203270296908022
-0.48570406417542422 -0.25078053095629649 0.22215275717254279
-0.028569134026826148 0.50968470033783042 0.62577852124745448
0.73489457374726452 -0.28942622732872358 0.58108980127043441
-0.51473538085156978 -0.70894325234776012 -0.20340406891491947
-0.70506635365663417 0.89190805606197543 -0.26761473528673729
-0.47245411995130748 -0.308262222687961 0.77771305577444672
0.45287965196203839 -0.12628797679170933 0.73157034411376198
0.28389847099452581 0.21992910772477581 0.26207618286750289
-0.741579444623091 -1.1365141988592549 -0.49818777873509301
0.17948012138197633 -0.51796747693837464 0.5103676027822317
0.7411021981568835 -0.3130146065038053 0.64414355241984111
0.15789545339518085 0.62127546100915865 0.38470429165082187
0.91530745642466815 -0.36599062958474082 0.38651922484725176
0.17444065588322477 1.2428997825035779 -0.37402912631209873
-0.57003720112997147 0.055214866924394812 0.71075967151954522
0.22381257853372905 -0.0726475959548738 0.73920433678869202
0.85680695858723155 -0.5345668862105053 0.63898112191136702
-0.43484720065642968 0.63274431941364195 0.39221930879039668
0.4784857045114137 0.92915909367345417 -0.30369080558503825
0.2840481200965419 -0.11243838823676011 0.6903414967980348
-0.09254979406770758 -0.0023933229701360581 -0.7977686319480588
-0.68714095971141997 -0.077948855730439526 0.70317040149602938
0.38191917238947681 -0.32958468924806894 0.45420899918251667
-0.86595084172726189 -0.93746251434059502 -0.37641744844474445
-0.27145291142136863 -0.40543506281778763 -0.47954499366245873
-0.46842458214490179 -0.68736974493817105 -0.33564223756857192
0.5646856159067708 1.0304960905460208 -0.40050399817924998
-0.48858415407685829 0.057682446371804641 0.7664012771323061
0.46271197785404183 0.50473219848457695 0.39440467076353158
-0.67401780975820902 0.2924976827662702 0.27351910680743785
0.065382662663433955 0.57862733684601775 0.6691941609416725
-0.31038531273941317 -0.1592789984552816 0.76025046721357192
0.10740749308022579 -0.1481472575055709 0.77757638736561496
0.21475658631472694 0.18541120252630305 0.39502609805216071
-0.64380534805216172 -0.22465933802390792 0.59024993677442117
-0.29055020586334113 -0.085432202484561071 0.77831595293853439
-0.8747666279957258 -0.34017483319472586 -0.20960052138111029
-0.2254884795968719 -0.12396882941239751 0.79741497676781314
-0.59745982413570786 -0.22014165971506561 0.83180579967044066
0.45908022207597909 1.1896358503888398 -0.49079962833086288
0.1356221365119783 -0.46905367731759728 0.50901278399880745
-0.0038403313853061505 0.58352795275072955 0.56608459214715623
0.65585362778585488 -0.44914582142285653 0.71890931153360382
-0.0087990834844084986 0.17220413183393379 0.76451242239622896
0.13279320481015677 0.30365124146724298 0.75194404909234791
-0.074049185745513668 0.0049399924631985392 0.65723539450863022
0.35658814919199511 0.068591622889955239 0.4973637706252001
-0.079385902431924116 0.54266553333639633 0.79400365594628397
-0.41232673177110879 -0.27892351234793988 0.532784881077351
0.18437752841232324 0.95100303047809076 -0.073678006399765295
0.05337454750044035 0.074787044424888816 0.89593575374921564
-0.11346000837330816 0.80295673348600571 0.13077872346960184
0.33458201171132362 1.0956357829075087 -0.32550744023796696
0.52533836718220606 0.49762868268459348 -0.18871416585694245
-0.64285165794413679 -0.97414038515084256 -0.23045049135692475
-0.57569925482148854 0.13435533171889391 0.79412470487387887
0.29554731606541651 -0.086709469773411652 0.82182042652359311
-0.25694108222798651 -0.22195365300710934 0.8199877690094568
-0.094575390466880016 -0.057169959383710722 0.73138578933428544
0.75741396931874494 -0.30244555134145035 0.52217863612765125
-0.31758796952701918 0.12548215008309338 0.70609180025858231
0.42151671738146046 1.0485433789622074 -0.39051017547452194
0.353108764130182 0.66506854480024513 0.6730604520538499
0.19875197479821427 -0.10096476396764631 0.82929492896876722
-0.60472089656809658 -0.027723310974541615 0.85115145608855158
0.082903144087282499 0.077537121191415537 0.84509786123219532
0.92282314129628684 -0.36715043576155137 0.50409312555357744
-0.79933103067475209 -0.37231385615678381 0.56786184168894227
-0.28168956668739753 -0.26557427054042204 0.72462106656364123
-0.32497585239053262 -0.21098947195354256 0.77407301248190796
-0.64228086222007352 -0.42026550996890499 0.54824390230257691
-0.072678515352966322 0.69821330491343669 0.34422321904872799
-0.52741334246379346 0.68016223328065273 -0.31861200346779928
0.0042077741055059903 0.75960714754472303 0.59570005049342711
-0.2520920050410318 -0.23022779981860886 0.65556984732187162
-0.075387453559773832 0.63046577009607274 0.30128197836233195
-0.2653517972425119 -0.037346826948173373 0.79462267341778592
-0.64010245675111843 -0.39385564809506546 0.65089581037505306
0.31478683428509679 1.2813477221799374 -0.37189430917154365
-0.98625752278666035 -1.0479787477354767 -0.6072223602986333
0.089179498985491712 -0.33911257184135346 0.34312036745314867
-0.29695935744211965 -0.089004998845813699 0.89600420114087553
-0.2883687546819198 -0.14782938733677442 0.65612920244174955
0.048707501354952498 -0.053102649290516002 -0.66702327413402962
-0.13537379392097915 0.24518237136514864 0.68351741929558596
0.1238827609094777 -0.2723268002789796 -0.57735436592592571
-0.15088612414375557 -0.14205470253366537 0.68146823641200704
0.23284046834961725 0.7635660558726638 0.1659749448346135
-0.37318889225963314 0.21728183435842796 0.78345838858347783
0.74181399935159931 -0.38905918621364988 0.78752525475456547
-0.70587840289668069 -0.32165177831302749 0.34650072063996973
0.33134863821939753 0.14118582751613618 0.36122586753387509
0.4627729326626655 -0.09600640466782151 -0.019331636756208859
0.14687461486387221 -0.14845495757654525 0.73116684355871309
-0.68071142104116422 -0.56342537448957897 -0.20423555527123805
-0.075740888046836652 0.66499000826888333 0.93911671406053276
0.59246863300166197 -0.25090456057888355 0.69694919369329877
-0.32532285923430848 0.17650115923900822 0.66787710105052156
-0.5361461995305703 -0.41103852557084153 -0.28114279956059374
0.15581674798793266 0.87028932245397428 -0.09664236163288642
-0.117110266966586 0.19916179570117309 1.0027280695265883
-0.42395467454568703 -0.30783313005023771 0.76465113950726016
-0.6969391515220229 -0.25446982167875332 0.1123873565554887
0.045533198947820708 -0.010587750662693463 0.82995617487871476
0.435422937500614 -0.20967070709445323 0.33766805580061021
-0.51806906248811035 -0.070354673042303251 0.67356969305464709
-0.24640442226635795 0.34293411524658524 0.74506214964832607
0.12850328630994579 0.78374529002411952 0.1071160541023275
0.63911215826088874 -0.24405075840472445 0.75069218373381474
0.20710948307381027 0.45528701218416501 0.65942884553089165
0.31897456594949158 0.76892358371008918 -0.36963841510365647
-0.42280357191819729 -0.95308575679345742 -0.25499422113703396
-0.3584732537689872 0.23742244430532722 0.81427918719578107
-0.33214158236371194 -0.57456869977553238 0.38335902756978291
-0.5216597103912326 -0.2648312552286991 0.79765290229623931
-0.0083210894246210643 0.78585828316776674 0.50650432384130806
0.38220370959815941 -0.031698986374204097 0.0023967211079840567
-0.25790753889653217 -0.2740019924957191 0.7423165537080787
0.61300380894424755 -0.40775637987982982 0.72968157272330636
0.53138490286428741 0.70523318642959687 -0.27585513649149274
-0.28896850401591401 0.55566121371696031 0.80031297387496725
-0.41031250797421048 -0.67998461348736683 -0.21625126557050223
0.29905979329164634 -0.11624279320427888 0.26269100633811604
0.68797599178519864 -0.61318385234594475 0.65963010064082406
0.34152961034542528 0.65152325343655271 -0.33113590898030321
-0.3120409598494378 0.48770672821319616 0.67199787133721278
-0.44359401797609621 -0.91827214099537269 -0.46721988899534717
0.23049635434478599 0.62131626485512115 0.39832737274925645
-0.099564890277437534 -0.25918390599527585 -0.81261105670102207
-0.081097658349361446 1.0202274191858649 -0.16693548645027256
-0.54698097944396018 0.15069013652185248 0.56315860543383822
-0.16986804867839478 0.38148376305659593 0.7153554568020386
-0.61789561485233158 -0.48884856517502717 0.050732713670459617
0.087367128440990705 0.70656721431008362 -0.11812936390947559
0.38077709013642025 0.46628421704598511 0.50301426609325173
0.13611913128223119 0.11099217678399409 0.66757721148983507
-0.74619017652717279 -0.10538950772950795 0.5574181689569917
0.32203608646534221 0.69152769298817063 -0.30492839323121235
0.39622782849659277 -0.24760748368300201 0.2988313724733267
-0.27053082905269399 0.39215098402268378 0.82699306767258474
0.34044545616723543 0.9526790939804699 -0.31041304026812266
-0.065734707217298016 0.91151524951616825 0.016191121202516534
0.14413384332470969 0.99384698539003047 -0.27633955670590193
0.65042997307388717 -0.6245819061568989 0.68322360836279961
-0.17372367042143821 0.33185095628206618 0.87000840792613143
0.30300224674155807 1.1182614394270929 -0.24838639285754649
0.7017496135382757 -0.16872648455273875 0.5848897888664073
0.24280360556122016 1.080498051754093 -0.16556611599373561
-0.23132734962719947 -0.72676452825509497 0.4456967234299718
0.23384767425387842 -0.0026896387890231743 0.41276538098177173
-0.33232691755606059 0.091209732757632889 0.75119118157947851
-0.26235204646228727 0.57024036274051815 0.43559927111244434
0.40016391260809847 0.95805304266443692 -0.66624399624693265
-0.619790576187075 -0.96030851037253351 -0.32470866452784275
0.199747522796903 0.59953474603402102 0.72899850100404517
0.12847133456461002 0.70157657784453775 -0.29679515943676016
-0.25768965259930177 0.23054544734536053 0.80861564077207593
-0.40481250568593818 -0.13929481494326845 0.84317734836887315
-0.14116660792482971 -0.5141843510952695 -0.58441157774506003
0.86698389386921093 -0.34274443585197334 0.74510566013597224
0.72852646929403519 -0.0069531865165237683 0.67072578235250813
-0.095298647815768689 0.33394138341813928 0.76004125636735065
-0.68689181298756985 -0.76803905137533013 -0.44207854337895425
-0.8775791007888003 -0.86048307367907917 -0.51975712180104061
0.086280884307126549 0.69200015741243925 0.68236669850772103
0.15588903460668657 0.79769417457171565 0.40715040737689456
0.36163000290982783 0.58255158641359817 -0.35807453019597713
0.23031327567323334 0.2132466817605061 0.77154138045092058
-0.38908631872694066 -0.48127122436659597 0.47404133488997768
-0.93371709904169986 -0.82387028515943683 -0.5371572972397054
0.009216373273179812 0.12925602403298297 0.75615360903078255
0.41134773587619389 -0.71411766116485786 0.50721605421689198
-0.50500529397475002 0.0057023803780555937 0.6459062793628183
0.72230530998855613 -0.24595629196129565 0.33537482493719306
-0.80671098923563545 -0.84038364407488286 -0.40671405323996401
0.38494243616601587 0.74429689829065193 -0.12152071679305632
-0.54709740956748742 -0.21080944924475364 0.75696952129864936
0.036608116708361393 0.49589619547568597 0.81270363890752506
0.55782497296422306 -0.54966077682679648 0.39981844571772651
0.19766308958043144 -0.22220276943068118 0.75413454204235419
0.25750635340140704 0.78828661524319887 -0.28585525499839548
0.06658114436385798 -0.37294433534560856 -0.63478043981717569
-0.056906126385032785 0.38078467751687395 0.57821721384975522
0.3070064175698981 0.10766017726401778 -0.27413193715318496
0.022121964755509538 -0.50203235276517244 -0.350591487141938
-0.60259764764761936 -0.70211878295356733 -0.28558225250328295
-0.54968092457895334 0.55233019450517506 0.42172904852328097
0.10073842994659721 0.090904659429586143 0.95831026481138482
-0.45222447710869318 -0.045554863169457782 0.63802070171092762
0.33170375254452722 -0.21705361093976716 0.77857901629052018
0.86662471699007071 -0.52112516091286842 0.57387661453039973
-0.5922486058385843 0.028549027853735254 0.77721222027199399
-0.40129929972650746 0.027741222219753503 0.77425537911828135
-0.15128020245755902 0.62785251010181087 0.67955808216017077
0.49848421263062637 0.80213852815628295 -0.26041983919083389
-0.46241368490671153 -0.80178688695485478 -0.45947226454284973
-0.61216426172234506 0.27507045059542534 0.48729729399596078
-0.44967891706263252 0.64522982455469924 0.4152877323565507
-0.031228938381088867 0.10137400345123382 0.83172052554324871
0.24911827102050044 0.6394297095385828 -0.33304984779546931
0.013016928626427671 0.85303753771214952 0.59354456346986684
0.53669280080545168 -0.29515020579996554 0.34733913768568225
-0.27654981145450819 0.14521811495209258 0.85925422133743368
0.60652309132978033 -0.63313242297988959 0.54400215461325097
0.66590382199481812 -0.30149810336602023 0.55479595170653617
-0.67714069266271526 -0.28377659390554077 -0.1686776428191612
-0.27397520411874687 -0.21595439049020326 0.61544562495671462
-0.52284026714668386 -0.31047741597847489 0.74997001544206832
0.28263040552444973 0.28012350236910288 0.61743713408925505
0.14171782273132294 0.49267122032533006 -0.39783608526247605
0.45565955586374418 0.70574366276673128 -0.24101397264065216
-0.79603976248747532 -0.72893222605319341 -0.37779465829024295
0.39091522247578059 0.85402863407528784 -0.59579442441451036
0.3045346531204487 0.076932661987714202 0.67580561216816637
0.63465814521851449 0.14635293843680408 0.6482848806467354
-0.077226092590969131 0.3432328394039823 0.65206159194918278
0.63082417003569624 -0.48722718297935241 0.81867721682665984
-0.36273719276718364 -0.7326984522260318 -0.10094819808645283
-0.12375028057240822 0.50874353507943448 0.60447995514879871
-0.31058411635587646 -0.20534958311605633 0.69535870835162417
1.0115495991827075 -0.35106091168553055 0.46494494074980963
0.63304014674733988 -0.59028142845820541 0.55255361966631167
0.6346853070416012 -0.1707621970669928 0.36404215183597444
-0.065164823159476803 -0.25915954143905617 0.468173153946565
0.02519513926310335 1.1335563076470407 -0.20563580023168271
-0.28641944306693556 -0.7678640385208344 -0.068381793165292581
-0.074179171464710869 0.54922886476377553 -0.49541833010097758
-0.57719992796597097 0.038142113070824823 0.7107897105295482
0.53207027302468024 0.95766202614352114 -0.36154874324750796
0.18529816121721776 -0.29742385191174581 0.7345608322177668
-0.17687770199285602 0.33335177021852092 0.72556227227076997
-0.69331822866719772 0.16611127865079833 0.086880168855516082
-0.20594136962676846 -0.54016433710126766 -0.081076793142611514
-0.43903123764595264 -0.27621673737527663 0.73929602074759604
-0.58476020656458161 0.037601792605002071 0.95427372064616955
-0.38414107472614489 -0.56217852004771274 0.016813100302889517
0.35957252757422076 -0.090553991857737159 0.51939333647024011
0.24770795370287857 -0.31356322343986331 0.58805308787856703
-0.70758090250445793 -0.37762939659047756 0.61900303473616969
-0.76021818779561112 -0.32942825904956274 0.71973075921950125
-0.59342432203947215 -0.36511978013131463 0.71770165930090846
0.17177900994793927 0.52853812799935795 0.49397198431036937
-0.080268781140499179 -0.29143986283568646 0.53654432405808938
0.22007477374804818 1.0738372403348513 -0.14826832291191128
-0.75274489358075858 -0.95934867691597914 -0.36983892747833513
0.14031218208483498 0.93942266344888425 -0.3148397330195376
0.41424678515897195 -0.35635377162901971 0.63373838667003213
-0.3477453613287782 0.29753669735937072 0.66333768180992969
0.027117797557152379 0.40902546024308517 0.80660708229056732
0.31850853620855535 -0.38931731438984762 0.69480028404103367
-0.32612496274148217 0.422745612455389 0.69255834460712418
0.36302495859072792 1.1329750632603917 -0.41744905892555995
-0.60697461722792223 -0.23131375332507043 0.69088543171796557
0.084824845683245442 -0.32315458460209667 0.35426946221594502
-0.40747832696970221 0.48034447229182931 0.6138581025863652
-0.70862675069981762 -1.0201544384945627 -0.49603387807583132
-0.15863193395984876 -0.27129737248989061 0.869857590781975
0.63515437088315796 -0.38340759634255894 0.531805892289408
0.22262696699056228 0.21908470235531929 0.77044545926924091
0.24697278663434741 0.59062369547831661 -0.2264158934094409
-0.48542183393098348 -0.80373218240514355 -0.37439981481035201
-0.90646709737457964 -0.68720766922301824 -0.337654313196873
0.22765017153032918 0.60662862337080137 -0.43520104467790777
0.46838191893205039 -0.19365936389804261 0.38603681119254052
-0.021780809929140332 0.92788920021925403 0.13585007137132177
-0.27926268198573201 -0.47653040912162004 0.65496386395608042
0.35810855811266951 -0.53392482161548971 0.6933156501080262
-0.03003428368334049 0.29513850834864819 0.66256902032033249
-0.91739512185442074 -0.53335237955006187 -0.33013544200244027
-0.78190017003752121 -0.08273407266007915 -0.29976443308521628
-0.19194336285390534 0.71124703958282876 0.53810777479437899
0.67001823972850172 -0.70774272640776159 0.61349605435682664
0.066096564199455088 1.0768495165294341 -0.24553314982558216
0.56513250975104423 -0.0086183465603211218 0.54312587790587674
0.14223132765795388 0.88441283243464497 -0.3717922279513699
0.18230579691061166 0.10406773119944335 0.17747538358856296
-0.27156538307707834 -0.081776352562482391 0.78940894157192343
0.22304406470813021 -0.090771364088901851 0.73970990694075045
0.15204809650070317 0.78678267237310129 0.65154830434628153
0.24168127155096553 -0.052823709183968059 0.83502008483982326
0.23409388334407932 -0.077967557561414047 0.79781240613389226
-0.10870809877267629 0.24675855653764289 0.7888846975832684
-0.12554117097838624 0.47378484173927049 0.794210543602067
0.7752247553934577 -0.38868223203828522 0.58516183713968495
0.60928238825699488 -0.51537451657743949 0.73955289624260478
-0.24190145403767449 0.20399398700529225 0.80511947299812192
-0.76942426431748245 -0.90109231505764553 -0.2926845201684003
0.058930536877158879 -0.16819988965508603 0.72458937079612395
-0.076968133043330944 0.37007823192712008 0.87461628875096986
0.017388502316964427 0.34031837075409666 0.69521131340548958
0.22509015123874665 -0.072920946480659943 0.6498749003729527
-0.04203925717686019 0.27926421756197106 0.83012456256659783
-0.014701046852353628 0.24088612954690314 -0.60294826964294934
0.12046073402967483 -0.37305882296422954 0.47966829952021506
0.084806736374561709 0.79475682403612957 -0.30836760546386355
-0.25426946746492618 -0.74162160148355527 0.3585255822713509
0.59352465035000979 -0.43576594878454511 0.81043132156556519
-0.38233155796624274 0.53232502571409457 0.35682913271885131
-0.73313228001603647 -0.42634529476099159 -0.28193293160623512
0.40473000946144122 1.1705909114647071 -0.43460096008385651
0.046566615820593071 -0.25364559553525678 0.85180557558164072
0.22389398876259925 0.1539737474114391 0.71970921143505695
0.35137785826475909 -0.43259106511517764 0.67739270510583349
0.34277701254993342 1.1232680745985313 -0.29009958290140325
0.45013100591130506 1.0355940339301264 -0.41805804406492797
0.79682681487342411 -0.21769498691624456 0.32155110422045752
0.31378613830755953 0.15051680623624275 -0.12068033165730085
-0.3236630558360325 0.52831913818441212 0.85958203972062686
0.26839715067455838 0.15131342754566202 0.50412530993199223
0.12902964120631477 -0.36805098160497973 0.52350991068232
-0.67246655430914259 -0.67588573544063202 -0.087367367359799886
-0.17937181755095111 0.30757852849084122 0.79342027599611331
-0.11244743152157533 -0.3406683432139288 -0.479944507132811
0.71526887390073579 -0.71470832208514246 0.58714712167335037
-0.67476344635044061 -0.8181431971311266 -0.24194863492469043
-0.63771791514503651 0.05000124803746786 0.83427895387014184
-0.80566703848064858 -0.33356074164053462 0.069157449387343917
-0.034224817876319591 0.18357244240468162 0.8757217883036601
-0.048785682240306549 -0.16838576284946782 0.83291277074942593
-0.67327573681833019 -0.78259940830690189 -0.5144897827231163
0.56748429159753933 -0.27901633523764913 0.39547629189320421
0.66153782869703281 -0.10812758056250571 0.40109699839517532
0.1824410456164296 0.0044415932138743841 0.67331769432135591
0.070049341325815639 0.95274366791346488 -0.3560540466372295
0.03291432480599088 0.70156072058032226 0.63360612714342501
-0.082126451579328297 -0.36287234024820814 0.49006529495151785
0.3691395237101105 0.93540110483112748 -0.26441571798143126
0.11793587331827649 0.64207393978331329 0.56466286511127972
-0.1416632813160188 0.22620034603409511 0.84558061737049339
0.75925814603215169 -0.17805534834259218 0.514865806077073
0.40503362281564481 -0.16501242687577333 -0.17828803164684892
-0.35256179904377394 0.4512421146472958 0.88742539238859441
0.43679635695991248 -0.28610547630026772 0.71995778000393162
0.8493047636114408 -0.31161239964463316 0.65387373902354007
-0.29772888246503548 -0.22875364893147321 0.7950800559089104
-0.75821057090126232 -0.38448778687996077 -0.0064757078309574112
0.33699296046147875 0.60486635637284758 -0.14385274628138855
0.83138536646923011 -0.44778665970016096 0.69613047388653904
-0.59556471697873992 -0.77350770432265836 -0.27213438891951025
0.3799444022438081 -0.40392282028361493 0.59131774948850069
0.41114098518908548 0.90757138824097439 -0.42188806020609526
0.059645692802861916 0.32916696399397916 0.72260044674360202
-0.36003213515830002 -0.21607609099272063 0.61430094625890552
0.38625646280579939 1.105981991215955 -0.39100614875792061
0.45073762640304782 1.0043418132816067 -0.37277259414904496
0.050167513148239529 0.33155683612632991 0.78002685175450237
0.047676244977357563 0.17681124187351438 0.71219307813237887
-0.43669785745788126 -0.7826375469033553 -0.26669411975558832
0.3182839520624352 -0.28228262867562082 0.92186203435254077
0.011141279035176588 0.3625085819512246 0.70461333463683573
-0.34796343955596676 -0.8655377658078538 -0.21254370323911331
0.020834533041425018 -0.044403590598020681 0.61800906645897857
-0.20026052109838854 0.20654610382491212 0.82109659832701665
-0.27821445215718388 -0.30661498876157056 0.47196770541550759
-0.35018064451789677 0.43903982149940468 0.72382784142350998
-0.42845120279253379 -0.14126893103495508 0.7637852633835247
-1.0010919038327879 -0.60359214500674652 -0.1848569664268549
0.76794002347872858 -0.4836584954179961 0.71340445936065855
