# XYZ point cloud file
0.15177112563993145 0.076766520178217945 0.62634408279851606
0.070512625067749468 -0.42376399933043318 -0.26694265495038128
-0.55798526948005733 -0.93696538192970991 -0.28174578317307919
-0.35410698836171495 -0.81496174160625001 -0.11314436003155803
-0.31864030020930389 -0.11872294107056813 0.94908784054027073
-0.61914251627110328 -0.17368481461215524 0.70609670395445656
0.95035725622375988 -0.34926297132176654 0.56294931488791011
0.70931483341060275 -0.28941978822728753 0.55430155890697019
-0.61134212303543034 -0.50107318013642388 -0.21129473079043581
0.14418262729851072 1.0589783748204775 -0.24334536496008763
0.78376684831539656 -0.47998078182088166 0.53078246658861561
-0.70970976533943908 -0.69250647145622768 -0.26307214939820156
-0.11533174464887797 0.50267713706132788 0.84346605752304127
0.17404024200715895 0.62513376534404408 0.71344685238024841
0.39797988712082777 1.298406092053908 -0.43113978145627474
0.30001326418868857 0.11904935611143008 0.61015768633227641
-0.7473584067046195 -0.98487731192619465 -0.41329736041854792
0.72683604238400257 -0.36054715611193178 0.361339273598551
0.35955772311312906 0.92662202372706748 -0.39873087139641861
-0.11957970546124042 0.36659235325747641 0.86031303487654931
-0.14641346600379279 0.57152005214381862 0.72402973764206413
-0.63708275758326849 -0.5515909448320313 0.55972887498137291
-0.03541225089491018 0.36858369331776952 0.67604957996196813
-0.97637706999541241 -0.70909932879991189 -0.50192289416799429
0.56965584655951762 -0.2878918332742697 0.80908084306842465
-0.37332822814572175 -0.049339291972168908 0.80550029702694692
0.074523517098755931 0.87316538932968868 0.66514968718885381
0.03738240468785925 0.54735340315204972 0.60585879675218024
-0.72376464421472075 -0.21866039889051558 0.6995432064401772
-0.52709463194609096 0.27949546210220877 0.73523682794805278
0.17175037893062139 -0.17915887474624492 0.66733473743037131
0.23581171501901554 -0.16165330945721923 0.9294825871294643
0.38349893842797123 -0.20989626959711671 0.15928556400695726
0.47317592513845419 0.52758675413612233 -0.21110718550893104
0.14722186408042059 0.34840687065583253 0.76664683522773824
-0.070555397359346905 0.44846026129233119 0.75958305777834623
0.74362242331955208 -0.50214604069641089 0.51215787337687546
-0.65290143250733124 -0.54151543993812101 -0.37841820979477969
0.10817720445295542 0.0081121049364512032 0.63112673852698009
-0.29100314594773913 -0.36144451947983436 0.64525899968227396
0.19801809322942443 0.86074272448101707 -0.34597956373080052
-0.46547894863225547 -0.70588851664386265 -0.23461434343514398
-0.60627802287348587 -0.27544437030061841 0.75878356789775836
-0.36830430018681781 0.64848283740581802 0.74053756243267976
-0.18723125204224278 0.50354676526807518 0.68434017719487361
-0.49781786821376084 -0.20485963206794366 0.62483286353051959
0.39882109142623445 -0.19373564061460113 0.37234224827548612
0.28267162926531597 -0.21945785951674424 0.62282923407132706
0.32431104865504068 0.51818338491510074 -0.23302046192578185
-0.69293312588630496 -0.534396728576219 -0.46761217136256406
0.30422357206100514 0.054108130650382336 0.62619844749809772
0.010507614751087857 0.31487231267773952 0.91423289141322694
-0.53026773760588064 -0.83054165523186674 -0.28961849079613833
0.16842117950291957 -0.14760827190262038 0.54158832103012777
-0.36761895998343164 -0.51450453979525523 -0.46359282835222082
-0.77185103637476615 -0.77436276996361819 -0.31624742485303114
0.54649797608317208 -0.25593395007342368 0.25397914671104171
-0.020983727201777214 0.71447526397300809 0.36919345363830036
-0.58601097716563277 0.18275546042258739 0.61985264799374917
0.347251923222748 -0.44250857935992016 0.51548505359262897
0.50705622198180933 -0.14467108396703887 0.34877404181395022
-0.34689146649479241 -0.70585928221610894 -0.16777562510387334
0.005203132821607781 -0.49589933802439656 0.49394976380593114
-0.19919941906125871 -0.48534474550526685 0.38785292275819971
0.16662693031746656 -0.088055197653164274 0.86940323736628056
0.26785130629519305 0.30027056900206661 0.58169650043388188
0.82970270247799505 -0.30877173672906189 0.62297611614668824
-0.63104086350297095 -0.17578225201599329 0.78510803857103006
-0.31966803193256155 -0.26506105257427803 0.74566587245610494
-0.377965019297271 -0.03931484190454082 0.72800606688145075
-0.42267502374082344 -0.71834069559987945 -0.23786986854999626
-0.73779602699053992 -0.92548035461297085 -0.41338945534973481
-0.66508006300414824 -0.62698484262300047 -0.030609858537996359
0.6844168321156312 -0.48690271572591204 0.64387663246179638
0.34247653079564966 0.50165316144569294 0.017656984389567754
-0.73040097143010474 -0.4423336469555359 -0.055635288479155331
0.13236333224300356 1.0692351844180377 -0.22339602301684014
-0.3092047383499823 -0.21779692567568398 0.70662402133055124
0.4052951732664587 0.89856288300552434 -0.29901488358692685
-0.12407687751389407 0.33663412284290972 0.70112682163986051
-0.37521759999646864 0.36520817717884091 0.76992950135505067
-0.02066498029877728 0.51045090458412012 0.61470388369074058
-0.56312051596273172 0.12731388743333749 0.67421329689116272
0.3542838894493423 1.2694915109145475 -0.26067903363819589
0.39988651333309821 0.50721401874454664 -0.17665057724171085
-0.27752785085179976 0.46231512548012432 0.70726319448363828
0.30004063696267025 -0.15960435145393292 0.89418661587187165
-0.19904739948190553 -0.56975158460123598 0.54231502185087033
0.11129655215569745 0.60266226772764586 0.63730098719927586
0.25025925322240017 -0.26511166685876653 0.061683315956027052
-0.92095055086734234 -0.77597900522590324 -0.37107205687732625
0.12579840249991658 0.39444780668428425 0.34690768049195508
0.76024812319785884 -0.48682127132188135 0.59798363799525678
0.32283900429726309 -0.075600186935830482 0.7581946113752025
0.18925821375793106 -0.06845062397544277 0.75957944714026882
-0.65529656071118403 0.091970356649182072 0.86740003693984091
0.50161494846330168 1.0352093938108657 -0.44965518727883058
-0.31649964301343481 -0.61208574432980623 0.26478236329855687
0.732636520226567 -0.40600204205711687 0.78019028615255115
-0.12466956719011346 0.77347016088912435 0.46212373256856409
0.21533657143680518 0.2323042366660113 -0.39319683423717233
-0.59530883285709812 -0.75574749900191485 -0.25343931446963275
0.25517057820873745 0.9178628358151264 -0.35891781907680986
-0.78676619257379343 -0.47850292054018162 -0.27451716227739631
0.33155497488663954 0.73564816502360264 -0.33483256856013632
-1.0164544816555061 -0.95307728580196427 -0.60444146216130212
0.16208116484697666 0.50109733031737713 0.60149181767412685
-0.38816527079423579 0.18075945641309543 0.78408889903168255
0.31646518736360285 -0.20087495910208064 0.68805815877688836
0.51500533255264891 0.089921903464352582 0.55376117740326247
-0.086157803063521499 -0.34509044926059484 0.23933730038048573
0.03361283588434727 0.17517360646951197 0.75153230590798525
0.27845813235039518 1.1308161119222162 -0.24358413279941971
-0.30933842008324852 -0.25869176171992381 0.52924071966951391
-0.26924843975560098 0.80947197289060879 0.6694388135145739
-0.51762376850142999 -0.22045265086803045 0.71420176615380715
0.0041104346397924374 -0.10761322685638541 0.85729946613958052
-0.59628465107902251 0.14812423899353577 0.16449289622877039
0.87567253415215074 -0.4126724421773682 0.59427228360175111
0.172816439131668 0.65295253774911499 -0.13657078059735106
-0.46362341327694967 0.41804450141940341 -0.72489344962855284
-0.26980336789927861 0.60130508523299975 0.72213974457235031
0.20730245570405437 0.15367369857164226 0.59958529297490593
-0.60604047010104445 -0.99727600682254369 -0.24672349311105091
-0.41348427331666571 -0.21471160911496989 0.68923084868898332
0.54525696690476622 -0.17184883903259784 0.52584345463602489
0.40076596508585105 0.07912903909604907 0.33791975926270634
-0.51166012742287759 -0.33876066258124826 0.69779568478371701
-0.29678611018853562 0.086334473441911808 0.65061911948437734
-0.5243130305274688 -0.68908233330123769 -0.30367371438774171
0.16214873607780866 0.73404947975923029 0.46769724067884955
0.50247942542899526 -0.24011423534377663 0.69367564511800595
0.37895068089758599 1.2857315574839054 -0.56611597723210672
0.093423550602202532 0.43896511315104547 0.60521478739267121
0.28015906282424652 0.69340984316579402 -0.15249734238115398
-0.21260328733798328 1.0141547579158061 0.055010707876597564
0.44052434935163909 1.0799453838861837 -0.35053069626962419
-0.41543438526285481 -0.42312557578401044 -0.34513730170178025
-0.72222157264828368 -0.3038717253355907 0.53974768624572222
-0.4833089919510849 -0.13866805507619118 0.40552975774546063
0.52062182072507301 -0.45698250211512592 0.47609951859278699
0.38116768495966191 0.97257673759721053 -0.25317557447379357
-0.15117438116470794 -0.20341235180962025 0.66565062549597531
0.054184755568034149 -0.11539399138545114 0.71814714253486089
-0.43678237091005911 -0.26360047524992192 0.64964440322788342
-0.58511184364076918 -0.21114241504449938 0.53478465479972925
-0.63716240771787103 0.19749341918205321 0.35873394184187735
-0.74939164346152154 0.070310727482142621 0.67288493277043049
-0.24221900721710377 0.078965440675384357 0.92579579656613653
0.11672673191682215 0.35378727504613661 0.60696372289527378
-0.33265490955651345 -0.47337699643939235 0.59520892116462232
0.017188307394109259 0.096828385562559127 0.86218054388597132
0.099455226239760108 0.019824338285137522 0.82665890207609571
0.25679454496383869 -0.02469204845050621 0.81689752530749793
-0.60359533893523576 -0.84348306118461736 -0.2607372365125733
-0.41105115446961005 0.32932497741532929 0.65132655367607262
-0.087426268511950234 0.52963278054983709 0.84955102884863543
0.19498269274751401 0.70896022271947734 -0.46337481955084847
-0.42851180959800317 -0.18489828573416256 0.72910214686764441
0.64543619191201351 -0.47888349601403135 0.65824356071823775
0.63676354104720012 -0.13274472354644562 0.69734552418141948
-0.24907320214199746 0.5899659928967429 0.84526592902432229
-0.50426330041306855 -0.96777964881426826 -0.37608510748380342
-0.34070719824485263 -0.24886422883909276 0.73996515620768433
-0.38888941982799086 0.65931733009712401 0.69881085434216939
-0.090393920323841748 1.1478661548711226 -0.13418282999542086
-0.58629833633880057 -0.74889330186611591 -0.2401635548786869
0.13838364755263921 0.4642325189657881 0.77087640369610799
0.22755978590122439 0.20360772541093608 0.6414412670794265
0.24768693068149794 0.17596712189053898 0.66016571158004389
-0.35766017523741578 -0.091421639279492428 0.89456802433314531
-0.57985906096985929 -0.35143011594825113 -0.48159883174913443
0.081412842665370633 0.67639258709505645 0.67712399155424308
-0.24093500762922471 -0.14826311473120013 0.83139593569680414
-0.20344191888499985 1.0177829102701326 -0.3131978715385495
-0.6767655525643681 -0.41440855816824929 0.4786273773844143
-0.21412566974433656 0.065570481876723541 0.72967344082708774
0.32437663254121141 0.63480428493105645 -0.026257398633688922
0.77432246043451958 -0.70734359407178848 0.52938068659386461
0.32195864717145195 0.70296066530967583 -0.22889351768449995
-0.23352289275025839 0.40816859811269968 0.74973922680194871
0.52648012125606325 -0.23858090680145505 0.19132418860533829
-0.40310059780454655 -0.46391791415861761 -0.60067616642701616
-0.62016686737290705 -0.18661207345860387 0.61000775814256825
0.70843137932445011 0.75111702353437559 -0.2815061825783447
-0.37183128373584129 -0.17009362028653419 0.85005481508416736
-0.77050946801952946 -0.48331226387923598 0.3716664060768875
0.17231713778804814 -0.078813074000837258 0.79722681871164136
0.16239557382306469 0.79397670148945876 -0.46262444988820217
-0.46329100021572422 -0.68066584785031026 -0.18231045934245849
-0.86642207868956866 -0.20105957763890991 0.45504430182987443
-0.37274277410758128 -0.23933573859231894 0.85463007318216322
0.060844101878058332 0.68853363657519084 0.47645380919736624
0.23080696686622293 0.7919652713183174 -0.41770970019923315
-0.62877765629261706 -0.22193469078199124 0.69342036430192477
-0.74709568122866976 -0.51714730292285971 0.24542291225013235
-0.45106543272267441 0.17164781464996404 0.71262078647296523
0.34206202230642013 0.85384754404952057 -0.26152431827253952
-0.30874095437249416 0.68461902935048302 0.64752203825159782
-0.4594171788136574 -0.076674668811821611 0.79008177596729379
0.71483679800586675 -0.36384332306643907 0.81474529031532894
-0.14416593175450743 0.039729279451190092 0.7760284418344674
0.46021944003152093 0.61722946228908349 -0.10842283896410088
-0.47080664594018451 0.12541397642328445 0.87046954184891101
0.33804435424757795 0.063714482536877171 0.63225611441481977
0.35919708667179151 0.29380452518624844 0.76300319157365415
0.16675877113550275 0.55358245093982728 0.58669086861425956
0.28878915920166026 0.95351023419173231 -0.20769263901326873
0.44219225108654392 1.0990809208931407 -0.32499532379514307
-0.88870669824033843 -0.4500798824386405 0.02570959722652244
-0.92655906959638301 -0.78177474010329018 -0.43160316486133876
-0.63272865488973018 0.29003193348705558 0.80746347714622813
0.73795477163060319 -0.28485453339132727 0.52094598144271842
0.48022136333698384 -0.32132117972310459 0.43984874789582484
-0.1677291574445583 0.69621781994123122 0.78920245527291133
0.51326198769447373 -0.16996381678782502 0.7488545364467516
-0.41144440775485336 -0.52919215760145866 0.6917937147207609
-0.069504781217741396 0.1095864039380201 0.64851795891814668
-0.28179551053716967 0.27132646230510371 0.75306827669317844
0.69983950615662671 -0.33154373631299805 0.72381047943410337
-0.14540196221745827 0.59577487248126193 0.73928704052530447
0.50433142514614016 -0.36721574199668483 0.073205403703627603
0.30763622353003051 0.73542884019504839 0.47822459223658331
-0.62832052419498741 -0.21838537081872111 0.49003731409580009
-0.77963865664732968 0.087262661507059303 0.69000502974083
-0.017455263646379393 0.030185920264396149 0.82554953804452547
0.13673465932214857 -0.36647602216356834 0.70494335410149711
0.36424103641991223 0.78859663517961254 -0.28326045769354202
0.087628887862530647 -0.15217072294187428 0.78950143019302343
0.16920397041996171 0.7596612273159975 0.32453117511707497
-0.92818230088861409 -0.6783683966184535 -0.47950229096510899
-0.087808053142024889 0.36439196026315379 0.6478872304643355
0.24894627983493756 0.20930110641235444 0.46543217552797511
0.29825595982077768 0.87195730911449365 -0.12355362678923054
-0.23302350164100094 0.3648090718682151 0.67595545529555601
0.26164751720573154 0.75823761611482343 0.31889551779836456
0.66066882792880754 -0.52666520505050451 0.71875158563916619
-0.44266372025395206 -0.94085214900863834 -0.38943614934291526
-0.75714292746256184 -0.53162853566613411 -0.063190452634076966
-0.2628605109900084 0.61192160932031525 0.82652785578005572
0.18330789473657649 -0.23568840912893307 0.72917116569427032
0.040581958273183893 0.26665795886840771 0.78261368498963835
-0.51317778806186531 -0.078991520602266441 0.72546438257154344
0.23748073235808942 0.0076547683337451211 0.8168303146257605
0.58127845995863225 0.8662210886299162 -0.24835964904195418
-0.47414701157569006 -0.4928351018755297 0.043963994744553148
-0.30389364378192241 0.35705580700777162 0.80958809081771044
0.38321787986161304 -0.56843170364881157 0.6436535250420925
0.31959083248712439 0.10257434017043154 0.5533798780361705
-0.67824431944390451 -0.45185035421838782 0.11675568054019525
0.65493302070244752 -0.046562667827299009 0.32617048682681471
-0.80700100443774758 0.36816512814115976 0.3188151986253227
-0.5222611742536829 0.28869577605004348 0.69143456350559696
-0.016939520626987559 0.16084171065702479 0.87447553435503789
-0.45542113227068359 -0.12039055296251711 0.76390867394771966
0.33910467631591512 -0.48809276926161083 0.71823536509795005
-0.17302675163117076 -0.042103551279769391 0.78322386784939901
-0.36333704635335895 -0.057979995181372868 0.79004209715508456
-0.18401646192139687 -0.36208170136241735 0.53944027338162259
-0.1076390551263362 -0.012633492508193456 0.84078391957420839
-0.061227482805960243 0.45538052078340607 0.73606311073952124
-0.84967036308766986 -0.79978154695418802 -0.67758817447961261
-0.41375155663500074 0.14062821154184624 0.66615203751888119
-0.44011530501228258 -0.73594690047018219 -0.15026706875551632
-0.0046502472761389413 0.66198224448046128 0.59106022560004146
0.10329494089355862 0.18796156964814648 0.87850331523540381
0.084625747692265385 -0.26538343752783611 0.66261672089039525
-0.55661056853353053 -0.52497947430663006 0.43976339189400449
-0.41293721794498328 0.25225202021201909 0.77705159768120202
0.0016694991881394117 0.0085015985765548585 -0.64907409932431559
-0.49868854065795265 -0.057702801750822541 0.78374037398642393
0.32354073091551605 0.62317562473571675 -0.30774185609563709
0.10828526520441883 0.062201806740493915 0.86369625179895948
0.5666467440954106 -0.48766635480339238 0.69786816874041513
0.371805933344592 0.64265488671436044 -0.29628610570179426
-0.65263950874224363 -0.93588886619611644 -0.3977899563151519
0.33739164165891555 -0.052552973412636206 0.75463204341883916
-0.1045050529832352 0.42156182335665449 0.77982520255744436
0.80588871089954406 -0.43020897636497546 0.49842458771516007
0.40746364840211591 0.054122007435819075 0.38812526291829474
-0.30911765841998573 0.46216426837209834 0.61372197458248845
-0.15524878434470946 0.38091830588612385 0.72717251159670981
0.52372324712429652 1.0645961739968319 -0.27196235806123781
-0.92606745749830299 -0.87872131438953094 -0.58913088667871261
-0.25508751602839208 0.16003915061231488 0.78643238728701315
-0.43177871900250242 0.076577121861929776 0.73491849962543965
0.23254815734862788 -0.089864311884474191 0.39894465074149021
0.31357987906878027 1.0250722036630022 -0.22610677100634646
0.67042177795061164 -0.58634825958316705 0.78153600435916548
0.31790021352638753 -0.17674141857077785 0.72730888207787459
-0.39231869000178232 -0.058206657811862961 0.74878201980271442
0.54070981859897937 0.78601349338698689 -0.38521080913068317
0.44517393409133099 -0.65176906404724688 0.69917295610952657
-0.49331371037240768 -0.35337091779716134 -0.27742667899818496
0.47819288687113293 0.0093754593326718094 0.39961589726872582
-0.30117828943410618 0.023297006429921829 0.86726227812774059
0.38035120998753502 0.39408897401976706 0.12311988345034308
0.5486052078896746 -0.066045378090995754 0.61113428205131015
-0.38887827480254256 -0.64346639676550277 -0.084341472880365309
-0.27877692504859919 -0.035830786308377771 0.71167918795906671
-0.6950677123102027 -0.40650693759015244 0.58107148463881542
0.066877972897064097 0.51589081862839326 0.84032838025843892
0.15138870662205317 -0.24614496961113819 0.90107234910881306
-0.60851844444995518 -0.64130109191113949 -0.41283570118427093
0.13952303582256231 -0.30372442535393862 0.6894232776068443
-0.40861941247806755 -0.48361682296387265 -0.23172570856839059
0.21201715314981673 -0.12993665553841671 0.89121656941286709
0.049297010985438483 0.73392165368740958 0.69923659337970712
0.18034232706491071 -0.10550565285194402 0.57214727633301177
-0.21663117969797341 -0.2044212006739774 0.60737369230638594
0.26664227272051821 -0.0051718932457927025 0.85830734591556279
0.16372514068865573 0.7955906532862973 0.52983748753723958
-0.4528280600497574 -0.29055872459369603 0.48430719413339629
0.19408869833379594 0.76772397527854785 0.57651168642088813
0.45480317570294115 1.2768374574729835 -0.41825328441682696
0.24073078826176264 0.27726094494241993 0.68281310721185129
-0.53537417284154909 -0.6559857837139238 -0.030321501856123589
-0.50460134580305027 0.48343806824225899 -0.57339615276363176
0.045678149591928729 0.075918188745895065 -0.51833890364332369
-0.51425911045941053 -0.029277871879119566 0.65929223733396469
-0.51293751447566471 0.054369941445366887 0.72899830235230167
0.91618296933818044 -0.12998202843713891 0.78033973834940396
0.58555928319824169 0.78551579759017454 -0.37125038625290774
0.80879766205003101 -0.17691588099729039 0.52898048281202215
0.30146924988343216 -0.40074990907350028 0.5415391001577845
-0.76388479640809059 0.12033850072630425 0.74404084925128444
0.03971012108012939 0.26575523931717626 0.75328604307585856
-0.84666803886104081 -0.26592132197445428 0.15791137762785157
-0.20736066399273145 0.15147982705662644 0.75303429016358159
0.49377544397406403 -0.31938607358036242 0.41881762890109719
0.85194169002885456 -0.27363869938638663 0.56627006693475845
-0.41356243622685174 -0.15440714585788085 0.84408227440090222
-0.58886421612199502 -0.688400580286054 -0.18918017444636748
0.08881251279673652 0.24716106969590301 0.69470665625779304
0.41636410298157589 -0.84184334541893602 0.70449042392055494
-0.1759158512736736 -0.16467462107612763 0.7495446206869909
0.39342697713655728 -0.6232766611865288 0.74918266734410111
0.42828745842970939 1.2986568703953747 -0.47326050185164004
-0.6848568970665303 -0.73785042881686502 -0.35508615335274074
0.25812028851485547 0.71443237715202601 -0.19571585555334359
0.091510165782148434 -0.17472135298420444 0.69036407310251136
-0.55291844632391296 -0.31032544759408198 0.65595507378479834
0.078729314468531264 0.11368241979398164 0.87404838177589061
0.39329415837053894 0.73634348562870944 -0.21940882752468571
-0.92040204903757772 -0.98555627686296265 -0.43510342734037577
0.50029574617210848 1.0920826153594154 -0.49609865806415421
-0.31654527286954703 0.11843781138907072 0.7049921250717528
0.019082399138783401 0.60357418165671017 0.7002247259975416
-0.037493009497995722 0.44397438514638754 0.86901925231045896
-0.41731255637457565 -0.60397494794444873 -0.24517283728081374
0.43155357463178223 0.055935272579143103 0.66549577211305344
0.69497243815871279 -0.55479284599564105 0.84799516208592918
-0.49944348092828594 -0.61232750627059929 0.042252403832331975
0.24244202339794896 0.96114467451904195 -0.44740284787268259
0.021576832107332855 0.56927623917030568 0.80588968427592578
-0.83961301850013648 -0.74255025952170906 -0.37862487408670953
-0.38600318887482299 -0.34139444780903583 0.50667735685513948
-0.7271156751480623 -0.61991766795484216 -0.10397790081431246
-0.77807490826403747 -0.98270744032762547 -0.49183838502103461
-0.50460026851466822 -0.12817288156135609 0.74521041257621468
0.37468281890233346 0.19643748325665245 0.55349688105053296
-0.2561336144557167 0.066544707302441886 0.75144564161695193
-0.61627024793617657 -0.10128808314989479 0.52190039090451101
0.35140712391242523 -0.41728584802534119 0.16254432044952694
0.7465857312335622 -0.60656155375131693 0.68265998630422953
0.35055282167702018 -0.58269843343395866 0.52527149367993875
-0.27187540048753966 0.52038705857314183 0.65577515149245125
-0.77963845773534857 -0.36594688081154292 -0.45826630962459181
-0.53962957765447772 0.21667657396638829 0.73026077731784289
0.38090744828594136 -0.41696960631458246 0.59510910833586728
0.49761936687447417 0.84342818400090236 -0.37914869011450758
0.39726960654807808 1.0078693634264964 -0.45445114650500962
-0.35146694886636709 -0.074936818597309607 0.8821481706998191
-0.016051748562239787 0.60906480948987785 -0.72069603504129276
-0.5612853534877642 -0.5377483313124154 0.40744386955824829
-0.3440798313961082 -0.82409503323426492 -0.17577112768741587
-0.15910481837879775 0.24364279848825765 0.81740319371577685
-0.6049963009843049 -0.98385708943835315 -0.48034448545987862
-0.17340835943336685 0.31132324512264997 0.73324824230230323
0.30993229035123893 1.1228886881116584 -0.59416236256103172
0.17514296023412168 0.79535043793229487 -0.12517226262221115
-0.096919329307112889 -0.14184174630699919 0.62830115826217536
-0.51748087089157213 0.11064094085039855 0.72274154985578409
0.36633810654964716 1.1613475625480865 -0.43598758527976766
0.24192249152290213 0.45379861982652026 0.61614240876002047
-0.75791866818992304 -0.69563637590106087 -0.34158161803277576
-0.14116733595122444 -0.080590825407295341 0.67509341757470676
0.75104776405337148 -0.35859532060051302 0.37937344407178397
0.65503840832974358 -0.57139874490569476 0.7146711888680306
-0.79414120325319804 -0.71762387441669873 -0.51180190107926116
1.0142740461402751 -0.42253791367915738 0.45020138925359898
0.38619585254116728 1.175045816675099 -0.66969640944612152
-0.60556980434334395 -0.39609887862804438 0.69200286518549126
-0.1337912470172391 0.21304502159781968 0.88090664253368312
0.28393726841325151 0.82975864293657509 -0.23719383185984722
0.18059271003957722 0.41867991951548422 0.84694196415816636
-0.38612276984657257 0.10704959681671244 0.77686626044404372
-0.43683567907452847 -0.86994744274641178 -0.40171006991805447
-0.46771789800348529 -0.68010387721913812 -0.13479647939248673
0.28361793089987497 -0.32559995856751467 0.55538932364061822
-0.88112072000085195 -0.67644029653578608 -0.43915102839614262
-0.69915558702661773 -0.094076717676317312 0.39899029645452311
0.049195001291316487 0.45644929270831369 0.84698382222380664
0.28101721867124319 0.80594401212775812 -0.43037391473725517
0.43509533944085277 1.192206385080337 -0.64756678669461021
0.16994994212428161 -0.37815551968971928 0.30877146407335587
0.70865187785487382 -0.65825896418342111 0.62862021859185901
-0.49061017838408105 0.12007021181568556 0.87325165353496059
-0.42324563684257033 0.50366736927965761 0.82059429694002262
-0.54570645478233182 -0.61884168109651849 0.58573344648695747
-0.19406299925768433 0.53899877525281159 0.73177115286577044
0.17948001602435948 -0.050960226380394325 0.74398024479011848
-0.035155298169176952 -0.046301543407871737 0.84501603232851696
0.69217229628459087 -0.20935763896512904 0.73630484243534244
-0.54321885756978361 0.060073455817238219 0.80497797910273317
0.2131418121805897 0.82424304796154635 0.2525289600025431
-0.67791730436278996 -0.72320028626096589 -0.41407870412801362
-0.044885927802530645 -0.29525846268549882 0.67529511695412436
-0.25069944986516113 -0.53155720658961059 -0.22821445587763822
0.33440463511682594 1.0686395693335622 -0.5615482041188935
0.80059212071779395 -0.11480230474401987 0.72139148272901865
0.30408981653671763 0.4480528864744886 -0.28240649181193511
0.70608675928030529 -0.41818458177789353 0.27638310154492807
0.19296588843554208 0.57966060883835446 0.6329452102789066
-0.36888334745260831 -0.59459802100721681 0.096508120832323741
-0.76684172706413989 -0.7696526897070024 -0.509940106889883
-0.02212988931628157 0.33426080833035687 0.89951326868240633
0.38045291544218163 0.03556988124868754 0.61706358837292186
0.83178311614577716 -0.19725148579556739 0.56831285891603223
-0.60100761944624903 -0.60117832250358028 0.60105326599175291
0.1652012653079602 -0.12503985738704682 0.65898081217397486
-0.70945317858083445 -1.073767524225675 -0.49298707661033037
-0.68237143943245737 -0.6458799919537368 -0.21677705215114607
0.3043095870945578 0.032491808189802018 0.67403093807158143
0.74886018882576089 -0.3337703771823306 0.68752414951989227
-0.2100509743744734 -0.32154937566600461 0.65398528468275607
0.23571033139440356 1.1328161623992248 -0.5558080974470414
0.22918822258018157 0.85407223471092575 -0.43736904114523512
0.94441316981265455 -0.46948450346912196 0.72087078517605496
-0.10914920405156447 -0.12546887281866681 0.81846170578097066
0.23145753081102072 1.0362608444941968 -0.22473815649361395
0.047671391879280378 0.26990799231278606 0.91757690318078655
-0.26751288996502431 -0.7089266060066044 0.25067848521807923
-0.65832508724875627 0.32696954942782863 0.64030437153841646
-0.25557365228508289 0.39773695593328684 0.81322905903949971
-0.67720898439322053 -0.93966819479306807 -0.49094267131540503
-0.24502392423435904 -0.50878972375001741 0.61132630064345861
0.25342912173979748 -0.36697919893039765 0.58275259528151935
-0.098071667660869721 0.44388225672106385 0.86227666075848619
0.35961254360952299 -0.10029857305180601 0.55436438299867419
-0.013168884334453956 0.0016189689568855137 0.64559014282767802
-0.17809475596419677 -0.53209099717524344 -0.14721444471630729
0.23306427411192221 0.92102393310051056 -0.17960488978359201
0.32329774899155694 -0.31708416440115483 0.083649472100350231
-0.26058869340616564 0.45691506603685417 0.84950576160205893
-0.10046475560538948 0.71531605341312243 -0.58331145555230446
-0.84687253365182524 -0.95905530446322285 -0.49883595392824009
-0.75375456324580004 -0.22766913444272241 -0.40913645786431463
-0.6023744254129122 -0.44959911126529084 0.55828119995944725
-0.46047824146015781 -0.11281783183839655 0.74257081836927918
-0.029668076944260768 -0.17615322783230702 -0.59497838668069569
-0.5284943188852953 0.17975186922571185 0.70754948889879543
-0.56047133121566173 -0.083285266030379557 0.77919811467267808
0.36048354782308056 -0.48701985416262161 0.25839830582714196
-0.79384814240395762 -0.5524825392290329 -0.26424280030416458
-0.16765347520004337 0.24737097182543577 -0.83222272024845001
-0.18411862083067465 -0.35748297422902153 -0.64695184503540926
-0.17755476593784891 0.12747104977780666 -0.85591397969302463
-0.48884456466636728 -0.36394131977177624 0.59703943415100458
-0.55932874678410194 -0.4591978266541088 0.64722060003452109
-0.93879652290606508 -0.87173617620294896 -0.37091768268506353
-0.8735901589591748 -0.82085939245027095 -0.25106375826196059
0.27216889313371784 -0.078877835103015048 0.70848625504194818
0.46734172477307645 0.44125520018354925 -0.28864801947940677
0.0059414012147254169 0.85890346821978936 0.76996803079822707
-0.97893914015932282 -0.17092524934149145 -0.35396418559269271
-0.41079724238551041 -0.47561695346709376 -0.025313160918261524
0.31686415691453895 0.84960237834321539 -0.20945411648491508
-0.011838515294178009 0.65015221402810974 0.57990223065584701
0.67939467086000427 -0.45006679968528829 0.76843490745446408
-0.81224956999755982 -0.71370495931897748 -0.55024743334655923
-0.63572595343288985 0.057714003120636459 0.82902995951261316
-0.57920207737432872 -0.36527239192328942 0.60660276691749448
-0.39870409821968877 0.46720870843950824 0.77810946236364087
-0.67634300710745343 -0.22239528472094161 0.66750735252099025
0.18068063415938429 0.30941112782452418 -0.47105174097840585
-0.051569071275983092 0.28054609450683765 0.84648855117924215
-0.5456951003071886 -0.29671287410051272 0.55427247690107073
0.16471552255807076 -0.21711099703635828 0.62453137678601145
-0.012132055152076937 0.61363145341232839 0.75947416707168092
0.56375852099290302 -0.21654060209270831 0.79538503837267704
-0.40636991716724946 0.61927914140845663 -0.66754053963896354
0.45164269248362388 0.5295989376914445 -0.22960525083018624
-0.054053453902722204 0.60705254196134595 0.79261772162680666
0.20287683670126455 -0.058087403694740303 0.78625601381846355
0.74948158425589106 -0.40058419124446054 0.58046802143970488
0.73592541436783776 -0.57982683331801743 0.75345063679250401
0.21451277079362807 0.78565143102461521 0.32107383662343647
-0.46409590053237171 -0.45733730366493486 0.66191254892762119
-0.47241664539039085 -0.72261360387350448 -0.30276515856209762
0.13618652544497234 -0.025385408221015648 0.71863314381056043
0.40709130762297718 0.72747658579020458 -0.38708608527667643
0.46171356763313209 1.0153569476503783 -0.38452350450822692
-0.85713025072873883 -0.86933086960495443 -0.51606444690323894
-0.62239732375399637 -0.098565250421920325 0.66344352127793949
0.12929640873864212 0.64396440873472649 0.67178750443830104
-0.89103424435058276 -0.72520107005548118 -0.49828526601493994
0.25395215336871946 -0.51266724807454311 0.5597638647903489
-0.12304727155441153 -0.3882393597882885 -0.41820622088365944
0.26737145595029332 0.52629711206328222 0.66974132574563239
-0.45964330852193225 -0.37709658569849669 0.61699963775618949
0.10680777091254612 0.83555627676227306 0.70364795895155563
-0.74101292048350409 -0.3623364471776318 0.2394221875940854
-0.10426519019793723 0.33188909741458028 0.67056181607154919
-0.81676055537189285 -0.82707761338163222 -0.2660773442946196
-0.34839337227663236 -0.53173204280341357 0.68256188701701292
0.32459244611548588 -0.52402239415548557 0.64172518786078481
-0.82373762846369569 -0.17970580365626931 0.6596707985353305
-0.5879818705910056 0.095698397811907032 0.85126755253104447
0.58722036744939565 -0.4415658451608091 0.66808158886896596
0.3024114806012772 0.47197912137640685 0.65185002194011599
-0.2874061218372681 -0.21505132292809703 0.77722532540232425
-0.85519418703559236 0.20309739050030773 -0.081440467597126975
-0.5469651220830043 -0.22775243832742342 0.69282658510851514
-0.8219935024492262 -0.7535692846166584 -0.20024791359466532
-0.4252278369694471 -0.70081402768338918 -0.2426148322406112
-0.45184203087267427 -0.08285825139636005 0.9333445997315617
0.66826818421656409 -0.18977827933434366 0.71638100278799755
0.22503281703342637 0.1610827127182457 0.70544799450082696
0.29941275118901345 0.71282222851116206 -0.31408837444396731
0.11563920840869901 0.88823213053764505 -0.38379406891361878
0.50502053579871742 0.46173953543463675 -0.22074017990442041
0.4007641478230255 -0.24127889059218699 0.53790648342201486
-0.72931528064695161 -0.47615676404294272 0.12482199552610851
-0.30759477265559987 0.052956113653571002 0.84427109037477832
-0.05899933844504357 0.32446474443795648 0.80194633723637176
0.10819295745612401 -0.15371199544907377 0.80749746036329872
-0.84797326235674308 -0.7819402461339986 -0.24349216144823016
0.052949287091127673 -0.0089992414447368496 0.82888026131959069
0.17475131327965254 0.023861264292496465 0.72151326247228376
0.038690743294365504 0.80182673587374165 0.63316881007747394
0.19735295066563197 0.022170460136972547 0.60420451732037694
0.15196029576728165 0.77144687967635139 0.66269133788304835
-0.69436725063182703 -0.098322987574040344 0.47176175324583713
0.51025980764433232 -0.097133615001602003 0.51652666430966665
0.010323382479977994 0.2796201470870896 0.66030594099344508
-0.35991739315945992 -0.51236683550906248 0.16745994103615258
-0.66940177249104682 -0.37143633113129315 -0.41254743819187123
-0.355147310494206 -0.60004831921195656 -0.016683284394209963
-0.76904317111055498 0.084199381611234081 0.48455429581298048
-0.13579148213164061 0.30494472294557218 0.72367138628385597
0.6535531145685809 -0.49934234545053036 0.42999261118013266
0.54852360774392128 -0.53280045793797548 0.40686105648667237
-0.084303468634722378 -0.34997875763962671 0.44424958111577695
0.51815906924909871 -0.58910599804370811 0.40219016346544123
0.64257724653824333 -0.40255510334941924 0.61325369271009311
-0.21276577158252596 -0.5402338070165551 -0.027068309935757817
-0.80986000100661037 -0.079367833808926758 0.6077215217683074
0.66869862171742778 -0.29539704139640355 0.53154281489168298
0.56337136952050759 -0.6120602930515493 0.59305009853925972
0.24148950126517743 -0.18131593977494997 0.31768232703409538
-0.64305691457422576 -0.24824861703562418 0.68636064830947241
0.74967072031755144 -0.23209117706539839 0.667519237931403
-0.28591902281090587 0.61596058084912553 0.34911901482100838
-0.67210030325043135 -0.33046401929223057 -0.13693922024790872
0.26567008468429432 0.12542575651845045 -0.21648593310731989
-0.3276457116836351 0.26350058489633676 0.73489808093805253
-0.20806689951057233 -0.015319381190482151 0.59263872498112669
-0.18223776536095837 0.33271967335464536 0.73896010731449691
0.2510775373596239 0.89188492371842898 -0.15384689082894631
0.16720220703099287 1.0327141142942176 -0.56907514059497188
-0.23138948839901818 0.23573071981867155 0.82267116163868304
0.13716055597595656 -0.30547313447830771 0.38714152294585258
-0.44932905303433479 -0.0029511181325143632 0.76283679150589112
-0.56389695503452586 -0.35147226585218583 0.71047503627757003
0.49955893063311407 0.9264935088632904 -0.55498594547124291
0.2309179990329584 1.0782826145163353 -0.51004957815823815
0.25081991949453286 0.7450898807740316 -0.070390156681829019
0.53813493802028844 -0.39852945151828667 0.51438079251374891
-0.0042776742612771201 0.28169598844800792 0.8350704090745027
-0.43933387730259277 -0.51803534155707265 0.14627733783432628
0.52116217651196006 0.52505400541458602 -0.28850660024021924
0.65728688468905538 -0.62585374130156746 0.48562550969670237
-0.63673454539219065 -0.19182720031575506 0.59283453086897797
-0.6129891325335759 0.21171903435727568 0.76630569796696957
-0.20782257849132968 0.89213334446440884 0.29127454887759097
-0.93194718238220897 -0.65066699581436049 -0.57820585826564042
-0.61084292185020939 -0.52778981218115195 0.50019545746447225
0.32410846001597982 0.12287835342237852 0.66669030613763081
0.65401688978424399 -0.49305109863623553 0.65692084553190533
0.59399010698472576 -0.3952607898764815 0.45858905125173521
-0.55479195018223137 -0.49792707723224794 -0.41800598956968926
-0.20795642565295669 0.69427594524339753 0.64324926082632494
0.50866915262894974 -0.44232271571145843 0.43470079930115535
0.20452464316509111 0.71853159372013842 0.35812035073201898
-0.28470406427676842 0.53621643821022102 0.69604287524846553
-0.95762696598940167 -0.029751194808309123 -0.070970140595535636
-0.56821436288432103 -0.87538693586044669 -0.53098778669907531
-0.19877850312025558 0.21500052560077432 0.79373181636682633
-0.61720794638250887 0.045211814707728504 0.76569852390782556
0.23148495255752177 -0.21398282397278878 0.80152948464709972
0.34462117145221072 0.94684343952223715 -0.3327136561444588
0.23312169447333897 0.5532016187393145 0.67837861568542923
-0.3592450652870447 0.94732168807599137 0.74901156343601105
0.36278260852816402 -0.35670613098153492 0.37043924229808489
-0.15915516510677286 0.15542398008128311 0.83679628305910736
0.62928559633942971 -0.50776829292813863 0.56920023676268716
0.47308079321460283 0.68352376303728679 -0.40228236903076819
-0.23927259720953487 -0.45691055072334397 -0.34438351616445662
-0.86642855376007333 0.058256125242953427 0.167366721360938
-0.53644159778731826 -0.35490008900787196 0.62784572448357778
-0.57818018174678176 -0.66684296795969944 -0.47087028566068412
-0.3713411594588516 0.36111373953349446 0.62899515407082918
0.51311282225714905 -0.62377178449882109 0.5596038356747286
-0.032608808833096248 -0.28558669537841563 0.71801428589968941
-1.0099538153386307 -0.84881745547080989 -0.44721317694795015
0.46996865617002204 0.71561274524199714 -0.1112104720462721
0.65337695610147684 -0.46982681037858232 0.84827607909740088
-0.82475546783399079 -0.70899599281838555 -0.40990281946816687
-0.53856418938247774 -0.22747901773717993 0.6889861706047995
-0.87805853860108574 -0.61362917889084967 -0.42324377433293536
-0.27838611858459572 -0.54831861180379526 -0.28742049397020075
0.50720121441005528 0.54981158052202961 -0.13926705430525921
-0.094246551568478942 0.6227443504804957 0.66436689439065777
-0.58775150267691334 -0.22507157412723133 0.5079963356802879
0.58699457470512151 -0.23537160169691562 0.81151285622793878
-0.69792983814885812 -0.84410350131138978 -0.17595026384794821
0.80486483788629659 -0.35154493530141151 0.40722746934854737
0.10789556633359432 -0.14322221311753047 -0.57447665091445721
0.19181188379715053 0.13829688180246835 0.55089569404534711
-0.14510201220357999 0.32321244550419559 0.67223636654301355
0.31555515944686885 0.13035546242191431 0.87197360687754655
0.31863743087400209 -0.4917094122763106 0.69891677654204365
-0.16648494190898422 -0.14660705797721185 0.67985211023437175
-0.63141054049070089 -0.92497164205501692 -0.46373487177134143
-0.50013428000347293 -0.071686288781821261 0.95551464185493185
-0.40909641428500176 -0.40361399687829858 -0.18611518122099646
0.52339712235862823 -0.20264059428463455 0.53039884062340459
0.50680017815954415 -0.50873412905286663 0.7271061538407011
0.30041158488237762 0.83373195294704283 -0.30903627295704794
-0.71376630854737133 0.088981026643894623 0.58265147347072554
0.26843309990764919 -0.039686406848777445 0.80827671202615825
0.64089831352583548 -0.27435437579893796 0.74500179914936826
0.34345183670335988 -0.55983995183454782 0.4454370478214571
0.24102311723316561 0.37551411108239208 0.34265719992235244
-0.18248304293629669 0.49802934409076904 0.66736997708623003
-0.63019729323233697 -0.73532560446635076 -0.37308435837618603
-0.033864990367193037 -0.35351793976274681 0.63417594508454433
0.26923042156396981 0.81525964221154679 -0.072303211766789666
0.14400275526395401 0.77698884696367809 -0.45015222021168455
-0.15655528344126513 1.1310117464249854 -0.23297735810712883
-0.11441119986820869 0.62735388161768979 0.70437475365863378
0.61682474648850416 -0.68697199948225629 0.4711485202488328
0.28530616485730143 -0.061389822618995282 0.68987291992150279
-0.40071731389733856 0.2565798275113953 0.91001223993041958
0.60344985652984029 -0.4319341543847055 0.69129045352621699
0.67968633410675583 -0.12048634142773906 0.53033172027792741
-0.59892461899462379 -0.97804158208212755 -0.27189241417492216
0.36487020719527052 0.99507543665083764 -0.23429564141189374
-0.57906044931326139 0.12036743353610202 0.63987828496929966
0.66309526425068288 -0.33378468063730349 0.6002397600940359
-0.51725570246355357 -0.89373414645425742 -0.2371837437685933
-0.090445983324807244 0.7517330509181499 0.40668983949695647
-0.12781888734024527 0.71977696628916732 0.58777492559997491
0.23302680635176376 0.54302246296540568 0.67082102821773137
-0.31939349708276232 0.012863047764823055 0.80658179840668653
-0.056161695019035562 0.093794163676560682 0.78947981476352158
0.45358140833699334 -0.69463385682094181 0.52211319527415778
-0.47788783985017425 -0.6501298644126563 -0.29148574326634158
-0.44830944554508978 0.18052942029642738 0.91909541239613946
0.60967702807491087 -0.29777101745227164 0.79090454771770968
-0.6637994956660922 -0.61014854071198954 -0.23714842166983363
-0.61175088090090224 -0.57187082832960101 -0.4871816500717614
0.12060644790883934 0.11883291244307159 0.99181294436326173
-0.068961727676965623 0.52015209936566853 0.78981682744452852
0.16693944135332917 -0.17289582454114027 0.75796750731773654
0.059760030895232852 0.99075185522859321 -0.13779904151821576
0.46787785858704911 -0.49291389051520751 0.15428369196459002
-0.070014899456680268 0.65803040279971636 0.68447416140374528
0.49051824799431287 -0.1631341742833996 0.65612988251614812
-0.4001606948769334 0.092474824511727949 0.84730564461000757
-0.11338749855646224 0.93133524782970678 -0.32949007339044378
0.23108107992230487 -0.33081188363978375 0.73413724650313128
-0.64138772622387297 -0.46875480978783379 -0.061577524041150689
0.020286981635976531 -0.028468756050475275 0.96622721668226452
0.63933247039159902 -0.30035743001372817 0.44036929830886518
-0.73012029295307634 -0.046296584893126713 0.64474432773000423
0.33430003051623114 -0.21981336819442543 0.83702970360892914
0.35407664720703647 -0.043632345993124488 0.72904806985975057
-0.18780946440053548 -0.25696512582287001 0.67088455147467307
-0.079067424233707939 -0.55595741228340056 -0.062809378482632461
-0.99036272935642167 0.07563794187832551 -0.29763755059035546
-0.032743014789390124 0.2527060061772497 0.82532591456821258
0.37118085343295615 0.072084245301430094 0.7546766299440586
0.67439807690686138 -0.25324765404869787 0.83616127481445535
-0.67119116853465233 -0.56742040392969173 -0.29682688911078259
-0.13556471436055251 0.37018865080654662 0.84722101059414889
0.064552468736868818 0.29027677371193272 0.85494604198413704
-0.41214773914152403 0.027019745359862846 0.71019623268723908
0.1607435934225494 -0.1961147838083912 0.72922888569971311
0.3480529051723531 0.34507476127765324 0.033586344911862298
0.62358312869037658 -0.12523072113683043 0.25888764875986947
-0.28846657101032935 -0.26452789103362573 0.73550754106716409
0.68307803448667404 -0.54471449527515814 0.53503158319944344
-0.43574708681818652 0.6873591691871721 0.34013997681371144
-0.65872949015417781 -0.12479703599538894 0.26535360119438911
-0.3663138678362321 -0.65248711405898918 -0.17236313175419493
-0.29129837670697878 0.43718736676640457 0.55553431463763303
-0.095494744731499992 -0.27110849207673038 0.70077844624620944
0.23724878429323404 0.72839544763756692 0.27634756389316362
0.24120854380567813 0.83858380936347654 -0.34446183765325866
-0.28259436587661924 -0.19509489367553234 0.6361874727648571
-0.27045024736100309 -0.44377337965968167 0.73565762607008489
0.717589061149142 -0.37321108483261911 0.7520982924038071
-0.79420121231119545 -0.28523878379238043 0.54211239106507003
0.10061116539887749 0.065504859264879478 0.69711764435831025
0.043906263606688256 0.37919248275420259 0.78003714036102823
0.19118918985674593 0.56020935708274511 0.3351948686666093
-0.082324963730704859 1.0460107362513513 0.14604948246487748
-0.19685215804183986 -0.79783101568952208 -0.38687334569099363
-0.10583473986575864 -0.34441489542932846 0.32797013655804985
0.32980082087201357 0.32523145643631191 0.58907138491278133
-0.88909707045118846 -0.85538313196752602 -0.46780459986929301
0.74770620071053973 -0.33815814109119513 0.68538522873415175
-0.35667511226772763 -0.14766367068935171 0.76633663227876614
-0.093721126462961379 0.23957029938997731 0.77185354773649806
-0.12375124674024995 -0.36443469080554092 0.80041845133325129
-0.53322632983493623 0.17943456135677094 0.73927437743462487
-0.28617014798947427 -0.89956173782542104 -0.18197895430293309
-0.6371278203296562 -0.67119046649128977 -0.4516409281854461
0.15237294828160586 0.35631426470103067 0.71583683341783466
0.21465405766344503 0.76202514128219567 -0.4233541228032438
0.025146470708441448 0.73841479981291203 0.66681348042119204
-1.0559379768439658 -0.89950074951132342 -0.5450590301415823
-0.764751081261835 -0.40684651643748682 0.45825565985096395
-0.35892701139277161 -0.17550648578130001 -0.49726201179583374
0.45989403379339233 1.1409293849880324 -0.66812524132656215
-0.32050940965630659 -0.35652740181255371 0.74356988259224366
0.11002056486600686 0.81691859164335323 0.14698336256456646
-0.42712591354092755 -0.69989441569789035 -0.13658272353317447
-0.61743049841101083 -0.53969566611308206 -0.11549978152153795
-0.37691910095817072 0.11727899852844503 0.75506907547822699
-0.45856214750437108 0.34132086653356986 0.74923774746361582
-0.48932082058003079 -0.74113291254079616 -0.27393740308685643
-0.65270667957148021 -0.78870382389026839 -0.31143810524183779
0.22918319377345586 0.6474567786778036 0.59598994181159348
0.59171233113514798 0.87584800269996999 -0.44737547572359215
0.2455872441370186 0.00080800487192744797 0.86055873975693498
0.20960009380197331 0.64152752985475292 -0.26583605512612873
0.33624424219177396 0.86117352629680477 -0.25530510355851987
0.051563297901232374 -0.081605823925016363 0.8390390936652814
0.43557612628240072 0.88471441007328 -0.14972741789554078
-0.71378124629625095 -0.39730898874366805 -0.18120298417517233
-0.48710031424168587 -0.88203006403823192 -0.31663095795673657
-0.48330144541248021 0.1010576975415578 0.85388291904358082
-0.82721621562357406 -0.82901231357703509 -0.43712778557877963
0.029395847215261561 0.24914377872680404 0.76255841524813217
0.022540591565655355 0.72429687279285648 0.79735355888642889
0.45802217047681371 1.0999031936693058 -0.21533420380390123
0.38620425621745103 0.020121023971067853 0.76906775364519753
-0.00043040946119088375 -0.091265948309686706 0.89593259159494121
0.14286165367864001 1.0689894435743237 -0.47908876601206085
0.5945051025013246 0.84747841597363482 -0.28438878950209201
0.60244598236449143 -0.46604901979390956 0.76141350013749776
0.21789187221679018 -0.22704938647805806 0.59342413041904152
-0.35157865331072458 -0.085489619311001075 0.82600898792799615
0.088668571771640003 0.86252487017395563 0.011136424872000283
0.2847772294432902 -0.31896953527215999 0.62023772698379531
-0.43706860967696137 -0.024029179857532945 0.77722176891736705
0.47112745108510179 -0.67501198658601735 0.69534196467986176
-0.91575776217281568 -0.64858815088632271 -0.37036205452799731
-0.39395840023156037 0.53839369700595441 0.76610992644845455
-0.059650409699663953 -0.36777153223804993 0.58102651442323472
0.20281027833683041 0.95197564038368432 0.56174326438038102
-0.060066305271456955 0.75807290929711257 0.74885697744170354
0.72461935791506349 -0.47835352344069682 0.64687253652955956
-0.58590798277239209 -0.57670272269428358 -0.18925361354715697
0.0037158217562076601 -0.28390859642393185 0.67732734045357468
0.26049078662324288 0.34022533932521526 0.5792637037911561
0.12717721075086086 0.47231204855708597 0.70742779782337539
0.018512932781032276 0.57794636866299598 0.60496907453463411
0.73761426730010005 -0.31630409105468837 0.57970370058641674
