# XYZ point cloud file
-0.035881519408897139 0.76208364967652631 0.025082303521260174
0.22587560234825482 0.5479107149614475 -0.22092501339516479
-0.3149705872041843 -0.49764184245888221 -0.12598149181814489
-0.60150247265389689 -0.22061339987440287 0.53738721667960931
0.33773249509432501 0.39827541298008251 -0.0050254676665881792
0.19809288828877517 0.43238892491908931 -0.021107080235620801
-0.077496237648721905 0.27353136889814622 0.69341904667565069
-0.13640924329755599 -0.055542919545630731 0.70105871996026381
-0.4241152795392108 0.17008563164920809 0.85712276101071183
-0.55584769029256731 -0.56116530641103646 0.10502096897672031
-0.32184429578774731 -0.19630725050245412 0.41653305491468839
-0.7153198886526394 -0.63564113109277531 -0.57962096628385895
-0.4597150845441782 -0.091651446453006269 0.68908638647709719
-0.44670973964241217 0.080576328711903678 0.82494334358022781
0.13875624352402888 0.60154326967946736 0.013670124510587689
-0.17881029132775758 -0.3841123998820648 0.33085866007337295
0.14072752860723148 -0.34583814455230755 0.62583500985286444
0.23443790027124287 0.58825485503414487 -0.080025401224523396
-0.13770815098301592 -0.26309889027391664 0.64998441315804967
0.087869716656038765 0.72801598246700105 -0.14003986718517614
0.22231852218574766 0.64147017427732389 -0.10225380666775252
-0.22652786139518366 -0.20272192486335316 0.68449671549060742
-0.6793153734207571 -0.5764975688389764 -0.20997837203083092
0.71027278577724351 -0.27441785745008862 0.51726758906742587
0.1346843781772866 -0.10681045045186366 0.79871144397060467
-0.34125926186696132 -0.2374210310515612 0.64832806642055174
-0.54987153741761452 -0.54334048831655823 -0.27106423464200602
0.026940521592414335 0.056968786891216761 0.72770108230617692
0.32283539703412251 0.34987568591754892 -0.093427659665478391
0.41159924263113312 -0.49421613638189421 0.53974715748843438
-0.10390572418989541 -0.087613738982094791 0.76887127633671759
-0.15039648530708627 0.35386790839228799 0.79966032629440231
0.27626359548486945 -0.044321148139466748 0.55655903952083741
-0.16787896820586598 0.08504710567246665 0.76265193652024865
-0.83640410871173909 -0.86129574873421588 -0.5016469530625135
-0.48451374785518064 -0.51053266853166757 0.26406265436148901
-0.177624771083564 0.18278382169301843 0.71543996091264384
-0.51765664209616147 -0.17675095789168527 0.52043969709783144
0.44963583049902089 0.57821972633771912 -0.27027952407996247
-0.23948185304951786 -0.38833627266911486 0.31329159597687695
-0.62397221372880429 -0.68169509099702053 -0.040156366676420863
-0.63155851232876226 -0.49197879067222905 -0.16647425288674778
-0.52987761499285113 -0.47292930857156268 0.036687945023085922
-0.37014542583423238 -0.41344838754471547 0.15923254377550045
0.28887079513036379 0.1121462856797879 0.42113731457114922
0.2322781608550151 0.33525188228391101 0.51189989626745402
0.40473776217250301 0.72554074822612336 -0.29736653179842176
0.38070246063283902 -0.14058162961858667 0.45254566895988968
0.21657503621798552 0.34235965297693416 0.37289585827453275
0.24323780660657268 -0.44902916405532212 0.37327583856171392
0.69901087336379597 -0.49058004609292083 0.4857861374034288
-0.57464580225823003 -0.48649335014835593 -0.036658048809011023
-0.41383366976463454 -0.054840930467837445 0.63170484692181594
-0.49552478585048565 -0.047794161801608226 0.086185711894445571
0.029861831809608497 0.24241160801262218 0.6706968864354077
0.33032113746167252 0.89300680797380982 -0.2044625060102041
-0.45429646221122921 -0.31719070503114355 0.54433729352845517
-0.47941016839251671 -0.12218818513513274 0.51635122099544184
0.20073914374515964 0.085299635405579055 0.32402959139379506
0.055915592848248805 0.53848608657151464 0.58690818829977509
0.12037921249554209 0.55221748817334437 -0.13438741413561228
0.25219014014530294 0.21719400614392392 0.61395636977835244
0.25796984404297163 -0.061000637220028464 0.71898416563838041
-0.23811622863322765 -0.19881816559679755 0.65104870966964445
-0.25686274614617832 0.22839818969419534 -0.70630355919338372
0.29535510297173917 -0.23700655273474558 0.49485687785677929
-0.38001073133981217 -0.21993282856923679 0.76852228939257239
0.27331896656464516 -0.24183038622947728 0.39886958253035187
-0.47044446358786068 -0.0067965364779263293 0.6835535194006368
0.085462275840998719 0.005066173436502508 0.72054148046548427
0.52523344890131829 -0.37752252364704697 0.44033745525290069
-0.43196157913909639 -0.59230091586630906 -0.026220937926952792
-0.63948642154585156 -0.56063313476892029 -0.31433036281144977
0.92118469881235954 -0.44570955717565641 0.61736128145600544
0.16213285379761966 -0.13623827613332606 0.5515048710362549
-0.56719443107061129 -0.56914104480404681 -0.36954427695830416
-0.46642949124477251 -0.5991842404264951 0.077621127348143637
-0.34333488131547818 -0.043728345169702809 0.7078689499608678
0.53292343458553881 -0.30687105246523583 0.69212302733516284
-0.49678170877322841 -0.38145975305551238 -0.46233164900682566
-0.30480264372006327 0.30238401776633173 0.54808546472919617
-0.20493725659101697 0.13942448914452599 0.7166692040122441
-0.061084371087225503 0.16490509781928475 0.66534553875918434
-0.63167203449452936 -0.62672081927129253 -0.13970971603039339
0.61238095647992463 -0.38170293161607693 0.66618772314392816
0.083155820801832828 0.22425563581299057 0.73641634000151712
-0.0070879731970913684 -0.42365497610431468 0.32657008248420993
-0.31221992043229696 -0.22089513825793916 0.67468050930919898
-0.66475448183783159 -0.49679679932477705 -0.42051249167331828
0.11585963355677964 -0.17497872447818885 0.69990152727675203
-0.26514410678316974 -0.038597133380085857 0.71891150994519815
0.14882716973823454 0.6389124324761366 -0.13076292152168012
0.15663731623632612 -0.04025093302733751 0.71154342985183816
-0.42159685869306041 0.042545256266556253 0.7708082624035657
0.2062340633465457 0.08016114853343459 0.6027289745546196
-0.29949812285395372 0.065217046322472827 0.81101311700863721
-0.49354805495498477 0.033915897505808923 0.78791263630278485
-0.42221286796640689 -0.028709699913030073 0.82264095243458191
-0.053729312920677286 0.76393728343157086 0.76508787821219593
0.0067377001367773248 -0.48437344134397287 0.30302672928823415
0.088534660917371555 0.29535810043909527 0.70982500467493104
0.016193930258024958 -0.01750848397154714 0.58836999634471576
-0.41099186243772007 0.19116311361646354 0.63206484860154821
-0.050346121870784744 -0.023260514696315626 0.69291731529731471
-0.20529403412406988 0.43789977685635351 0.73686870249890535
-0.53954502052516851 -0.028738081508946856 0.71822501850782461
0.30500618074997715 0.85698722333543897 -0.37838148705916685
-0.29728618494381093 0.17322797222877351 0.74565994585101303
-0.80134781570869296 -0.80642980535466569 -0.47915343692781842
-0.010821461206510272 0.072596743003047193 -0.40552811955015988
-0.048871439392827787 0.15996964273384862 0.83119445951125759
0.49804132828229181 1.2146591585009394 -0.45053626014053361
-0.15687759882811375 0.40964386711342016 0.73471096810227232
-0.44216197718872702 0.37128397776307098 0.70019980131807513
-0.32322346701204108 0.1931961828448252 0.6453230286948024
-0.48091494234308568 0.011849857346634129 -0.50838998767019561
-0.20870257120486474 0.04145931622134813 0.72618580891325668
-0.38273162774677127 0.085883435390628371 0.7725960600558599
0.22241884652664737 0.55108287521438326 0.52807593370570616
-0.78406614584657119 -0.91757623913007669 -0.35490479536439123
0.10008789946047575 0.0054508681101352874 0.80171994294715798
0.27218247825845521 1.008607250149355 -0.32117276842505205
0.57970858020271265 -0.21097495980723657 0.50717160686559293
0.033841652226740043 0.43266031912463343 0.64835353149722952
0.696274138125071 -0.26490855512849709 0.46177657501327263
-0.29802320475757244 0.31824784338573986 -0.60470183863402904
-0.10791643869404641 0.31466401991736292 0.67224216991964969
0.046227131568577412 0.25356402391434529 0.65346840854646338
0.022080834416849007 0.44429531287148416 0.59123719663404806
0.1507532515402627 0.30809277597115114 0.58261425026288993
-0.23298269197527541 0.060083458029066339 0.73756688239169721
-0.34803085246370907 -0.19648535464601102 0.66493914854297453
0.29504745469884741 0.7706745444173615 -0.4200699108057564
-0.2530218676282357 0.20793869227292872 0.71212099228298209
0.33525915002461648 0.27686772644849578 -0.092833082074045503
0.062277548363319613 -0.091152254595673554 0.76925553942323088
0.26626002272461197 -0.13281790287685968 0.64504054942047739
-0.73491410881097652 -0.81095523577151174 -0.49127538631563783
0.73626085724017587 -0.35381142481282413 0.49332728469752352
-0.353783627849662 -0.049457787961808108 0.77746596628652564
0.34333300163704045 0.31621700117986706 0.21418688198099756
-0.0059162009759130552 0.76854763219961142 0.50499619317149125
-0.86496593590897297 -0.9633975360598579 -0.44572548143115442
0.10017157892490083 0.59725149764001007 -0.3068822659528434
0.30245970044553561 1.0067611168618733 -0.40968613802886766
-0.75339411831156311 -0.93623728348461122 -0.49237866012134512
-0.47343705217360071 0.031032416745436553 0.45259391745831756
0.2445978225047844 -0.331141979262912 0.70559577742972968
-0.24181746675231969 0.4447905952753286 0.37927775842622957
-0.57546621543728527 -0.25851190539640112 0.19471421224366248
-0.73176304524532099 -0.91382233315518469 -0.55563259357243555
0.67453302583933328 -0.23972806822215698 0.57414184521209044
-0.20421863268237914 0.26987417620624177 0.72795682114976734
0.19228258639490167 0.85855473088173717 -0.13112724952282329
-0.09027045556472163 0.11829641110546629 0.93881539087423249
0.23704581215771037 0.20554758572078979 0.46923309189056917
-0.45997511185275686 -0.052873661593564769 0.72726470332456761
-0.23181500052111015 0.062055111669001572 0.70980231795815085
-0.13325430000065447 0.24951437369817531 0.79515554578804115
0.0093138534813494711 -0.012822466413336064 0.72834342959902243
-0.59428476157539845 -0.7383865754190746 -0.300071861508305
-0.23793769013532784 0.15774987505363414 0.78216922642489806
0.079716072522913628 0.11293043257937541 0.63365534014692326
-0.58140248617250678 -0.60179606827888832 -0.19576386858365868
-0.35806088542385522 -0.13189284620330444 -0.62416018306992815
-0.28957113556517683 0.23834707577040137 0.75804555174498067
-0.77839930559588322 -0.77149429281641491 -0.30566052880883976
0.25939612796962952 1.1339354335310914 -0.40467225127964568
0.20217783761998312 0.81594547876452173 -0.26590815710488269
-0.359117169576049 0.2548297376755928 0.91546110263239622
0.15640913112480725 0.13549183338130177 0.74279159131983807
-0.60773203400327014 -0.35216487963624377 0.010009745055548969
0.051464384275341404 0.68850172067219195 0.66584845078236432
-0.53020170056141647 -0.69872795835577928 -0.21678633605221098
0.17742686844653649 0.033892052611073309 0.54401404647673912
-0.11792508471266844 -0.21108614659985414 0.74281898481230935
-0.57257417608557604 -0.7499982835427097 -0.048952527097383403
0.49355678958054672 1.1142202171855233 -0.45853449114546097
-0.054592738801905766 0.87545354203487913 -0.12711525957620551
-0.10977299804423621 0.3498018906255318 0.63825165945518725
0.17326292751435152 0.39516049045444235 0.59846000296412294
0.96850180473184322 -0.62115410257959081 0.6136528069956716
-0.074495649596436536 -0.46515994808417438 0.22780943301068002
-0.30298459212385448 -0.0360978166984538 0.64650333785347558
-0.50145022258937255 -0.54670998710164942 0.020939754610031613
-0.46582803179202298 -0.45083391413433138 0.13018989867810304
0.79572556988717047 -0.40696541781795514 0.68161976821177039
0.51940186725061976 -0.39198475139289246 0.562478134691347
0.081738130751660421 -0.23955075212238919 0.48253226595948739
-0.69783895155091324 -0.61382842554336781 -0.27883127019831555
0.14006995529725302 -0.022321144412070115 0.7098527438974378
-0.29503817433484275 0.53986559647695009 0.64149217234690226
-0.53996740278851918 -0.28012364447563387 0.66565327634720917
0.26081302438673792 -0.038692886413469685 0.64099435255062631
-0.67720564199698441 -0.80779665623585306 -0.59865159046227556
0.21274373550642328 0.62052106738114743 0.0078457332455750262
-0.55778858318587299 -0.13605035503973784 0.42398025834976094
-0.053484319791069046 0.30281371211785135 0.7771942852359488
0.28168543073586672 0.2751683860321561 -0.18979099332934912
-0.026290318870507756 -0.28359599254876611 0.7063443005778649
-0.55106797798830742 -0.76961844386710654 -0.17345409624038632
0.41444577852216152 1.0996981475970782 -0.3582658940687744
-0.4337694960753784 -0.63524363871738365 -0.041376273895778137
0.14867811876270712 0.49267071585381084 0.6785739191886091
-0.15694854682261261 0.35746663356010888 0.76368921345826035
0.14973515746261287 0.54373905447137671 0.63900815894370733
0.51373066280072011 0.92916194166580079 -0.40542357363212767
0.41009806565616369 -0.37017332988822083 0.6800314894066144
0.067462755220179249 -0.073764578903584344 0.72701688727202418
0.15069326861958021 -0.36074928738851963 0.39527381375663939
-0.48327581271982245 -0.024066871672824286 0.55259466072936769
-0.45731495330666938 -0.065940756401768219 -0.26005523030445588
0.16272802319234714 0.53413640598517698 0.48605827324291673
-0.15492874503087448 0.73042056979366066 0.11673404101704254
0.19738083493845157 1.0760331392191189 -0.32991482183192899
0.16461215999059142 0.77068029416684136 -0.4306170645821279
0.20403405769752664 0.18398358684767491 0.45579812815976894
0.052476839412207876 -0.36093391597975644 0.42242128431657766
0.38734080659341669 -0.31226765236366849 0.63973906719257589
0.16412853991828247 0.45856656991678268 0.50872455749094747
-0.50949250233054588 -0.39654764951237431 0.35171107262240786
-0.28185050872725143 -0.045915068831762218 0.76650808471508203
0.34698097877092166 0.78783423402670705 -0.27488200192352608
0.042263801260182865 -0.065675193776452589 0.73881513091690221
-0.097622413504815347 0.13838761230659058 0.57746704597771181
-0.06177193841380943 0.55080546560382648 0.71056925067170673
0.30871003211391074 0.75252131327528282 -0.2532599980102419
0.35722006516784405 0.7140335264204134 0.40840191122911462
-0.44963104286262512 -0.18182282080774992 0.74664605659831951
-0.54837207676504196 -0.099678078341469245 0.42115083359090122
-0.11748797126620686 0.092919200018611869 0.63923601859276247
0.29324200442647358 1.1175316385703531 -0.29517183609733411
0.24315553635867093 0.8312009418693258 -0.34605893318287695
-0.16376332861541168 0.26934121644522868 0.74026037062409822
-0.32355454978912296 -0.18852418469180376 0.6678904150535494
-0.34020543258735064 0.038738289445667373 0.91922657301091526
-0.68760729163010892 -0.63279077189624855 -0.4369626373995239
0.12194509048881599 0.23059071174774193 0.40724393898805256
-0.22568774531715982 0.40108311379026595 0.66217604881363445
-0.3225861587135328 0.20909623320208981 0.88132228443378335
-0.65911864092525374 -0.57827389115748262 -0.2670571721391497
0.26814597156985348 -0.40659462336708696 0.47389564048528671
0.14168282292060222 -0.0060584350187846692 0.76713530819284814
0.52134763886084434 -0.24926559549464122 0.47321904813723703
0.33877601199136148 -0.21732821493323562 0.46236175244430777
0.051496034965068688 0.2757134204680749 0.66019837638342971
-0.68213225786287179 -0.78752957144166613 -0.47926020777336331
0.30145861571152843 -0.092460170451128976 0.66106112172583931
0.43876447625525417 0.58551323945846701 -0.14124022645716394
-0.19713999756877687 -0.082366015629814937 0.85697153930847803
-0.51054594333460424 -0.22635335066026041 0.59954040020705213
0.55885549389721501 -0.38522940352929047 0.62493200397876936
0.77439187857100977 -0.35279765819529274 0.72756102023073077
0.061815354707696064 0.054920934020382672 -0.27264277696921457
0.046936336895300523 1.086956153227896 0.080889130444403046
0.12140378432999085 0.26122909152745755 0.71015086332634614
-0.54134036287242049 -0.6800902556031887 0.045742103784824573
-0.62663157473984188 -0.65634174195100026 -0.21347036608050252
0.49847881832195878 -0.35505075348876858 0.70286956822834079
-0.031030512951392808 0.44880573827869763 0.6502880326652174
0.13702700013947763 -0.074177414049568124 0.56417293366338894
-0.39473130495776998 0.15044104218601206 0.68744854773146113
0.60877777184079207 -0.44736157225189199 0.38706179769151733
-0.34819033005586419 0.034864946146801579 0.73410370690686588
-0.55168296290719432 -0.082185360302757582 0.59676868397154992
-0.32745836591904887 0.50414534123502674 0.011897998613757288
0.056467585845359006 0.38995984269039474 0.65773469394861384
0.23807629643056039 -0.1338192147193511 0.66621353131035288
-0.44383533217424465 0.2812602651165057 0.86720877661368001
0.29438179888376959 1.0795390609413025 -0.3924646096138078
-0.30529095989531607 -0.43211224866003173 -0.36938959171124397
-0.17489233548004035 0.58301730345669489 0.42600620997165634
0.32992974874208836 0.73432392768154287 -0.20717458482726325
-0.49495438537181624 -0.20378473355357252 0.62410815947064446
0.16011512799606503 0.32872664720567202 0.54840968277769442
-0.067654806644484644 -0.075508047858596994 0.8208740757456876
-0.87106575313988222 -1.0053454938229862 -0.53178431420618089
-0.0086444552983216405 -0.20769161214514265 0.62599441119071042
0.18511761229356946 0.64182448840931272 -0.24138871470598655
-0.078405369534039676 0.47471414125660982 0.66182457700969544
-0.44699429212772046 -0.45059682844565563 -0.30934365450748613
0.0099243891283125607 -0.29790973237469709 0.49522733666702018
0.14257340655318768 0.3884009483942128 -0.42324915962480847
-0.68268229703729955 -0.73809053934280755 -0.40592909422502088
-0.49689523926550283 -0.16561428923818244 0.62145255284648548
-0.7688236802250088 -0.94341713092066459 -0.70954833449118626
-0.56849496819217049 -0.73185789709083227 -0.36816817301145122
0.26334820709265794 0.64951008652353193 -0.19675643484922656
0.032768601412976328 0.17167515277595702 -0.2064247812980109
0.68006764898002015 -0.26690434241842809 0.3953521886384479
-0.38787749249392522 -0.095933307084415942 0.6497119521671143
-0.44476483955541707 -0.13410955051825746 0.68149419599255867
-0.18432918142389348 0.69405033662924098 0.14403792501917512
0.14129210784957752 0.17461195321617962 0.45037721951167231
-0.57676544094938842 -0.59812799867946564 -0.56097016486889251
-0.12577057182367873 -0.027721911975936875 0.69237578201615102
0.33854174422595207 -0.21928595931301453 0.66439870203047091
-0.28180741583292501 0.56174717996009327 0.11124594471417448
-0.27628179817867182 0.027916815522093463 0.66957253368895353
0.1283592978254279 0.71205728181601802 -0.34337765430305334
0.61875706071368319 -0.47648181145187762 0.51087782720329789
-0.56330571773220772 -0.512990455310254 -0.089028435268840189
-0.54582946177001712 -0.54842029703822059 -0.25947425192784968
-0.62199440999334332 -0.5270740167672362 -0.39229962789616057
-0.51069945904743341 -0.066897366801588198 0.6136072387274889
0.39074575115400523 0.76205825430781693 -0.53795626516159012
-0.10695772029234568 0.45183994142942563 0.77440320595609358
-0.33904076759587709 -0.057833773764927487 0.75709189234239038
-0.13743506456880145 -0.23612354641412248 0.55911351741708382
-0.53283911623636726 -0.52045859011409323 0.056508291798543775
-0.08368090087677868 0.62481119758176895 0.55157504006456204
-0.30857969400988361 0.30104661680064981 0.64458369792257486
0.59164368573065196 -0.32991821818307021 0.63800635508348569
0.75168509602669142 -0.35969253854087935 0.63096151329887484
0.61321814810476571 -0.33824391037821577 0.63694745928033014
0.34759720372030012 1.0503215717805217 -0.17985022404440953
0.60702780793095057 -0.37724880373109326 0.67125702764586759
-0.28062205628509174 -0.03571765243210967 0.6837264738805614
0.61176925306594332 -0.44275122868258165 0.68252627391558884
0.019802816457414302 0.14311080151217093 0.79434055273167792
-0.5247452652437925 -0.045154551615175453 0.65877336235798878
-0.048995600050144417 0.098132159191007373 0.58866888528295125
-0.41772785539441742 0.10373241650249798 0.61447078716033732
-0.2374136622242207 0.19308801099015893 0.74618742960038897
-0.76022517716481963 -0.5953119527870111 -0.54550616652116335
-0.91449733486583062 -0.9532270476918695 -0.59015587662993108
-0.56767709531187704 -0.22203914926292034 0.63054667581913648
-0.37071813280002525 0.023387118996134104 0.73621738174487128
0.17049860997703359 -0.14904720105086811 0.36627921820921527
-0.096802662398315087 0.30714215473193285 0.78678223999358265
0.59480144600439533 -0.49324522638155011 0.4852115227993582
-0.7296558688483602 -0.75377372165611511 -0.37918009760822069
-0.14601872554824358 0.26673994964967229 0.67471353406113355
0.14619361918127977 -0.38954154464429958 0.63713258817259355
-0.72168135946820655 -0.6840437398188135 -0.079135580672635486
0.23197791636385312 -0.24375985772368391 0.3340696303055648
0.037219494095563521 -0.31012197239099026 0.69351724948924542
-0.22818345133541035 0.10875109409863937 0.81964993057594682
0.0076886045374383732 0.59705220733387787 0.64491130512745398
-0.8061803384180003 -0.71351413618856041 -0.54560174511545811
-0.26453028661908118 0.066543378374697815 0.73429684887461388
-0.50990061051465496 -0.065136163675984404 0.71767329710824002
0.12279168989856716 0.62025302413776773 -0.24971715511710557
0.11810617263043691 0.76225166274734213 -0.17205094555023082
0.5173446314666762 -0.20227778961982601 0.52413273569906571
0.83090778218387307 -0.46631345355465714 0.71880461481427393
0.31041055991367356 0.54102630089207415 -0.037201614714441167
0.19545266160517988 0.75318831875038028 -0.18507241730374591
0.72907070541371355 -0.37451416878280863 0.60858034677321338
0.075156863688264131 0.98714752416739193 0.025218182835442526
-0.1361044676099897 0.44743387673778634 0.81451178100933719
0.088807018384175734 -0.0005498556014364997 0.85085877808984145
0.13584773156977153 -0.1619095038658398 0.67371656537149149
0.080893648711999305 -0.045471921485479516 0.76623471525181919
0.29477456474758662 -0.15756686359188876 0.6720191359350145
-0.65618491047175298 -0.64099140777718455 -0.20235417383293086
0.4634099367676412 -0.54070504285876564 0.56930778833585594
0.06481057751447461 0.54658617784212793 0.78747999519150391
-0.5812628086922581 -0.6765598904118777 -0.18507638501967483
0.12650310123856701 0.10342133899945849 -0.32565746861276623
-0.39888315632651072 -0.12769869521982891 0.67307107858199355
-0.032486848725223838 0.41486020683797142 0.72505675576150252
-0.12836737080032445 0.17171149716088618 0.74193039680556339
0.35192374049888464 0.86786544218132078 -0.37268883935428887
-0.35021661094556117 -0.0083787730179689657 0.59691232212832013
-0.44332692630273318 0.055695012341945072 0.79509269182940767
0.4130190097495674 -0.42771906711204299 0.64839707698812776
-0.15558769073029005 0.55016637753997655 0.65709778147130382
-0.67636673971342876 -0.6284780036426536 -0.087970257001960039
-0.40713648077660047 -0.12956735967028488 0.71447914000272172
0.090721140158400437 -0.027182147613578733 0.65566115675689451
-0.38621258395774827 0.11358287558400293 0.79513810966227916
-0.55755746772407067 -0.31177133917486199 0.21702261977067905
-0.13058038492988958 0.85440382816806193 0.050950870613253763
-0.30168170998789295 0.27010306357621272 0.69734116789601797
0.520724574578038 -0.38270157636017776 0.53931203834671082
0.039564072660543279 0.42623529174419139 0.69848417729633505
0.15086606776798034 0.81175928629360161 0.14491790419238604
0.17750623485114303 0.86422074401659266 0.27989264110767442
0.11075086935725331 -0.017401945910333838 0.62310245501323869
0.33997777414270319 0.89924312869212986 -0.33622560857814254
-0.52812425562854104 0.13054400450797021 0.85120080851879742
0.10026771285530378 0.15063651875422046 0.80102828899061307
0.5642581280795238 -0.44045457951523836 0.62924564528865634
-0.19002877516085798 0.29187603824302788 0.77885021220556772
0.55309564362497932 -0.3800840896025961 0.60662625574217088
0.64569972371441731 -0.24280240761029703 0.62981545552842377
-0.60329048868430302 -0.68916968182196792 -0.018520691259757638
-0.16083327373839801 0.30212204332532711 0.65360167186398876
0.27539538367023858 -0.40422576230831897 0.51804391602184108
-0.10091673440398624 -0.33367712540012806 0.49896195467648419
-0.8788806307340612 -0.94055074390032301 -0.58306852801069375
0.34354516363584192 0.98024079699522448 -0.42892361231691667
0.52622200089380367 -0.35957695862938022 0.70196683741976096
-0.60638011603883157 -0.44731283436427671 -0.15068774293808507
0.23062942328059399 0.3821753768688132 0.10150955427996089
-0.43885853995367902 0.29309646026485847 0.76680311625045638
0.50104347368743607 -0.17174596868376391 0.4833773239409741
0.22343027252747927 -0.044546458685243318 0.66770247235960267
-0.02157004650518779 -0.00415888745391646 0.74888176405753371
-0.79034591618057803 -0.65377952473523671 -0.45310879984605579
-0.20120510293117472 -0.16453989531445323 0.76142562226930943
-0.075102928404551517 0.28427331538662992 0.71946958808250183
0.089210638783926141 0.09191864440170705 0.18812174279471283
-0.0088052747406813237 -0.27989785586027316 0.24041549743543711
-0.62081508990165357 -0.6971483266700691 -0.49083376742997231
0.17317413089331468 0.94057860896076972 -0.41883671436688541
-0.38110457635947143 0.22297899371872432 0.62293537741815075
-0.67816048822970865 -0.9023223506613971 -0.35693478609881157
0.58838334716155627 -0.39753604261958797 0.59386363031353462
-0.058985095168590879 0.25940334110992325 -0.46545065058619306
-0.7106212433926663 -0.85119163777283857 -0.42883722685678372
-0.19365105294826998 -0.14568052708268286 0.69704151252654101
-0.36260126903905049 -0.060628587896439878 0.68421604061586494
-0.32336731751520409 0.22429753656778151 0.84285206848035132
-0.061429936966016785 -0.053978426489945441 0.73760488813433744
0.47435399311383342 1.0051616872763143 -0.60155298111081135
-0.40255016182843328 0.14440892507146486 0.77737767393366375
0.06606910343528527 -0.21576749499183334 0.72758045509545743
-0.58748421132112261 -0.87009854761094241 -0.20797082688625923
0.36131951116385114 0.94103557226089496 -0.28843231811064451
-0.44907762988527344 0.020779602678320908 0.76749898152483453
-0.36610398758875673 -0.20963567314341813 0.63655796851106028
0.41078965331919998 -0.3233720284720778 0.64893663196697893
0.15165560350920024 -0.035822248037644444 0.52170552135021031
-0.52775405490439964 -0.46104395614193683 -0.098852425486500528
-0.24322561749240373 0.65667565786486026 -0.32779431043124463
-0.21600669584440729 -0.35707759193568123 -0.21299205206855043
0.72792384072021954 -0.40786728640177583 0.49451754521114977
-0.28673869934248097 -0.36087361270098373 0.67704162960844894
-0.69101150879355722 -0.79657022789180087 -0.48307540539069449
0.17700926187713609 -0.0093229767901252814 0.45459770854270232
-0.39214737261983806 0.33407969642388924 0.76323956535789061
0.16124626140164952 1.0849737668865838 -0.16293039274105969
0.11017700669879384 0.36366925487141888 0.72090548664966514
0.44778931375937236 1.0891467266090471 -0.3915807725436411
-0.45293213130066839 -0.018358261450093671 0.74415134596350097
0.25901387367482148 0.65281832447886967 -0.21530977249679539
-0.10650993619732679 0.16030471886493713 0.62917736293612503
0.44915092433808457 0.94655800062860274 -0.26955033096572323
0.0017580746811489412 0.047436297858216125 0.75531825954122545
-0.33761571814969904 -0.0098631435244134202 0.75137513990242222
-0.054435577045697847 0.10526824564617954 0.70708162869810742
-0.68249522915527905 -0.88776112882345504 -0.3707082351176969
0.086446900891503864 -0.21237484018413633 0.49947887367775579
0.32493597778972905 -0.14991936151591601 0.74354576042301956
-0.4922498402979324 -0.60982729153282822 -0.098552278049292563
-0.68438836569039763 -0.59247548895277147 -0.065203833639417841
0.6520995362293952 -0.45146240811351035 0.53323514695150043
0.76799167994124806 -0.27913760347604955 0.56260533064398732
-0.023525834975035631 0.36761970514679798 0.80632834546967835
-0.28407741838912959 0.450265397499088 0.47428456664017937
0.09047765726462198 0.47797958707623822 0.65434968332737398
0.040843605915658707 0.52913735338288959 0.66436395623451239
-0.029421701607102946 0.10575914266359687 0.65533803072175689
-0.5120876038982265 -0.70615339341069072 -0.099041522536136739
-0.86361715564865593 -0.86493154916522086 -0.3517417829839049
-0.48922240533959493 -0.15152839611592883 0.71756970941714449
0.11299704897926563 1.0752597290801358 -0.28229037216265129
0.24921846503736111 0.93959459730428452 -0.31186085434368827
-0.40187647069019106 0.26207449523655912 -0.084324973325464514
-0.35194102488428197 0.34976097836768361 0.59151877506520545
-0.56644107357118889 -0.5888350911411302 -0.28872829289537649
0.19068185889019945 0.2265149312995407 0.46953985581244273
-0.16155205283244276 -0.18416647635194949 0.58357009709269991
0.2315984505151531 0.9055037834979297 -0.23149976847352338
0.52264398356761466 -0.43546576650076108 0.57176825616012994
-0.38397947139236888 0.061095583824093413 0.60782813023588733
-0.013891981771902318 0.22471368322952845 0.6439205496439081
-0.43773379106761645 -0.043203934762919394 0.72561981787910912
-0.013676089434929345 0.69507018252403763 0.46080271049861177
0.023667672931710571 0.28989771463642278 0.6619214851775248
-0.42162209920134669 -0.12346480603040533 0.63810299649965696
0.066870303968108974 -0.070945367163993911 0.65191955842178584
0.39038745835004174 1.1651620091217982 -0.54229384780242862
-0.69165509132084557 -0.8568425193295347 -0.46388387333405479
0.24305736719726259 0.78059794000585447 -0.27511850904998791
-0.058951255545119097 0.27065899915135416 0.71062899585412653
-0.5360743171145167 -0.60523505280119072 -0.17543195419925695
0.66053572047404763 -0.42718659103879619 0.64864956473348245
-0.47410316290276694 -0.17164303082912458 0.71089235536657158
0.053768450792340529 0.66308775740202108 0.33209104219364471
-0.29293285154314108 0.16269190836472425 0.75280380273526959
-0.26850030345118159 0.18311766370203908 0.72353156532534479
-0.37899719964375811 0.042340474060877265 0.76070593703494216
0.24779504137607208 0.56178938293767189 0.095558080337413642
-0.12212446235899138 0.33518627386325006 -0.50194993064559834
0.58082750178837972 0.97014765541826564 -0.65366873508870271
0.039187291033688176 -0.3169111838604044 0.64739808198102389
0.045934009263679576 0.44408389677164251 0.62009180906213501
-0.027559623466574812 -0.26042983142713072 0.54152762491041417
-0.041847743213213773 0.037252797705730423 -0.5264323727194995
0.017734377911941351 0.51885288243992211 0.76100687670504008
-0.2114592464195611 0.50690434262674078 0.48879281329978641
0.052391848572014177 0.97447258888527566 -0.045636346341985101
-0.13137280982831895 0.66956716339589706 0.58133963798929955
-0.069800874040668426 0.44546331102459757 0.6959736637319146
-0.4678131309791918 -0.67550551635261469 -0.22075849819186821
0.60882784386357214 -0.30281599429241468 0.69478044672430861
-0.20052235412334518 -0.11357860052822533 0.60846793610131344
-0.039594953747236206 0.39444330008884942 0.77126678367766466
-0.46684363251854011 -0.36695610216348085 -0.5341676343231907
-0.49755289016653159 -0.57664171405660958 -0.062557537048624212
0.011558198999010505 0.39374407739021766 0.68518758129448454
-0.58786386431217863 -0.61455373568845062 -0.55080420526924012
0.012805280563857074 0.26807712830155261 0.7361531128945894
-0.030400485811455158 0.4307281730773167 0.83017168488094129
-0.38751922264622829 -0.14606612344709924 0.69689559845239391
0.15908387844134256 0.62950686595902905 -0.17028734284004976
-0.46873696989657998 -0.65330126868114347 0.0051119541086421805
0.28440850004006357 -0.26604702102307742 0.65312537883096655
-0.56203390712332757 -0.020503735854396687 0.72810250397549336
0.042467486916461683 1.0439533029579044 -0.1234317969114096
0.27010500763228601 1.0605043858376653 -0.5089447680912067
-0.26014729369758705 0.35344164538670064 0.60106378109718528
0.42686732597648946 -0.29036007432347422 0.69667710119900428
-0.52354574069646342 -0.0013008681640669373 0.60061877016921283
-0.44341061416148053 -0.12775087834222854 0.74012649357362492
-0.42610511049387345 0.045390375280618622 0.77027668940123128
-0.43641267003742118 0.13701408536469728 0.76688132726454261
0.087063002520129149 0.33890176004180361 0.61088933495296527
0.58431895954338087 -0.25217825283713324 0.58467783278664309
-0.11522027376583366 -0.3532478132841157 0.23276413158061016
0.50964917092033901 -0.60860399765125894 0.53844622035409806
0.43575271828779027 -0.16288067520866623 0.57259560531621556
-0.56794148860335358 -0.68820192127866209 -0.41515602237176075
-0.21614652620506769 -0.11351376744183272 0.66703240742793535
0.30155218427361918 0.90000851537977211 -0.13538690966325784
0.11710244295266886 0.39733567455952024 0.60591137086264779
0.3050012422270641 -0.055185417898978351 0.56647632563923744
-0.32129065604682072 -0.2926586209430968 0.49834964179752705
-0.19550965761781519 0.25433487083580264 0.6594610659165242
-0.19960153705689399 0.62697464223963895 0.61509261577053032
0.34375053170074155 -0.29121847752422325 0.59832561894507519
-0.63116013675245553 -0.091449370439676603 0.74711507459538962
0.28934579301635555 0.86314484285511828 -0.35973843937766681
0.095360253842470544 -0.013895497184657435 0.77883874832621658
0.10405039282296413 -0.21585234887019245 0.62477500446062373
-0.069119006774381181 0.96839624594329765 -0.027105071394584845
-0.59370140921122438 -0.34583028088591883 0.49589591505282715
-0.63181149406855996 -0.39778892060429305 0.12913409317403368
0.51298140676308135 -0.41949591661761287 0.61628648195579983
-0.26603054148211475 0.26694891821597322 0.67534741433003509
-0.018416912116191259 0.56691228863939014 0.72782362202063877
0.76897202426508859 -0.3590881431512678 0.59014497042375602
0.23026370850337896 0.74671099501227967 -0.30690514177800043
-0.48760694231710222 -0.42040749923837151 0.28747065489351298
-0.22602695834773756 0.1799142501008264 0.71242063475699047
-0.30196256655286291 0.46029427262048417 0.46669826108701268
0.20964598682333435 0.60576934484852729 0.36297477834869285
0.3601655742899656 0.61023774617247839 -0.21460016505739743
-0.30566578491256879 0.068425139351435682 0.773672413475197
-0.55673932702483531 -0.74558218399637011 -0.29004243656547701
0.71439689340726542 -0.50875645898836908 0.64109856398752052
0.80400790704254899 -0.5043408522038797 0.60197664784060545
0.79776563227409802 -0.35376105058544316 0.50489231272449153
0.13836843818262329 1.0849186392151442 -0.090583315200979619
0.33526899222063955 1.1749658161774095 -0.5278460298159362
-0.62255902803590168 -0.34724343114864298 0.31314154047553378
-0.29972715916243897 0.1777075489819433 0.64630985586354894
0.53531364792799374 -0.43228526194437844 0.54762532142167986
0.30408249090135198 0.73054876806070879 -0.34281764959153072
-0.47121591314768352 -0.11137673608469778 -0.39096602070730646
0.56940600678566111 -0.41453349286484364 0.64638371954419149
-0.38434724543843124 0.056737736792772608 0.64596727923568498
-0.29642599133743741 0.069737629048495453 0.79086030799188589
-0.00040026663151326858 0.17377388715691899 0.85448486902944198
-0.50614100977745868 -0.03332519570480752 0.85372473252249925
-0.39315860592522567 0.033064267380740642 0.67926007605631566
0.23925571299701909 0.41503470522555364 0.2820354686063381
-0.036223658186269714 -0.15240289726535106 0.71603271997210927
0.13488315273922219 -0.21449383100506103 0.69610297044276259
-0.24054953968514353 0.31033491060550755 0.84658545502946392
0.038869743499701015 0.041560572786638827 0.52116430895039922
0.062095729982685088 -0.50812671655939501 0.49207119566558527
0.44144377726384759 -0.04187830954910976 0.65750464208554504
0.48981326025065614 -0.24761996857439694 0.73815137719536117
-0.22400781117964813 -0.18107875525588191 0.61420271281097072
-0.024049533714722737 -0.09932732940818001 0.79485659546383114
-0.51306742233598002 -0.23972837878986075 0.59802151776317647
-0.54679774522074831 -0.065182577531795127 0.48921762248065659
-0.29972133490143649 0.57080632878256976 0.69219535876510407
0.1887117453094031 -0.20550976291931478 0.21666923576567598
0.51178197383262602 -0.33169543345436892 0.61273813447217218
-0.05744938897935517 0.66223293418310913 0.6764473542036501
0.29173034519383345 0.7891376697050656 -0.24089747065565392
0.30915133965193164 0.62847533026467661 -0.24178994253337294
-0.39712120092994835 -0.10979657008393806 0.82024133779630448
0.11584809036264677 0.25947046719996592 0.62338992047459896
-0.00010272475300515671 0.70707390023748062 -0.72865838554390105
-0.6220806097680226 -0.68249788921257948 -0.2325551937510586
-0.31262942007564715 -0.11599820287625562 0.73678663768543884
0.83656782003146701 -0.41862742738390946 0.58894723229180845
0.36186342796385401 -0.46307902493465769 0.50410621793076027
0.58220816121666352 -0.26811030147188486 0.5210143886024462
-0.31650256177123737 0.30774450257961217 0.62016848379638934
0.49581262696329792 0.94548971054855568 -0.25639170077620221
0.40716552383151428 1.0253249916904497 -0.45483002280843077
-0.30723532232066619 -0.040538238927078085 0.90156538189360136
-0.11094020182673046 0.75446478998872857 -0.28052796797397117
-0.5407698335787664 -0.62766633491261459 -0.12077623283430616
0.21077790939759147 0.0018371858653838391 0.64632789604354746
-0.39191847921282708 0.077050570382139805 0.82911195908220392
-0.37856199914025601 0.15464876454384369 0.92866948899363733
-0.03938281202837475 0.55725470987029224 0.60232108849954058
-0.41632090341508377 0.42389546351473295 0.68397240512120627
0.51018138990270168 -0.32149023451138969 0.48874563087373285
-0.61445515903599168 -0.44504927418930285 -0.19439266824306722
-0.35323859078490222 -0.0404249959901819 0.82744714073332881
-0.053967865759262143 0.63112521225847518 0.48097031402585577
-0.47780637103401946 -0.023536842431379545 0.67844188232856895
-0.0066881489610880751 0.51323195445518421 0.64852177442775394
-0.34694796107718728 0.17880234982837395 0.82406278941468969
0.25923789573280176 0.21142068134991421 0.45309974895516092
-0.52619945431070791 -0.57717985124000326 0.11200481783518779
0.49693621574419727 -0.32479075678791292 0.64561025154569762
-0.54136966594779534 -0.67477819769374481 -0.15226016472181259
0.042199181015217524 0.49182254917559143 0.68341549538532687
0.20308841851512718 0.16762526563418145 -0.057729828818371853
0.03167424895117428 0.47397891742291387 0.65641700578873918
0.20513306867532227 -0.21191938302337188 0.56414412001520164
-0.61048756647161073 -0.12752795458281008 0.64544571095132863
0.132048427850192 0.6120082142677109 0.56856593463919813
-0.32944256752795753 -0.27141187988170334 0.61804753419490821
0.70350875770302423 -0.43212535494531368 0.63174166659041886
0.1507388471942688 -0.038875760793310121 0.75301106447977384
0.21794684805241454 0.11054102640268626 0.60084505928975807
0.12707017439570195 0.058887018392417723 0.67347176957035237
0.18547353463060684 -0.15162444050233037 0.72721265043375227
-0.67525848161709756 -0.79554140517491478 -0.40870960419492786
-0.58794627709411218 -0.76346488274838786 -0.30540797871067926
0.19312543646659142 0.60875622718235212 -0.18264944085442525
0.31756068448931535 -0.29831760783955819 0.45889069544062222
0.1963643112008169 0.84719087435191653 -0.55940697771216574
0.68472321059947316 -0.25405355065834301 0.70286754950727215
-0.42867018676944596 -0.29562382515913144 0.55967250286873171
0.37419508853103156 -0.33323313643949271 0.61816851419826513
-0.083185021984413521 0.35963450094551996 0.72895458447036721
-0.54161296198578834 -0.70311381233647952 -0.26210328321172194
0.30033805261697005 0.53645804295435662 -0.037545577551408416
0.13694186199973699 0.25460594294182637 0.60731019121421814
-0.54191063009666429 -0.69836020366909746 0.027190641294870477
-0.28381853523084943 0.27226521709846607 0.7422792805105205
-0.086448901243924459 -0.047121963264446176 0.79045285914638641
0.070093127273489625 0.70974798188478605 0.21884230369949664
0.60956319612946452 -0.56519715839810214 0.59248203751857986
-0.16771409789282377 -0.45196779591692837 -0.5160995447992307
0.37735552557103641 0.94394649731230862 -0.41644885987124414
-0.72786494708563354 -0.82659165967321935 -0.34409701728705533
-0.64602268160031262 -0.68711102719429662 -0.22511322363437236
0.44698634214746458 1.0406802617075588 -0.35243937619301091
0.19823161915087048 0.04848209042557361 0.62993220473022815
-0.72314297418503914 -0.83290820660678788 -0.42487597121298903
-0.097826390653674933 0.59174427253087469 0.66449241319572028
0.33069303533495531 0.55718817108577468 0.45421736485118058
0.70309806765970972 -0.26615649426413679 0.66318146882994156
0.59219916686985807 -0.33229907513461776 0.71789764508628584
0.61351409733862494 1.1667890707918713 -0.40419794270754172
-0.049977186141626606 0.94669005129683015 -0.50610170428712253
0.03569352815571375 0.21698316056167188 0.69598172789017365
-0.36024988622967891 -0.0058593878787689402 0.61369354909471063
-0.31783210722859917 0.079616019327692689 0.77445757213611577
-0.74346510220780349 -0.6791463472562882 -0.56180351416858665
0.37345136864125006 0.28489436212437003 0.55163366682079751
0.17826940896913723 -0.43502871043045266 0.47127538968211702
0.20623601242456191 -0.085669922874586302 0.48337692759170015
0.14601886392760832 0.41469707020558166 0.5572970273354394
-0.51037593834880168 -0.20754919199687394 0.70271762554484285
0.54422790119627118 -0.32626314425276126 0.68144036598314106
-0.27547873039483473 -0.37583657462851727 0.5452897979949809
0.054437322470911625 0.10676789314860824 0.73995141797112329
-0.57602337153751293 -0.10312017182517441 0.60557381664962473
-0.0038952638727088318 -0.14576897143411371 0.6315321227938131
0.26383693014386511 1.1957277447194694 -0.28966105766533023
-0.11385335689400572 0.15793235090479874 0.77019835050073815
0.016569979148269798 -0.12249431936050614 0.67121600930736403
-0.47755970757744326 -0.18686428985244685 0.61637807237697462
-0.23639059500170748 0.19206724694857269 0.72358778230308518
-0.080375154726336995 -0.027770229374450395 0.63634742767847907
-0.43899324259505013 0.048192574059701343 0.82754442590562838
0.090120626456167557 0.69989932980569136 0.57836509159436433
0.11166689560809097 0.21726322495144035 -0.4202785918182379
-0.49469473934455299 -0.017590043007110312 0.55337885956297095
0.41876427246215303 -0.3729338469058483 0.62914694306060293
0.14230397811802842 0.97205820010999666 -0.28723068106518279
-0.47696963671616843 0.04158331858816755 0.46116509367783953
-0.3847706336133917 -0.1010345758886626 0.71510750709268023
0.17535505531179002 -0.20164932016837467 0.48206470504457355
-0.21629026646387545 0.10559297151282121 0.58784786524687727
-0.55043036761073139 -0.58212921525688088 -0.16069061362631232
0.14721529679831036 0.41852434427214247 0.57861919336263667
-0.19285472936544162 0.24693189541276794 0.73718075654267556
0.39084391597894991 1.0772133247698612 -0.26308450852086862
0.23896538743842477 0.19052328440443245 0.62918244909472576
-0.79295672006621387 -0.78678657547733999 -0.31011340802558007
-0.055963185718849978 0.2325436124767486 0.67854453547958737
-0.084580780366809716 -0.23527926340967742 0.63045932824342243
0.38891546850917236 -0.45088808702755068 0.56744093729015144
0.21685780538025029 -0.18169548206728359 0.6526715166644923
0.18288507388225594 0.50837365126222989 -0.24387159881842657
-0.5648840373265932 -0.42266340378205425 0.018313401465881785
0.041353317193393718 0.3001107407734025 0.67447114135842068
0.010069205706758344 -0.1337414441110143 0.58857529328025404
0.26773406791651017 0.8221831966575055 -0.16674440934296286
-0.076883134674494591 0.33474211349923277 0.67707996201268894
-0.66329658172891826 -0.69944432413682378 -0.34689225747369989
0.22769352523357503 -0.017224660055244145 0.35130997611802028
0.41405506496071121 0.9914857427072834 -0.40991510193088732
-0.17503176028682013 0.56021720011496035 0.71013488509099687
-0.76047239214860796 -0.88791504512770514 -0.31878919292052044
-0.11648601369666356 0.34690355485359881 0.77518963890061121
-0.51443646962827194 -0.50578942636135671 0.19440931854785626
-0.26903436485906734 0.17909798416373435 0.78085951432632128
-0.46023348778359274 -0.52194604717171189 0.32503315492367701
0.34014163606917347 -0.1323984936344591 0.61916098202970049
0.39441699519623646 -0.30771385881335633 0.5292590889456471
-0.28686125380340222 0.46299761860137822 -0.57988939629062886
0.26838225957104878 0.99189382802596127 -0.25272508983988118
-0.58123445451195965 -0.73137324671967474 -0.055807316142592156
-0.22999190272099379 -0.18817203139477456 0.72418368156171198
0.70348412504389235 -0.37752738168066413 0.5555975485822664
-0.18776348707889162 0.58111999008710813 0.61035075748543532
0.5990390620658288 -0.26314257127297314 0.59162596064288797
-0.62843370480629002 -0.56295130431097351 0.14900766260077558
-0.4315189016647179 0.0029699866574253164 0.90290614167289285
-0.31062490940515369 0.23614140326692024 0.57300040463843316
0.14158063292171219 0.12414695042329926 0.0022298176650055179
0.31074230136065822 0.63988723041316298 -0.41662840000685142
-0.57987947464346967 -0.13973762208965601 0.75856271161602584
-0.32263721229241077 -0.24336748787978224 0.70635445209930536
0.60281382848798537 -0.34256456377321354 0.68007684554514158
-0.074032713979639383 -0.18768748041931094 -0.27007085147255316
-0.0096263661044521942 1.0834759908820659 -0.086499267509531963
0.087094622756825751 0.10141749863640848 0.61664777854975472
-0.58785683732140681 -0.70999852554351395 -0.20572791661577383
0.3595497081123048 0.97812004259448715 -0.40058410722823745
0.5363945945160381 -0.38691734040555481 0.71700372764211673
0.2373634028817331 1.1064687780598341 -0.23072454152191035
-0.36215613921305934 -0.018181313563285562 0.78682340940255746
0.77031240574931159 -0.34233099081334473 0.62165669635756293
0.55717333090067211 -0.37831669583712624 0.59523591203761939
0.3140925233481543 -0.11662759130316758 0.69039359140495482
0.39585435773309274 1.084677356343227 -0.30774130579154324
0.32548342944437864 -0.4235470405872086 0.46715150371890035
-0.32085574705125131 0.15046827823127495 0.64087370272722166
-0.24027648068140681 -0.22478975505709142 0.59829048112677685
-0.47787818240309843 0.03109291827147076 0.72179902487527392
-0.14581560183099099 0.23465797834939561 0.6599075857135871
0.52259703053422457 -0.34362820027756036 0.67542622580438838
-0.4961083547070172 -0.15703539174546877 0.20479516656950392
-0.46746567729882516 -0.19823047995167919 0.63364958337819344
-0.58160387010630943 -0.56656238815533699 0.030694774051452267
-0.11860287924362251 -0.23716540417083265 0.71940175951147056
-0.051898693251457573 0.13810610705752691 0.83044108989300658
0.37914326465141945 0.4968215855803273 -0.32424299187075167
0.34890252962987212 0.78134141672483892 -0.41474475914183251
0.14355735928377217 -0.074904011342149079 0.018522688099857687
-0.62507189084807335 -0.25991623355778803 0.35991405188883974
-0.52944345553588168 -0.69063700427660368 -0.23026294889496346
-0.63790250622886358 -0.7342086123417072 -0.38885429220462064
-0.44537754083588782 -0.59826307381607369 -0.0542155266811013
-0.635194770460071 -0.67662727331062911 -0.2988712930397609
-0.59673994686864806 -0.17805230490561175 0.34537062799729146
-0.073077982025751581 0.51570790314799941 0.66649915694070061
-0.30027741891770904 0.0043180601453443046 0.65476811532235013
0.17683680087731596 0.79736108965316199 0.20688778136598818
-0.17808499996530591 0.30568423603406436 0.83306457802373557
0.20752348387086625 1.0730130842284464 -0.3711064884666504
0.22274814415636809 0.47069304355015085 0.23852108457329568
0.51965347388971384 -0.58361348548223346 0.49488521241697075
-0.58213024854188256 -0.7177560831563794 -0.17868373726726228
-0.43703098441533095 -0.0061478039459179623 -0.56500066033015295
-0.72679615112863172 -0.78473124082531742 -0.30608824035033755
-0.55464654495309496 0.11822503491442138 0.48308202708584269
-0.1573901283286637 0.052817681816121231 0.67850276656803865
-0.2393253179866609 -0.095731017372620908 0.64808040302214642
0.11722185428531187 0.61676844871000203 -0.36372220183582882
0.10541533596517574 -0.13310504694427427 0.77699287875338019
0.32014457691682402 0.99493676438014433 -0.41959800498448163
0.12966570410895151 0.93067780592391558 0.46105736128278146
