# XYZ point cloud file
0.316586761365029 0.56373849778963003 0.41754337245863182
0.29416063160186995 0.61374434669696587 0.38253186665605265
0.27546275877980236 0.66432721911854586 0.42308478908673758
0.27891915579015963 0.66756695092764917 0.45064081032213904
0.32071701344334402 0.56705654178018094 0.44676173560536547
0.31119333762808532 0.56232483267100075 0.38185130007713469
0.26953025814176229 0.66230154477798886 0.3904810153492676
-0.46583026082404916 -0.5754879947682815 0.45887993138506927
-0.40247672886881475 -0.55395515874199364 0.4815259964378818
-0.46588999118922425 -0.57824195891237795 0.48865448564670561
-0.53128899693209053 -0.59094737665982511 0.43766829789104389
-0.46902517059733378 -0.57317195259050158 0.42188046891267755
-0.40655289087354524 -0.55337371212083253 0.44335506713246681
-0.40173444419682602 -0.55587746026199913 0.51219724223522456
-0.53223472948607653 -0.59453651345614633 0.46629013830725424
-0.53314242536987255 -0.58668614475651459 0.40235005742939445
0.33431672633836562 0.41263932743181581 0.43178431557907182
0.33829072195412863 0.41475865485416258 0.45884994971906223
0.33148286033545654 0.36330143187494479 0.43882087271768044
0.32922036765486823 0.41025365778172962 0.39875094694810553
0.33291952913975803 0.4617972179517707 0.42639855820918948
0.33711868502497405 0.46441831939357481 0.45503268859850582
0.3350364209344161 0.3652250178163915 0.46381068875463327
0.32633174270852311 0.35921284267106501 0.40991613547212347
0.32788053627245894 0.46015018699126647 0.39093924416835441
-0.23479507197120733 -0.47093969830657462 0.52859675790969507
-0.1847121651053131 -0.43789013212291489 0.53688046052330574
-0.23186464329851839 -0.47041345367105808 0.55696373079610484
-0.2869634273875723 -0.50092737252194797 0.51745671084820621
-0.23917577215516606 -0.47225104494312303 0.49375756638968077
-0.18726993406389689 -0.43798377406178268 0.50617267015728995
-0.18176406353497371 -0.43688393431192751 0.56301656000444411
-0.28460856784176353 -0.50114476390260665 0.54749930473647046
-0.29184807992672734 -0.50237736989048176 0.48009166612284121
0.48220934890760359 -0.17177489198534163 0.27432677044421777
0.46956109095189608 -0.20609428981491373 0.28182391097938786
0.46014448631103944 -0.16082501015429823 0.25757474359160204
0.49128546051183097 -0.13698182359686351 0.27056779718322915
0.51015997608019004 -0.18533802847934255 0.28809507788491551
0.49761808933705032 -0.21766209194493441 0.29445121905116356
0.44731384828641407 -0.19743279255940188 0.26640305773146955
0.46861445678433866 -0.12417007952275844 0.25321718731169834
0.51982924117485452 -0.15212570450059876 0.2848497582881413
0.40302114494622421 -0.29410226568279824 0.31527142442598571
0.37511909987218622 -0.29221417718298787 0.29958363175523139
0.4294538774856424 -0.26804939994280969 0.30262597458406171
0.43614355332210275 -0.29962640559367032 0.32868201153898696
0.37506855457579852 -0.31651911566907809 0.3303377780079122
0.34476135212283215 -0.31556879807741867 0.31401371302684056
0.40406392274115555 -0.26426420282827184 0.28785119829305666
0.4603025900045053 -0.2752780150598908 0.31496968220583754
0.4103391619048688 -0.32119390864737812 0.34460139299706916
0.63461960143395257 -0.23854514776511382 0.30701640922134288
0.62243251787176623 -0.26888286348472384 0.31415802138524018
0.58705701876841754 -0.21952102416605279 0.30374659715755303
0.64476010591067201 -0.20656764112570997 0.301705534038895
0.68529970685875607 -0.2569940288633239 0.31007868689688334
0.67315166346611999 -0.28765735472811299 0.31891102028388252
0.57474785987585275 -0.24984704710587757 0.30981592001204011
0.59726329625981345 -0.18769273195371161 0.29985898878121681
0.69534438680005617 -0.22467568960606227 0.30272177993726129
0.56615852263812516 -0.34404553080555822 0.35388293739659438
0.51852115944678678 -0.32521262931727318 0.34725630084884307
0.5882301522398109 -0.32158791529356345 0.33765028827248883
0.61577623388134328 -0.36405220529002269 0.36115725856409614
0.54192856056337435 -0.36504275241812184 0.37170256286121961
0.49462169469939254 -0.34598867580006265 0.36467642702951675
0.5404474751366537 -0.30274185673783494 0.33166008608992764
0.63844456126226101 -0.34110118894288183 0.34449935074237464
0.59078948003814413 -0.38569003362754045 0.37909730804825864
0.83413407705857034 -0.29592407907993284 0.33668675968922396
0.82104662844732101 -0.32711463348660436 0.35279752892448685
0.78713752383673552 -0.28657826198108977 0.32406485939538993
0.84494939684902859 -0.26378324037380813 0.32055009794218786
0.87592686580535595 -0.30111534029209591 0.35249353840524578
0.86219612245806021 -0.33227176259654106 0.37106207539567498
0.7745541931545189 -0.31775836742057251 0.33757383778242644
0.79746936188362016 -0.25410784159791316 0.3110919466119611
0.8873949392447491 -0.2693926298489287 0.33338801944554175
0.75901798470395276 -0.4113574795225709 0.40252578749157941
0.71400922825008539 -0.39902933923928302 0.38491574396825917
0.78353242663819644 -0.38476252640350933 0.38577235813021937
0.79879731795598374 -0.41957655516871217 0.42303916279589748
0.73205654292307076 -0.4372786697389785 0.41903491279509958
0.68749800211015055 -0.42322465425321287 0.40212674659404701
0.73804539565807259 -0.37389564149740107 0.36804691836268733
0.82365292373261501 -0.39146650268147504 0.40640407961583563
0.77159097894331963 -0.44726137505644281 0.43886155115215597
0.9537572214762754 -0.28963692739742619 0.41422735913385489
0.9645860269050045 -0.2796710544988863 0.43687837886789904
0.93767407729017771 -0.3211250999958507 0.43717475538424222
0.93613545728976733 -0.29746692549525927 0.39196320343048024
0.96767916773682694 -0.25857261927222197 0.39022025941408323
0.97919347843479521 -0.24873470178190843 0.41272562768880006
0.94784237470619215 -0.31129252835171473 0.46014713722119899
0.9208393770762977 -0.32877214295312918 0.41404913717391451
0.94923245228745778 -0.26629878901603693 0.36879709866485716
0.87130118535111434 -0.4161655695481879 0.49472193462566616
0.8963372522256613 -0.38455474333882733 0.47760086871582458
0.88111932251629765 -0.40774034580966734 0.51880257400627738
0.84453824171735581 -0.44753799988423748 0.51007282704979451
0.85520196095340106 -0.42168018637455351 0.4700185633932501
0.88031918301213818 -0.39096060294076551 0.45320662885325846
0.90593165517821161 -0.37559774552928998 0.5013471826546374
0.8548801707677407 -0.43948486285639193 0.53441802976398112
0.82809954111398298 -0.45221660233714617 0.48523314432219083
1.000374699379379 -0.1706015651656837 0.31910154608631314
1.0130190476795733 -0.16277381610119251 0.34256481636967401
0.99172139917550972 -0.19853652337376032 0.3413179782356825
0.98053785687928785 -0.17693841916559178 0.29992653484814596
1.0039272804237627 -0.14516311346009503 0.30118083125452538
1.0174768377095127 -0.13782445563694057 0.32430622448714636
1.0040125134702178 -0.18991121295652608 0.36444238290059333
0.97215333055877551 -0.20521213128285176 0.32099990104798398
0.98384416538303177 -0.15209103240200561 0.28488975256793125
0.76200692994045349 -0.53647883242349137 0.54710631995521264
0.78939329571755268 -0.50906450029567729 0.53632780406997393
0.77520972085351525 -0.52775664962665769 0.57172418566060612
0.73489061615416484 -0.55817440026200948 0.55586045660020433
0.74433508661984404 -0.53956237129951867 0.52276872235946192
0.77169500811519598 -0.5129264397599862 0.51160633300573788
0.80155296007566446 -0.50061014309297858 0.56089855343589412
0.74892959809526516 -0.55003814833324927 0.58062847507831949
0.71887396681191307 -0.55893764852673111 0.53233970582329726
0.96338030767792182 -0.087619424763940551 0.28221943189370463
0.98861265899333584 -0.079565832403536041 0.30471317235956136
0.98609100103215763 -0.10407395795309456 0.28242949095271835
0.9345342166149736 -0.099596007746491938 0.26728604260067335
0.93292783144956848 -0.072051444312853388 0.28755103191920828
0.96421128988259353 -0.063726376651243352 0.3096918175001252
1.005911995995439 -0.096494792975761579 0.30497526919816592
0.96181782503705049 -0.11430184282310914 0.2684994758705388
0.898272617840286 -0.08478886469289032 0.2723862705935991
0.64748982786631104 -0.57296495354244181 0.56319603943009988
0.67834182194133685 -0.57674306295389266 0.56366485087989671
0.66843105483797538 -0.57139546726526502 0.59435839790103007
0.61407177303161198 -0.56216662682138796 0.5616612913900314
0.63057467402133272 -0.56672503746543479 0.53257825054035246
0.66341679661058583 -0.57270830339642409 0.5369720002719196
0.69610440456789324 -0.57224241044381241 0.59174167547527157
0.63856250111919766 -0.56414168922031227 0.59587045565763908
0.59393833650344341 -0.55272521537974306 0.52768849388022376
0.80931550622555992 -0.022657903827216365 0.32469333828110464
0.85320808817910776 -0.013704927140072012 0.34794875141264414
0.8546284336508797 -0.039822053895611852 0.3099349995744678
0.76268214994729544 -0.036472568376510389 0.30707104887134279
0.76132738702691882 -0.0053787142984655124 0.34040517377207902
0.80619075263163398 0.0038486236485038641 0.36495149538086252
0.89583197256633662 -0.031106881861142091 0.33228491279178607
0.81032380468675691 -0.053227010094497332 0.29373602579138641
0.71415238436653061 -0.019617898419340276 0.32088893758935749
0.49587376871225186 -0.5052652322478931 0.55780950130511209
0.53808109179336228 -0.52691133814206115 0.55874367645540901
0.52724229493244501 -0.51539972816846891 0.59910963439462828
0.45183181258904259 -0.48221970718976154 0.55670986206696793
0.46926263185382611 -0.4884439392867167 0.51667229382773039
0.51249208086824538 -0.5117021732781275 0.51953297652161634
0.56817717452019778 -0.5350999107956621 0.59814003989060183
0.48327767271980715 -0.49346984177339592 0.59939349372889916
0.42539817842020905 -0.46469457421403293 0.5141238983432197
0.67455741644415712 -0.10910563173749445 0.28998700922809584
0.72518715890379359 -0.12590229460411356 0.28342273424112607
0.66259845991140298 -0.14074834330704783 0.2928476712650766
0.62632634928466124 -0.091781081444655271 0.29552561487041951
0.69299766348106251 -0.080220395946724754 0.29032666694843384
0.74329230845489203 -0.096714502431133081 0.28119576254637985
0.71322651964641759 -0.1579915090053009 0.28894050309153907
0.61474026181102881 -0.12278790228529887 0.29546844112701426
0.64444195951189642 -0.063412696676479322 0.29888175162697034
0.46844125983196622 -0.42682071477955075 0.42735506744328094
0.49046702446774015 -0.4060699205684149 0.40789996568164877
0.51452984288116177 -0.45039225117991921 0.43391228589212827
0.454670736063359 -0.44755423297118646 0.45054974425895578
0.42339960688649647 -0.40479149760225336 0.4212465180066825
0.44453437326904932 -0.38532395758592414 0.40111932008582518
0.53752344487044501 -0.42862595566475709 0.41493991778216016
0.49978205110453477 -0.47178182968186699 0.45630799912864872
0.41040141562754368 -0.42438195381636523 0.44540715412594734
0.87528269754274179 -0.16752196057711244 0.2728228782496972
0.88892065882840776 -0.1397239997675126 0.26323664625879223
0.91756501034026583 -0.17586585066486454 0.27672699473372542
0.86429449242425316 -0.19854037627588944 0.28737045992042054
0.82751986433707392 -0.15581972437543026 0.27345129250976158
0.84359522702652234 -0.1270189261268633 0.26606297994140671
0.92661507135998933 -0.14990130319437783 0.26618237432057762
0.90781982852516252 -0.2056674343140254 0.29375006699430922
0.81596712513882019 -0.18764901924768113 0.28490255853418428
0.64949976461188619 -0.51460125499512288 0.46571790514128675
0.68808322008047729 -0.52843425352078877 0.4814919568786995
0.63087397082040453 -0.53640451381517695 0.48345761640784435
0.60644026964912212 -0.49588814362738515 0.45255311961363581
0.67497450964600259 -0.48954678966813592 0.45005164173871387
0.71423316628778888 -0.50306230113730022 0.46769531938955572
0.6675841451839406 -0.54789799199149458 0.49604284706262064
0.58930751705655915 -0.51815822899990538 0.47250725867341864
0.63118936357420807 -0.47185943354703608 0.43534493238698646
0.509645419518028 -0.041965210188879588 0.29296603007865712
0.52166806158268919 -0.015548822825794006 0.31083952358946204
0.54318084408963851 -0.057651505713559231 0.29728642126859733
0.50281269247094729 -0.071243463230509022 0.27967655515600948
0.48126303100709822 -0.027988669017769696 0.28653288677119859
0.48997503101597084 -0.0021476422048699803 0.31064490099874981
0.55804044511898199 -0.030588744905404988 0.30940162168990681
0.53416101063041577 -0.08739041448519308 0.28921239358186962
0.47697747142666869 -0.05695807822695529 0.26753517002130878
0.30298195655515797 -0.36128370535237558 0.39672850977124163
0.33986938577813025 -0.37163844660372702 0.40619471326846751
0.2906551881781429 -0.3724730052261489 0.4276300249986687
0.27034499140003709 -0.35401059015898845 0.38666117397808286
0.32279670073792011 -0.34937922774464736 0.37050169530299898
0.3598605098501072 -0.35656942776549577 0.38277963899316692
0.32759764422716864 -0.38644753487479022 0.43413000760241621
0.2577330958282395 -0.36112777282910813 0.42101500592200608
0.29020865678610347 -0.34563296834057694 0.35704351474741769
0.61257642634722476 0.04260907158062005 0.38354702003080005
0.64930041812752659 0.052847468367384409 0.4131001791721754
0.66162467641142975 0.027779557137250541 0.37042025805501561
0.5747150669942751 0.027291881633125445 0.35661981669617093
0.5661826832166057 0.055455669545867434 0.39527995338799843
0.59783425634207088 0.065883473236062431 0.4263634193401673
0.70266386328718455 0.037692966421964139 0.39825777861933692
0.61909496496245264 0.012739672157921725 0.34609986095056389
0.53373909554885823 0.040039256764243109 0.36587719173377864
0.31703913240338755 -0.41364279314882224 0.54922198161497704
0.36116162209616176 -0.43577250194781397 0.55246564774738172
0.34089573263382617 -0.42311960785891611 0.59264295951782309
0.27609395233413286 -0.39266033843459935 0.54561405572147059
0.29828106651934971 -0.39961221405253222 0.50519591833912858
0.33887343940574505 -0.41974968355832271 0.50846384309229919
0.38865004223435157 -0.44659383702442734 0.59618912073885277
0.29592939216104308 -0.4003617368225994 0.58829904985908876
0.26118773355349062 -0.38110110662630564 0.50192603089079668
0.36739772373023738 0.093180706138110678 0.45103713168944753
0.38538746147331621 0.089314994774669212 0.44238976272554614
0.35740001038530517 0.096014364349777073 0.42308260898699557
0.35085796050707285 0.096351238977743489 0.45948071390617967
0.37612760456488031 0.094937041574230954 0.47922664869782822
0.39571185405239523 0.09292650918773053 0.47316894109284907
0.37387000046381147 0.088125604071934649 0.40917566503658265
0.34226444414537543 0.10120535428624207 0.43575156444233809
0.35814472128374431 0.096930124022319 0.48553972764647535
0.11891506804005651 -0.29162029026969788 0.53711226001974555
0.10412892118717616 -0.29627531458211193 0.50753637082522274
0.13283596028886133 -0.30170157317637913 0.53374480403602709
0.12842494237658597 -0.28861517942629861 0.56682799249169391
0.10652944790929851 -0.28209047313348867 0.54084561202883008
0.091564961603865666 -0.28717646624004439 0.51600977327503661
0.11975428628585973 -0.30538032793451703 0.49803802309588668
0.14231112388451592 -0.29936222940022561 0.56670876251549895
0.1156655301383047 -0.27861029148669098 0.567958184600732
0.45639938888770093 0.077700572085520794 0.42145924014150693
0.48772293994397331 0.072754869664322638 0.41413383028865236
0.43870656130445562 0.06437498330917367 0.38674001983927703
0.42921627236486165 0.08164980210898197 0.42779615586327507
0.47417573973317784 0.086873155565570931 0.45467284413194181
0.50949104460721895 0.08278279195733397 0.44702727759308031
0.46591373389529739 0.057960903132915895 0.38098225582261974
0.41418500944533521 0.071461998988592956 0.39105500223066419
0.4438822217133519 0.089305516614107031 0.46122763617070539
0.18674629810876031 -0.33942600094235675 0.53537193322220822
0.17995705955359656 -0.33593726373261135 0.49371094320644282
0.21084393432762388 -0.35538340992369821 0.53846179940065442
0.19727818763619392 -0.34140104194612886 0.5742375444245591
0.16623819372427195 -0.32528718790379729 0.53282909266418654
0.15819716608290696 -0.32471185024727967 0.49093080349702639
0.2026644599207186 -0.34916869125413014 0.49624440718839574
0.22360453862198834 -0.35921091266963018 0.57871614555846818
0.17580603357522154 -0.32547109831120846 0.57048493599499395
0.30460554839325082 0.1060723141997265 0.48228296898367051
0.30677908916451724 0.10511364923217022 0.50575417204706352
0.31877816425286742 0.10100304275563142 0.47572283174377167
0.30086630654088331 0.111319015844579 0.46488298850554538
0.29461933040671806 0.11762279779689437 0.48616523749881485
0.29504077656380623 0.11622551284379572 0.50936710914688166
0.32280099368817705 0.10041082666425923 0.49952230841991491
0.31320131009137581 0.1064775569972589 0.45708124095457209
0.29305102887696716 0.12298039295657538 0.4697250305204641
0.070523833803938576 -0.25669715208157312 0.55143607439710474
0.083829282268688882 -0.26303810509857656 0.54826354127779897
0.076751948551350091 -0.25134896112592997 0.57467308352339064
0.052766108223174776 -0.25727083483850943 0.55394933232238874
0.059767040119980616 -0.26236999614260759 0.53405944368317559
0.071311849419576551 -0.26837502403829366 0.529227602424442
0.091180916180887014 -0.25844438182608126 0.57227240933974133
0.058040594525513203 -0.25112942726831705 0.57651820527896369
0.04357471472129798 -0.26376426673610504 0.53804059221937495
0.30285568430430954 0.21390640031881242 0.47116258511448894
0.29416140590134798 0.17161947023061208 0.48051292414164659
0.2995199133286886 0.21137949893474878 0.45544381745069545
0.31406480294267913 0.26235090646995324 0.45950011125851598
0.30373985819941929 0.21436005441251493 0.49246567979015277
0.29396421407727175 0.17098643873291602 0.50239473290944447
0.2926920822234918 0.17280715531226831 0.4655192630487629
0.30960900386884721 0.25758201305280315 0.44035551868813932
0.3160264635656983 0.26359219183841592 0.48123152221844473
-0.043798139508371872 -0.32378493765656891 0.55272603350642102
-0.045567711244584183 -0.32390394715534021 0.53574418657812561
-0.0042323750657793091 -0.29112407945112123 0.5548940633127033
-0.040917601364001285 -0.32022355211042502 0.5742038868929773
-0.088460051034762649 -0.36212721887445698 0.54869672892691068
-0.089027575673712167 -0.36088328865780661 0.52784764054291822
-0.0086245379668113582 -0.29448970814806352 0.53966457320601369
-0.00070169489506616625 -0.28596292946130908 0.57639089022312984
-0.085788366628653898 -0.3597678069254302 0.57103002238792344
0.082024152492278193 0.025659852391948901 -0.68393855117938696
0.037311159990030637 0.078480985304015149 -0.7129292335249422
0.11958139295602409 0.093412771221965799 -0.66289675541806248
0.123313823465364 -0.017050889597344125 -0.64542794499519052
0.039253437008130734 -0.046377258357816392 -0.69824222461738206
-0.008002069718541286 0.0079539701668942184 -0.73068664882809786
0.078618167969513583 0.14349952661350857 -0.68785731911309211
0.15784388307717181 0.054114010594420753 -0.62805198109389937
0.082554953017900487 -0.090864589586571343 -0.65651559088455724
-0.098146662499116313 -0.25411936378447791 -0.6556788639651443
-0.140777612480846 -0.31090577362121485 -0.62290701218277844
-0.14585027799706798 -0.20615613113494713 -0.69371609028359948
-0.05281203887472613 -0.18933679053641428 -0.68363281675808318
-0.055330378512898903 -0.29428885874758359 -0.60986145903506572
-0.1006742344550661 -0.34711489332806228 -0.57808411677062788
-0.18645732417416905 -0.26843644282739682 -0.66028890559588338
-0.10151754607858288 -0.13736854256919101 -0.72082949938973484
-0.0086559088642916629 -0.23240954025520127 -0.6380563626994662
0.23574965994159372 -0.10969624219497794 -0.4700886946232764
0.19983051397079937 -0.083683961808396851 -0.53879795407173359
0.26321299701458056 -0.036039939565881689 -0.46172435811383089
0.26962919597839996 -0.1297788729106012 -0.39067969447387763
0.20096752297707365 -0.18303635287877851 -0.47278349966930255
0.16286700438208024 -0.15847975293341765 -0.54413895560949266
0.22953040809572714 -0.0090845871019818586 -0.52764326252686544
0.29471164448515863 -0.058320534217583 -0.38521156207309304
0.23729564118147903 -0.20060406841620543 -0.39073512774282754
0.067954956963024157 -0.36970930796062712 -0.41929021126484273
0.01902799302887952 -0.41447700306399943 -0.39009874629675928
0.026630010180804322 -0.35220142905984675 -0.49209023612309377
0.11556890809902316 -0.31535812840260319 -0.4464707688421598
0.10875783479813882 -0.37895195604482895 -0.33701984647210914
0.060229909867529172 -0.4215562817558271 -0.30920292136340854
-0.022167249153772866 -0.39934806266895856 -0.46205405612796246
0.074646331718691977 -0.29524140953256445 -0.51989075873340873
0.15549484686264847 -0.32729553898829356 -0.36300833270300464
0.35541653598748091 -0.14949435715605219 -0.093630872684456926
0.32983632126403539 -0.14896919936532538 -0.19845796572358174
0.37122673593894223 -0.088225097348679865 -0.09769308342473175
0.3774636663284498 -0.14692211619356516 0.0059235601909264756
0.33221112024057314 -0.20849019756612208 -0.085581971400856743
0.30342800105654283 -0.21231204880383153 -0.19280802870637337
0.34892178533559498 -0.084115863471263139 -0.20005553868087372
0.39053432881612571 -0.088844626665137927 0.0027035670348443744
0.35717870353617442 -0.20175592024784389 0.015030802316512985
0.22189586306313641 -0.3560953366928753 -0.039862366893980969
0.1745364469365438 -0.39262425647755683 -0.02077984295988625
0.18654654279715818 -0.37074858057097226 -0.14347569552829184
0.26473236026373004 -0.31289192697101709 -0.05794983575223335
0.25345171821354212 -0.33876438827362537 0.057903789493261651
0.20703626783407852 -0.37276151424721721 0.077443387262733809
0.13879615832802047 -0.40939096841039668 -0.12164642273025134
0.23082166681780256 -0.32468072789539038 -0.16450355414053155
0.29466916570508667 -0.29844682855825266 0.04166744195540463
0.41957410797976402 -0.14470101853748751 0.19036413736966881
0.40869082442111859 -0.14336950933868908 0.14981590938092296
0.42773510162545231 -0.1015260220900271 0.18679369541962615
0.43032896826876427 -0.14756003669242254 0.21806083766032744
0.40503450167648614 -0.18804498576839201 0.2010855993548657
0.3927921029167275 -0.1901631768745155 0.16006608991643784
0.41789405595872686 -0.094856361390762631 0.14754970085232227
0.43816115076026568 -0.10725932155133626 0.21365728609641618
0.41665755071405147 -0.18849299738899633 0.22868932362282857
0.31849857119418845 -0.30097594225171481 0.23655078510878016
0.28194087904739568 -0.32696123768737978 0.25257262834509969
0.301143105613284 -0.30967739311138298 0.19778214707607289
0.35333379666120807 -0.2679774787771092 0.22487929827787076
0.33450122477828653 -0.29570270805426629 0.26278752551494872
0.3001916120414958 -0.32056090477695737 0.27746201917462016
0.2606808448832339 -0.3379978863896107 0.21630393766402975
0.33819611946620709 -0.27458256591089025 0.1846881774398581
0.36758859335712568 -0.26434641299153133 0.25170939538297948
0.42438263477257948 0.0011544634873111997 0.26198442903538405
0.43934888294019231 -0.0075429887317100888 0.27139023042581245
0.42812847862432585 -0.02765980322249887 0.22321648224414387
0.41170292277610265 0.012594411069314713 0.24906840610456976
0.42230236920405112 0.026044108855240583 0.30545122347048548
0.44101193731281596 0.017571273010753743 0.30810509788551527
0.44050542334964971 -0.036457968249468994 0.24043846549552012
0.41778231847205333 -0.015556116628017275 0.19885644046640363
0.40539476796535184 0.03719092850713232 0.30054723444845011
0.20097076155039476 -0.34444828623936224 0.35607474795160654
0.2212774346687629 -0.34759106235569531 0.31264925790584508
0.2208196875493468 -0.34551663032332008 0.36680862054710567
0.18653700433648943 -0.33871722283557437 0.40259096292967256
0.17945250346600061 -0.34677096588662154 0.34284336760664819
0.19810540514946709 -0.35540529961538697 0.29029487418986999
0.24134431712550089 -0.3444360060234864 0.32925859404675251
0.20709614316087155 -0.34423057696657466 0.4088134674188868
0.16430878167281074 -0.33591107512834173 0.3949805918765209
0.29748427494858287 0.63955422696600073 0.2105139675519781
0.29241901615343491 0.62584590587835587 0.278310948097855
0.32276105633046143 0.5839394289312847 0.20028621225258089
0.30281308749699604 0.65506237601854522 0.14124892171443251
0.26445606664535171 0.68811486662028987 0.22934480427576726
0.26353393097087802 0.67386045036231224 0.29240552643840062
0.31348055124834523 0.5727241621016238 0.27287531289850309
0.33397412809385341 0.59586289285866378 0.1226165847431642
0.26487610026374825 0.70492280530044171 0.16605749972953973
-0.49939977165506833 -0.59995921918239581 0.24309859515681953
-0.43320188667439546 -0.59123014443495292 0.26220903083850078
-0.48627927527913128 -0.58532591172041548 0.31269347115207941
-0.56327642866422512 -0.60015583329367606 0.22871423243601746
-0.51389669223279899 -0.6153616035966698 0.17145875108289724
-0.44367125939794749 -0.61298637298527048 0.18752578789330879
-0.42274624069068373 -0.57177248600480968 0.33283591432238596
-0.54926503266651361 -0.59105858060704108 0.29661529438228745
-0.57957120937456019 -0.60950337451710901 0.15914947204518559
-0.12708981910317368 0.31275019863596165 -0.74309072697567768
-0.19215409684798931 0.40294143976541347 -0.72680458151138394
-0.070913339648905865 0.37334134148582832 -0.70749724918371304
-0.066885665286032764 0.22415427210930433 -0.74397602108830885
-0.18476701098104356 0.24204774819523028 -0.77148462075690616
-0.25384288530191323 0.33097134603804235 -0.75889726742715391
-0.13156703106950654 0.46321086884566837 -0.68835150762544983
-0.015895948742502001 0.28562297879682497 -0.71147935403149964
-0.11993881833454799 0.15432774552877054 -0.76880387436669717
-0.33735095855828628 -0.014979357875546672 -0.76476271142451169
-0.37599644167379215 -0.10215047899775907 -0.73738097191057639
-0.4135945775150569 0.057421503658924927 -0.76598788076283997
-0.29195959172122887 0.07496339108994024 -0.78284520485328701
-0.26556074923720308 -0.085186214360822077 -0.74975706713209211
-0.30421908757635929 -0.1632791311176528 -0.71885166996431726
-0.45273926779253471 -0.037881098538309038 -0.74316465325039349
-0.3667599250429644 0.15477400981668832 -0.77928028012429129
-0.22121450568220333 -0.0033643296812734813 -0.7719546054901445
-0.69229283065820912 0.61183074522459713 0.14060826301705992
-0.67982772448920803 0.57831040147162849 0.21486941909447493
-0.6248053472680215 0.68707815560729368 0.16056334821793888
-0.69196285535573776 0.64192189106907205 0.061449220297666002
-0.75725539827729194 0.52793951464703737 0.11149819353346946
-0.7453497527497922 0.49307138653887528 0.18959506278500601
-0.61191427853459779 0.65531134183943807 0.23035846255916081
-0.62519028684792877 0.71539129609084451 0.085808359007944132
-0.75624148613307596 0.55932693142234546 0.028755871378405989
-0.91948030953030713 0.25508719412659675 -0.00022074315768543093
-0.95558436903478428 0.16775707252255351 -0.040571917279857518
-0.90808541475600402 0.22002376439893745 0.079415858768844369
-0.87285048465639259 0.34640947487055079 0.039062044959039262
-0.91854295935834829 0.28605391119356488 -0.082477056050314648
-0.95513558732199499 0.19727091112573741 -0.1196743367030535
-0.94415986250694617 0.13387758609785755 0.036843831555418295
-0.86150586990697098 0.31072853120406108 0.1199358301081398
-0.87151716199822238 0.37825684570062412 -0.045288112203456271
-0.63136402320287743 0.70408860613098534 -0.19990109889981342
-0.66085397184825523 0.6899564620404095 -0.10963606939140619
-0.56881935032413999 0.77238251089432297 -0.16034312910997905
-0.59165806422061651 0.70716753187553794 -0.291739216191439
-0.69234864058802126 0.62501038519367114 -0.24406200292745531
-0.72299984740028933 0.60977345822777573 -0.15003321992832916
-0.59672595959706909 0.75993064817870437 -0.075285446218555152
-0.53029477210796883 0.77383273457819313 -0.24779723048738764
-0.65192887333449878 0.62911989388437539 -0.33869816531200986
-0.85834108588155111 0.34765097086956898 -0.34167730132986407
-0.8993463832577302 0.2534337077355861 -0.36244131571466626
-0.88731189674689148 0.33426466083434148 -0.25421352534719566
-0.80782425912357481 0.44365080375878202 -0.31706365532226388
-0.81968788346324972 0.34922295853198282 -0.42772793661010383
-0.86225330809755174 0.25284303455776613 -0.44150068380017204
-0.92652641195290086 0.2420190101286282 -0.28150165851726044
-0.83820556253328149 0.42880275917484589 -0.2244514262539154
-0.76796046635859483 0.44696297143991132 -0.40874896423797324
-0.40891680509586736 0.62146164860126274 -0.56075145076544852
-0.47882558504029327 0.66677974982550281 -0.47541780122517058
-0.34565794139993966 0.68369273851008872 -0.51451692743676625
-0.33522726866591945 0.56138617693215265 -0.63464485847095431
-0.47230706278218171 0.54609921210643042 -0.60483700572432841
-0.54054526211580356 0.59055211424759768 -0.52235060563454971
-0.41687768619755228 0.73035784272381776 -0.42806379239514808
-0.27116587603930759 0.62254480309309179 -0.59064906418198193
-0.39975332018450838 0.48696772135627742 -0.67486928619065378
-0.64287068088912103 0.25519331389797922 -0.65661811163679329
-0.68537788951223766 0.15191649998531692 -0.65047917550862633
-0.71098826240196422 0.30292211328564361 -0.58816559590364448
-0.59152725261060413 0.3594397671169462 -0.65433791592079515
-0.56892457701252575 0.1959379941735353 -0.71179102932273142
-0.61022023215532395 0.092406707224348308 -0.69975691874467416
-0.75434000398112888 0.20155119430130519 -0.58827969364162946
-0.65878322680968515 0.40522702841514197 -0.58050581963235248
-0.51889977195085291 0.3006369209650534 -0.71476482862892921
-0.040651916755514619 0.75246054226694992 0.46565088397903737
-0.035701283856562453 0.75735119155804387 0.50768417722464898
-0.0075036681881030069 0.76627987658028129 0.45478643443765754
-0.050525039605654687 0.75324488949207191 0.42334868306795609
-0.072611497706496372 0.73335203311928709 0.47173887162695882
-0.068641154368072915 0.73724542193080389 0.5155471424871505
-0.0018375816747153648 0.77126812273502454 0.4953322266125017
-0.017132969058694457 0.76697492888157603 0.41402783444309343
-0.082516988414276238 0.73501351208084498 0.4276151415080951
-0.80041015326751053 -0.43389444673235045 0.29202947757797471
-0.79517937383922521 -0.4633696534516798 0.28808698950072414
-0.80853566678539646 -0.44939374662634157 0.33228581908174148
-0.80006399388020566 -0.40277223904176679 0.29592967352912686
-0.7995873248854215 -0.4165366265962025 0.24645810235091725
-0.79496697757393953 -0.44743610265602662 0.24378197297179857
-0.80228918556736917 -0.47829339933540105 0.32734461263702147
-0.80837259327790556 -0.41803203067720152 0.33786679393572111
-0.79940866372928565 -0.38474749334909497 0.24854056256649038
-0.11929535541478413 0.8101629836712656 0.30086830587542862
-0.091115815403813791 0.78273950202982434 0.34127477473647916
-0.076948138011792289 0.82204903614293146 0.29581140299804354
-0.14731981566643804 0.84068585451064393 0.25892365286177593
-0.16065830945069337 0.79399829411825973 0.30147195560121937
-0.12803983709507227 0.765937251038041 0.34275538480203288
-0.052892808964651872 0.79556601925018078 0.3348804428749021
-0.10081737862018195 0.8513899838789597 0.25516850551516063
-0.19321365149399089 0.82521047896157151 0.25878111158665645
-0.86266052546469174 -0.35197199806163526 0.069508661945338335
-0.85463869881497223 -0.39332192052422998 0.072724709936226234
-0.83214573749842147 -0.37520780141962429 0.13460213349857386
-0.86692583957775016 -0.31047310084071039 0.066777386469119779
-0.89474544196975125 -0.32835241708940133 0.0014850785872162235
-0.88461741797060278 -0.37405345817727903 0.0069928074429137337
-0.82606729312261695 -0.41224516218026364 0.13556293332733921
-0.83436056442493245 -0.33805059333041559 0.13329672205371582
-0.90106134459643095 -0.28231687358891017 -0.0025212365301167557
-0.19437333107002711 0.91489510044465849 0.11113110913304296
-0.18666740198432788 0.89498638366288241 0.1645504792949144
-0.14229626987743751 0.92118601588398841 0.11130132537398182
-0.19468880794085916 0.93016958526664251 0.054193261694173357
-0.24660081209598778 0.90243865833677228 0.10818130091565392
-0.23822840202475093 0.88134740621538366 0.16266262656047442
-0.13508645017598522 0.9028459750605502 0.16343512948760547
-0.14293957627028048 0.93483527018740697 0.055511403169328254
-0.2467316955345944 0.91901608585900119 0.050186027774734174
-0.94805356800943308 -0.26504844339729072 -0.19860114927294967
-0.9348286672824232 -0.31898551716641788 -0.1876427830833379
-0.93985913913327968 -0.28394441739475579 -0.13381791209342611
-0.95692113021931624 -0.21011755367559271 -0.20578508745367338
-0.94814434240415424 -0.24955566273812918 -0.26132224174430846
-0.93495983959255879 -0.30466521724557322 -0.24906984325621442
-0.92699099166336607 -0.33609959472599771 -0.12437533920398898
-0.94857746188611336 -0.23099921236192289 -0.1400129595583145
-0.95676231085834684 -0.19321747436846215 -0.26949857491979307
-0.15512325330236762 0.94719848101527759 -0.13164988396855665
-0.17491145100364516 0.94739491356601624 -0.068333864054039309
-0.10727722277114644 0.94735938507600659 -0.12709004348845671
-0.12855338745311137 0.93807266707072101 -0.19394139505781083
-0.20481912916400991 0.93999153477383057 -0.13862541051628008
-0.22582121609602795 0.93904190199527426 -0.074046907573394466
-0.12468275629353695 0.9487684202492298 -0.065477767352909472
-0.08630141417814477 0.93787341067463614 -0.18518513465570985
-0.17565179829385327 0.93143061491084678 -0.20340135318299468
-0.90898829736696529 -0.232853427264476 -0.43335686076504881
-0.89727160194338684 -0.28866595267792761 -0.41730851321131968
-0.92844121308746064 -0.23236154581053314 -0.38012692646526569
-0.9160575923244485 -0.17383319842336348 -0.44541776826887458
-0.88211576178584472 -0.24113093490826631 -0.47881374337815846
-0.873087247067174 -0.29281112734355891 -0.45985327701374662
-0.91569582306155184 -0.28906719065832198 -0.36570714472699056
-0.93625791586104712 -0.17375183073228923 -0.3905234710063874
-0.88764139225217664 -0.18318670313875751 -0.49342121547424711
0.0018203447035134192 0.83991871965886089 -0.36278083251041388
0.054425772806048003 0.78473221562594542 -0.40943070061776882
-0.035685717440564799 0.82731360248117813 -0.38669256224454818
-0.048866337800935022 0.88478121076408456 -0.31062623894539254
0.031494018262089238 0.85216971412848197 -0.33246597378207737
0.083141486048768892 0.80299346749969247 -0.3755930439017624
0.019609821967087989 0.7686383346403971 -0.43725696758062843
-0.089431971396961712 0.87536824648900169 -0.32921292027434007
-0.016848414439837742 0.89087682434560778 -0.28746290310304112
-0.74886228061836235 -0.33256735362409834 -0.54785989620610787
-0.74464850006555294 -0.28032255386621446 -0.57541619117722198
-0.68943170817113197 -0.37612558329866663 -0.54959685134126102
-0.75570063349184113 -0.37708631440815366 -0.51508194450958711
-0.8018168599972415 -0.29214955615832577 -0.53652287940450338
-0.80141764824670148 -0.23789906398479671 -0.55931765591636351
-0.68174183734516036 -0.32614404305805295 -0.58103490003770797
-0.70091905836697788 -0.42039944753702835 -0.51420510615627091
-0.80278541678042348 -0.33728143351477491 -0.50837200952390282
-0.17434352901279454 0.78766574428686131 -0.43065658181354921
-0.22749757988336605 0.7652985972001326 -0.44782470925490453
-0.24023765003377781 0.83749967065014164 -0.35518925459272471
-0.124817704285949 0.80288606215239322 -0.41792226301979146
-0.10630631001544755 0.72523209842233916 -0.49815971518432189
-0.15574020415429016 0.7028001341340594 -0.52058617099178517
-0.29680754259183056 0.81447867076034985 -0.36654155558678836
-0.18653650760700879 0.85282385248973858 -0.34904788219881033
-0.061199607538874573 0.74107716598646722 -0.4792421237502969
-0.7414025082845852 -0.099217817619677393 -0.62389469754421256
-0.80698524375592662 -0.049745375883885654 -0.58614259748299991
-0.73390053666881072 -0.026992686809563939 -0.63262024157681473
-0.66933699635976163 -0.15445428025531244 -0.65006983841954891
-0.74304059330679428 -0.16366148239796102 -0.61273638632304173
-0.80576153150877683 -0.11617206753467552 -0.58347504876055289
-0.8017419804226279 0.023696868583290551 -0.58606680429912905
-0.65954146247368783 -0.084586088877596138 -0.66716855516227125
-0.6739411859739417 -0.21597076053388664 -0.63082201076361044
-0.37729032025931974 0.89531654122124338 -0.12767968298526561
-0.44086436996774647 0.86747486045709454 -0.12417202609725146
-0.40087117307514353 0.88925786143760954 -0.056525944320748193
-0.31583492723184403 0.91446313397986045 -0.13603232373980251
-0.34368243148448774 0.89081541001741904 -0.20113389420130304
-0.40551732857898837 0.86493161161781473 -0.20189066017661803
-0.46566091409092869 0.85923940270619914 -0.049233490161868551
-0.33839328542176167 0.91043756240121632 -0.067849104129555068
-0.28391185063878549 0.90821316907956928 -0.20581424739360688
-0.93844786465874341 0.015272375174032807 -0.42561069212385272
-0.96110880615284566 0.010479933201039626 -0.36183893441094606
-0.93872945453204071 0.086326944162257044 -0.40465053806932288
-0.90626778124673835 0.0088603551137077102 -0.48516127456477454
-0.93133352200906261 -0.050330342767663162 -0.44175322426697539
-0.95301062032592965 -0.053169321409903054 -0.38180834053632873
-0.96260321428039453 0.07938533785386559 -0.33613076141609782
-0.9049929077526182 0.081557589205922043 -0.4698995262413011
-0.90058181646224222 -0.058067732174860581 -0.49649049774484244
-0.42336763553822787 0.83629818701960645 0.14264974003123487
-0.48902720471639616 0.79945817812846232 0.15975500451308991
-0.41190247862641721 0.81059273465769521 0.20191512057262914
-0.36044896210572169 0.86390663068789209 0.12370460930078786
-0.4240885481838948 0.85808692724168223 0.079127704213453734
-0.4899704738894865 0.82346439414834327 0.093182642555436651
-0.47662156706653547 0.77174022593054392 0.22173494385939149
-0.35010848695080282 0.84005367724076507 0.18089359104860564
-0.36084454348736644 0.88362484062174607 0.06259937710499737
-0.98440060346366298 -0.043610207656813983 -0.15781730539885647
-0.97446772335249154 -0.071457606839282956 -0.087712236549715328
-0.98697694769179078 0.018160105552682951 -0.12156205700337878
-0.98423028616918562 -0.02056279194250081 -0.22709434550640054
-0.97556911634765253 -0.10039514699474965 -0.18637443279745361
-0.96640569586943448 -0.12583158916027315 -0.11815495618158886
-0.97628651578931924 -0.011994823542207527 -0.049241389283819499
-0.98694187607056505 0.043563160354206654 -0.1937914859168636
-0.97523375089644349 -0.07966853980047689 -0.25317265369988728
-0.303538500550667 0.71500872288690764 0.34669539689545803
-0.36025570571209109 0.67227279736319034 0.37166427350930742
-0.2584587480794226 0.68543046650478656 0.38730405181840982
-0.25139136427393499 0.74783087761077105 0.32296297805859153
-0.34916472907269452 0.7480933565886837 0.30351593813534267
-0.40923652562148105 0.70626626235034073 0.32741792752903076
-0.31180949305869121 0.64209368032943459 0.41240380533878757
-0.21013171564375702 0.71878527315535856 0.36407393826994261
-0.29300555390002836 0.78016084701834487 0.28000491919968823
-0.87485772527757599 -0.17919805923588494 0.12252027049902367
-0.83455648083631184 -0.2156679994877308 0.18742817233301615
-0.87018999002104069 -0.12606948210301622 0.16207752609844664
-0.9167685834112127 -0.14090684974685824 0.053653037971635537
-0.87357291508488388 -0.22570329341047407 0.091315918510966196
-0.83607797547616747 -0.26004567255283151 0.15759210742290469
-0.82712396305656877 -0.16411618548458995 0.22538844894056984
-0.91482069651360942 -0.085843705231925832 0.093834393460115822
-0.91263962113244101 -0.19000218980115813 0.021843700882680301
-0.19126799582767212 0.64698985481278992 0.50995828470774729
-0.19189567256752788 0.6482916297231841 0.55137709839352578
-0.14664783773166468 0.68157396583442409 0.49240111688143873
-0.20009554817537104 0.65097576928083767 0.46834169301941481
-0.23978551641326476 0.60328693887058693 0.52870443685052493
-0.24286864568603911 0.60514611045218991 0.56743661055854866
-0.14539006488394252 0.68322222276872524 0.53608133107179312
-0.15585936723604257 0.6851673367902974 0.44840956021883771
-0.24870675709578013 0.60712844773536723 0.49003226217347501
-0.78918249407837493 -0.28736567406019975 0.3412438390246757
-0.79464430460252145 -0.33083065353896013 0.31908025976437021
-0.79817707501945367 -0.29914310289702362 0.38009980037538549
-0.77736582111669483 -0.23696073537236662 0.36919452568131367
-0.78973419971788705 -0.27055559653991418 0.2971174022666927
-0.79488510689048764 -0.31334365385355073 0.27202047760584247
-0.80288971395247499 -0.34401822547064914 0.36075660465121206
-0.78827068155411562 -0.24735902529554121 0.40415000364488546
-0.77817440748889155 -0.22052625903461909 0.32901903720587794
-0.55516355672730444 0.46476049998399216 0.40409198021779696
-0.49965247404023111 0.43098038076395023 0.45588793185903664
-0.48754899742258873 0.54678844125454495 0.40305440789173635
-0.60858779211630698 0.50284244917119447 0.34676852228184046
-0.62142528784977935 0.3742564186204686 0.39560032235678272
-0.56352031171516659 0.33606750483382231 0.45702786088250097
-0.4340862378922839 0.51507686542273079 0.44868053160259713
-0.54033006070397571 0.58314320085491134 0.35177679952286961
-0.67522915216752755 0.41477678672997392 0.33122230190941387
-0.79061005143707563 0.095971403810653319 0.29931655578324495
-0.8292165471492764 0.011675980891308925 0.2534363470099632
-0.74018433071331813 0.054515232263573021 0.36178379362902036
-0.74144840465333928 0.18624748734845759 0.34170335695897069
-0.84066052550244352 0.13903929770580864 0.23019322719157939
-0.87778287063703986 0.054209241163669514 0.18517864157935124
-0.78155095220877169 -0.028709540333408553 0.31468349653297251
-0.68645411481513474 0.14365174517617113 0.4085431991703834
-0.79339767067777311 0.22952069934859748 0.27128197591877867
-0.44907904436316703 0.42180077973105046 0.63280727156148742
-0.46684763926273309 0.37378065286141965 0.63452234739967928
-0.48656047379861855 0.42451391336092059 0.64449339804998806
-0.43356077213079292 0.46820728378117282 0.63871950671812305
-0.4139113576631871 0.41721143592134757 0.62150939597041766
-0.43594389927124028 0.35605437295118292 0.62349462958972524
-0.49932286451887142 0.3866461550671012 0.64577163405465821
-0.47392324311717138 0.46022940525538658 0.65005448327665083
-0.39067579492436544 0.47761256343345049 0.62647220641604195
-0.74451110803491372 -0.040507929680562348 0.52096025057656292
-0.77472413016664221 -0.026578660990760526 0.52827911957106344
-0.70767438193735877 -0.0030683912045342057 0.54378196277231883
-0.71441391492605799 -0.052868075373964277 0.51496649151800211
-0.78290571064765502 -0.07848213056445652 0.50572342112644364
-0.80394462752376017 -0.056394280922171441 0.51672714240651718
-0.74501925784010592 0.0020401388231492332 0.54704434232092392
-0.66672658402785345 -0.0049439866296029297 0.54245721576350769
-0.76203719187397456 -0.10332401383889137 0.49430360113673188
-0.38870845320621994 0.40002065868953618 0.56492560203823539
-0.3805066979218843 0.40493580925076034 0.58887554691596922
-0.34120904287916615 0.47747408490313026 0.55687072420153272
-0.412104079451098 0.39876949103825254 0.53613338533270127
-0.42929264564995456 0.32276083373590847 0.57144124594066348
-0.41332620035330409 0.33021040070814522 0.59312090020636599
-0.34017032261460356 0.48106389326604282 0.58602771587738611
-0.35704576481644418 0.48004016829282192 0.52488262180662226
-0.46219499790742508 0.31178350644553005 0.54532104468130971
-0.67004289441919473 -0.039845265130539965 0.47545088939068975
-0.71726133915383694 -0.11046695780873267 0.43797492864078685
-0.67438734239828668 -0.054570687946791457 0.49423847282255284
-0.61860786225050535 0.026783853564445709 0.51200222767601189
-0.67698487166318522 -0.015416772189870524 0.44988283060204742
-0.72237591199279239 -0.091191004712008167 0.40693753849987013
-0.72583638382765792 -0.12195214465961184 0.46206293016600736
-0.61990077084190609 0.0072383390965984687 0.52774522530746881
-0.62288049880808682 0.060536737173111047 0.49348999126296517
-0.46201388000590454 0.1921759905145653 0.58643501222981098
-0.44864121318349948 0.18818806469537019 0.59748427091940637
-0.46435464946674981 0.21353087727911063 0.58186109769854011
-0.47495810131439403 0.17626219695403506 0.57990042770815386
-0.45656249761555406 0.16587575993361747 0.59425055767401203
-0.44455577910342226 0.21984982857695362 0.59836302842072064
-0.49257592309357512 0.19661166881869957 0.56646058609670336
-0.50862184383775177 0.11935112246738029 0.57364034563200383
-0.53147405561232097 0.10864056018449157 0.56275748966612316
-0.49741707111554095 0.11198148230306108 0.58434000385033658
-0.49958195337275402 0.13779248718468096 0.573338749279795
-0.52964162022819627 0.13868626734146838 0.5559427228589382
-0.52770165444100536 0.089909971974297689 0.57453902589198247
-0.47895365634388487 0.13089888050184922 0.5884990124387981
0.12610565758782555 0.76935457358470749 0.34947632322173622
0.13199426300282052 0.76477664562883685 0.39674026603502799
0.17669723268599274 0.75359389632438556 0.3013886514715951
0.11844518496949356 0.77845176555861539 0.30207863323547335
0.076040530028315331 0.77574703212517437 0.39591670573813942
0.082305754423511679 0.7757791831655263 0.43889858578266033
0.18142938110002621 0.74439387291884673 0.35394462232915891
0.17069614343385051 0.76664312650960986 0.2486857777522703
0.067399875515731691 0.78081471342264108 0.35279753439103156
-0.72025150683634276 -0.55019813439876353 0.24641286807169166
-0.67540146603170748 -0.57416523383661899 0.23088795290976116
-0.71572197971919871 -0.55679507938221673 0.29797993847626308
-0.7559855766140926 -0.52213358517194419 0.26460234540322902
-0.72955344405758371 -0.54382715199439391 0.19141504983536964
-0.68861134060467488 -0.57253005825486292 0.1695098143581826
-0.66606797505901316 -0.57606741425267982 0.28949658662442368
-0.75649927473794565 -0.53260708569329906 0.30957382549014817
-0.76109931994261304 -0.51171129571317497 0.21555378982650647
0.078108032362333324 0.83125639999033962 0.18613217768998283
0.13594611401625498 0.81864561465964314 0.12808724827664458
0.062393178798568066 0.8521074403963157 0.15237415919426628
0.021652776178136688 0.83399413059875049 0.2386988901452437
0.093967134152046647 0.81050721728897701 0.22027705883381804
0.14991114452319784 0.80025981696546189 0.16191498294324203
0.12235162888844082 0.83651723668704003 0.094591240282029643
0.0038395976985376688 0.85826519822086744 0.20276712427908747
0.03958328450780875 0.81091570835581706 0.27425016504264838
-0.78627446443089555 -0.51757965060775435 0.028227225162936742
-0.80782094883249689 -0.50623180859001027 -0.024583899089918339
-0.74491301693012446 -0.55505463165218583 0.0049915552852964687
-0.7639524178515823 -0.52784502227339236 0.081379020392532114
-0.81793259262237739 -0.47689187449946668 0.052056554753968205
-0.84255018495834189 -0.46369384751074283 -0.0053721649362494968
-0.7637010566671506 -0.54563310606861781 -0.0449772291755784
-0.72469378689686403 -0.56332830004349232 0.055687631411712679
-0.79344656563327931 -0.48930001009080465 0.10850594396226672
0.029325215984433248 0.8945792261233253 0.034040183118770516
0.084913754864571478 0.87514132389021049 -0.011361454414305035
0.027155008384981843 0.89950055136571005 -0.014627916351345882
-0.029639207631694035 0.91039159256785573 0.073537380612248834
0.036729490546808352 0.88496697431976157 0.077681929538095246
0.095144936090520216 0.86599246024399346 0.026513438712476179
0.081808276566481847 0.87886510349793889 -0.055489539014800977
-0.031172325634527771 0.91833033294363198 0.021589300274240709
-0.023043244344484366 0.89790048268933453 0.12117005381631926
-0.84196524010740992 -0.46628907642702333 -0.18095932779860094
-0.83993865741308127 -0.4549052753222948 -0.2327087449540006
-0.80010797689832602 -0.50626223369656032 -0.18910253551303313
-0.83717598976896634 -0.47978726539848249 -0.12911549124265501
