# XYZ point cloud file
0.75343811511993408 -0.3542046844959259 0.54477483034133911
0.77544945478439331 -0.32655021548271179 0.52911770343780518
0.8664279580116272 -0.16865728795528412 0.4102039635181427
0.87499368190765381 -0.14641374349594116 0.3920900821685791
0.88008183240890503 -0.12596188485622406 0.37702783942222595
0.88034367561340332 -0.1045931875705719 0.3935205340385437
0.87350720167160034 -0.10371533036231995 0.42259630560874939
0.86106312274932861 -0.10478276014328003 0.45263990759849548
0.84703874588012695 -0.12192660570144653 0.48546019196510315
0.845955491065979 -0.13684473931789398 0.49119967222213745
0.84136408567428589 -0.15306425094604492 0.49980795383453369
0.69500899314880371 -0.36574795842170715 0.63533526659011841
0.67962789535522461 -0.37860205769538879 0.64437341690063477
0.66403281688690186 -0.38801014423370361 0.65260189771652222
0.64339512586593628 -0.4212721586227417 0.65130287408828735
0.63771510124206543 -0.44644856452941895 0.63960462808609009
0.63004744052886963 -0.46834182739257812 0.62497550249099731
0.64132356643676758 -0.47279119491577148 0.60031235218048096
0.66287177801132202 -0.45445200800895691 0.59208756685256958
0.68487143516540527 -0.43224737048149109 0.58241367340087891
0.87546819448471069 -0.09125441312789917 0.3605683445930481
0.86453813314437866 -0.076427288353443146 0.35982176661491394
0.84766960144042969 -0.062250629067420959 0.36342701315879822
0.83204972743988037 -0.045855816453695297 0.40056765079498291
0.82674914598464966 -0.04611973837018013 0.43338581919670105
0.81171774864196777 -0.048893045634031296 0.46770533919334412
0.80849850177764893 -0.0666084885597229 0.49401524662971497
0.82412451505661011 -0.079774856567382812 0.48782312870025635
0.83614712953567505 -0.093561604619026184 0.48391816020011902
0.62859731912612915 -0.39564955234527588 0.66822540760040283
0.60826659202575684 -0.39418455958366394 0.67569732666015625
0.58674055337905884 -0.38988584280014038 0.68251389265060425
0.5604901909828186 -0.41529196500778198 0.67858725786209106
0.55397129058837891 -0.44380736351013184 0.66468828916549683
0.54351973533630371 -0.46645897626876831 0.6460539698600769
0.55419677495956421 -0.48966920375823975 0.61955010890960693
0.57767587900161743 -0.49384230375289917 0.61639612913131714
0.59930133819580078 -0.49281942844390869 0.61233127117156982
0.79554992914199829 -0.032747387886047363 0.38178503513336182
0.76074254512786865 -0.016977090388536453 0.39502385258674622
0.72088384628295898 -0.00096977129578590393 0.40958952903747559
0.69135916233062744 0.013967752456665039 0.45378789305686951
0.69414174556732178 0.0089043080806732178 0.48448279500007629
0.68793582916259766 0.00031735002994537354 0.5151030421257019
0.71325993537902832 -0.022216107696294785 0.53188526630401611
0.74375766515731812 -0.032690964639186859 0.52074766159057617
0.76878291368484497 -0.0432099848985672 0.51076114177703857
0.54174256324768066 -0.37484526634216309 0.69289284944534302
0.51701521873474121 -0.36427584290504456 0.69625604152679443
0.4885847270488739 -0.35121533274650574 0.69856637716293335
0.44074234366416931 -0.36219263076782227 0.68963927030563354
0.42494598031044006 -0.38589188456535339 0.67422407865524292
0.40658476948738098 -0.40376582741737366 0.65299385786056519
0.4255906343460083 -0.4335252046585083 0.62623405456542969
0.46318796277046204 -0.45209071040153503 0.62579202651977539
0.49734929203987122 -0.4681263267993927 0.6242867112159729
0.628348708152771 0.030431713908910751 0.43855398893356323
0.57871216535568237 0.044753421097993851 0.45157021284103394
0.53010421991348267 0.057170037180185318 0.46314457058906555
0.49310025572776794 0.06541895866394043 0.50483942031860352
0.49341359734535217 0.058996777981519699 0.53714263439178467
0.48778876662254333 0.048527862876653671 0.56812524795532227
0.52718245983123779 0.024725072085857391 0.58477020263671875
0.57898527383804321 0.013093158602714539 0.57168561220169067
0.62976181507110596 0.00082392990589141846 0.55783295631408691
0.41395607590675354 -0.31624150276184082 0.70051795244216919
0.36940106749534607 -0.29543322324752808 0.70030480623245239
0.32442894577980042 -0.27434349060058594 0.69933086633682251
0.26638299226760864 -0.27868747711181641 0.6827235221862793
0.25013959407806396 -0.30057463049888611 0.66246312856674194
0.23384907841682434 -0.31783831119537354 0.63723623752593994
0.25525131821632385 -0.34856852889060974 0.61314451694488525
0.29723221063613892 -0.3699762225151062 0.61828696727752686
0.34124463796615601 -0.39174509048461914 0.62245863676071167
0.17567211389541626 0.11413678526878357 0.65488147735595703
0.20307016372680664 0.11840659379959106 0.60897248983383179
0.22247567772865295 0.12020266056060791 0.56580603122711182
0.23814690113067627 0.14991447329521179 0.52173125743865967
0.24780756235122681 0.18759499490261078 0.51108121871948242
0.26012539863586426 0.23054353892803192 0.49918389320373535
0.26073890924453735 0.27753371000289917 0.51690632104873657
0.24361133575439453 0.27993306517601013 0.54777908325195312
0.2228621244430542 0.28254112601280212 0.57768678665161133
0.18525466322898865 0.24068059027194977 0.62356060743331909
0.16715359687805176 0.19619235396385193 0.64766186475753784
0.14866876602172852 0.15196441113948822 0.67394578456878662
-0.059327498078346252 -0.15956930816173553 0.71326261758804321
-0.099157370626926422 -0.20284290611743927 0.69537699222564697
-0.13904134929180145 -0.2454192042350769 0.67866164445877075
-0.16592642664909363 -0.30009651184082031 0.64591789245605469
-0.15352381765842438 -0.31482741236686707 0.62386089563369751
-0.14390896260738373 -0.32815536856651306 0.5997614860534668
-0.096121929585933685 -0.30221220850944519 0.58015727996826172
-0.056310012936592102 -0.26696044206619263 0.5842207670211792
-0.020599205046892166 -0.23661336302757263 0.58745568990707397
0.0078874155879020691 -0.20024614036083221 0.62219876050949097
0.0038261041045188904 -0.17926168441772461 0.65912812948226929
-0.0025628171861171722 -0.15232047438621521 0.69683635234832764
0.27991339564323425 0.32022172212600708 0.48131754994392395
0.28399196267127991 0.36433783173561096 0.47657278180122375
0.2839457094669342 0.40849438309669495 0.47302332520484924
0.26986563205718994 0.45625379681587219 0.49494212865829468
0.25418233871459961 0.45783898234367371 0.52070510387420654
0.23509973287582397 0.45666787028312683 0.54524099826812744
0.21911552548408508 0.41219320893287659 0.57107043266296387
0.21793234348297119 0.37106150388717651 0.57787024974822998
0.2117883563041687 0.3285297155380249 0.5883023738861084
-0.22188112139701843 -0.32218080759048462 0.65094614028930664
-0.26537811756134033 -0.35463464260101318 0.63941347599029541
-0.31000986695289612 -0.38292834162712097 0.62798511981964111
-0.35014590620994568 -0.42318251729011536 0.6016463041305542
-0.34127950668334961 -0.43692308664321899 0.58548712730407715
-0.33171802759170532 -0.44730070233345032 0.56712538003921509
-0.27411589026451111 -0.42853850126266479 0.55902820825576782
-0.22687971591949463 -0.40120923519134521 0.56696510314941406
-0.18187373876571655 -0.37122592329978943 0.57203871011734009
0.27073070406913757 0.4984937310218811 0.46472889184951782
0.25611940026283264 0.54311919212341309 0.46233499050140381
0.23449608683586121 0.58534973859786987 0.46583911776542664
0.19460487365722656 0.61896228790283203 0.5051499605178833
0.17988774180412292 0.60989212989807129 0.53232431411743164
0.16310021281242371 0.59718358516693115 0.55803209543228149
0.17179280519485474 0.55451548099517822 0.5703234076499939
0.19149404764175415 0.52336585521697998 0.5656246542930603
0.20596429705619812 0.48883843421936035 0.56486964225769043
-0.40192908048629761 -0.42641091346740723 0.6011088490486145
-0.44841647148132324 -0.44116112589836121 0.58607488870620728
-0.49444028735160828 -0.45087563991546631 0.57197403907775879
-0.54636061191558838 -0.47461676597595215 0.54031944274902344
-0.54996997117996216 -0.49250093102455139 0.51778781414031982
-0.55091416835784912 -0.50685948133468628 0.49402129650115967
-0.49147242307662964 -0.5090516209602356 0.48637592792510986
-0.43377804756164551 -0.49539795517921448 0.50676369667053223
-0.37771567702293396 -0.47632515430450439 0.52799952030181885
0.1651918888092041 0.65619254112243652 0.50472879409790039
0.12027423828840256 0.68179190158843994 0.53805148601531982
0.073874481022357941 0.69897013902664185 0.57314497232437134
0.027467120438814163 0.69648861885070801 0.62396419048309326
0.024446278810501099 0.68077170848846436 0.63937896490097046
0.021642584353685379 0.66109967231750488 0.65032768249511719
0.050798051059246063 0.63345742225646973 0.6361469030380249
0.083957850933074951 0.62156063318252563 0.61513185501098633
0.1167975440621376 0.60414808988571167 0.59567403793334961
-0.58264321088790894 -0.45406702160835266 0.55256849527359009
-0.62228292226791382 -0.44833928346633911 0.54850864410400391
-0.65637999773025513 -0.43916711211204529 0.54787248373031616
-0.70447683334350586 -0.44182059168815613 0.53380280733108521
-0.72277134656906128 -0.45454984903335571 0.51361298561096191
-0.73628491163253784 -0.46422100067138672 0.49102070927619934
-0.70870846509933472 -0.48882368206977844 0.46230360865592957
-0.66233569383621216 -0.50405550003051758 0.46003350615501404
-0.60811895132064819 -0.51347804069519043 0.46213075518608093
-0.0072881672531366348 0.70244812965393066 0.62620687484741211
-0.041323691606521606 0.68930882215499878 0.64111799001693726
-0.075387313961982727 0.6688724160194397 0.65169000625610352
-0.11046461760997772 0.63651365041732788 0.6825529932975769
-0.10576401650905609 0.62618577480316162 0.69980877637863159
-0.09970557689666748 0.61314857006072998 0.71111756563186646
-0.059865996241569519 0.61856436729431152 0.70274645090103149
-0.032153487205505371 0.63204586505889893 0.68915873765945435
-0.0067574828863143921 0.63896262645721436 0.67395448684692383
-0.7002376914024353 -0.41479170322418213 0.5558617115020752
-0.71019876003265381 -0.3988606333732605 0.56370347738265991
-0.71501690149307251 -0.37802585959434509 0.57340109348297119
-0.7357218861579895 -0.35529321432113647 0.56970506906509399
-0.7516980767250061 -0.35780811309814453 0.54871726036071777
-0.76318758726119995 -0.35819438099861145 0.52373397350311279
-0.77108073234558105 -0.39099603891372681 0.48778384923934937
-0.77045565843582153 -0.4208672046661377 0.47981688380241394
-0.76261240243911743 -0.44676893949508667 0.47300022840499878
-0.15677021443843842 0.61396807432174683 0.67003172636032104
-0.20563012361526489 0.58306854963302612 0.67975175380706787
-0.25759875774383545 0.55200862884521484 0.68903303146362305
-0.31148844957351685 0.51353323459625244 0.72103595733642578
-0.30711051821708679 0.50231105089187622 0.74036568403244019
-0.29802224040031433 0.49012261629104614 0.75344985723495483
-0.23497721552848816 0.5087239146232605 0.74956619739532471
-0.18432959914207458 0.5407148003578186 0.7391512393951416
-0.13596260547637939 0.57154685258865356 0.72761750221252441
-0.71773439645767212 -0.31441923975944519 0.59624147415161133
-0.71842676401138306 -0.27326813340187073 0.60833525657653809
-0.71956580877304077 -0.23045346140861511 0.62018722295761108
-0.74230057001113892 -0.18864567577838898 0.6169934868812561
-0.7588273286819458 -0.18818828463554382 0.59555000066757202
-0.77010989189147949 -0.18778416514396667 0.56962728500366211
-0.76981872320175171 -0.23061864078044891 0.53072899580001831
-0.76745927333831787 -0.27457061409950256 0.51911580562591553
-0.76724201440811157 -0.31718915700912476 0.50767672061920166
-0.36385208368301392 0.49581533670425415 0.70385849475860596
-0.41388291120529175 0.4710269570350647 0.70874929428100586
-0.45851349830627441 0.44676777720451355 0.71189409494400024
-0.4906826913356781 0.41362524032592773 0.73736733198165894
-0.47729521989822388 0.40474709868431091 0.7573091983795166
-0.45639902353286743 0.39603433012962341 0.77099674940109253
-0.40244495868682861 0.40871864557266235 0.77431678771972656
-0.36888545751571655 0.4296431839466095 0.77073478698730469
-0.32932528853416443 0.45243197679519653 0.76549351215362549
-0.7258526086807251 -0.15353973209857941 0.6410975456237793
-0.72968447208404541 -0.12218014895915985 0.65008085966110229
-0.73132979869842529 -0.094634398818016052 0.65867191553115845
-0.75434303283691406 -0.060658901929855347 0.65478402376174927
-0.77499508857727051 -0.051960892975330353 0.63475435972213745
-0.78931128978729248 -0.044788651168346405 0.60976284742355347
-0.79675298929214478 -0.072194233536720276 0.57161521911621094
-0.79146641492843628 -0.10772307217121124 0.5617142915725708
-0.78312265872955322 -0.14613956212997437 0.55202096700668335
-0.52156883478164673 0.3948054313659668 0.71274840831756592
-0.53707528114318848 0.36636227369308472 0.71085619926452637
-0.54134398698806763 0.33696609735488892 0.70801436901092529
-0.52695387601852417 0.30285897850990295 0.72931486368179321
-0.51080340147018433 0.30009523034095764 0.75035244226455688
-0.48742321133613586 0.29877534508705139 0.76557672023773193
-0.46392565965652466 0.32268431782722473 0.77493220567703247
-0.46047350764274597 0.34547960758209229 0.77641212940216064
-0.44879701733589172 0.36733675003051758 0.77697068452835083
-0.7201237678527832 -0.048236075788736343 0.67644935846328735
-0.70479243993759155 -0.02872774563729763 0.68586510419845581
-0.6823112964630127 -0.011721204966306686 0.69534921646118164
-0.67086291313171387 0.017727028578519821 0.6961635947227478
-0.68574458360671997 0.031819198280572891 0.6800687313079834
-0.69591760635375977 0.043564420193433762 0.65836513042449951
-0.73774588108062744 0.035263653844594955 0.62058335542678833
-0.76617521047592163 0.014350529760122299 0.60753214359283447
-0.7855948805809021 -0.010816298425197601 0.59455633163452148
-0.51450365781784058 0.27738481760025024 0.70127075910568237
-0.48801013827323914 0.24845345318317413 0.69783264398574829
-0.45951357483863831 0.22107864916324615 0.69437026977539062
-0.42855200171470642 0.19314424693584442 0.71525150537490845
-0.41673952341079712 0.19254925847053528 0.73602217435836792
-0.40061473846435547 0.19442038238048553 0.75144964456558228
-0.40270408987998962 0.2231358140707016 0.76373869180679321
-0.42462998628616333 0.24832622706890106 0.76721334457397461
-0.44446858763694763 0.27380189299583435 0.77021968364715576
-0.61390823125839233 0.014659866690635681 0.7136693000793457
-0.57088488340377808 0.024850223213434219 0.72183287143707275
-0.5265083909034729 0.034169819205999374 0.72871458530426025
-0.49111366271972656 0.056350883096456528 0.72689402103424072
-0.49845024943351746 0.067806124687194824 0.71247506141662598
-0.50472944974899292 0.076783329248428345 0.69223296642303467
-0.55413669347763062 0.076294854283332825 0.66169720888137817
-0.60427367687225342 0.070319831371307373 0.65374630689620972
-0.65451663732528687 0.062617495656013489 0.64412581920623779
-0.41664063930511475 0.17394840717315674 0.68743538856506348
-0.40707764029502869 0.15463587641716003 0.68412691354751587
-0.40513572096824646 0.13776727020740509 0.68112218379974365
-0.40453597903251648 0.11927540600299835 0.70190072059631348
-0.39250466227531433 0.11436693370342255 0.72139948606491089
-0.37436774373054504 0.10838039219379425 0.73597812652587891
-0.34763860702514648 0.13106140494346619 0.74701052904129028
-0.35523074865341187 0.15439115464687347 0.75083756446838379
-0.36655059456825256 0.17653581500053406 0.75528013706207275
-0.44727510213851929 0.053586710244417191 0.73678946495056152
-0.41382214426994324 0.065225407481193542 0.73863786458969116
-0.38182252645492554 0.079077571630477905 0.74051672220230103
-0.42323049902915955 0.1101866215467453 0.67661523818969727
-0.44347447156906128 0.099129378795623779 0.67460685968399048
-0.47175398468971252 0.089828774333000183 0.67188769578933716
-0.36344677209854126 0.20637992024421692 0.75921785831451416
-0.34486404061317444 0.21559275686740875 0.75306767225265503
-0.32688751816749573 0.2255195826292038 0.74459052085876465
-0.32035937905311584 0.25272774696350098 0.73815488815307617
-0.32792243361473083 0.27112552523612976 0.73867654800415039
-0.33242610096931458 0.28967747092247009 0.73875075578689575
-0.36173078417778015 0.30510711669921875 0.74871999025344849
-0.39352047443389893 0.30243155360221863 0.76044380664825439
-0.42664167284965515 0.30019435286521912 0.76976865530014038
-0.63061237335205078 -0.011639006435871124 0.70367974042892456
-0.60806769132614136 -0.025219686329364777 0.69675320386886597
-0.58646231889724731 -0.037763942033052444 0.68752485513687134
-0.54688066244125366 -0.037132915109395981 0.68663322925567627
-0.52313870191574097 -0.026232827454805374 0.69347000122070312
-0.49731913208961487 -0.016669046133756638 0.69970965385437012
-0.47258561849594116 0.0037692859768867493 0.71384638547897339
-0.47537332773208618 0.016861841082572937 0.72391337156295776
-0.47908124327659607 0.030198942869901657 0.73172163963317871
-0.33131757378578186 0.3248608410358429 0.73808324337005615
-0.32537731528282166 0.34121757745742798 0.73743528127670288
-0.31572005152702332 0.35718032717704773 0.73652917146682739
-0.33083057403564453 0.37542185187339783 0.74664759635925293
-0.36353212594985962 0.37848192453384399 0.76002705097198486
-0.39735916256904602 0.38266292214393616 0.77131545543670654
-0.69982582330703735 -0.079965859651565552 0.66980236768722534
-0.66986310482025146 -0.089527308940887451 0.66596537828445435
-0.64136767387390137 -0.098517119884490967 0.65952038764953613
-0.60902160406112671 -0.090102896094322205 0.66004723310470581
-0.59846210479736328 -0.075232610106468201 0.66627037525177002
-0.58479881286621094 -0.061645902693271637 0.6728055477142334
-0.28487652540206909 0.38921317458152771 0.73380422592163086
-0.26361081004142761 0.40634718537330627 0.73144727945327759
-0.23846903443336487 0.42521408200263977 0.72775709629058838
-0.22698622941970825 0.45284247398376465 0.73128056526184082
-0.24677106738090515 0.4600335955619812 0.74315905570983887
-0.26665112376213074 0.46843850612640381 0.75363469123840332
-0.69866997003555298 -0.19070260226726532 0.63573557138442993
-0.67467820644378662 -0.19236139953136444 0.63421791791915894
-0.65166908502578735 -0.19418737292289734 0.63058561086654663
-0.62861686944961548 -0.16911795735359192 0.63658428192138672
-0.62576967477798462 -0.14557604491710663 0.64305615425109863
-0.62210375070571899 -0.12488351762294769 0.64872056245803833
-0.17661574482917786 0.47111397981643677 0.71437168121337891
-0.1420096755027771 0.49642926454544067 0.70498889684677124
-0.10773909091949463 0.52004522085189819 0.69490188360214233
-0.078853636980056763 0.55293750762939453 0.69271647930145264
-0.082806795835494995 0.56767123937606812 0.70269250869750977
-0.087661817669868469 0.58305144309997559 0.71139144897460938
-0.69655472040176392 -0.34320574998855591 0.59060364961624146
-0.67610716819763184 -0.33447813987731934 0.59142285585403442
-0.65666067600250244 -0.32530787587165833 0.59006160497665405
-0.64028447866439819 -0.28954228758811951 0.59802377223968506
-0.63847565650939941 -0.25870448350906372 0.60814690589904785
-0.63514548540115356 -0.22668881714344025 0.61879551410675049
-0.048569492995738983 0.55234110355377197 0.67587357759475708
-0.024409402161836624 0.55938071012496948 0.66746705770492554
-0.0020621009171009064 0.56143933534622192 0.65942108631134033
0.020332571119070053 0.5768086314201355 0.65291881561279297
0.019931375980377197 0.59649008512496948 0.65566521883010864
0.019458062946796417 0.61761152744293213 0.65756630897521973
-0.65996807813644409 -0.41355568170547485 0.5622488260269165
-0.63687855005264282 -0.39991244673728943 0.57079488039016724
-0.61525809764862061 -0.38699731230735779 0.57751834392547607
-0.61330413818359375 -0.36574798822402954 0.58186262845993042
-0.6259574294090271 -0.35365945100784302 0.58194154500961304
-0.63463801145553589 -0.33769485354423523 0.58444595336914062
0.042600765824317932 0.55388402938842773 0.6432839035987854
0.065286770462989807 0.54463291168212891 0.63548892736434937
0.086895346641540527 0.53112339973449707 0.62864863872528076
0.11444862931966782 0.52840679883956909 0.6160399317741394
0.12333876639604568 0.54592680931091309 0.6074298620223999
0.13389194011688232 0.56412285566329956 0.59593850374221802
-0.52835220098495483 -0.43652763962745667 0.57643610239028931
-0.51517218351364136 -0.41881090402603149 0.58947885036468506
-0.50176125764846802 -0.40254548192024231 0.60020315647125244
-0.52249258756637573 -0.39027783274650574 0.60048288106918335
-0.55113548040390015 -0.38823649287223816 0.59324085712432861
-0.57587552070617676 -0.38289377093315125 0.58769470453262329
0.12294831126928329 0.48950904607772827 0.62014168500900269
0.136177659034729 0.46249407529830933 0.61893802881240845
0.14590048789978027 0.4334036111831665 0.61961334943771362
0.16542267799377441 0.4151233434677124 0.61099725961685181
0.18042665719985962 0.42843887209892273 0.59884762763977051
0.19698366522789001 0.44137385487556458 0.58454364538192749
-0.35487934947013855 -0.38892272114753723 0.62725603580474854
-0.35053151845932007 -0.37057182192802429 0.63720118999481201
-0.34506046772003174 -0.35319226980209351 0.64593625068664551
-0.37750622630119324 -0.35512211918830872 0.64289617538452148
-0.41572988033294678 -0.36970734596252441 0.63129431009292603
-0.45384210348129272 -0.3810085654258728 0.61988586187362671
0.15390372276306152 0.37518787384033203 0.62613958120346069
0.15107756853103638 0.34721887111663818 0.63203346729278564
0.14253076910972595 0.31948733329772949 0.63989382982254028
0.14279520511627197 0.28977176547050476 0.64219194650650024
0.16042771935462952 0.28825834393501282 0.63330972194671631
0.17990371584892273 0.286754310131073 0.62105417251586914
-0.1934540867805481 -0.2734687328338623 0.6748422384262085
-0.20689490437507629 -0.26319852471351624 0.68145030736923218
-0.21975597739219666 -0.25477537512779236 0.68550276756286621
-0.25316950678825378 -0.27521947026252747 0.68106400966644287
-0.27862933278083801 -0.29883670806884766 0.67277413606643677
-0.30795985460281372 -0.31958335638046265 0.66384428739547729
0.10477452725172043 0.26317372918128967 0.66215723752975464
0.077393077313899994 0.23578907549381256 0.67510795593261719
0.047946058213710785 0.21103693544864655 0.68712800741195679
0.036528423428535461 0.17439678311347961 0.69808858633041382
0.060072228312492371 0.15459844470024109 0.70137453079223633
0.089865587651729584 0.13176871836185455 0.70433712005615234
-0.073067009449005127 -0.11259770393371582 0.72970306873321533
-0.11965092271566391 -0.11531825363636017 0.7232479453086853
-0.15879133343696594 -0.11923617124557495 0.71703684329986572
-0.19335067272186279 -0.15176491439342499 0.70969998836517334
-0.20175328850746155 -0.18375244736671448 0.70402681827545166
-0.21459051966667175 -0.2167154997587204 0.69689524173736572
-0.006333429366350174 0.17578250169754028 0.70193171501159668
-0.029372928664088249 0.16583746671676636 0.70438915491104126
-0.050895944237709045 0.15963760018348694 0.70525979995727539
-0.069492548704147339 0.1337779313325882 0.70328253507614136
-0.066762462258338928 0.10536520183086395 0.70154088735580444
-0.064050495624542236 0.071530863642692566 0.70010596513748169
-0.0081844739615917206 0.05221937969326973 0.7038530707359314
0.034784235060214996 0.070061638951301575 0.70909929275512695
0.078382775187492371 0.086141541600227356 0.7118232250213623
-0.029047556221485138 -0.074805274605751038 0.73148113489151001
-0.04161033034324646 -0.044480420649051666 0.72154194116592407
-0.052190534770488739 -0.013821383938193321 0.71003669500350952
-0.11343546956777573 -0.0028460659086704254 0.70268392562866211
-0.15328657627105713 -0.025017643347382545 0.70484668016433716
-0.18710058927536011 -0.043514188379049301 0.70664995908737183
-0.20308175683021545 -0.069717660546302795 0.71067309379577637
-0.19499969482421875 -0.083628535270690918 0.71267092227935791
-0.19024986028671265 -0.10106535255908966 0.71385949850082397
-0.26436671614646912 0.19120366871356964 0.73020023107528687
-0.28169825673103333 0.20407019555568695 0.73291075229644775
-0.29699236154556274 0.21877814829349518 0.73525291681289673
-0.3087119460105896 0.12588232755661011 0.74178099632263184
-0.28357735276222229 0.14654785394668579 0.73681801557540894
-0.26251131296157837 0.16479134559631348 0.73136347532272339
-0.35797297954559326 0.0200200155377388 0.71981132030487061
-0.35291993618011475 0.041365008801221848 0.72806012630462646
-0.34796890616416931 0.066317066550254822 0.73650550842285156
-0.44277846813201904 -0.0028484761714935303 0.70875102281570435
-0.41539248824119568 0.00099194794893264771 0.71132856607437134
-0.38859918713569641 0.0026610083878040314 0.71285831928253174
-0.1808546781539917 0.16082388162612915 0.71841335296630859
-0.2030775249004364 0.16555550694465637 0.72139424085617065
-0.22469735145568848 0.17198324203491211 0.72435510158538818
-0.30423542857170105 0.090128257870674133 0.73632031679153442
-0.27236208319664001 0.082330718636512756 0.72871345281600952
-0.24231526255607605 0.074828222393989563 0.72156929969787598
-0.19686692953109741 0.092400655150413513 0.71493172645568848
-0.18201622366905212 0.11659082770347595 0.7145695686340332
-0.16902858018875122 0.13867923617362976 0.71449917554855347
-0.26216086745262146 -0.0020881965756416321 0.71100932359695435
-0.24656021595001221 0.01903659850358963 0.71218776702880859
-0.22987571358680725 0.042509887367486954 0.71372348070144653
-0.33880499005317688 -0.00088575109839439392 0.71351617574691772
-0.31627318263053894 -0.0057902093976736069 0.71297872066497803
-0.29527345299720764 -0.012243324890732765 0.71206450462341309
-0.18336579203605652 0.059452999383211136 0.70864969491958618
-0.15111532807350159 0.050780985504388809 0.70349717140197754
-0.11399315297603607 0.040805857628583908 0.70005595684051514
-0.093034684658050537 0.1543491929769516 0.70737427473068237
-0.11455580592155457 0.15407231450080872 0.70965337753295898
-0.13637089729309082 0.15516366064548492 0.71241766214370728
-0.25774064660072327 -0.028174173086881638 0.70970523357391357
-0.24131399393081665 -0.037288181483745575 0.70874005556106567
-0.22663506865501404 -0.047223571687936783 0.70835959911346436
0.82027369737625122 -0.17167556285858154 0.53239578008651733
0.80529230833053589 -0.1740468442440033 0.55307471752166748
0.79046523571014404 -0.17742978036403656 0.57141917943954468
0.7739415168762207 -0.19423571228981018 0.59043288230895996
0.76871633529663086 -0.2073722630739212 0.59611135721206665
0.761954665184021 -0.22023861110210419 0.6026993989944458
0.76069903373718262 -0.23830795288085938 0.60301887989044189
0.76812833547592163 -0.2453526109457016 0.59375262260437012
0.77571314573287964 -0.2534320056438446 0.58274805545806885
0.745147705078125 -0.24469082057476044 0.61780029535293579
0.73536354303359985 -0.25589975714683533 0.6260063648223877
0.72456902265548706 -0.26608330011367798 0.63450443744659424
0.71264189481735229 -0.29064536094665527 0.64144951105117798
0.71210968494415283 -0.30954438447952271 0.6379740834236145
0.71146434545516968 -0.3298308253288269 0.63257962465286255
0.82322925329208374 -0.11238248646259308 0.5127112865447998
0.80108565092086792 -0.11810840666294098 0.54042553901672363
0.77982455492019653 -0.12416510283946991 0.56448221206665039
0.77137923240661621 -0.14182399213314056 0.58104914426803589
0.77672469615936279 -0.15449851751327515 0.58090311288833618
0.77846342325210571 -0.16761964559555054 0.58259540796279907
0.69967663288116455 -0.28233125805854797 0.65194112062454224
0.6853034496307373 -0.28765344619750977 0.66055476665496826
0.66937214136123657 -0.29046466946601868 0.66881060600280762
0.65153062343597412 -0.31109341979026794 0.67514437437057495
0.65101021528244019 -0.33663612604141235 0.67214620113372803
0.64973443746566772 -0.36487221717834473 0.66730272769927979
0.76406389474868774 -0.062585048377513885 0.53422117233276367
0.73628228902816772 -0.073239393532276154 0.56432098150253296
0.70845174789428711 -0.085877411067485809 0.59172779321670532
0.70693916082382202 -0.10326191782951355 0.60417038202285767
0.72843271493911743 -0.1096062958240509 0.5948825478553772
0.74705040454864502 -0.11878232657909393 0.58791720867156982
0.63201195001602173 -0.2866254448890686 0.68338072299957275
0.61211824417114258 -0.2794470489025116 0.68914884328842163
0.59373903274536133 -0.26870369911193848 0.69346475601196289
0.57262581586837769 -0.28442957997322083 0.69816416501998901
0.56956136226654053 -0.31678763031959534 0.69771683216094971
0.56714051961898804 -0.35008275508880615 0.69458812475204468
0.46621176600456238 0.018864359706640244 0.61926728487014771
0.45306757092475891 0.0013794340193271637 0.63822019100189209
0.43960031867027283 -0.016733542084693909 0.65343856811523438
0.47431138157844543 -0.045551653951406479 0.65753686428070068
0.52355849742889404 -0.056526139378547668 0.64824539422988892
0.5701262354850769 -0.066921666264533997 0.6388317346572876
0.62642264366149902 -0.05814410001039505 0.6137007474899292
0.64382356405258179 -0.040987342596054077 0.59362238645553589
0.6606680154800415 -0.025173794478178024 0.57043284177780151
0.46789368987083435 -0.30791968107223511 0.70584845542907715
0.48038288950920105 -0.28073763847351074 0.70794820785522461
0.49257495999336243 -0.25451338291168213 0.70684367418289185
0.46924588084220886 -0.2151525616645813 0.70527082681655884
0.42767974734306335 -0.19764979183673859 0.70740222930908203
0.38350531458854675 -0.17947211861610413 0.70921510457992554
0.326780766248703 -0.1834576278924942 0.71205669641494751
0.31263688206672668 -0.20614653825759888 0.71120315790176392
0.29779547452926636 -0.2300209254026413 0.70675188302993774
0.63777577877044678 -0.083491146564483643 0.62474513053894043
0.65718698501586914 -0.089677520096302032 0.62087547779083252
0.67057877779006958 -0.095309384167194366 0.61848968267440796
0.5646674633026123 -0.2503487765789032 0.69788604974746704
0.55003881454467773 -0.24662378430366516 0.69962155818939209
0.53090101480484009 -0.24015678465366364 0.70131301879882812
0.38522732257843018 -0.024349503219127655 0.67064714431762695
0.34902435541152954 -0.014441234990954399 0.67430609464645386
0.31740808486938477 -0.0045927707105875015 0.67752265930175781
0.28858542442321777 -0.014099519699811935 0.68884587287902832
0.28622189164161682 -0.032109510153532028 0.69364911317825317
0.28111261129379272 -0.049006987363100052 0.6977810263633728
0.29137232899665833 -0.070508666336536407 0.69870114326477051
0.31658250093460083 -0.077752783894538879 0.69695854187011719
0.34808221459388733 -0.086741715669631958 0.69540548324584961
0.39538830518722534 -0.082712411880493164 0.68782305717468262
0.40516373515129089 -0.06737566739320755 0.68193918466567993
0.41544279456138611 -0.051422432065010071 0.67470282316207886
0.35260936617851257 -0.14427885413169861 0.7073015570640564
0.3642878532409668 -0.12778417766094208 0.70313644409179688
0.37525424361228943 -0.1124681681394577 0.69826036691665649
0.2605433464050293 -0.07957574725151062 0.70563596487045288
0.24479159712791443 -0.09368307888507843 0.7094120979309082
0.22571209073066711 -0.10755130648612976 0.71261852979660034
0.23314452171325684 -0.12970873713493347 0.71151667833328247
0.2655007541179657 -0.13829270005226135 0.71073216199874878
0.30098250508308411 -0.14907489717006683 0.71062964200973511
0.56823199987411499 -0.13141393661499023 0.66469830274581909
0.58106642961502075 -0.11284099519252777 0.6552392840385437
0.59470349550247192 -0.094378992915153503 0.64414083957672119
0.42883715033531189 -0.11071327328681946 0.68884241580963135
0.47408607602119446 -0.12462590634822845 0.68362820148468018
0.51761376857757568 -0.13814458250999451 0.67819660902023315
0.51734918355941772 -0.20789992809295654 0.69742673635482788
0.53011167049407959 -0.18762612342834473 0.69022148847579956
0.54293978214263916 -0.1685379296541214 0.68202668428421021
0.58459419012069702 -0.15896174311637878 0.66989248991012573
0.60580635070800781 -0.16555999219417572 0.667380690574646
0.6208154559135437 -0.17036248743534088 0.66537195444107056
0.64151144027709961 -0.15519388020038605 0.65463590621948242
0.6508861780166626 -0.13626693189144135 0.64517635107040405
0.66211867332458496 -0.11820095777511597 0.63387823104858398
0.58722913265228271 -0.22784821689128876 0.6897118091583252
0.60126209259033203 -0.20894992351531982 0.68171864748001099
0.61679023504257202 -0.19141052663326263 0.67270290851593018
0.27392885088920593 0.023792020976543427 0.68226993083953857
0.26181051135063171 0.035628456622362137 0.68334931135177612
0.2490297257900238 0.044616337865591049 0.68514132499694824
0.23210310935974121 0.050651576370000839 0.69587111473083496
0.23112162947654724 0.051677357405424118 0.70455914735794067
0.23069861531257629 0.053201612085103989 0.71335262060165405
0.24204844236373901 0.047597255557775497 0.72066748142242432
0.2502686083316803 0.038679841905832291 0.71909767389297485
0.25556951761245728 0.027519199997186661 0.71783483028411865
0.26161330938339233 0.012108072638511658 0.709819495677948
0.26556545495986938 0.0096828006207942963 0.70156604051589966
0.27266749739646912 0.0074929222464561462 0.69273310899734497
0.19169929623603821 -0.1129550039768219 0.72169339656829834
0.18624439835548401 -0.10834956169128418 0.7293354868888855
0.18261697888374329 -0.1054617315530777 0.73713964223861694
0.16302734613418579 -0.11026142537593842 0.74900710582733154
0.14712440967559814 -0.11493435502052307 0.75303888320922852
0.13165995478630066 -0.11686486005783081 0.75599163770675659
0.11583154648542404 -0.11800384521484375 0.74894863367080688
0.11604510992765427 -0.11983512341976166 0.74031567573547363
0.11609409004449844 -0.12224076688289642 0.73207306861877441
0.13249310851097107 -0.12895780801773071 0.72323530912399292
0.15104660391807556 -0.12926192581653595 0.72098350524902344
0.17237955331802368 -0.12729081511497498 0.71823489665985107
0.21613085269927979 0.055516060441732407 0.69069468975067139
0.19577708840370178 0.057210180908441544 0.69400644302368164
0.17428955435752869 0.055617239326238632 0.69713103771209717
0.15597555041313171 0.049596529453992844 0.70185017585754395
0.15735903382301331 0.051037419587373734 0.70710134506225586
0.1578744649887085 0.053237099200487137 0.71426528692245483
0.17643776535987854 0.059129055589437485 0.72200632095336914
0.19560149312019348 0.06023700162768364 0.72218447923660278
0.21414008736610413 0.058521706610918045 0.72230285406112671
0.099828429520130157 -0.11194679141044617 0.75623095035552979
0.084583021700382233 -0.10541066527366638 0.75363010168075562
0.072020523250102997 -0.096755474805831909 0.75017762184143066
0.063940063118934631 -0.087063021957874298 0.73851984739303589
0.064795985817909241 -0.087207816541194916 0.73109549283981323
0.064510338008403778 -0.087007239460945129 0.72561228275299072
0.069809764623641968 -0.10035085678100586 0.72546356916427612
0.082627862691879272 -0.11160536110401154 0.72627323865890503
0.098271928727626801 -0.12022069096565247 0.7260211706161499
0.13232076168060303 0.040230225771665573 0.70118224620819092
0.11451471596956253 0.026214919984340668 0.70233774185180664
0.10092722624540329 0.008472934365272522 0.70376384258270264
0.10899681597948074 -0.0028843693435192108 0.70980417728424072
0.11576998978853226 0.0047829896211624146 0.71548020839691162
0.11927639693021774 0.010921429842710495 0.72246718406677246
0.1247071847319603 0.026672963052988052 0.72712045907974243
0.13212308287620544 0.037695955485105515 0.72483831644058228
0.14354214072227478 0.047466102987527847 0.723166823387146
0.061651460826396942 -0.074888221919536591 0.74359774589538574
0.064694993197917938 -0.063071854412555695 0.74129641056060791
0.072118721902370453 -0.051927171647548676 0.73979324102401733
0.085094310343265533 -0.040171030908823013 0.73064082860946655
0.088319562375545502 -0.036247208714485168 0.72205817699432373
0.091207288205623627 -0.029475297778844833 0.71408188343048096
0.072046034038066864 -0.034691281616687775 0.71075350046157837
0.061566747725009918 -0.052910178899765015 0.71531623601913452
0.058206714689731598 -0.070500224828720093 0.71975082159042358
0.10890588909387589 -0.018652759492397308 0.71110308170318604
0.11877986043691635 -0.020770048722624779 0.71468114852905273
0.12289067357778549 -0.021237112581729889 0.7186124324798584
0.12567219138145447 -0.021516378968954086 0.72153520584106445
0.12887322902679443 -0.02182910218834877 0.72506576776504517
0.12980788946151733 -0.020934093743562698 0.73218882083892822
0.13110077381134033 -0.01274951733648777 0.73903220891952515
0.12793639302253723 -0.004464808851480484 0.73634815216064453
0.12384667247533798 0.0049882866442203522 0.73315417766571045
0.096804343163967133 -0.035434368997812271 0.73960399627685547
0.11084782332181931 -0.030008796602487564 0.74040710926055908
0.12283838540315628 -0.025101270526647568 0.74098914861679077
0.24989858269691467 -0.054488249123096466 0.72068852186203003
0.25398603081703186 -0.057173352688550949 0.71338522434234619
0.26093167066574097 -0.060495629906654358 0.70678609609603882
0.26012098789215088 -0.0013424195349216461 0.71865898370742798
0.25919580459594727 -0.018129963427782059 0.72101753950119019
0.25499796867370605 -0.035330533981323242 0.72422480583190918
0.23337629437446594 -0.067502394318580627 0.73184531927108765
0.21672943234443665 -0.081318527460098267 0.73591208457946777
0.19836869835853577 -0.093241706490516663 0.74013441801071167
0.22921201586723328 -0.043900460004806519 0.74580347537994385
0.23658779263496399 -0.046884089708328247 0.74028921127319336
0.24232369661331177 -0.049575980752706528 0.73440796136856079
0.2544262707233429 0.015242673456668854 0.72455757856369019
0.24950975179672241 0.015218798071146011 0.73091030120849609
0.24438044428825378 0.013962589204311371 0.73642027378082275
0.23813450336456299 0.0033785365521907806 0.74212431907653809
0.23432108759880066 -0.0096615869551897049 0.74473100900650024
0.22849300503730774 -0.024792913347482681 0.74780160188674927
0.20795497298240662 -0.05537521094083786 0.7546502947807312
0.19473069906234741 -0.06861472874879837 0.75792020559310913
0.18246307969093323 -0.079522505402565002 0.76063752174377441
0.17401775717735291 -0.090805619955062866 0.75995033979415894
0.17514508962631226 -0.095495760440826416 0.75600129365921021
0.17727300524711609 -0.099608629941940308 0.75082123279571533
0.13251852989196777 -0.018956458196043968 0.74854004383087158
0.13688752055168152 -0.018901145085692406 0.75558418035507202
0.14417728781700134 -0.019689438864588737 0.76184993982315063
0.15612232685089111 -0.0045397970825433731 0.76237654685974121
0.15103432536125183 0.0067631043493747711 0.75831276178359985
0.14589416980743408 0.015270739793777466 0.75436502695083618
0.13674712181091309 0.02038850262761116 0.74817740917205811
0.13057255744934082 0.019692618399858475 0.74324500560760498
0.12556856870651245 0.018194351345300674 0.73700356483459473
0.083898022770881653 -0.044085469096899033 0.74708455801010132
0.086866021156311035 -0.04562060534954071 0.75398010015487671
0.091374464333057404 -0.04739973321557045 0.75955015420913696
0.10481659322977066 -0.04607824981212616 0.76501768827438354
0.11880362778902054 -0.041362624615430832 0.76686805486679077
0.13591930270195007 -0.0346963070333004 0.76789885759353638
0.14622771739959717 0.027044821530580521 0.75071793794631958
0.15263715386390686 0.034978572279214859 0.74948710203170776
0.16065773367881775 0.042105618864297867 0.74760109186172485
0.16526931524276733 0.050235200673341751 0.74208539724349976
0.16249069571495056 0.053333144634962082 0.7364993691444397
0.16012057662010193 0.054945539683103561 0.72973591089248657
0.066307179629802704 -0.085171408951282501 0.75402170419692993
0.070989057421684265 -0.083317317068576813 0.76040297746658325
0.077445745468139648 -0.080904170870780945 0.76533615589141846
0.084177210927009583 -0.072094425559043884 0.76786327362060547
0.086684927344322205 -0.063516564667224884 0.76670235395431519
0.091174639761447906 -0.055184364318847656 0.76490724086761475
0.17698761820793152 0.047017503529787064 0.74758189916610718
0.18990948796272278 0.045851189643144608 0.74937057495117188
0.2035868763923645 0.042980607599020004 0.75032651424407959
0.2226143479347229 0.046405073255300522 0.74416804313659668
0.22676792740821838 0.051308367401361465 0.73744297027587891
0.22911384701728821 0.053755659610033035 0.73000025749206543
0.1174139603972435 -0.11273469030857086 0.76453197002410889
0.11992941051721573 -0.10793766379356384 0.77045142650604248
0.12372233718633652 -0.10099786520004272 0.77469867467880249
0.11491969972848892 -0.089241236448287964 0.77670890092849731
0.10157472640275955 -0.085935302078723907 0.77464711666107178
0.090543307363986969 -0.082005180418491364 0.77141565084457397
0.22542515397071838 0.032761383801698685 0.74825656414031982
0.23225891590118408 0.025940462946891785 0.74553894996643066
0.23719403147697449 0.018472880125045776 0.7426067590713501
0.16509982943534851 -0.088900327682495117 0.76629304885864258
0.15381082892417908 -0.090918928384780884 0.77090847492218018
0.1417977511882782 -0.091849014163017273 0.77474236488342285
0.17912480235099792 -0.0027838200330734253 0.76331263780593872
0.19421267509460449 0.013302382081747055 0.75940805673599243
0.20656830072402954 0.027307953685522079 0.7550777792930603
0.13552933931350708 -0.078585729002952576 0.77690267562866211
0.14303684234619141 -0.062988042831420898 0.77504205703735352
0.15081259608268738 -0.04499538242816925 0.77187329530715942
0.17887866497039795 -0.027700437232851982 0.76552480459213257
0.19486039876937866 -0.032365847378969193 0.76155197620391846
0.20851847529411316 -0.036661211401224136 0.75658982992172241
-0.0045323185622692108 0.011670924723148346 0.70303410291671753
0.03451971709728241 0.00098573416471481323 0.70421934127807617
0.065757110714912415 -0.0076509770005941391 0.70474779605865479
0.14678817987442017 0.053949285298585892 0.7016761302947998
0.13977715373039246 0.062196779996156693 0.70523548126220703
0.13348495960235596 0.076108634471893311 0.70766860246658325
0.019647091627120972 -0.094103462994098663 0.73402631282806396
0.039348557591438293 -0.087873220443725586 0.73001307249069214
0.053010553121566772 -0.086130715906620026 0.72564536333084106
0.23816141486167908 0.054087962955236435 0.68007022142410278
0.24362915754318237 0.058850992470979691 0.67098468542098999
0.25043964385986328 0.064717039465904236 0.65806293487548828
0.23388445377349854 0.074329063296318054 0.65132516622543335
0.2057892382144928 0.079197049140930176 0.66658270359039307
0.17398077249526978 0.087096631526947021 0.68367230892181396
0.0310988649725914 -0.12634722888469696 0.71999245882034302
0.059033095836639404 -0.13976898789405823 0.70825636386871338
0.081362858414649963 -0.15302619338035583 0.69814193248748779
0.10534230619668961 -0.15143758058547974 0.7048037052154541
0.10981186479330063 -0.14052398502826691 0.71369814872741699
0.11320611089468002 -0.13210463523864746 0.71960747241973877
0.30308088660240173 0.020690210163593292 0.66988122463226318
0.31671628355979919 0.033540491014719009 0.65666568279266357
0.3295225203037262 0.045877013355493546 0.64017200469970703
0.31873059272766113 0.060870494693517685 0.6218906044960022
0.29886043071746826 0.064333498477935791 0.62545305490493774
0.27939110994338989 0.067683026194572449 0.63077771663665771
0.11671946197748184 -0.174465611577034 0.68629074096679688
0.13287296891212463 -0.18258996307849884 0.68475651741027832
0.14967796206474304 -0.19043396413326263 0.68524444103240967
0.17779737710952759 -0.17950820922851562 0.69970279932022095
0.18612784147262573 -0.16047613322734833 0.70738023519515991
0.19360813498497009 -0.14199554920196533 0.71174472570419312
0.43547582626342773 0.042665209621191025 0.60457521677017212
0.3987724781036377 0.048642341047525406 0.61084479093551636
0.36744287610054016 0.053321663290262222 0.61544531583786011
0.19024375081062317 -0.2096264660358429 0.68957656621932983
0.21601596474647522 -0.22224260866641998 0.69239670038223267
0.24646306037902832 -0.23711377382278442 0.69519263505935669
0.44579100608825684 0.073325291275978088 0.48057803511619568
0.41198286414146423 0.077195823192596436 0.48657897114753723
0.38299599289894104 0.079424291849136353 0.49142417311668396
0.35998061299324036 0.079645216464996338 0.52747249603271484
0.35706645250320435 0.07481682300567627 0.5602264404296875
0.35042303800582886 0.067106470465660095 0.59150248765945435
0.15766003727912903 -0.21919474005699158 0.66787075996398926
0.14640355110168457 -0.2380693107843399 0.64369726181030273
0.13539570569992065 -0.25393557548522949 0.61617106199264526
0.14214855432510376 -0.27804449200630188 0.5909542441368103
0.16234701871871948 -0.29294109344482422 0.59597510099411011
0.18716263771057129 -0.30968117713928223 0.60159534215927124
0.33725148439407349 0.082442447543144226 0.49960607290267944
0.31879588961601257 0.084046348929405212 0.50375866889953613
0.30176728963851929 0.085637509822845459 0.50838470458984375
0.28198936581611633 0.085666388273239136 0.54545295238494873
0.2755831778049469 0.082070082426071167 0.57920688390731812
0.26723697781562805 0.076976791024208069 0.61156362295150757
0.093851096928119659 -0.18125760555267334 0.66846472024917603
0.087402768433094025 -0.19817197322845459 0.64139914512634277
0.081026650965213776 -0.2135971337556839 0.61210691928863525
0.086507551372051239 -0.23475110530853271 0.58251857757568359
0.098248161375522614 -0.24402895569801331 0.58277088403701782
0.11100057512521744 -0.25390061736106873 0.58420664072036743
0.26743552088737488 0.088557139039039612 0.5203559398651123
0.25147181749343872 0.092680484056472778 0.52622354030609131
0.23961645364761353 0.1023804098367691 0.529610276222229
0.032353229820728302 -0.20683495700359344 0.58894854784011841
0.049775086343288422 -0.20802499353885651 0.58735668659210205
0.06345878541469574 -0.2153618335723877 0.58523911237716675
0.67840307950973511 -0.12516242265701294 0.62460273504257202
0.67821413278579712 -0.11997626721858978 0.62649393081665039
0.67879480123519897 -0.1130853146314621 0.62458664178848267
0.63817322254180908 -0.17681194841861725 0.66108906269073486
0.64261412620544434 -0.17940682172775269 0.65785694122314453
0.64504003524780273 -0.18209996819496155 0.65320867300033569
0.65523678064346313 -0.16854515671730042 0.63890433311462402
0.66258466243743896 -0.1523803174495697 0.63193517923355103
0.66980898380279541 -0.13875910639762878 0.62547922134399414
0.60957038402557373 -0.22690975666046143 0.67114865779876709
0.6201399564743042 -0.21450376510620117 0.6639254093170166
0.63332808017730713 -0.20061402022838593 0.65536195039749146
0.59085196256637573 -0.2417624443769455 0.69150185585021973
0.59798270463943481 -0.23737156391143799 0.68752801418304443
0.60240411758422852 -0.23635567724704742 0.68256020545959473
0.73461389541625977 -0.14184330403804779 0.60192841291427612
0.74047118425369263 -0.13828122615814209 0.60124379396438599
0.74905639886856079 -0.13441139459609985 0.59529334306716919
0.69072610139846802 -0.12704046070575714 0.61311972141265869
0.70446008443832397 -0.12965233623981476 0.60730999708175659
0.71815115213394165 -0.13622500002384186 0.60219871997833252
0.63333779573440552 -0.26010036468505859 0.67040926218032837
0.61894655227661133 -0.25462305545806885 0.67486190795898438
0.60861432552337646 -0.24710813164710999 0.67688852548599243
0.65183013677597046 -0.27624154090881348 0.67638146877288818
0.65169829130172729 -0.26782667636871338 0.6744992733001709
0.65099304914474487 -0.26389500498771667 0.67053031921386719
0.75352513790130615 -0.18827082216739655 0.59890609979629517
0.75965774059295654 -0.18605318665504456 0.5989651083946228
0.76730775833129883 -0.18371619284152985 0.5948299765586853
0.73873138427734375 -0.15619121491909027 0.59543097019195557
0.74433356523513794 -0.16770176589488983 0.59408074617385864
0.74732208251953125 -0.17940522730350494 0.59404462575912476
0.69253164529800415 -0.25928184390068054 0.64056622982025146
0.67931216955184937 -0.26252955198287964 0.64869725704193115
0.66484683752059937 -0.26399016380310059 0.65674269199371338
0.71190333366394043 -0.26439699530601501 0.64336055517196655
