# XYZ point cloud file
-0.15208594501018524 0.49304801225662231 0.77241736650466919
-0.12303358316421509 0.51028609275817871 0.754780113697052
-0.095700681209564209 0.53509217500686646 0.74588453769683838
-0.096374854445457458 0.54127758741378784 0.74900358915328979
-0.15420807898044586 0.49706029891967773 0.77534627914428711
-0.15054804086685181 0.48944598436355591 0.76757985353469849
-0.095278307795524597 0.52932965755462646 0.74108529090881348
-0.64350372552871704 -0.29534164071083069 0.66804665327072144
-0.64067530632019043 -0.26911455392837524 0.68152862787246704
-0.6502070426940918 -0.29858559370040894 0.66850531101226807
-0.64423507452011108 -0.32035425305366516 0.65469658374786377
-0.63734447956085205 -0.29186707735061646 0.66548943519592285
-0.63523459434509277 -0.2666034996509552 0.67867845296859741
-0.64674293994903564 -0.27128887176513672 0.68216401338577271
-0.65158265829086304 -0.32461383938789368 0.6549418568611145
-0.63733798265457153 -0.31598749756813049 0.65252107381820679
-0.024821873754262924 0.56648916006088257 0.71653217077255249
-0.023406593129038811 0.57434511184692383 0.71930462121963501
-0.045709714293479919 0.56141096353530884 0.72370070219039917
-0.026036571711301804 0.55916750431060791 0.71223747730255127
-0.0054294262081384659 0.56748461723327637 0.7108350396156311
-0.0031911525875329971 0.5753556489944458 0.71329617500305176
-0.045030251145362854 0.56901895999908447 0.72668212652206421
-0.046314340084791183 0.55428451299667358 0.71919894218444824
-0.0073820389807224274 0.56019741296768188 0.70683622360229492
-0.62678474187850952 -0.37186890840530396 0.63629829883575439
-0.63613110780715942 -0.35909897089004517 0.63813316822052002
-0.6344180703163147 -0.37814930081367493 0.63634353876113892
-0.61431539058685303 -0.38150462508201599 0.63735336065292358
-0.6194654107093811 -0.36585676670074463 0.63457143306732178
-0.62856757640838623 -0.35345765948295593 0.63641542196273804
-0.64402413368225098 -0.36489036679267883 0.63814669847488403
-0.62138265371322632 -0.38816335797309875 0.63749462366104126
-0.60756808519363403 -0.37520962953567505 0.63553339242935181
0.051518704742193222 0.55411970615386963 0.69548505544662476
0.056955959647893906 0.56115043163299561 0.69641125202178955
0.032592613250017166 0.56114143133163452 0.70042133331298828
0.046340417116880417 0.54766768217086792 0.693134605884552
0.069540172815322876 0.54364961385726929 0.69158375263214111
0.075990751385688782 0.55013906955718994 0.69197869300842285
0.036895271390676498 0.56857627630233765 0.70192182064056396
0.028594765812158585 0.55432015657424927 0.69743186235427856
0.063307404518127441 0.537669837474823 0.68980687856674194
-0.56061750650405884 -0.39937224984169006 0.64875572919845581
-0.58122891187667847 -0.39517730474472046 0.6439054012298584
-0.56454402208328247 -0.40691885352134705 0.6493377685546875
-0.53689217567443848 -0.40075215697288513 0.65519797801971436
-0.55707454681396484 -0.39225029945373535 0.6466403603553772
-0.57644617557525635 -0.38831615447998047 0.64188015460968018
-0.58638244867324829 -0.40247958898544312 0.644325852394104
-0.53952586650848389 -0.40838971734046936 0.65596669912338257
-0.53461730480194092 -0.39350360631942749 0.65295863151550293
0.11206693947315216 0.48706704378128052 0.69135159254074097
0.11967675387859344 0.49107015132904053 0.69107300043106079
0.10032211244106293 0.50971883535385132 0.68944346904754639
0.10484839975833893 0.48317676782608032 0.68997901678085327
0.12087476253509521 0.46258577704429626 0.69458603858947754
0.12837061285972595 0.46557420492172241 0.69434905052185059
0.10787183046340942 0.51467472314834595 0.68922138214111328
0.093053624033927917 0.50502830743789673 0.68816661834716797
0.11389048397541046 0.459562748670578 0.69301247596740723
-0.44617897272109985 -0.38169655203819275 0.68667852878570557
-0.47889891266822815 -0.39189597964286804 0.67449182271957397
-0.44528016448020935 -0.38809746503829956 0.68818968534469604
-0.413441002368927 -0.36874952912330627 0.69913053512573242
-0.44695401191711426 -0.3755933940410614 0.68362069129943848
-0.4788023829460144 -0.38515764474868774 0.67177212238311768
-0.47909104824066162 -0.39895650744438171 0.67573285102844238
-0.4114987850189209 -0.3743615448474884 0.70090210437774658
-0.4150334894657135 -0.36341920495033264 0.69573414325714111
0.12553064525127411 0.39084428548812866 0.70810854434967041
0.13259337842464447 0.39085802435874939 0.70816105604171753
0.12816019356250763 0.41401976346969604 0.70305991172790527
0.11916409432888031 0.39056241512298584 0.70608341693878174
0.11775049567222595 0.36765849590301514 0.71410006284713745
0.12452703714370728 0.36677229404449463 0.71433305740356445
0.13537368178367615 0.41498517990112305 0.70299798250198364
0.121625617146492 0.41282439231872559 0.70114356279373169
0.11163994669914246 0.36826398968696594 0.71192759275436401
-0.33168932795524597 -0.32018855214118958 0.72886914014816284
-0.35530400276184082 -0.33791783452033997 0.72054398059844971
-0.32673755288124084 -0.32341295480728149 0.73118096590042114
-0.31162488460540771 -0.30001956224441528 0.73618847131729126
-0.33594429492950439 -0.31722486019134521 0.72486257553100586
-0.35864675045013428 -0.33418822288513184 0.71666878461837769
-0.35131019353866577 -0.34191647171974182 0.7227175235748291
-0.30586603283882141 -0.30244201421737671 0.73862391710281372
-0.31669798493385315 -0.29783910512924194 0.73206865787506104
0.059419650584459305 0.29460260272026062 0.73932188749313354
0.063807651400566101 0.29142767190933228 0.74073529243469238
0.083832740783691406 0.31900930404663086 0.73012232780456543
0.055322851985692978 0.29750964045524597 0.73601603507995605
0.033307023346424103 0.27229738235473633 0.74780005216598511
0.036681514233350754 0.26856061816215515 0.74971377849578857
0.089236781001091003 0.31651294231414795 0.73104918003082275
0.078878268599510193 0.32123160362243652 0.72730296850204468
0.030065327882766724 0.27577432990074158 0.74400180578231812
-0.27222546935081482 -0.22112381458282471 0.75546395778656006
-0.28189185261726379 -0.24967853724956512 0.74955099821090698
-0.26557156443595886 -0.22074152529239655 0.75836634635925293
-0.26611393690109253 -0.19336637854576111 0.76011198759078979
-0.2784532904624939 -0.22155994176864624 0.75078004598617554
-0.28796049952507019 -0.24922458827495575 0.74509763717651367
-0.27528664469718933 -0.25026756525039673 0.75227540731430054
-0.25954395532608032 -0.19210466742515564 0.76320457458496094
-0.27236840128898621 -0.19460003077983856 0.75519198179244995
-0.033920343965291977 0.23161265254020691 0.75962495803833008
-0.032217472791671753 0.22703707218170166 0.76261645555496216
-0.014207854866981506 0.24045798182487488 0.7580600380897522
-0.035737782716751099 0.23595321178436279 0.75492435693740845
-0.051950395107269287 0.22624722123146057 0.76003372669219971
-0.050497524440288544 0.22154754400253296 0.76327735185623169
-0.012193080969154835 0.23604118824005127 0.76077306270599365
-0.016299603506922722 0.24463316798210144 0.75355756282806396
-0.053532727062702179 0.23071104288101196 0.75515919923782349
-0.26920932531356812 -0.13445928692817688 0.76213365793228149
-0.26482373476028442 -0.14940649271011353 0.76334589719772339
-0.26290512084960938 -0.13186061382293701 0.76583003997802734
-0.27627789974212646 -0.12282012403011322 0.76006036996841431
-0.27536189556121826 -0.13688038289546967 0.75671243667602539
-0.27101361751556396 -0.15162511169910431 0.75806176662445068
-0.25846049189567566 -0.14704200625419617 0.76683306694030762
-0.27003535628318787 -0.12005297094583511 0.76399081945419312
-0.2823675274848938 -0.12538531422615051 0.75448107719421387
-0.23720540106296539 0.27024388313293457 0.77763998508453369
-0.24359673261642456 0.26535263657569885 0.78141719102859497
-0.22336684167385101 0.25945168733596802 0.7758796215057373
-0.23177628219127655 0.27451068162918091 0.77268791198730469
-0.24917018413543701 0.2821306586265564 0.77940905094146729
-0.25660783052444458 0.27746269106864929 0.7830778956413269
-0.22863619029521942 0.25443518161773682 0.77971363067626953
-0.21898901462554932 0.26376393437385559 0.77079975605010986
-0.24274243414402008 0.28627955913543701 0.77463197708129883
-0.45908686518669128 -0.075715377926826477 0.74408000707626343
-0.43713080883026123 -0.073784232139587402 0.74668526649475098
-0.45864951610565186 -0.06996646523475647 0.74841487407684326
-0.48088854551315308 -0.079231351613998413 0.7412145733833313
-0.45944505929946899 -0.08046191930770874 0.73866724967956543
-0.43833544850349426 -0.078169822692871094 0.74108308553695679
-0.43570941686630249 -0.068376265466213226 0.75114685297012329
-0.48147124052047729 -0.0732230544090271 0.74532634019851685
-0.48037269711494446 -0.084287539124488831 0.73607826232910156
-0.17355974018573761 0.23583069443702698 0.77015095949172974
-0.17627528309822083 0.23029690980911255 0.77444255352020264
-0.15553541481494904 0.23079961538314819 0.76812964677810669
-0.17138426005840302 0.24073049426078796 0.76435750722885132
-0.19117745757102966 0.24218812584877014 0.77214395999908447
-0.19457276165485382 0.23686164617538452 0.7762330174446106
-0.15764044225215912 0.22510716319084167 0.7725830078125
-0.15384335815906525 0.23595726490020752 0.76210254430770874
-0.18845517933368683 0.24680477380752563 0.76664185523986816
-0.3748835027217865 -0.077818870544433594 0.75204169750213623
-0.35624516010284424 -0.081830456852912903 0.75309640169143677
-0.37094223499298096 -0.072977803647518158 0.75703859329223633
-0.39469695091247559 -0.074947118759155273 0.75067901611328125
-0.37845194339752197 -0.081868723034858704 0.74561560153961182
-0.36048585176467896 -0.085917279124259949 0.74640870094299316
-0.35165810585021973 -0.077092587947845459 0.75826054811477661
-0.39150658249855042 -0.070011086761951447 0.75545793771743774
-0.39751863479614258 -0.078969568014144897 0.7445758581161499
-0.10296349227428436 0.22252735495567322 0.76242959499359131
-0.10302050411701202 0.21715196967124939 0.76656150817871094
-0.086008206009864807 0.22224155068397522 0.76105546951293945
-0.10308574140071869 0.22759878635406494 0.756702721118927
-0.12009230256080627 0.2241460382938385 0.76416999101638794
-0.12087045609951019 0.21853545308113098 0.76854968070983887
-0.085404030978679657 0.21713986992835999 0.76487839221954346
-0.086763203144073486 0.22707530856132507 0.75565892457962036
-0.11954298615455627 0.22939684987068176 0.75817453861236572
-0.30903223156929016 -0.098274245858192444 0.7553749680519104
-0.29645907878875732 -0.10532983392477036 0.75639897584915161
-0.30321782827377319 -0.094499580562114716 0.76021420955657959
-0.32321202754974365 -0.092118501663208008 0.754619300365448
-0.31461530923843384 -0.10171466320753098 0.74894309043884277
-0.30228137969970703 -0.10839521139860153 0.75029218196868896
-0.2904391884803772 -0.10199026018381119 0.76092255115509033
-0.31769147515296936 -0.087914496660232544 0.75970882177352905
-0.32846292853355408 -0.095908313989639282 0.74792802333831787
-0.44108518958091736 0.17372086644172668 0.66983884572982788
-0.44580787420272827 0.16793181002140045 0.70017498731613159
-0.4488644003868103 0.19849728047847748 0.6739506721496582
-0.43668290972709656 0.18016204237937927 0.64113122224807739
-0.44131547212600708 0.15226346254348755 0.6659996509552002
-0.44429278373718262 0.14797897636890411 0.69639700651168823
-0.45602622628211975 0.19047635793685913 0.70443618297576904
-0.43979012966156006 0.20941005647182465 0.64463728666305542
-0.43963223695755005 0.15672579407691956 0.63732010126113892
-0.48741534352302551 0.10136161744594574 0.65701067447662354
-0.51974272727966309 0.087770365178585052 0.65296423435211182
-0.48860400915145874 0.10108892619609833 0.68822413682937622
-0.46420446038246155 0.11652156710624695 0.65993493795394897
-0.48707878589630127 0.10145571827888489 0.62731832265853882
-0.52051669359207153 0.083304800093173981 0.62103044986724854
-0.52058672904968262 0.089613690972328186 0.68510043621063232
-0.46561795473098755 0.11467674374580383 0.69070333242416382
-0.46380305290222168 0.11898280680179596 0.63099038600921631
-0.52492552995681763 0.28705257177352905 0.6900293231010437
-0.53697705268859863 0.27558246254920959 0.71903985738754272
-0.55449837446212769 0.3186785876750946 0.69578820466995239
-0.50718742609024048 0.3049311637878418 0.66449451446533203
-0.4932996928691864 0.25587934255599976 0.68414491415023804
-0.50432872772216797 0.24450966715812683 0.71399438381195068
-0.56745749711990356 0.30841496586799622 0.72406464815139771
-0.53532600402832031 0.33277800679206848 0.67228537797927856
-0.47705456614494324 0.2740156352519989 0.65633463859558105
-0.66878998279571533 0.06202273815870285 0.63378351926803589
-0.72352772951126099 0.054184779524803162 0.62477415800094604
-0.67076259851455688 0.066300749778747559 0.66587954759597778
-0.61297750473022461 0.068766973912715912 0.6414145827293396
-0.6700211763381958 0.050256974995136261 0.60217702388763428
-0.71981537342071533 0.04413074254989624 0.59663897752761841
-0.72779786586761475 0.057493984699249268 0.65560662746429443
-0.61387795209884644 0.073219776153564453 0.67424285411834717
-0.61566877365112305 0.05731663852930069 0.60778778791427612
-0.57801729440689087 0.41755622625350952 0.70786124467849731
-0.59351742267608643 0.41043907403945923 0.73717844486236572
-0.56075865030288696 0.44956076145172119 0.71040964126586914
-0.55415612459182739 0.42296081781387329 0.68171250820159912
-0.58348041772842407 0.38434547185897827 0.70480084419250488
-0.59841001033782959 0.37651997804641724 0.73345839977264404
-0.5757220983505249 0.44340851902961731 0.73957639932632446
-0.53902673721313477 0.45265737175941467 0.68510258197784424
-0.56050717830657959 0.39147317409515381 0.68030571937561035
-0.84409487247467041 0.00097255036234855652 0.58498382568359375
-0.86543285846710205 -0.027429386973381042 0.57077181339263916
-0.8544960618019104 0.00179290771484375 0.61450189352035522
-0.81328117847442627 0.02458350732922554 0.59986245632171631
-0.82696795463562012 -0.0040839090943336487 0.5597527027130127
-0.84770655632019043 -0.030517008155584335 0.54790413379669189
-0.87638199329376221 -0.027347320690751076 0.59938180446624756
-0.82228386402130127 0.026001129299402237 0.62947672605514526
-0.7989654541015625 0.018224030733108521 0.5746772289276123
-0.44160902500152588 0.5338824987411499 0.70406681299209595
-0.45252856612205505 0.53218537569046021 0.73446410894393921
-0.38591015338897705 0.5615430474281311 0.69704926013946533
-0.43074268102645874 0.52673578262329102 0.67604470252990723
-0.4911457896232605 0.50718194246292114 0.70892375707626343
-0.50345462560653687 0.50391870737075806 0.73840564489364624
-0.39578735828399658 0.56095647811889648 0.72845977544784546
-0.37656760215759277 0.55266022682189941 0.66620361804962158
-0.47708344459533691 0.50343960523605347 0.68338918685913086
-0.86942851543426514 -0.13538962602615356 0.53264647722244263
-0.85914623737335205 -0.17851062119007111 0.52026283740997314
-0.88164728879928589 -0.13917034864425659 0.56007349491119385
-0.87652623653411865 -0.095900401473045349 0.54482251405715942
-0.84866207838058472 -0.12698094546794891 0.51191955804824829
-0.83747422695159912 -0.1680411696434021 0.49746894836425781
-0.87154692411422729 -0.18309703469276428 0.54821544885635376
-0.88825047016143799 -0.098298415541648865 0.57209175825119019
-0.85736072063446045 -0.091581240296363831 0.52507919073104858
-0.21326740086078644 0.66133713722229004 0.66671484708786011
-0.21964666247367859 0.6609618067741394 0.69998598098754883
-0.16106690466403961 0.69598525762557983 0.65538060665130615
-0.20573896169662476 0.65841889381408691 0.63071471452713013
-0.26925241947174072 0.62574636936187744 0.67787730693817139
-0.27700185775756836 0.62549638748168945 0.71078485250473022
-0.16585166752338409 0.69632041454315186 0.68886733055114746
-0.15505075454711914 0.6931915283203125 0.61862534284591675
-0.26097127795219421 0.6200563907623291 0.64289319515228271
-0.84325617551803589 -0.32288530468940735 0.47787842154502869
-0.84351873397827148 -0.36992782354354858 0.4638914167881012
-0.85244542360305786 -0.32769495248794556 0.50813585519790649
-0.84480953216552734 -0.27370160818099976 0.49263474345207214
-0.82952982187271118 -0.31604796648025513 0.44719725847244263
-0.83120369911193848 -0.36281666159629822 0.43209615349769592
-0.85203385353088379 -0.3754594624042511 0.49440965056419373
-0.85542809963226318 -0.27848413586616516 0.52220159769058228
-0.8273998498916626 -0.26504838466644287 0.46428799629211426
-0.03584713488817215 0.78144925832748413 0.62451857328414917
-0.037091020494699478 0.7842944860458374 0.65712201595306396
0.0022482443600893021 0.79709404706954956 0.60869264602661133
-0.03459501639008522 0.77506077289581299 0.58825147151947021
-0.073430806398391724 0.75780433416366577 0.63546037673950195
-0.075551986694335938 0.76001101732254028 0.66863912343978882
0.0017206519842147827 0.80037462711334229 0.64047157764434814
0.0021637305617332458 0.78998023271560669 0.57338368892669678
-0.070762038230895996 0.75251984596252441 0.59855663776397705
-0.84805047512054443 -0.48637628555297852 0.43250751495361328
-0.83949685096740723 -0.51651906967163086 0.42540273070335388
-0.85589390993118286 -0.49386420845985413 0.46203109622001648
-0.84841632843017578 -0.45215752720832825 0.4410402774810791
-0.83604323863983154 -0.4759213924407959 0.40147122740745544
-0.82799798250198364 -0.50550556182861328 0.39500001072883606
-0.84696441888809204 -0.52409648895263672 0.45428586006164551
-0.85648590326309204 -0.45927202701568604 0.47110846638679504
-0.83629459142684937 -0.44262361526489258 0.40937316417694092
0.14651283621788025 0.77614903450012207 0.50966769456863403
0.14810983836650848 0.77956122159957886 0.53794854879379272
0.19738386571407318 0.74747073650360107 0.47103190422058105
0.14242500066757202 0.77074337005615234 0.47783765196800232
0.093973010778427124 0.79492056369781494 0.54969733953475952
0.094832539558410645 0.7984432578086853 0.57917428016662598
0.19969174265861511 0.75073891878128052 0.49843055009841919
0.19223885238170624 0.74342292547225952 0.43978515267372131
0.091178968548774719 0.78834611177444458 0.51680648326873779
-0.72645044326782227 -0.58428001403808594 0.41118884086608887
-0.66500407457351685 -0.59566581249237061 0.41287878155708313
-0.73100829124450684 -0.5904657244682312 0.43848580121994019
-0.77889972925186157 -0.56614083051681519 0.41398018598556519
-0.72098511457443237 -0.57480365037918091 0.38023367524147034
-0.66238510608673096 -0.58765095472335815 0.38079336285591125
-0.66823303699493408 -0.6010175347328186 0.44013920426368713
-0.78470605611801147 -0.57302886247634888 0.4416433572769165
-0.77073293924331665 -0.55560576915740967 0.38372635841369629
0.30023381114006042 0.61696624755859375 0.4168262779712677
0.30411854386329651 0.62026941776275635 0.44531062245368958
0.31694683432579041 0.56529521942138672 0.41753992438316345
0.29446756839752197 0.61541253328323364 0.38252118229866028
0.2757662832736969 0.6660502552986145 0.42319059371948242
0.27924463152885437 0.66927409172058105 0.4507928192615509
0.32110109925270081 0.56859618425369263 0.44680690765380859
0.31152376532554626 0.56390666961669922 0.38179066777229309
0.26980498433113098 0.66404646635055542 0.39053457975387573
-0.46684300899505615 -0.57578772306442261 0.4585319459438324
-0.40336930751800537 -0.55424165725708008 0.48119542002677917
-0.46688586473464966 -0.57856875658035278 0.4883539080619812
-0.53242397308349609 -0.59125107526779175 0.43731117248535156
-0.47006431221961975 -0.57343947887420654 0.42147466540336609
-0.40747421979904175 -0.55362999439239502 0.44296389818191528
-0.40260833501815796 -0.55619049072265625 0.51191568374633789
-0.53335505723953247 -0.59486782550811768 0.46597835421562195
-0.53430044651031494 -0.58695578575134277 0.40193855762481689
0.33470159769058228 0.41393277049064636 0.43167963624000549
0.33869791030883789 0.41603472828865051 0.45878952741622925
0.33186286687850952 0.36450788378715515 0.43869206309318542
0.32957750558853149 0.41156867146492004 0.39859253168106079
0.33330309391021729 0.46317648887634277 0.42632302641868591
0.33752602338790894 0.46577990055084229 0.4550042450428009
0.33543685078620911 0.36641538143157959 0.46372276544570923
0.32668614387512207 0.36043485999107361 0.4097391664981842
0.3282352089881897 0.46155408024787903 0.39080646634101868
-0.23537498712539673 -0.47113832831382751 0.52831059694290161
-0.18520131707191467 -0.43804448843002319 0.53660422563552856
-0.23242329061031342 -0.47063305974006653 0.55672341585159302
-0.28763896226882935 -0.50116294622421265 0.51715946197509766
-0.23978318274021149 -0.47242507338523865 0.49341511726379395
-0.18778106570243835 -0.43811476230621338 0.50584685802459717
-0.18223313987255096 -0.43705669045448303 0.56278282403945923
-0.28526288270950317 -0.50140368938446045 0.54725033044815063
-0.29255339503288269 -0.50258660316467285 0.47973403334617615
0.48269921541213989 -0.17134498059749603 0.27343189716339111
0.47003132104873657 -0.20572599768638611 0.28092268109321594
0.4605889618396759 -0.16036233305931091 0.25667306780815125
0.49179118871688843 -0.136492058634758 0.26968783140182495
0.51070302724838257 -0.18494346737861633 0.28719666600227356
0.49814116954803467 -0.21732494235038757 0.29354602098464966
0.44773900508880615 -0.1970365047454834 0.2654956579208374
0.46907362341880798 -0.12364393472671509 0.2523311972618103
0.52038931846618652 -0.15167437493801117 0.28396552801132202
0.40339267253875732 -0.29389980435371399 0.31439736485481262
0.37543538212776184 -0.29199430346488953 0.29870104789733887
0.42986422777175903 -0.26779633760452271 0.30173540115356445
0.43657732009887695 -0.29944610595703125 0.32780691981315613
0.37540042400360107 -0.31636291742324829 0.32948786020278931
0.34503352642059326 -0.31539607048034668 0.31315487623214722
0.40442389249801636 -0.26399147510528564 0.2869536280632019
0.46077066659927368 -0.27504891157150269 0.31407636404037476
0.41073739528656006 -0.32105928659439087 0.34375128149986267
0.63537567853927612 -0.23826390504837036 0.30603718757629395
0.62316995859146118 -0.26865637302398682 0.31317463517189026
0.5877339243888855 -0.21920163929462433 0.30280378460884094
0.64553272724151611 -0.20623014867305756 0.30073598027229309
0.68614017963409424 -0.25675004720687866 0.30906131863594055
0.67397445440292358 -0.28746998310089111 0.31789207458496094
0.57540518045425415 -0.24958159029483795 0.30886730551719666
0.5979575514793396 -0.18731841444969177 0.29892805218696594
0.69620007276535034 -0.22437331080436707 0.30171093344688416
0.5668189525604248 -0.3439691960811615 0.35294097661972046
0.51910030841827393 -0.32509595155715942 0.34634512662887573
0.58891981840133667 -0.32146382331848145 0.3366856575012207
0.61652159690856934 -0.36401882767677307 0.36018356680870056
0.54255717992782593 -0.36501273512840271 0.37078824639320374
0.49516934156417847 -0.34591764211654663 0.36379218101501465
0.54105597734451294 -0.30257785320281982 0.33072742819786072
0.63921993970870972 -0.34101900458335876 0.34350234270095825
0.59150177240371704 -0.38570407032966614 0.37815135717391968
0.83523374795913696 -0.29577761888504028 0.33559820055961609
0.82213127613067627 -0.32703107595443726 0.35171958804130554
0.78815269470214844 -0.28640270233154297 0.32298952341079712
0.84606051445007324 -0.263572096824646 0.3194529116153717
0.87710464000701904 -0.30099302530288696 0.35140314698219299
0.86335909366607666 -0.3322141170501709 0.36998677253723145
0.77555352449417114 -0.31764376163482666 0.33650451898574829
0.79849690198898315 -0.25386941432952881 0.31001377105712891
0.88858342170715332 -0.26920413970947266 0.33228334784507751
0.76002103090286255 -0.41144624352455139 0.40150228142738342
0.71492838859558105 -0.39908045530319214 0.3838982880115509
0.78456878662109375 -0.38479650020599365 0.38472709059715271
0.7998775839805603 -0.41969794034957886 0.42202052474021912
0.73302209377288818 -0.43742066621780396 0.41803470253944397
0.68838101625442505 -0.42332673072814941 0.40113481879234314
0.73899686336517334 -0.37389424443244934 0.36700668931007385
0.82476723194122314 -0.39153072237968445 0.40536478161811829
0.77263283729553223 -0.44743841886520386 0.43786382675170898
0.95510077476501465 -0.28954905271530151 0.41320326924324036
0.9659615159034729 -0.27958470582962036 0.43589323759078979
0.93900150060653687 -0.32110553979873657 0.43617412447929382
0.93743628263473511 -0.29737365245819092 0.39090636372566223
0.96903473138809204 -0.25841611623764038 0.38917183876037598
0.98058182001113892 -0.2485799640417099 0.41171538829803467
0.94920074939727783 -0.3112749457359314 0.45918634533882141
0.92212486267089844 -0.32874631881713867 0.41301405429840088
0.95054435729980469 -0.26613730192184448 0.3677179217338562
0.87254339456558228 -0.41634181141853333 0.49378302693367004
0.89761388301849365 -0.38466760516166687 0.47664308547973633
0.88239246606826782 -0.40792170166969299 0.51790440082550049
0.84574222564697266 -0.44777572154998779 0.50915110111236572
0.85640281438827515 -0.42184549570083618 0.46904376149177551
0.88155472278594971 -0.39106425642967224 0.45221275091171265
0.90723872184753418 -0.37571462988853455 0.50043010711669922
0.85611605644226074 -0.43972852826118469 0.53353685140609741
0.82926148176193237 -0.45244184136390686 0.48427602648735046
1.0017509460449219 -0.17024786770343781 0.31798294186592102
1.0144306421279907 -0.16242597997188568 0.34148383140563965
0.99309390783309937 -0.19824531674385071 0.3402201235294342
0.98186963796615601 -0.17657895386219025 0.29878276586532593
1.0053012371063232 -0.1447538435459137 0.30004978179931641
1.0188872814178467 -0.13742169737815857 0.32321131229400635
1.0054193735122681 -0.18962424993515015 0.36338236927986145
0.97348088026046753 -0.20491491258144379 0.31987455487251282
0.98517495393753052 -0.15167920291423798 0.28373792767524719
0.76308757066726685 -0.53688526153564453 0.54622620344161987
0.79051554203033447 -0.50941956043243408 0.5354347825050354
0.77632719278335571 -0.5281684398651123 0.57088387012481689
0.73592942953109741 -0.55862116813659668 0.55499398708343506
0.74537217617034912 -0.53995400667190552 0.52185600996017456
0.77277332544326782 -0.5132676362991333 0.51067948341369629
0.80271029472351074 -0.50097084045410156 0.56004565954208374
0.75000673532485962 -0.55049145221710205 0.57980126142501831
0.71987259387969971 -0.55936652421951294 0.53144282102584839
0.96468102931976318 -0.087096765637397766 0.28112387657165527
0.98996883630752563 -0.079049013555049896 0.30364656448364258
0.98742812871932983 -0.10358071327209473 0.28130877017974854
0.93577742576599121 -0.099079422652721405 0.26617327332496643
0.93418240547180176 -0.071504399180412292 0.28649374842643738
0.96553122997283936 -0.063184939324855804 0.30865952372550964
1.0072956085205078 -0.096007749438285828 0.3038862943649292
0.96310567855834961 -0.11381296068429947 0.26736190915107727
0.89945977926254272 -0.084248505532741547 0.27131408452987671
0.64838647842407227 -0.57343447208404541 0.56238090991973877
0.67928963899612427 -0.57722181081771851 0.56282985210418701
0.66938060522079468 -0.5718877911567688 0.59358412027359009
0.61491292715072632 -0.56261420249938965 0.56087112426757812
0.63142609596252441 -0.56715947389602661 0.53172683715820312
0.66432482004165649 -0.573158860206604 0.53610438108444214
0.69709837436676025 -0.57273650169372559 0.5909464955329895
0.63946396112442017 -0.56462055444717407 0.59512150287628174
0.59472733736038208 -0.55312961339950562 0.52686071395874023
0.81039035320281982 -0.022046457976102829 0.3238065242767334
0.85437005758285522 -0.013100018724799156 0.34708204865455627
0.85576856136322021 -0.039231769740581512 0.30898445844650269
0.76366817951202393 -0.035866722464561462 0.30617135763168335
0.76233303546905518 -0.0047464240342378616 0.33958521485328674
0.80728590488433838 0.0044737905263900757 0.36415347456932068
0.89705413579940796 -0.030522603541612625 0.33135443925857544
0.81137979030609131 -0.052642930299043655 0.29277405142784119
0.71506726741790771 -0.018990438431501389 0.32005301117897034
0.49652129411697388 -0.50560534000396729 0.55712425708770752
0.53879737854003906 -0.52729165554046631 0.55801934003829956
0.52796483039855957 -0.51579064130783081 0.59846723079681396
0.45240756869316101 -0.48251694440841675 0.55606573820114136
0.46984365582466125 -0.48872259259223938 0.51594692468643188
0.51314461231231689 -0.51202535629272461 0.51876974105834961
0.56896549463272095 -0.5355263352394104 0.59745746850967407
0.48392921686172485 -0.49382081627845764 0.598793625831604
0.42590689659118652 -0.46492815017700195 0.51343762874603271
0.67538106441497803 -0.10859993100166321 0.28905472159385681
0.7260897159576416 -0.12542383372783661 0.2824375331401825
0.66340118646621704 -0.1402963250875473 0.29190298914909363
0.62707459926605225 -0.091246701776981354 0.29464349150657654
0.69385462999343872 -0.079668581485748291 0.2894061803817749
0.74422609806060791 -0.096187427639961243 0.28021863102912903
0.71410953998565674 -0.15756949782371521 0.28794708847999573
0.61546659469604492 -0.12230398505926132 0.29456934332847595
0.64522463083267212 -0.062835320830345154 0.29801630973815918
0.46897470951080322 -0.42692920565605164 0.4265286922454834
0.4910275936126709 -0.4061310887336731 0.40704426169395447
0.51514160633087158 -0.45054882764816284 0.43305230140686035
0.45519289374351501 -0.44771361351013184 0.44975405931472778
0.42385655641555786 -0.40485498309135437 0.42045265436172485
0.44501650333404541 -0.38534161448478699 0.40029457211494446
0.53816431760787964 -0.4287339448928833 0.41405165195465088
0.50038039684295654 -0.47198963165283203 0.45547744631767273
0.41084906458854675 -0.42449519038200378 0.44464600086212158
0.87642478942871094 -0.16711734235286713 0.27170196175575256
0.89008229970932007 -0.13926711678504944 0.26211303472518921
0.91877889633178711 -0.1754816472530365 0.27558189630508423
0.86542415618896484 -0.1981973797082901 0.28625649213790894
0.82858407497406006 -0.15539208054542542 0.27236786484718323
0.84468430280685425 -0.12653923034667969 0.26497983932495117
0.92784017324447632 -0.14946675300598145 0.26503422856330872
0.90902483463287354 -0.20534482598304749 0.29261621832847595
0.81701600551605225 -0.18728193640708923 0.28382059931755066
0.65034854412078857 -0.5149000883102417 0.46478408575057983
0.68900394439697266 -0.52877128124237061 0.48055163025856018
0.63170015811920166 -0.536751389503479 0.48254746198654175
0.60721153020858765 -0.49614217877388 0.45163649320602417
0.67585867643356323 -0.48979425430297852 0.4490962028503418
0.71519160270690918 -0.5033489465713501 0.46673619747161865
0.66847759485244751 -0.54827660322189331 0.49512374401092529
0.59005987644195557 -0.5184628963470459 0.47161677479743958
0.63199383020401001 -0.4720626175403595 0.43440374732017517
0.51020264625549316 -0.041336242109537125 0.29218477010726929
0.52225786447525024 -0.014890551567077637 0.31010103225708008
0.54379492998123169 -0.057054698467254639 0.29648107290267944
0.50334841012954712 -0.07065245509147644 0.27885499596595764
0.48177057504653931 -0.027329199016094208 0.28576791286468506
0.49051320552825928 -0.0014642886817455292 0.30993452668190002
0.55868852138519287 -0.029957465827465057 0.30862835049629211
0.53475290536880493 -0.086836099624633789 0.28837630152702332
0.47746449708938599 -0.056331917643547058 0.26671916246414185
0.30322852730751038 -0.36124607920646667 0.39599639177322388
0.34018179774284363 -0.37162831425666809 0.40544921159744263
0.29089817404747009 -0.37247633934020996 0.42694789171218872
0.27053219079971313 -0.35395047068595886 0.3859366774559021
0.32306212186813354 -0.34930360317230225 0.36972364783287048
0.36019390821456909 -0.3565182089805603 0.38199514150619507
0.32790452241897583 -0.3864821195602417 0.43342670798301697
0.25791853666305542 -0.36110442876815796 0.42034944891929626
0.29041245579719543 -0.34553813934326172 0.35626477003097534
0.61336404085159302 0.043301001191139221 0.38292092084884644
0.65016692876815796 0.053530819714069366 0.41250979900360107
0.66248488426208496 0.028452657163143158 0.36973285675048828
0.57542294263839722 0.027982041239738464 0.3559592068195343
0.56690108776092529 0.056163989007472992 0.39470988512039185
0.59862399101257324 0.066582828760147095 0.4258345365524292
0.7036091685295105 0.038357876241207123 0.3976004421710968
0.61986929178237915 0.013409845530986786 0.34538513422012329
0.5343853235244751 0.040747053921222687 0.36526530981063843
0.317392498254776 -0.41380900144577026 0.54869520664215088
0.3615882396697998 -0.43598169088363647 0.55190205574035645
0.3413129448890686 -0.42333653569221497 0.59216725826263428
0.27637901902198792 -0.3927854597568512 0.54512089490890503
0.29857909679412842 -0.39972010254859924 0.50461751222610474
0.33923906087875366 -0.4198969304561615 0.50785213708877563
0.3891465961933136 -0.44685646891593933 0.59567397832870483
0.29627135396003723 -0.40053370594978333 0.58785945177078247
0.26142385601997375 -0.38117259740829468 0.5013776421546936
0.36782139539718628 0.093926265835762024 0.45070293545722961
0.3858356773853302 0.090059176087379456 0.44202789664268494
0.35779115557670593 0.09678669273853302 0.42270991206169128
0.3512592613697052 0.097097083926200867 0.45917248725891113
0.37658214569091797 0.095663413405418396 0.47893550992012024
0.39619523286819458 0.093652456998825073 0.47285494208335876
0.37427979707717896 0.088894002139568329 0.4087643027305603
0.34263822436332703 0.10197801887989044 0.43541252613067627
0.35857319831848145 0.097656533122062683 0.48527097702026367
0.11894279718399048 -0.29155778884887695 0.53677231073379517
0.10411466658115387 -0.29619684815406799 0.507152259349823
0.13288402557373047 -0.30165445804595947 0.53338354825973511
0.12848584353923798 -0.2885710597038269 0.56653410196304321
0.10653959214687347 -0.28201395273208618 0.54052621126174927
0.091535493731498718 -0.28708824515342712 0.51565396785736084
0.11975972354412079 -0.30531111359596252 0.49762225151062012
0.14239411056041718 -0.29933702945709229 0.5663985013961792
0.11570675671100616 -0.27854934334754944 0.56768119335174561
0.45695248246192932 0.078435309231281281 0.42101284861564636
0.4883233904838562 0.073484271764755249 0.41365346312522888
0.43920910358428955 0.065115444362163544 0.3862360417842865
0.42972820997238159 0.082388609647750854 0.42737892270088196
0.47477823495864868 0.087596409022808075 0.45427826046943665
0.51014751195907593 0.083502039313316345 0.44659653306007385
0.46645763516426086 0.058692760765552521 0.38044813275337219
0.41464990377426147 0.072213031351566315 0.39057770371437073
0.4444383978843689 0.090030401945114136 0.46086326241493225
0.18688161671161652 -0.33944734930992126 0.53495365381240845
0.18005737662315369 -0.33592063188552856 0.49323007464408875
0.21101967990398407 -0.35543563961982727 0.53802263736724854
0.19745323061943054 -0.34145605564117432 0.57387620210647583
0.1663392037153244 -0.32528138160705566 0.53242915868759155
0.15826068818569183 -0.32467260956764221 0.49046638607978821
0.20280282199382782 -0.34917789697647095 0.49574458599090576
0.22382436692714691 -0.35930114984512329 0.57833361625671387
0.17594462633132935 -0.32549497485160828 0.57014191150665283
0.30494403839111328 0.1068209707736969 0.48204666376113892
0.30713462829589844 0.10584267973899841 0.50555479526519775
0.31913596391677856 0.10174703598022461 0.47546356916427612
0.30118897557258606 0.1120898574590683 0.46462389826774597
0.29494443535804749 0.11838850378990173 0.48594984412193298
0.29537981748580933 0.11697126924991608 0.50918889045715332
0.32317912578582764 0.10113543272018433 0.49929976463317871
0.31353956460952759 0.10724523663520813 0.45679837465286255
0.29336449503898621 0.12376759946346283 0.46948733925819397
0.070482432842254639 -0.25658342242240906 0.55117428302764893
0.083807617425918579 -0.26293361186981201 0.54798400402069092
0.076734766364097595 -0.25124451518058777 0.57445037364959717
0.052696626633405685 -0.25715845823287964 0.55370157957077026
0.059697289019823074 -0.2622515857219696 0.53377068042755127
0.071257978677749634 -0.26826387643814087 0.52891963720321655
0.091185674071311951 -0.25835111737251282 0.57203191518783569
0.057993408292531967 -0.25102442502975464 0.5763094425201416
0.043480236083269119 -0.26364982128143311 0.53776675462722778
0.30319401621818542 0.21484267711639404 0.47099059820175171
0.2944871187210083 0.17247921228408813 0.48032942414283752
0.299843430519104 0.21232376992702484 0.4552457332611084
0.31441915035247803 0.26337549090385437 0.45933905243873596
0.30409201979637146 0.21528083086013794 0.492328941822052
0.29430213570594788 0.1718285083770752 0.502247154712677
0.2930067777633667 0.17368033528327942 0.46531262993812561
0.30994454026222229 0.25861358642578125 0.44016164541244507
0.31639671325683594 0.26460221409797668 0.48110634088516235
-0.044034384191036224 -0.32377386093139648 0.55248141288757324
-0.045816682279109955 -0.32387998700141907 0.5354723334312439
-0.0043988656252622604 -0.29106375575065613 0.55465501546859741
-0.041136369109153748 -0.32022306323051453 0.57399600744247437
-0.088776051998138428 -0.362172931432724 0.54844212532043457
-0.089356452226638794 -0.3609110414981842 0.52755969762802124
-0.0088073872029781342 -0.29442304372787476 0.53940021991729736
-0.00084948353469371796 -0.28591063618659973 0.57618939876556396
-0.086086869239807129 -0.35982677340507507 0.57081270217895508
0.081313759088516235 0.02717871218919754 -0.68604367971420288
0.036514263600111008 0.080113358795642853 -0.71501666307449341
0.11895127594470978 0.095024958252906799 -0.66493719816207886
0.12269054353237152 -0.015635684132575989 -0.6475253701210022
0.038457628339529037 -0.044963531196117401 -0.70040112733840942
-0.0088904332369565964 0.009486563503742218 -0.73283094167709351
0.077909901738166809 0.14521732926368713 -0.68987762928009033
0.15729404985904694 0.055631257593631744 -0.63008648157119751
0.08185131847858429 -0.089560069143772125 -0.65866392850875854
-0.099163874983787537 -0.25307118892669678 -0.65784555673599243
-0.14185158908367157 -0.3099730908870697 -0.62503772974014282
-0.14696453511714935 -0.20499537885189056 -0.69588196277618408
-0.053764529526233673 -0.18816368281841278 -0.68582284450531006
-0.056253489106893539 -0.29334577918052673 -0.61200720071792603
-0.10165880620479584 -0.34627977013587952 -0.58019101619720459
-0.18762505054473877 -0.26740097999572754 -0.66242313385009766
-0.10256795585155487 -0.13607676327228546 -0.72301375865936279
-0.009512459859251976 -0.23134630918502808 -0.64022880792617798
0.23540626466274261 -0.10857746750116348 -0.47203019261360168
0.19939009845256805 -0.082466825842857361 -0.54081302881240845
0.2629263699054718 -0.03480757400393486 -0.46361196041107178
0.2693861722946167 -0.12875658273696899 -0.39252415299415588
0.20055858790874481 -0.18203435838222504 -0.47476506233215332
0.16235576570034027 -0.1573796272277832 -0.54619830846786499
0.2291521281003952 -0.0077545866370201111 -0.52960038185119629
0.2945195734500885 -0.057185888290405273 -0.3870072066783905
0.23699285089969635 -0.19969658553600311 -0.39261475205421448
0.067340061068534851 -0.36904653906822205 -0.4212479293346405
0.018344826996326447 -0.41390657424926758 -0.39201369881629944
0.025905992835760117 -0.35145083069801331 -0.49413168430328369
0.11502204835414886 -0.3145885169506073 -0.44845980405807495
0.10825733840465546 -0.37837046384811401 -0.33887150883674622
0.059661213308572769 -0.42106246948242188 -0.31101271510124207
-0.022958995774388313 -0.39869439601898193 -0.46405324339866638
0.073990881443023682 -0.29437923431396484 -0.52196282148361206
0.15506140887737274 -0.32661247253417969 -0.36489090323448181
0.35548558831214905 -0.14873749017715454 -0.09504660964012146
0.32980248332023621 -0.14812976121902466 -0.20003259181976318
0.37132489681243896 -0.087364763021469116 -0.099078208208084106
0.37762695550918579 -0.14623838663101196 0.0046623228117823601
0.33224120736122131 -0.20783540606498718 -0.087015740573406219
0.30334815382957458 -0.21157979965209961 -0.19440609216690063
0.34892424941062927 -0.083169147372245789 -0.20159460604190826
0.39072239398956299 -0.088063150644302368 0.0014735274016857147
0.35730886459350586 -0.20116841793060303 0.013754794374108315
0.22175650298595428 -0.35571092367172241 -0.041268602013587952
0.17432631552219391 -0.39231094717979431 -0.022154776379466057
0.18628749251365662 -0.37030687928199768 -0.14504465460777283
0.2646574079990387 -0.31242570281028748 -0.059378005564212799
0.25342261791229248 -0.3384280800819397 0.056654825806617737
0.20693843066692352 -0.37249255180358887 0.076227843761444092
0.13846707344055176 -0.40902593731880188 -0.12318093329668045
0.23062796890735626 -0.32415035367012024 -0.16609802842140198
0.29470261931419373 -0.29803475737571716 0.040398348122835159
0.41991382837295532 -0.14415712654590607 0.18938653171062469
0.40898919105529785 -0.14279168844223022 0.1487782746553421
0.42808997631072998 -0.10090839862823486 0.18583819270133972
0.43070226907730103 -0.14704284071922302 0.21712085604667664
0.40535256266593933 -0.18757994472980499 0.20010128617286682
0.39306601881980896 -0.18966950476169586 0.15901914238929749
0.41821050643920898 -0.094197079539299011 0.14653980731964111
0.43854838609695435 -0.10667252540588379 0.21273601055145264
0.41701081395149231 -0.18805064260959625 0.22774377465248108
0.31868371367454529 -0.30071794986724854 0.23558956384658813
0.28207233548164368 -0.32675543427467346 0.25163939595222473
0.30127632617950439 -0.30940297245979309 0.19675998389720917
0.35357287526130676 -0.26765882968902588 0.22390365600585938
0.33472853899002075 -0.29545721411705017 0.26186463236808777
0.30036827921867371 -0.32036492228507996 0.27656441926956177
0.26075512170791626 -0.33778110146522522 0.21531437337398529
0.33838632702827454 -0.2742430567741394 0.18364951014518738
0.36786714196205139 -0.26404330134391785 0.25077283382415771
0.4247840940952301 0.0018858164548873901 0.2612336277961731
0.4397798478603363 -0.0068344883620738983 0.2706398069858551
0.4285113513469696 -0.026947189122438431 0.22237727046012878
0.41207683086395264 0.013355638831853867 0.24831214547157288
0.4227275550365448 0.026783987879753113 0.30479264259338379
0.4414689838886261 0.018293470144271851 0.30743372440338135
0.44091799855232239 -0.035774096846580505 0.23961406946182251
0.41813498735427856 -0.014804063364863396 0.1979919821023941
0.40578997135162354 0.037954479455947876 0.29989877343177795
0.20102590322494507 -0.3443431556224823 0.35534673929214478
0.22134099900722504 -0.34745991230010986 0.31183511018753052
0.22091390192508698 -0.3454231321811676 0.3660862147808075
0.18659548461437225 -0.33863663673400879 0.40195289254188538
0.17946408689022064 -0.34665784239768982 0.34210407733917236
0.19811694324016571 -0.3552682101726532 0.289451003074646
0.24145103991031647 -0.34431394934654236 0.32846283912658691
0.20719186961650848 -0.34416559338569641 0.40816968679428101
0.16432619094848633 -0.33581817150115967 0.39434483647346497
0.29769974946975708 0.64139550924301147 0.2102353423833847
0.29266399145126343 0.62761342525482178 0.27813738584518433
0.32300785183906555 0.58569389581680298 0.19993384182453156
0.30299878120422363 0.65698146820068359 0.14086399972438812
0.26463165879249573 0.69002526998519897 0.2291533499956131
0.26374316215515137 0.67569941282272339 0.292308509349823
0.31375280022621155 0.57440578937530518 0.27264028787612915
0.33419576287269592 0.59769517183303833 0.12213782966136932
0.26501736044883728 0.70690912008285522 0.16577349603176117
-0.50059479475021362 -0.60013294219970703 0.24239319562911987
-0.43427515029907227 -0.59140950441360474 0.26150378584861755
-0.48741105198860168 -0.58552926778793335 0.31210711598396301
-0.56458580493927002 -0.60031354427337646 0.22802163660526276
-0.51515835523605347 -0.6155053973197937 0.17063106596469879
-0.4448067843914032 -0.6131443977355957 0.18668608367443085
-0.42375978827476501 -0.57197403907775879 0.33225664496421814
-0.55051118135452271 -0.59125387668609619 0.29603421688079834
-0.58094853162765503 -0.60962247848510742 0.15834367275238037
-0.12815713882446289 0.31480845808982849 -0.74495559930801392
-0.1933123767375946 0.40514263510704041 -0.72853642702102661
-0.071861669421195984 0.37546840310096741 -0.70928949117660522
-0.067861050367355347 0.22606095671653748 -0.7459443211555481
-0.18595251441001892 0.24401506781578064 -0.77341699600219727
-0.25512823462486267 0.3330826461315155 -0.76070141792297363
-0.13259737193584442 0.46547782421112061 -0.69000875949859619
-0.016762685030698776 0.28760269284248352 -0.71337646245956421
-0.12102258205413818 0.15614184737205505 -0.77083581686019897
-0.33880791068077087 -0.013430928811430931 -0.76679098606109619
-0.37750923633575439 -0.10076428204774857 -0.73940771818161011
-0.41517269611358643 0.059097565710544586 -0.76791918277740479
-0.29334390163421631 0.076671019196510315 -0.78486138582229614
-0.2668958306312561 -0.083771884441375732 -0.75185513496398926
-0.30560719966888428 -0.16201458871364594 -0.7209354043006897
-0.45437735319137573 -0.03637724369764328 -0.74510782957077026
-0.36825960874557495 0.15661783516407013 -0.78118687868118286
-0.22248172760009766 -0.0018010549247264862 -0.77405297756195068
-0.6937638521194458 0.61376333236694336 0.14076352119445801
-0.68123805522918701 0.58012992143630981 0.21511530876159668
-0.62614637613296509 0.68911480903625488 0.16076989471912384
-0.69347643852233887 0.64396446943283081 0.061495669186115265
-0.75885826349258423 0.52976047992706299 0.11157893389463425
-0.74689078330993652 0.49477416276931763 0.1897720992565155
-0.61319637298583984 0.65724116563796997 0.23064933717250824
-0.62657260894775391 0.71753168106079102 0.085912488400936127
-0.75788766145706177 0.56126266717910767 0.028722427785396576
-0.9214402437210083 0.25655364990234375 -0.00043897470459342003
-0.95763498544692993 0.1691121906042099 -0.040902562439441681
-0.90998351573944092 0.22137060761451721 0.079296678304672241
-0.8747025728225708 0.34799379110336304 0.038951441645622253
-0.92054611444473267 0.28763407468795776 -0.082808911800384521
-0.95722854137420654 0.19873498380184174 -0.12011417746543884
-0.94614976644515991 0.13511674106121063 0.036609414964914322
-0.86329549551010132 0.31219124794006348 0.11992586404085159
-0.87341290712356567 0.37995791435241699 -0.045515343546867371
-0.63292223215103149 0.70642751455307007 -0.20027631521224976
-0.66241037845611572 0.69220596551895142 -0.10985518246889114
-0.57024508714675903 0.77479946613311768 -0.16063688695430756
-0.59320312738418579 0.70957785844802856 -0.29228749871253967
-0.69404035806655884 0.62725669145584106 -0.24453537166118622
-0.72468960285186768 0.61192578077316284 -0.15034438669681549
-0.59815013408660889 0.76226472854614258 -0.075431369245052338
-0.53170686960220337 0.77631521224975586 -0.24825729429721832
-0.65360778570175171 0.63144141435623169 -0.33934885263442993
-0.86038839817047119 0.34952494502067566 -0.34242743253707886
-0.90148186683654785 0.25517046451568604 -0.36327379941940308
-0.88935810327529907 0.33605250716209412 -0.25481188297271729
-0.8097652792930603 0.44566118717193604 -0.31772920489311218
-0.82172054052352905 0.35116156935691833 -0.42864203453063965
-0.86437278985977173 0.25463566184043884 -0.44248625636100769
-0.9286612868309021 0.24367773532867432 -0.28219270706176758
-0.84014493227005005 0.43072080612182617 -0.2249569445848465
-0.76988786458969116 0.44904503226280212 -0.40958726406097412
-0.4103206992149353 0.62391817569732666 -0.5619167685508728
-0.48029255867004395 0.66925275325775146 -0.47636669874191284
-0.34692481160163879 0.68621212244033813 -0.5155947208404541
-0.33655655384063721 0.56379270553588867 -0.6360209584236145
-0.47384807467460632 0.54846948385238647 -0.60609608888626099
-0.54214835166931152 0.59293937683105469 -0.5233997106552124
-0.4182090163230896 0.73289519548416138 -0.42892155051231384
-0.27235817909240723 0.62501406669616699 -0.59194266796112061
-0.40121927857398987 0.48928672075271606 -0.67633140087127686
-0.64474964141845703 0.25713431835174561 -0.65808558464050293
-0.68733274936676025 0.15368500351905823 -0.65199035406112671
