# XYZ point cloud file
-0.13013978290329639 -0.41571819119610975 0.42595298106331014
0.31493857542957321 0.236008968101351 0.39190853824367372
0.31555683264663559 0.1894443673993125 0.39943529200816363
0.3175579581914717 0.14968529304856457 0.41245348651209168
0.36761205947703407 0.10389426600180063 0.29663922020850347
0.36049828094042069 0.13820790601472493 0.24479084590910469
0.35760637197442863 0.17606667505401477 0.1827310420776912
-0.018671690126540245 -0.40727640089498823 0.28717760847368834
0.031056146424602846 -0.37238131376030992 0.34300218746143274
0.078340996827062026 -0.34428406466072736 0.39007457140315632
0.022602276370376172 -0.30764067240971138 0.49166859818171216
-0.021441781181707406 -0.33322329018330826 0.48266034188120799
-0.070524248758998431 -0.36198340391306777 0.47949535990070191
0.19985817051277299 0.69948816761147858 -0.4175619389824976
0.23935943289089309 0.62625058045090265 -0.4414540806449635
0.27660754318242964 0.55717474686715462 -0.44863042538231518
0.28219343805857688 0.47105448481397949 -0.45772563649888592
0.25618109716246679 0.44043118074640653 -0.48130290531966474
0.23192308609052001 0.40403652102057808 -0.5089267600730889
0.16763871997734159 0.44613922546535245 -0.55780816848071002
0.12823635519939555 0.52920956697233446 -0.55410990955083561
0.085086270857276103 0.61013430113064382 -0.53687893054852642
-0.53783986217254254 -0.36054509665805706 -0.598161407522254
-0.46610632479584468 -0.39615123709188693 -0.57584207278831501
-0.3936568195093782 -0.42701863578441429 -0.54292457881589995
-0.34360906985484518 -0.4904613571529397 -0.45550902915165675
-0.36526868884719405 -0.52539673950228138 -0.42195871795670359
-0.38225545577470554 -0.56151012102265785 -0.39005863396820756
-0.45407038382977694 -0.57898733775927536 -0.40605965189131732
-0.51979809164103385 -0.55512061157969494 -0.44098514015659729
-0.58902412413521565 -0.52910784485873119 -0.46281497252902559
0.16852923348152751 0.34975749934535688 -0.58880848341904768
0.13674101397535843 0.33385748671605159 -0.62029903894491778
0.10677107935842078 0.30425228984891933 -0.64741294309517028
-0.30029673431926684 -0.32879508842555771 -0.62749788226232672
-0.31655809002861635 -0.37101023861533811 -0.5946316962314987
-0.32080890005487844 -0.41099994793430744 -0.5538819287971134
0.33767509048577293 0.45252996605549062 -0.40641487413208516
0.36000072919109805 0.42254742527156142 -0.36061064450314467
0.37708520059362 0.40789982467137542 -0.30526464698633499
0.3204002451665332 0.23621306112389392 -0.34598086221865459
0.29154371172854487 0.26542626887736054 -0.41848790229888477
0.25592583541025687 0.30401018105633815 -0.48405212117443308
-0.25439493450031858 -0.48849196395117517 -0.40624944902392313
-0.2061316529070093 -0.50699247103247236 -0.32158569207517512
-0.1652164308886365 -0.51714441846126258 -0.23512670457186927
-0.28891327466430033 -0.62566304192421063 -0.17077495424958355
-0.31172614496416345 -0.62016952848930162 -0.23745378834799385
-0.34763478255248814 -0.61171386343800671 -0.30164218244454344
0.22859817257081114 0.15356357217280103 -0.55829508121940397
0.23004166087112957 0.2129461080959629 -0.55108197768003508
0.22216015095024874 0.27572366946038551 -0.54779690145686333
-0.2481606898654653 -0.4547834010362421 -0.48192988996193536
-0.19799861697217358 -0.4515964617537348 -0.47729680733991386
-0.1530757960607568 -0.43879734414725657 -0.48313249095925642
0.19185898489641665 1.0883262136488057 -0.18812440295019159
0.1814173963113746 1.0984233990728021 -0.18510029850116996
0.17420159524410406 1.1072259286957438 -0.19068387170691392
0.15848350408999709 1.0698571799789012 -0.19552915709817165
0.14989248443720987 1.0288806045434316 -0.18655350549906632
0.14510812324731046 0.99070265575180105 -0.18003348735847824
0.14984668144082594 0.95667893964169815 -0.16032319972400988
0.15943502639418222 0.95615208725192746 -0.15402691929197301
0.17159696889689754 0.95435276288734638 -0.15616469367128477
0.18582716122769866 0.980638460620193 -0.16927426553902314
0.18874933579950451 1.0108705692332127 -0.17645698637619303
0.19477001850344439 1.0431493138389336 -0.18628485469137068
-0.87992228444333376 -0.63389873142232078 -0.40543308104961362
-0.8569777077584867 -0.62074668666193378 -0.37883067359353817
-0.83434631029942019 -0.61085681513370693 -0.35485343026491051
-0.8183539709888249 -0.58995670121629284 -0.33441268256870504
-0.82336421449181441 -0.57719786012244123 -0.34029471909608178
-0.82579207704937962 -0.5656491887418682 -0.35231033356652242
-0.85190315401257288 -0.56538022511489694 -0.39535980255001413
-0.8798313743869467 -0.57856078948479506 -0.42327070191635513
-0.90842666059975385 -0.59591399639719744 -0.45406888083517327
-0.93408510231277031 -0.62327590515126452 -0.46534000089244448
-0.92631662342064292 -0.63099826144950177 -0.44937105459275639
-0.91567580156819539 -0.64050270064349546 -0.43899817608116393
0.23838711592192943 1.245162363789355 -0.24653581985525466
0.21068997893850475 1.2056002286535477 -0.23162822318809417
0.188465900243726 1.160340559328261 -0.21828860141468087
0.21860878806560868 1.1159603812531707 -0.21209398473772384
0.23718334758260354 1.1531521080699545 -0.22751443955161277
0.26037481644391192 1.1857108416618172 -0.24445480631174696
0.28002356820577373 1.2276700702203467 -0.25273515193606655
0.27412345298749191 1.2456016199313096 -0.24862197157881608
0.27125121361884014 1.2618619990776192 -0.2516991530795436
-1.0221282246948811 -0.75762228342504812 -0.57096857926683386
-1.0098518787766004 -0.758950037223737 -0.55389028911520499
-0.99475691835810476 -0.76220291965081466 -0.54053081766291533
-0.96819540129261916 -0.73191951717571913 -0.51660405823396471
-0.95041332747942064 -0.70057819787639197 -0.4931673016533239
-0.92790094135208634 -0.67355191649358503 -0.46455256676908951
-0.96756850896586 -0.64506063769743827 -0.52114238498301035
-0.99499058563148812 -0.67744493687504448 -0.55259680689874346
-1.016834023879799 -0.71518250196075417 -0.57729420471827553
0.40247398059906142 1.2791619946506236 -0.32740528423549042
0.3563913414622365 1.2914453863796642 -0.30303037450620857
0.31214650318569853 1.2900755092871545 -0.28183352501663694
0.32114478405614222 1.2214564950686271 -0.28242952832822649
0.35713790674210655 1.2212710526016333 -0.30351148853846383
0.39458022663486048 1.2097081529577891 -0.32621075963468149
0.43350778826974129 1.2048521207288196 -0.34460597657880615
0.43706590310537174 1.2229945356607284 -0.34293613623825447
0.44205092769295157 1.2398383166274063 -0.34636332678863491
-0.96124122266581213 -0.94749615141453825 -0.5148129533210678
-0.94953780976920954 -0.93821046459253965 -0.50400212474493378
-0.93619340755732006 -0.92985192476309664 -0.49619830780854279
-0.94975690639994292 -0.88625649566700559 -0.51235151362738041
-0.96855372690659369 -0.84647210964758179 -0.52723062055895187
-0.97833597887087376 -0.80609336074888549 -0.53429485378976449
-1.0313454730397991 -0.80716324887350177 -0.59031113201041496
-1.0214308832524182 -0.85849829078316353 -0.57755804554744827
-1.0007737979886333 -0.90937277325680088 -0.55589934071442881
0.56030590910583344 1.1071605677387109 -0.44991870073244206
0.52899926155750343 1.1653177810371464 -0.42095516546464706
0.4909275404364391 1.2148434394394982 -0.38812852427022049
0.46693980617321901 1.1544310601282768 -0.37711972098438595
0.4984866239294799 1.1131715521974039 -0.40236220435276371
0.52474147470850308 1.0654393888448723 -0.42328713778443033
0.55352726256412343 1.0199415224718289 -0.43841451376815715
0.56385543896722323 1.0276047272507689 -0.44459924096262898
0.57398271550330626 1.0354087651360593 -0.45539626271193179
-0.76589493835638267 -1.0481164727825123 -0.38177740682391353
-0.76181747472242134 -1.0339151439057499 -0.37566650851050859
-0.75810758551771662 -1.0198358142174515 -0.37438326986609349
-0.80224316666243511 -0.99929675716146715 -0.40988106288894038
-0.84707519955834498 -0.98155591753800342 -0.44008276680330616
-0.88779327266736674 -0.95568362994870737 -0.46751566072411999
-0.92934387050272238 -0.9976668127983892 -0.49767691547586784
-0.88114683544988159 -1.0300392583525138 -0.46461168755539833
-0.82735780044069829 -1.0518575973844604 -0.42963727322109485
0.59168838865966422 0.83291813847143803 -0.46258759736061367
0.59711259968725849 0.90311971600936714 -0.47683598297742918
0.59464494794194522 0.97378725825474599 -0.47973216360037574
0.55476724602566163 0.95838744838059853 -0.43964996063072054
0.55792359375855161 0.90254223730084082 -0.43257732140690613
0.55455860338317087 0.84717037243126991 -0.41616215955287589
0.55533031263921095 0.78562259886609898 -0.39332763170372553
0.56509027638000386 0.7777746379652285 -0.4015798565098907
0.57368470816894923 0.77086847835628336 -0.41614186677681014
-0.54424360034263997 -0.9647488817671116 -0.22373042189724837
-0.55144023045632795 -0.9558706526488473 -0.21874553593590898
-0.56044790237961217 -0.94708162125243833 -0.22135971971426102
-0.61400919581556901 -0.96821081352870009 -0.26900603097934178
-0.66003705331928297 -0.9901542622264462 -0.30672121381544742
-0.70736961878372195 -1.0036698912301785 -0.34289367138099786
-0.71119680203248958 -1.0557133473308453 -0.35614295274725238
-0.65228924575394209 -1.0378048386539616 -0.31798750683566773
-0.59472061801660214 -1.0094478166746437 -0.27865166465687202
0.51770186098453608 0.59535403380845031 -0.32290349394769208
0.54188216812511281 0.64646080896244051 -0.36136339580853227
0.56289330044622177 0.70327748100190113 -0.40157531455505036
0.53241536186752803 0.74391649954386507 -0.35779445026610968
0.51559623701599344 0.69825995955175202 -0.32163688989198869
0.49617482898901305 0.65752931431622219 -0.28773007606468454
0.47994246514605771 0.60175313745237102 -0.25722217644667511
0.48507027771681382 0.5813934289240138 -0.2600397162523248
0.48925138820088893 0.56350520171723228 -0.27123888998824097
-0.38076147536633909 -0.78650154390836102 -0.087699304346495491
-0.39671702661853353 -0.78708766907546279 -0.083638132368641455
-0.41610347382913909 -0.78909285350749026 -0.08912515916360228
-0.46166590612470393 -0.82951793956276043 -0.12148866923612071
-0.49306413573350322 -0.86780528480835117 -0.15221238831581876
-0.5295720558128838 -0.90516251120213043 -0.18968074834706994
-0.48927484182383985 -0.92972135417124235 -0.19571370264503271
-0.44365326821574685 -0.88286565010660067 -0.15635836441285261
-0.40388531996845167 -0.83459236819887106 -0.12431324904060816
0.53753869050962422 0.8016546513269982 -0.39432317103449765
0.53088195458962484 0.8088985939058787 -0.40191195476471625
0.52581033521739462 0.81520115505132806 -0.41249225077557994
0.51088453644434229 0.77941327567924334 -0.39559260590356699
0.49703395043171411 0.74236562840526343 -0.3640432679326156
0.48189731037364331 0.70957510405907509 -0.33526529677534672
0.46776746472599112 0.67136135857659918 -0.29876614461605899
0.46935664548078276 0.65777354691705681 -0.28362297051916541
0.47166837545719503 0.6412866710828895 -0.27058366561250602
-0.45488484213570313 -0.79736149972405945 -0.11797632749026432
-0.47124029892034724 -0.80285556412454717 -0.13705269621244434
-0.48495017258750595 -0.80823333250091312 -0.15710460909079246
-0.51590533945056893 -0.84020191415270773 -0.19461057192983991
-0.54089198473451749 -0.86983526290239188 -0.22268291899053266
-0.56991845201620706 -0.89956339329482693 -0.25669337452044227
-0.59616396674013961 -0.92788852249938047 -0.27562385343755441
-0.58846240943153905 -0.92996194229121643 -0.25854524880171276
-0.57968086958419185 -0.93372645977682267 -0.2428208085684096
0.53648598853133533 1.0081289658830366 -0.43955675642634895
0.53089655495328458 1.0046735132434159 -0.44582638469912322
0.52735243079298177 1.0027473679921091 -0.45459417738087554
0.53311442288482458 0.9568422370621229 -0.46658511330871538
0.53435729767662221 0.91040015651330786 -0.46038174326971404
0.53049943490150819 0.86438719521131291 -0.44639976726820402
-0.63772869291180723 -0.9510356697942014 -0.32625673762113383
-0.67501762382540009 -0.96942677820215939 -0.35784138893635159
-0.71335455704585082 -0.98120536219740351 -0.38742498585451646
-0.75153819030964608 -0.98635695886480756 -0.40390209743645178
-0.75190772166255637 -0.99047829947721044 -0.39316389619969255
-0.7530510489585206 -0.997438316201949 -0.3839565026309405
0.43218101203992604 1.1720811992823126 -0.36051427469117509
0.43432779177634356 1.1596427523893895 -0.37295388250459377
0.43773652354347586 1.1502808781870257 -0.38689084988370026
0.4686588403639238 1.1177911914234204 -0.42098702428343038
0.49241314210712422 1.0842597133104688 -0.43975107493321636
0.51192751112197077 1.0452489178468747 -0.45516283096429067
-0.78954885124745422 -0.97977508346222886 -0.4409806014785117
-0.82512680447628139 -0.96659221562577846 -0.46479117857469704
-0.85719422611931273 -0.94684888466093553 -0.48628097842853957
-0.89064759803445248 -0.91927417819142432 -0.49829060114933238
-0.89940356315810155 -0.9184253254908018 -0.49336820821974209
-0.910204843832774 -0.91966747707386021 -0.49099635303945105
0.2983696378316677 1.1935976329533153 -0.27757650307028287
0.30930347451551765 1.1796886666572284 -0.29537149016315456
0.32023803498950937 1.1685733274191079 -0.31448704637672892
0.35652985319757541 1.1710612410630381 -0.34896281888408587
0.38468195526789078 1.1714341251396754 -0.36539972168455892
0.41355363927088967 1.1623685930418211 -0.38274597103770591
-0.90530064438450819 -0.89293069903878297 -0.52126346373331545
-0.91941606588246938 -0.86151492351091252 -0.53286237126861224
-0.92616985342887193 -0.82905209336206909 -0.53835149309373698
-0.93497032650080858 -0.78931748264240664 -0.53026711927088743
-0.94773475538571128 -0.78138639924351883 -0.52705810187608348
-0.96249479255531079 -0.77381254195813309 -0.52720594381615671
0.21837307935084774 1.068522905173132 -0.21421717714281596
0.23250830024916894 1.0602674860747239 -0.2338117113982251
0.24599790209594438 1.0536202954083627 -0.25506660502682754
0.27085145139053068 1.0809206123427963 -0.28928812550449479
0.28731845127246258 1.1124104743478129 -0.30332507233076872
0.30717880955730098 1.1401318946692178 -0.3179944163707018
-0.91539001914228812 -0.76676978354172498 -0.52445512524957716
-0.89970017124011625 -0.73908498857951122 -0.50590113871094688
-0.88033795172835017 -0.71462861004935729 -0.482900719332159
-0.86834186679790859 -0.68456924338940695 -0.44790259127528853
-0.87903130480134128 -0.67384271204883373 -0.43981209774427615
-0.89099602905659003 -0.66251941077692211 -0.43483787391959111
0.1998291299855802 0.94951953377344134 -0.17952580658265554
0.21409344608532699 0.9472738890148269 -0.19741068734754974
0.22732090030770283 0.94533024949543132 -0.21705246236569223
0.23944680144857508 0.96784183170859395 -0.24310343809982174
0.24263729042566981 0.9929901287664944 -0.25222172523606379
0.24865303970180705 1.0198420448824324 -0.26338351941154159
-0.84018115547483241 -0.67817364662838109 -0.43343430278474304
-0.82138245328576587 -0.6661496629978706 -0.41001540745404708
-0.80290209830324666 -0.6573075499089942 -0.3882442785825404
-0.79028235401444913 -0.64119755638539411 -0.35687056903484804
-0.79718028793377405 -0.62959808044967502 -0.3463735152337975
-0.80450799490286684 -0.61676654166353806 -0.33836407553073228
0.34902253215022155 0.59957304767643627 -0.09615185751059864
0.3581725094648413 0.58825792631105978 -0.068516339855325514
0.36632012928893021 0.56910577728551714 -0.033995908848340722
0.39794320826556762 0.45536005038200988 -0.2175785359346489
0.39822157492410631 0.4908836813515921 -0.21140750671164243
0.39438292412433423 0.52229513734431343 -0.21522577013768254
0.37693530339959047 0.54539440779712089 -0.2012358993456142
0.3691636367333887 0.55269644943341001 -0.17414518228656037
0.35811215245139305 0.57255896324945921 -0.14726340299571625
-0.42819435684744728 -0.6491476674078237 -0.056361989532017959
-0.4081152331405174 -0.65469245588200164 -0.070492984565226804
-0.400732566287548 -0.66244916983037827 -0.090515054875155751
-0.37510154281745817 -0.67249051570504115 -0.089247351531933167
-0.34586367609887475 -0.66421689848880239 -0.077912116477346249
-0.31539332664191572 -0.65178052681793708 -0.078901043381567892
-0.41380911730336084 -0.64295506821468806 0.058420079663558805
-0.43711545322648254 -0.64757775781338467 0.015191830974900671
-0.45285621285129601 -0.64668463690870437 -0.020275793262299044
0.4109583901406661 0.44582591232742841 -0.25969240262567095
0.43620790227549511 0.47715305313963419 -0.26713716269426147
0.46354964043052943 0.51139805221833234 -0.27589853283396254
0.45321590860779387 0.59368559374521901 -0.24736991220409449
0.43120890055405359 0.57187202422903793 -0.2409784405194961
0.40966068642149356 0.55758313850036212 -0.23696370410610818
-0.40196730443443029 -0.70270462787366095 -0.10726297808186994
-0.40669886211895473 -0.72907251242574078 -0.09989075645440014
-0.41809410225396931 -0.75902288379173188 -0.096114401197577665
-0.34526134785877716 -0.74352543766835644 -0.099860894958231708
-0.32451100990373222 -0.70320991207728367 -0.10421198417840338
-0.30582659485995034 -0.66643588291611255 -0.10938789339645223
0.31183934433731975 0.65179416107673449 -0.093532649135010151
0.27441740117354441 0.70635584736949353 -0.065858931966077283
0.22931270728389955 0.76385370702573452 -0.036742233311490492
-0.64681191555996753 -0.60067538787896746 -0.089963037030837884
-0.57748473534750866 -0.61947143257042636 -0.07145049539154362
-0.51447438526595035 -0.63332510755230231 -0.057237557955881632
0.1455787356316566 0.92260302179585663 -0.17691227556673278
0.14694605559352106 0.89484280795950966 -0.1756450249952469
0.14434680740562017 0.87419945850014891 -0.16749850462416072
0.15519393178861332 0.85925007200082948 -0.14017453501490165
0.17251772293901654 0.8551769132650523 -0.14735676071119999
0.18710378085603713 0.85162960617371986 -0.15867546848974479
0.19457389549235291 0.87265514010006695 -0.16961227095617842
0.18989432652595345 0.89770679859590574 -0.16647454718268506
0.18678219302258531 0.92420661266781068 -0.16462314067201683
-0.78887609876097953 -0.5973090956495648 -0.31674086188893757
-0.76612537525166935 -0.59289907887491566 -0.30213632200210178
-0.74386390876149333 -0.59024948023545898 -0.28922006089102331
-0.72947732879117022 -0.57711910286183998 -0.27150316576800426
-0.73784837750183141 -0.56410267340801079 -0.26978835230404302
-0.74759911292167158 -0.54848108846479593 -0.27366183008012213
-0.76084969184223206 -0.53756651719128301 -0.31494288049581753
-0.77568384508830457 -0.54427253635863204 -0.33351865726238922
-0.79810073414840854 -0.54961992723998487 -0.35138320241760673
0.45198706954964979 0.65865127404832446 -0.30663626594296522
0.43869229885693689 0.64136378944135763 -0.30780523354989769
0.42706399362704617 0.63002571593309298 -0.31378900358453926
0.41141894893117686 0.61309923042702574 -0.30049291236982134
0.40375819135465557 0.59683615510370946 -0.27838975894651807
0.3956022661476305 0.57677523655435048 -0.25521318764889805
-0.42544989999784538 -0.69846018276335375 -0.1388010407735
-0.44178349746374523 -0.71649603793324468 -0.16126491845856994
-0.45491096182995849 -0.73255994710604899 -0.18231352996095118
-0.46512052698512885 -0.75573256728016669 -0.18927879987901333
-0.47032043408213625 -0.77047514161690067 -0.17824055387736276
-0.48040754685532666 -0.78947881113416785 -0.17253880483585726
0.41049247102869302 0.62669319055934347 -0.32367191371627818
0.40462569306489565 0.63316539070249089 -0.32426188494280855
0.39857375045472104 0.64252087240242983 -0.32304761318486885
0.37961273051856587 0.6404106800229814 -0.30285167115114187
0.3652077268035121 0.62674078725198556 -0.28247223946027317
0.34895707940865883 0.61537655424908733 -0.25975528525140279
0.34851843406284505 0.59179298937742131 -0.23269225957252002
0.36195463873089972 0.57774353555890057 -0.2340637703167214
0.37389351825558831 0.56577820943148782 -0.23249592879273528
-0.42204057346029844 -0.67061394526788987 -0.12760666137037946
-0.43686609763122231 -0.66336043550817592 -0.13954096595012372
-0.45373961582708117 -0.65492107716083703 -0.15046865501709172
-0.4754518757034506 -0.6659317883674023 -0.18348556165947777
-0.48104033829290965 -0.68839564222336003 -0.19876603741387927
-0.48914596504915575 -0.70964062890489932 -0.21366589511171741
-0.486068495287237 -0.73199604590608025 -0.2219362467010611
-0.47623526569685548 -0.73532284661099356 -0.21637035669691829
-0.46872038501551516 -0.73910818214895924 -0.20990388209531849
0.34247943380477369 0.67099648209454388 -0.3120795650297048
0.33185218877010897 0.66531216980006158 -0.30591996827243928
0.32110798372152877 0.66202989562373382 -0.30028330916163942
0.31332876923164732 0.65712123464138661 -0.28150168698187822
0.31719001196279828 0.64586782941916299 -0.26715112317284972
0.32239232177243488 0.63175080128104755 -0.25100899661119397
0.38053608463230054 0.66225472714464573 -0.31849251639178489
0.3690400161820474 0.6696721524193614 -0.31679263413328884
0.35833898470071301 0.67405165460013627 -0.3165695334395392
-0.52498825391363668 -0.69919076046133077 -0.25190794391409321
-0.51798599889618979 -0.70914721736858632 -0.24364001203556504
-0.50821570018446816 -0.71903912050502583 -0.23535088440363586
-0.49779626508082075 -0.64346229343773631 -0.19699169945878847
-0.51207382116279088 -0.64362622545262715 -0.22061804757083781
-0.52334292449894526 -0.64402566322788846 -0.24087992106995199
-0.52571299369819036 -0.65483220670381026 -0.25595619755639448
-0.52536651945240631 -0.6676068712560872 -0.25566428961871712
-0.52712261124819393 -0.6810853534341953 -0.25678910101790148
0.30181243631622989 0.68006864174103399 -0.28869654263002931
0.29362647712706419 0.70240879445192883 -0.28227458647631204
0.28605018548184014 0.72919346370017069 -0.27542745382079326
0.27222992412466024 0.75327545566151344 -0.25229381148494634
0.26391691463109307 0.7502270698827731 -0.23390318228683449
0.25425569385590691 0.74975732571138953 -0.21192073833119016
0.26183860704224865 0.71868047340784635 -0.19258538719132276
0.2826096170051246 0.68102310681647205 -0.20236473905206154
0.30493434729092622 0.64459881844924294 -0.21453980019801766
-0.513799746611592 -0.62868967321593983 -0.17662342510685672
-0.55268383425560696 -0.61859210746071858 -0.19062435846943662
-0.59213834523303521 -0.6105552412030425 -0.20665299265051346
-0.62069928546682229 -0.61244922576221905 -0.24140664331867712
-0.61750102198776458 -0.62191781617326913 -0.25768375359484813
-0.61717245263814013 -0.63121328507276464 -0.27232205058854791
-0.59255158145784903 -0.63811706323870521 -0.27794523506593499
-0.56776674395913396 -0.63781147398599358 -0.2701541641071924
-0.54654635538207308 -0.63958953633739746 -0.26331747174576081
0.24171331389494369 0.85091360544836381 -0.22301613956677463
0.22898056694823618 0.84955961962292625 -0.2057739975125922
0.21496986815106245 0.84880251485157787 -0.18884134302014699
0.20806689481003302 0.82780888741375591 -0.17524454543476012
0.2173076303559745 0.80612805830986034 -0.17749769983515312
0.22897027476300993 0.78212336017050976 -0.18054991483494345
0.27163964550325925 0.78277929555892245 -0.26044580926975697
0.26469755011263929 0.80682058320246941 -0.25282185059260709
0.25815269607768454 0.82978103397748626 -0.24579271144602322
-0.68531502185808446 -0.63972183161717922 -0.30726785707879345
-0.66415607065928817 -0.63963435125805534 -0.29988625090232429
-0.6419097294105911 -0.63954962411846639 -0.29294121996651684
-0.65732299805633609 -0.59831894619837955 -0.2378869674223133
-0.68129288886472728 -0.59382131138295646 -0.25166459366608596
-0.70230871396306838 -0.5907855741095871 -0.26461235169817143
-0.71679600010416566 -0.60321561947562918 -0.28459894703948568
-0.71226202509420167 -0.61704215901339976 -0.29382052362917682
-0.70866146554468634 -0.62975577187590515 -0.30431216203717609
0.24691814332357562 0.87472443059545935 -0.23557687661101342
0.24270688707405039 0.89740467436596594 -0.23332726774390986
0.23984928363139443 0.92039761251971053 -0.23354881673413477
-0.76530195719265104 -0.6463004742406393 -0.35196596652385059
-0.74583098037352435 -0.6431428697715037 -0.33774646529257846
-0.72597677294087226 -0.64117896730162827 -0.32575040679898942
0.20051335769494932 0.79868143551415915 -0.066993153079332651
0.21867265527327681 0.77913085456014031 -0.1138513915831333
0.23240367368385226 0.76379988691152112 -0.15293869564707024
-0.64185355978726588 -0.59773311761847081 -0.20190594247014981
-0.66146998261313006 -0.59187479914030217 -0.17761822384557979
-0.68727765739712421 -0.58462359276225617 -0.1495623728013275
0.33302530166774119 0.6082445513131266 -0.1449266531560181
0.32836708561135791 0.60923088055745478 -0.17066766524438962
0.32708637047002004 0.60964145785642743 -0.19872551016933937
-0.47519257562408873 -0.63752206149150248 -0.13624438529236418
-0.47317398522799092 -0.6367819069814139 -0.10806701933487273
-0.46942582923942738 -0.63913485818662075 -0.079949573643966779
0.26266084618395186 0.94323943739691163 -0.28543176335427367
0.25471817741611402 0.9426937818717841 -0.2706543941198723
0.24725414977393848 0.94292298885256043 -0.25446668370993375
0.25935484703961054 0.85286039527930646 -0.25565015547723513
0.26524656606326946 0.85324321806224013 -0.27052792430720357
0.27182440109440698 0.85380323861527674 -0.28468299226327726
0.27731083467235584 0.87683783850253161 -0.2957533319048648
0.27447259250580641 0.89900678786052557 -0.29479914108202032
0.27283781562345039 0.92157745096721999 -0.29576867148153763
-0.7534391526714983 -0.67757067056952525 -0.39406833634792127
-0.73495375102679705 -0.6736463782525034 -0.38022901172553475
-0.71627264800884116 -0.67088422585715612 -0.36814233661837253
-0.69947643881487953 -0.65908022594489879 -0.34938121041494485
-0.70140826610974971 -0.65249233867472922 -0.33908166975911952
-0.70344214284454898 -0.64694236984839204 -0.32756395953036793
-0.77988485480046199 -0.65815693550394816 -0.38071672163650966
-0.77653797547022374 -0.66469207249755091 -0.39211528918333738
-0.77393059180556145 -0.67234619203967383 -0.40209777661267476
0.28328543720659138 0.75986793662105956 -0.28253954981017754
0.28720927100195454 0.76190963897429187 -0.29555018201038763
0.29214381372205062 0.76352523889033885 -0.30727971326125786
0.29503829630969214 0.7887774402450648 -0.31217148430043534
0.29021645747847497 0.81138682721687749 -0.30682251761118562
0.2854652745891012 0.83330197410951046 -0.30209167830140732
-0.67847251858221247 -0.6677350113548367 -0.34840822884133821
-0.65912853203498767 -0.66666723404671846 -0.34025093113103955
-0.63913617906784304 -0.66539831621247481 -0.33282620186988998
-0.61918716826750742 -0.65492351896069101 -0.31948921920202195
-0.61937141747432622 -0.64919839929936396 -0.3101899008761459
-0.61897097567377901 -0.64454255613567857 -0.29871048017407753
0.30992448729007349 0.67099255912596412 -0.30737916873534565
0.31039602099902514 0.67577633028498907 -0.31839195000991538
0.31223937354260878 0.68202691005335847 -0.32658787788525018
0.31139301765605171 0.69858342507357796 -0.33064235794499541
0.30760925380688858 0.71634109675064983 -0.32807821720658265
0.30376715220033568 0.73968441619169234 -0.32346642952005028
-0.59614447237206469 -0.66064098915730329 -0.31895781341113094
-0.57576940694693901 -0.65801568933164212 -0.31225409250175873
-0.55999116160888995 -0.65691535826971359 -0.30576407730298066
-0.5459283543396749 -0.65276586591187757 -0.29505812888505512
-0.54108311976729329 -0.64858383992571922 -0.28576826092799257
-0.53692340755382351 -0.64613095796688724 -0.27338742934620908
0.35121024595066369 0.67952595968567397 -0.32344486268870137
0.35226986314267389 0.68407256805510064 -0.33183740962796837
0.35385833140382583 0.68930940877173663 -0.34056551043696937
0.34217902526631633 0.69361502366300132 -0.34384477440310512
0.33025636656409485 0.68929834125081824 -0.34001522222521152
0.32065187958373709 0.68756377485619546 -0.33549930547102697
-0.54825094078564174 -0.66386043998637201 -0.3005504677490583
-0.5469966127316751 -0.67500035467579356 -0.29940501511685913
-0.54720176101512863 -0.68942456834210264 -0.29694068910504584
-0.54009157824230614 -0.70064150606165621 -0.28428468385177291
-0.53589261009865052 -0.69685385100694908 -0.27467206551848178
-0.53208026192199387 -0.69379770766481219 -0.26535169682274012
0.39817160532162543 0.66053529297646807 -0.33642389711172788
0.40238057079015577 0.66606099793487583 -0.34933191252360579
0.40485324413342211 0.67203507965109988 -0.35933024034172895
0.39649038263802017 0.68955177748224317 -0.36235103051351014
0.38382845481157035 0.69526764653324535 -0.35761107015289684
0.36986884551799415 0.69799373198080028 -0.35255047653726013
-0.54299428075223077 -0.72122995785918798 -0.28876764295475416
-0.53678671871143135 -0.73579993296751445 -0.2834800606654882
-0.52845324129320048 -0.74802910180182736 -0.27771809275073461
-0.51114344889096319 -0.75137867967722027 -0.26313298866535439
-0.50633010150497992 -0.74600692401626389 -0.25280525754710703
-0.50223924146566956 -0.73864027146497879 -0.24096895283251929
0.42101644511101416 0.63201795079035705 -0.33720725552508019
0.42287251895092387 0.63686867726420193 -0.3499703373711936
0.42406500017699611 0.64230929555675287 -0.35796150484861905
0.42223994104916079 0.6514872754583847 -0.36569057239133745
0.41855615745176789 0.65921247356179169 -0.36858266466656658
0.41379739918415348 0.67000880055480627 -0.36850039268684875
-0.50723362865332733 -0.76110024055811876 -0.26574833565563316
-0.49674297704194698 -0.76283498639718883 -0.25911120761851725
-0.48891748182709033 -0.76400739799791184 -0.25114307934156044
-0.48008722134207366 -0.76219449428166064 -0.2391782909282488
-0.47528720132827446 -0.75829305971588135 -0.23038033088806731
-0.47078664604122711 -0.75325036841880721 -0.21753071961436085
0.46527308461898498 0.6876920255867075 -0.32895892953595168
0.46345182787583106 0.69215850667319812 -0.34205014939483808
0.46051813742242953 0.69717010929679368 -0.3533300438380913
0.44486574340676044 0.68193095005130999 -0.35619397709349082
0.43567822497680342 0.66411948069425009 -0.35667426212015668
0.42889762542014642 0.6528585803913094 -0.35941225363930296
-0.48748301302339131 -0.77067047963718116 -0.24042048142299871
-0.49454131755770492 -0.78091578340548784 -0.2362700495604439
-0.50648519888238164 -0.79596619652075185 -0.23468744280270587
-0.51409579738960898 -0.81677808216873837 -0.22478258268724249
-0.5080607299416966 -0.81688084274102624 -0.20957892473547202
-0.50256399419336528 -0.81557020569432648 -0.1937642437356141
0.28313536500970787 1.0458842868737308 -0.32303982484376015
0.27537965526051139 1.0459339053164858 -0.31023351656244608
0.26734160948368391 1.0466805526203278 -0.29443948781128831
0.27431430860838935 0.96832897807164997 -0.30482966767662356
0.2778984750084133 0.99288168997481363 -0.31272213540926008
0.28363577695699449 1.0185793246116051 -0.32214512463041994
-0.8256520955041734 -0.71075792888992606 -0.468190179046858
-0.8075804663149736 -0.69916423666625305 -0.44743255576143193
-0.78966400272840931 -0.6900099214286578 -0.42782179362990497
-0.85387283293254557 -0.70181314105467796 -0.46868249954749303
-0.8499430105101814 -0.70882761135072825 -0.47860065323939138
-0.84698996363295798 -0.71623975720869681 -0.48609620058405428
0.34989699583229494 1.1492882388737005 -0.37289528661751348
0.34513453882255746 1.1539545101586814 -0.36347066064272443
0.33859787606154607 1.1568475661380611 -0.34990285125077225
0.30233265995862446 1.0744952661039828 -0.34344010831716459
0.31591083626588345 1.1017081737840302 -0.35454166350520633
0.33287907825843416 1.1240544353473425 -0.36562963390978431
-0.8929396394597211 -0.78728460884581553 -0.54286649133105058
-0.88024012229731052 -0.76342205683945885 -0.52985026456305961
-0.86312496205292277 -0.74270883899158102 -0.51111545555268501
-0.91866967687557077 -0.80378480435706823 -0.54379838078811427
-0.91383137259163016 -0.80917641607017432 -0.55052377498486238
-0.90838169623998499 -0.81263437325360355 -0.553414209706934
0.45082153425685856 1.1360367520850454 -0.43187219953392975
0.44993810603594631 1.140444998284134 -0.42565480607461331
0.44649643304494335 1.1421317440521073 -0.41477966796854632
0.375537201360998 1.1481567111863222 -0.38951510133598344
0.39968288364071081 1.1484471382098245 -0.40271743110161695
0.42413042582117089 1.1409407377192102 -0.41671683726169423
-0.88425223689641508 -0.8975967871427234 -0.53319421405048661
-0.89563497714563423 -0.87027860610308105 -0.54371530288795156
-0.90102985157620796 -0.84179192182821694 -0.54954279722856414
-0.88102862053012765 -0.92581805526936833 -0.51349358737869444
-0.87846305972673966 -0.92878434667451637 -0.52042095450081582
-0.87453789589417474 -0.92838683045588422 -0.52319711171822714
0.52288631814530095 1.0034943925230431 -0.48715068278849372
0.52664620338449453 1.0040411800350419 -0.48414080994278963
0.52667175818361489 1.0031688103516099 -0.47572761338293373
0.46919924209714542 1.1026721306346756 -0.44696587904306995
0.48775002180094934 1.0732262409160127 -0.46158135257960259
0.50245721858834713 1.0386181621968471 -0.47372140230584731
-0.78694619982958069 -0.96769237712887368 -0.46299804753763663
-0.81735453907736866 -0.95820686019887058 -0.48348924875207427
-0.8444446618952367 -0.94275992544564879 -0.50232153759664477
-0.75267996756874989 -0.9866688892030796 -0.42571120307142141
-0.75365824023709049 -0.98728524384575689 -0.43445552428680007
-0.75434746882958736 -0.98310769570367729 -0.44007430208268811
0.5135803007227423 0.82975946928808153 -0.45435493614663652
0.51849621440946181 0.82655875909772591 -0.44807932250481408
0.52069317931975045 0.82370864312300207 -0.43742073376079194
0.51678660248650032 0.9590512043306878 -0.48416307654599205
0.51627936732994328 0.9167793513487652 -0.48052680900010386
0.51167094692129322 0.874719901469593 -0.47053754417328997
-0.65339959441150552 -0.93620036747741198 -0.36977882191520711
-0.68665930616300053 -0.95339786827319595 -0.39518825617996189
-0.72059959389593287 -0.9651572808689699 -0.41886669802605514
-0.60676021576725359 -0.92806431790339261 -0.307910916726296
-0.61056589504853542 -0.92777825110282364 -0.32142679717319583
-0.61511468452846074 -0.92411653931970461 -0.3329086311980865
0.49319640804411341 0.79685114865077533 -0.43015316279613047
0.48106832328918542 0.762675442158259 -0.40397866824887013
0.46831828528884401 0.73197631073130098 -0.37988976569519645
-0.54268438900645088 -0.83872313764905171 -0.25723993590959482
-0.56604151621612675 -0.86423501483770215 -0.2823037214911952
-0.59248754298690631 -0.89015599364496467 -0.31179607039077822
0.35918982340485905 0.74908280871237221 -0.35248472888990379
0.35855610518343639 0.72852842642925275 -0.35284863542125527
0.35729153164145944 0.7109628495433199 -0.35156697770534234
0.40952417017348403 0.69574324863885317 -0.3696340239696369
0.41254327056127221 0.7148228655838943 -0.3711139233853335
0.41547011398291966 0.73704248146828888 -0.37203706814501303
0.40467344039349218 0.76854683183536765 -0.37047655563232856
0.39034899351089702 0.77193331810721355 -0.36524031303895016
0.37505897132149868 0.77251388244543995 -0.35867533157315939
-0.60333181517484957 -0.74920439789714854 -0.31954966831238185
-0.59862261185860799 -0.76602048725825744 -0.31524741843570619
-0.59180002242560659 -0.78083995163500231 -0.30908665293720733
-0.562567777663177 -0.78324484717944032 -0.29122536380767455
-0.54500781807262733 -0.77345780152142052 -0.28440126308969765
-0.53001986956013958 -0.76441873990363118 -0.27835857250242685
-0.55741186475448112 -0.7114040710239905 -0.30097305671508884
-0.57162746720217028 -0.71805012018547099 -0.30794280699509496
-0.58841823774154356 -0.72476616131211447 -0.31499001774818636
0.35231144580583013 0.84189774986395682 -0.34832658116204329
0.35528284305593361 0.81821969619848745 -0.34932383219727109
0.35756653915085296 0.79464886708503024 -0.35031226707697849
0.41939910830160737 0.78586663153878233 -0.37787841070628553
0.42004061869334203 0.81111030653442329 -0.38310561929043924
0.4198664231735898 0.836768894105824 -0.38839382541209333
0.39950431054789304 0.86625196067664034 -0.37867792516485271
0.38217753873884663 0.86754814229824462 -0.36727792685263466
0.36571312241210696 0.86709742805644108 -0.35721335075327909
-0.6832903406125973 -0.76551708357960091 -0.36581582213679964
-0.67926642587984454 -0.78418276195800207 -0.3643239798065267
-0.67372918588546227 -0.80353994848129262 -0.3623349595339892
-0.6442727405045493 -0.81827033273869076 -0.34370774647018265
-0.62289018819622999 -0.81069589146252929 -0.32757630420653561
-0.60202337541121664 -0.80226501947687245 -0.31269502696699863
-0.62633634068925481 -0.73609349496841858 -0.33230019170871711
-0.64628402034785815 -0.74025777447892094 -0.34297541943894888
-0.66644506458996744 -0.74359860129998556 -0.35455475837690087
0.33903288149249888 0.93294134455679378 -0.34399819458438607
0.34175240842317761 0.91082205337610933 -0.34494293043303909
0.34519480143652753 0.8883209966012805 -0.34608463011398899
0.41727561626995552 0.88892135294718211 -0.39471303690034243
0.41518851079506158 0.91485476537312194 -0.39499932985211872
0.41295000888972511 0.94008487967085341 -0.39385549785143109
0.38885791200868869 0.95932449690035337 -0.37438808394190798
0.37035295547114111 0.95693385782695872 -0.36185058091456418
0.35376060311523333 0.95580168629515838 -0.35215247465276234
-0.75795944352643585 -0.77553313771374144 -0.41372995775812366
-0.75454322258308704 -0.79465960061617746 -0.41186694374722849
-0.75176395497531301 -0.8164693875562109 -0.41158709703382307
-0.73037021229227672 -0.83930062294041485 -0.40234258059101924
-0.70945343662593263 -0.83516514263451103 -0.38932832041022686
-0.68785329385209559 -0.83043859108343265 -0.37518010084532549
-0.70607406475140466 -0.74833524407435337 -0.37909148127987646
-0.72514172757943451 -0.75043712492903336 -0.39153791142579403
-0.74362124307257693 -0.75312485468746238 -0.40386860386388534
0.34202115049996556 1.0215121849191737 -0.34719435463071158
0.33928509567541776 0.99833174073232356 -0.34439469883906881
0.33769297482353133 0.97631156593052038 -0.34333812028558564
0.40913740678809213 0.98661335863629884 -0.38872931168474961
0.40756437007158325 1.007758027595137 -0.3860917122563452
0.40584145219823548 1.027895884878022 -0.38471480540720943
0.3931732859594772 1.0432663198578087 -0.37614096081105097
0.37823022702680675 1.0440201476291378 -0.36671120593859174
0.36211734035148196 1.0456263034929469 -0.35882158772545791
-0.82643289778580054 -0.80622282067304352 -0.4654611896348303
-0.8211829440784093 -0.82445554464389836 -0.46019058572633714
-0.81686808762494445 -0.84149383211883211 -0.45762242025251909
-0.80176041606088821 -0.85266282415288852 -0.44706874626848625
-0.78557832618353862 -0.85002186693625981 -0.43529622289826675
-0.76848878994615133 -0.84674150848916907 -0.42473832881546242
-0.77855645581359822 -0.76254985596986047 -0.42747104430950261
-0.7955117386928785 -0.76962842789404695 -0.43980667169597243
-0.81287795576413269 -0.77797637113298113 -0.45415016406862196
0.32956426261667138 1.0452622950122106 -0.34718130174317996
0.3148032294383496 1.0438805016577843 -0.34275186039089267
0.30223001891559087 1.0445257206657945 -0.33850617752587969
0.28641978087732756 0.94702503172030705 -0.31156185554692822
0.3026196290551616 0.94984360399451373 -0.3231365065293002
0.32006133074589388 0.95258955597504424 -0.33374612502092843
-0.76444437196371617 -0.73685616274796839 -0.41711983142590797
-0.76706774875669126 -0.71676164185869728 -0.41686100695898931
-0.76944192640185793 -0.69826186091433051 -0.41461327387089947
-0.84034021867542097 -0.73666747224933571 -0.48749156333768207
-0.83669994804904835 -0.75101863342776354 -0.48251081680766583
-0.83415145577677863 -0.76843822388718919 -0.47734329001642023
0.29496069431617766 0.85717019765974523 -0.31154585934722773
0.31193486000445653 0.85994450142068179 -0.3242475744762035
0.33042786739007424 0.8628310506561806 -0.33621486340943946
-0.68954558199528804 -0.72507607958756481 -0.36688404237534805
-0.69242072023316725 -0.70388844535626671 -0.36579791514857085
-0.69506465202868573 -0.68457016013146843 -0.36289099070367931
0.31128777540923708 0.76671738498110054 -0.32728282015976734
0.32585192203489899 0.76845656173835364 -0.33587310335339138
0.34213818772080412 0.7700979711021283 -0.34382136246226791
-0.61044464080376482 -0.71191138874029058 -0.32604733551605675
-0.61364105444039629 -0.69339744028722072 -0.32820578520242316
-0.61630854699633064 -0.67680898821863189 -0.32843483839824911
0.4491251797247528 0.71786243948813022 -0.36903136442883844
0.44035951111599436 0.73322927829337259 -0.37311274552556872
0.4298682559603948 0.74851361222200075 -0.37470363945211976
-0.56777800842350823 -0.80215637032660769 -0.28771889810353352
-0.55176635452471401 -0.80856784006301086 -0.27279109140546626
-0.53601750118022307 -0.81280997511330211 -0.25656152268959953
0.4867066347213424 0.84107361317161222 -0.44420551848109424
0.46515249308754886 0.84891084983610698 -0.42862864689424535
0.44168517635327204 0.85654641470875026 -0.41036021291623392
-0.65535538672040039 -0.84951580461965293 -0.35728776837759946
-0.64339051871747888 -0.87459213716173678 -0.35379193563568739
-0.63165618127649814 -0.89727636830607105 -0.34892576591950852
0.4923300213947544 0.99255831078725532 -0.46505893871882659
0.46624796338156854 0.98273194355500104 -0.44146853649752227
0.43786000031264571 0.97261220161400086 -0.41550040032419966
-0.75038119429129402 -0.87661170432192925 -0.42086965618381661
-0.75161752669383686 -0.91222122055770549 -0.42925828076485356
-0.75317448520917263 -0.94506806353704276 -0.43688533811466695
0.43911282172784299 1.1061163781761087 -0.42251095127465815
0.42729519719293502 1.0824469933443652 -0.40899350851649563
0.41446559430810292 1.0597404427951098 -0.39494745810855636
-0.82429810009015958 -0.86956857475664162 -0.46946748875296007
-0.83866569257419665 -0.8892576033828592 -0.48689205121184015
-0.85404643842057304 -0.90801536513593761 -0.50517930594639826
0.35405979838080531 1.1233856401631936 -0.37517157832222847
0.35314845125359229 1.1009017771536953 -0.36895938689064572
0.34983896985279195 1.0741532829329932 -0.36047983780245468
-0.85110709458032707 -0.79755151678507485 -0.49382207020412999
-0.87045784723316488 -0.8063693886824691 -0.51659661064832818
-0.88719536773617624 -0.81163516571491578 -0.53626749308707633
0.55652291362802253 0.78245868830291709 -0.51274511422586344
0.57596550896204934 0.76635460677648559 -0.49329044971507419
0.58214591978052166 0.76236507842949031 -0.46562648209675028
0.48995554531249302 0.54374653598445388 -0.32493788039315896
0.48149274854007446 0.5480810816214281 -0.3608985832351771
0.46211306545170372 0.56729838717831604 -0.3921641307193337
0.45437871108522782 0.64678385836678576 -0.43141520332324784
0.47838198145774796 0.69600532562798345 -0.45994787007272991
0.49997291430231833 0.75249720971378076 -0.49026613686282439
-0.55646209890551579 -0.88860352678525911 -0.35342593247602383
-0.51371497399799981 -0.84492714251324419 -0.32092749988934433
-0.47756221612285299 -0.8006026206878093 -0.2955417802553823
-0.40536799703101234 -0.77917973311880973 -0.22802252593371772
-0.3798676682156899 -0.78846912170297334 -0.1777969997965185
-0.36942883981196423 -0.78958908233290304 -0.1352478446827419
-0.53949361506696336 -0.97881347971122989 -0.2630567249361504
-0.54728284192304855 -0.97746998017165532 -0.29747551920607201
-0.56756584511179864 -0.96315630039913214 -0.33964802726243476
0.57864676503841139 1.0697324371634158 -0.52313023406150183
0.58942223895264723 1.0562288949927863 -0.5104775635907689
0.5894118418378641 1.0483496257383227 -0.49115675323220681
0.53562268758109954 0.8848204038525942 -0.53228495521931796
0.54790367479525182 0.95641543457803757 -0.53845056968217153
0.55421518396634351 1.0268067905928748 -0.53533270363972607
-0.76568113612439948 -1.0259134971895434 -0.47547445831830204
-0.7114869532040482 -1.0015162260220696 -0.44870066222739652
-0.65705532488137885 -0.96881110568834572 -0.41965833075470466
-0.77389397028320206 -1.0714915998620784 -0.41081632127420797
-0.78084710715101724 -1.0745398683342671 -0.43442707953477061
-0.79423163457294588 -1.0654594733140321 -0.4642264503147312
0.46515153079497046 1.2627071049500176 -0.40971714285014887
0.46091147126175391 1.2654226207140489 -0.39029577398691945
0.45479874907997697 1.2622094842383895 -0.37122867966193307
0.54210596952782009 1.1494991107202757 -0.50308272525901154
0.52216545753148125 1.1971772842404078 -0.47703441963265558
0.49321244573381745 1.234404654042123 -0.44787245460401154
-0.94091075317351069 -0.99985942532203687 -0.56683615128324549
-0.90582139638815296 -1.0264700228606507 -0.54559444728703155
-0.86437769946953635 -1.0396679831059397 -0.5235536337118305
-0.97411395335114093 -0.96508720925559355 -0.54408099977791125
-0.97402167579834809 -0.9711731943931835 -0.5598589197111179
-0.96976918638873366 -0.973741649065887 -0.57328822248739275
0.31123179663973288 1.2731155539305019 -0.34925579928097644
0.28927691582968085 1.2828355797578208 -0.31360271483000329
0.27713272941080447 1.2825597855209199 -0.28438002908074111
0.44187131019989589 1.2718802712316828 -0.41425754638871992
0.40844269135096728 1.2809382576977348 -0.40280944376997313
0.37611998292134191 1.2736292853141966 -0.3952172138200008
-0.99434610116085387 -0.86423433332345079 -0.63985326633824258
-0.99354394810872371 -0.90552684219108448 -0.62620719507582234
-0.98019532143090837 -0.94510881128065116 -0.60343690266146321
-1.0318388491646204 -0.76140619862308834 -0.61404918318642021
-1.0258829160788441 -0.7705622924378156 -0.63394433429689434
-1.0103283301771524 -0.78972985347280922 -0.64534559483844856
0.20959602022425147 1.0942962611791678 -0.31336213473840374
0.18497601461331645 1.1117285951667291 -0.2698717855752224
0.17350156175247761 1.1166764762961705 -0.23345363048086534
0.31819429240781238 1.2138539186038702 -0.38455438802271619
0.29333703535330702 1.166738223870553 -0.37878920816995065
0.27107551403250835 1.1139499462295666 -0.37148692351987617
-0.89717240011025345 -0.70861419284924598 -0.58720547436718229
-0.93164427735096211 -0.74451885437508591 -0.61369794697362967
-0.96143112699570654 -0.78272790438541395 -0.63309160423086608
-0.93578765495274996 -0.61551646945338567 -0.51427379508384374
-0.92481114055549807 -0.62100979492663344 -0.5398765976771488
-0.90113876713058016 -0.63934545020690448 -0.55635542318765141
0.16678570836440607 0.91633446065113011 -0.28027813411999175
0.14867906877081852 0.93996329509922305 -0.24018741827605744
0.1422042825742672 0.95133216223094696 -0.20442950823546541
0.23392442958954665 1.0088033673258141 -0.34853334952198323
0.21933026424266194 0.96096932994512074 -0.33520057974225198
0.20792170323758588 0.9165129064693508 -0.32496929300519367
-0.76263269697466696 -0.59680127487279289 -0.4648317650490012
-0.79394630475829797 -0.61918893189697677 -0.49219319240126824
-0.82677363801880455 -0.64553561099153878 -0.52365345287626974
-0.81897418260358701 -0.54851456636210283 -0.3974316385992715
-0.80455919227540207 -0.54732422995469199 -0.42353729355793218
-0.77722543496424679 -0.55613058752133371 -0.44177924466982238
0.31405684036815135 1.0038684223770733 -0.41271289007926892
0.38689813998275602 0.93724226636612684 -0.45983753757375284
0.4588877951553339 0.87086771601023771 -0.4965661524539462
0.37548043116618773 0.66659403824045149 -0.40830792526123849
0.31376265370163881 0.73949036207433316 -0.38960190352414859
0.25219690331133615 0.81290386960533711 -0.35903298250070009
-0.66704651169241325 -0.61897468691544077 -0.4239828487719785
-0.59072433675618596 -0.66797755400538905 -0.38618065301126592
-0.51453059784451738 -0.71690860437036796 -0.33698245716198505
-0.66277040235740414 -0.873451738743934 -0.44100223564700419
-0.73173561980548929 -0.80421775969287068 -0.49147595550849793
-0.8012819752198419 -0.73432504613924277 -0.53228811592273451
0.39560100305800699 1.2138435132595335 -0.43337360711424744
0.45240394621957852 1.1700225753236322 -0.47403919219417934
0.5077949422594511 1.1276691868536184 -0.50553566303395414
-0.85367774189136669 -0.99180858442830366 -0.54278283766654523
-0.89749317402226603 -0.93300378057033129 -0.58503620328704775
