# XYZ point cloud file
-0.061918653547763824 -0.32379654049873352 0.36035558581352234
0.3041265606880188 0.068278700113296509 0.23603974282741547
0.30986383557319641 0.04678010568022728 0.25423252582550049
0.30623090267181396 0.069564610719680786 0.19795931875705719
0.29634758830070496 0.089020177721977234 0.25521239638328552
0.30091595649719238 0.06621067225933075 0.29307806491851807
0.31574568152427673 0.032295841723680496 0.20696566998958588
0.29596441984176636 0.10844422876834869 0.2052122950553894
0.045443154871463776 -0.30854117870330811 0.32371479272842407
0.036705799400806427 -0.32312443852424622 0.28839957714080811
0.073024831712245941 -0.29781392216682434 0.33921954035758972
0.02593998983502388 -0.30523568391799927 0.34266936779022217
-0.003979317843914032 -0.32926905155181885 0.29763680696487427
0.078836731612682343 -0.31227204203605652 0.2934647798538208
0.058838658034801483 -0.28628987073898315 0.37661761045455933
0.23216110467910767 0.14739131927490234 0.43606725335121155
0.23020407557487488 0.16056241095066071 0.43882638216018677
0.22994008660316467 0.12828923761844635 0.44277572631835938
0.23761841654777527 0.15482746064662933 0.42591327428817749
0.23774692416191101 0.1836206465959549 0.42388904094696045
0.22631728649139404 0.13734698295593262 0.44840174913406372
0.23753783106803894 0.12722288072109222 0.43316420912742615
-0.032519962638616562 -0.24006155133247375 0.50362694263458252
-0.012512495741248131 -0.22640335559844971 0.50725668668746948
-0.046937722712755203 -0.24532446265220642 0.5073312520980835
-0.039043262600898743 -0.25020065903663635 0.49611964821815491
-0.008788594976067543 -0.23303011059761047 0.49991974234580994
-0.023059070110321045 -0.22763130068778992 0.51289689540863037
-0.069450497627258301 -0.26649492979049683 0.49737128615379333
0.16590407490730286 0.46169525384902954 -0.3451482355594635
0.18819364905357361 0.48251426219940186 -0.32174092531204224
0.19404345750808716 0.40144661068916321 -0.34423086047172546
0.14213326573371887 0.44112983345985413 -0.36919304728507996
0.13456001877784729 0.5242149829864502 -0.3335784375667572
0.15726947784423828 0.54445666074752808 -0.3073621392250061
0.21625685691833496 0.42426836490631104 -0.32276809215545654
0.17171680927276611 0.37592768669128418 -0.36815428733825684
0.10940577834844589 0.50626593828201294 -0.35839191079139709
-0.41516277194023132 -0.40137770771980286 -0.34234634041786194
-0.36197024583816528 -0.42181700468063354 -0.31126835942268372
-0.42813146114349365 -0.43250241875648499 -0.31379503011703491
-0.47012519836425781 -0.3768145740032196 -0.36419841647148132
-0.4024641215801239 -0.36823207139968872 -0.37191331386566162
-0.34619683027267456 -0.39122051000595093 -0.340931236743927
-0.37567508220672607 -0.45179545879364014 -0.28320801258087158
-0.48351946473121643 -0.40990859270095825 -0.33443164825439453
-0.45885467529296875 -0.34105837345123291 -0.39382559061050415
0.062502682209014893 0.38839516043663025 -0.44036772847175598
0.023889392614364624 0.45940342545509338 -0.4260660707950592
0.090825766324996948 0.40586322546005249 -0.41677036881446838
0.095101676881313324 0.3198782205581665 -0.44490405917167664
0.031127713620662689 0.36564317345619202 -0.46473434567451477
-0.01057940348982811 0.4385010302066803 -0.45000091195106506
0.054439336061477661 0.47560727596282959 -0.40385371446609497
0.12247055023908615 0.33635988831520081 -0.4194677472114563
0.066722869873046875 0.29583761096000671 -0.46889284253120422
-0.37115511298179626 -0.25758683681488037 -0.45996496081352234
-0.38155433535575867 -0.29721581935882568 -0.43130806088447571
-0.43087545037269592 -0.2205088883638382 -0.47564712166786194
-0.35664799809455872 -0.21242417395114899 -0.48729780316352844
-0.31545388698577881 -0.28951317071914673 -0.43806353211402893
-0.32400980591773987 -0.32581174373626709 -0.40568074584007263
-0.44064730405807495 -0.26389563083648682 -0.44973370432853699
-0.41755390167236328 -0.17050178349018097 -0.5006861686706543
-0.30054214596748352 -0.24962775409221649 -0.46663901209831238
0.26559531688690186 0.27643764019012451 -0.24865204095840454
0.28333172202110291 0.2578311562538147 -0.19426128268241882
0.25258144736289978 0.24230360984802246 -0.26092630624771118
0.24404171109199524 0.30651688575744629 -0.29489758610725403
0.28247416019439697 0.30710279941558838 -0.23663344979286194
0.2976735532283783 0.29229235649108887 -0.18585386872291565
0.27281290292739868 0.22079828381538391 -0.2026045024394989
0.22739356756210327 0.27396085858345032 -0.31269872188568115
0.26359990239143372 0.33437222242355347 -0.27898389101028442
-0.23604291677474976 -0.46066555380821228 -0.15301689505577087
-0.21160697937011719 -0.43958616256713867 -0.17026904225349426
-0.21020427346229553 -0.4662662148475647 -0.087336644530296326
-0.25687739253044128 -0.48541629314422607 -0.13380537927150726
-0.27065861225128174 -0.45135724544525146 -0.21517717838287354
-0.24886339902877808 -0.42725670337677002 -0.23833310604095459
-0.18209260702133179 -0.44629594683647156 -0.1002361923456192
-0.23531618714332581 -0.48988175392150879 -0.072612464427947998
-0.28831234574317932 -0.47813165187835693 -0.19158035516738892
0.24308803677558899 0.11594699323177338 -0.28365465998649597
0.24082887172698975 0.066814705729484558 -0.28880184888839722
0.21940559148788452 0.13879102468490601 -0.33724120259284973
0.24290427565574646 0.16196960210800171 -0.27849462628364563
0.26447629928588867 0.095076292753219604 -0.2221127450466156
0.26246383786201477 0.047010574489831924 -0.22713547945022583
0.21736988425254822 0.088476702570915222 -0.34197402000427246
0.21693047881126404 0.18895940482616425 -0.3339751660823822
0.2647705078125 0.1396511048078537 -0.2166295051574707
-0.11340150237083435 -0.40620905160903931 -0.19626346230506897
-0.14516802132129669 -0.39620688557624817 -0.25952768325805664
-0.075340002775192261 -0.39569756388664246 -0.20445692539215088
-0.081318378448486328 -0.41051384806632996 -0.12681341171264648
-0.14980176091194153 -0.4139646589756012 -0.19073620438575745
-0.18481218814849854 -0.40150147676467896 -0.25905430316925049
-0.10661143809556961 -0.38630670309066772 -0.26537525653839111
-0.043113559484481812 -0.39922964572906494 -0.13654151558876038
-0.11742585152387619 -0.41982433199882507 -0.11903181672096252
0.15489822626113892 0.17710655927658081 -0.43266162276268005
0.14302548766136169 0.21000923216342926 -0.43896672129631042
0.17332190275192261 0.17110216617584229 -0.41396230459213257
0.14680060744285583 0.15021355450153351 -0.44345554709434509
0.12314274162054062 0.18570347130298615 -0.45796403288841248
0.16535317897796631 0.21817989647388458 -0.41408589482307434
0.17001104354858398 0.12745754420757294 -0.4195314347743988
-0.19919982552528381 -0.34457328915596008 -0.38114637136459351
-0.18992266058921814 -0.36351558566093445 -0.35484325885772705
-0.22665247321128845 -0.33548039197921753 -0.39517354965209961
-0.18074148893356323 -0.33209666609764099 -0.39293953776359558
-0.15717756748199463 -0.35351946949958801 -0.35959509015083313
-0.22739869356155396 -0.36092638969421387 -0.36253637075424194
-0.21189266443252563 -0.3087630569934845 -0.41936987638473511
0.14739349484443665 0.83865237236022949 -0.081924021244049072
0.14032408595085144 0.84219628572463989 -0.087238028645515442
0.14374491572380066 0.81060254573822021 -0.075667127966880798
0.15697398781776428 0.8338547945022583 -0.083535388112068176
0.15395700931549072 0.86864697933197021 -0.090243831276893616
0.14753282070159912 0.8740309476852417 -0.09544728696346283
0.13619241118431091 0.81246596574783325 -0.081032112240791321
0.15365996956825256 0.80747884511947632 -0.077159538865089417
0.16305971145629883 0.8619837760925293 -0.09204728901386261
-0.7355993390083313 -0.4877564013004303 -0.25119107961654663
-0.71488749980926514 -0.47827509045600891 -0.2293296754360199
-0.73919111490249634 -0.4796065092086792 -0.26304283738136292
-0.75676077604293823 -0.50030666589736938 -0.27528804540634155
-0.72969233989715576 -0.49726799130439758 -0.24413150548934937
-0.71012890338897705 -0.48840621113777161 -0.22319480776786804
-0.71738690137863159 -0.4693874716758728 -0.24033436179161072
-0.76152849197387695 -0.4931064248085022 -0.28801530599594116
-0.74960482120513916 -0.50901848077774048 -0.26726174354553223
0.19569197297096252 0.96895021200180054 -0.1249031275510788
0.17776674032211304 0.93538737297058105 -0.11193883419036865
0.20273253321647644 0.9566609263420105 -0.12747377157211304
0.21789216995239258 0.99809372425079346 -0.13910706341266632
0.19153490662574768 0.97974646091461182 -0.1289534717798233
0.17280140519142151 0.9444928765296936 -0.1165047287940979
0.18562126159667969 0.92487114667892456 -0.11425639688968658
0.22388675808906555 0.98426485061645508 -0.14187136292457581
0.21469208598136902 1.0103572607040405 -0.14260640740394592
-0.82141256332397461 -0.56184202432632446 -0.35398998856544495
-0.81073647737503052 -0.56757700443267822 -0.34309956431388855
-0.8008154034614563 -0.53709918260574341 -0.32852229475975037
-0.82958555221557617 -0.55792468786239624 -0.36868628859519958
-0.83786571025848389 -0.59065502882003784 -0.37435749173164368
-0.82632070779800415 -0.59502333402633667 -0.36294153332710266
-0.79120165109634399 -0.54394227266311646 -0.31848710775375366
-0.80793201923370361 -0.53201967477798462 -0.34276759624481201
-0.84694600105285645 -0.5880972146987915 -0.38914689421653748
0.31019160151481628 1.0286376476287842 -0.18829062581062317
0.27589607238769531 1.0294755697250366 -0.1707124263048172
0.31109276413917542 1.0125470161437988 -0.19082775712013245
0.34574291110038757 1.0172300338745117 -0.20745804905891418
0.31130662560462952 1.0431816577911377 -0.19068831205368042
0.2753542959690094 1.0436755418777466 -0.17329490184783936
0.27878835797309875 1.0136688947677612 -0.17351983487606049
0.34455192089080811 1.0013958215713501 -0.2094275951385498
0.34857669472694397 1.0316423177719116 -0.21000176668167114
-0.84122645854949951 -0.69830888509750366 -0.37772083282470703
-0.82883012294769287 -0.69627666473388672 -0.3680901825428009
-0.84876936674118042 -0.66000831127166748 -0.38678610324859619
-0.85161799192428589 -0.70169085264205933 -0.38980638980865479
-0.82555270195007324 -0.73619771003723145 -0.36130079627037048
-0.81361663341522217 -0.73166185617446899 -0.35314559936523438
-0.83631241321563721 -0.66043937206268311 -0.37600183486938477
-0.85900735855102539 -0.66114622354507446 -0.40023061633110046
-0.83575677871704102 -0.74184131622314453 -0.37182918190956116
0.44304469227790833 0.9245375394821167 -0.27430939674377441
0.41379648447036743 0.96404814720153809 -0.25178471207618713
0.43634963035583496 0.91310793161392212 -0.27231934666633606
0.46704187989234924 0.8789830207824707 -0.29315680265426636
0.4502892792224884 0.93536055088043213 -0.28004747629165649
0.41978925466537476 0.97659790515899658 -0.25604549050331116
0.40869864821434021 0.95056277513504028 -0.25142094492912292
0.459085613489151 0.87007558345794678 -0.28952264785766602
0.47522509098052979 0.88761293888092041 -0.30051210522651672
-0.73493403196334839 -0.8267664909362793 -0.2875688374042511
-0.72709083557128906 -0.81647366285324097 -0.28414034843444824
-0.77140688896179199 -0.80226415395736694 -0.31489372253417969
-0.74218308925628662 -0.83753764629364014 -0.29399919509887695
-0.69432675838470459 -0.84351038932800293 -0.25821542739868164
-0.68862354755401611 -0.8322598934173584 -0.2561802864074707
-0.76176333427429199 -0.79345554113388062 -0.30995067954063416
-0.78003954887390137 -0.81173038482666016 -0.32248711585998535
-0.69985294342041016 -0.85508972406387329 -0.26370996236801147
0.49461668729782104 0.72489863634109497 -0.30170467495918274
0.49308609962463379 0.77745407819747925 -0.30806735157966614
0.48548436164855957 0.72538453340530396 -0.29500013589859009
0.4898638129234314 0.6731421947479248 -0.28681513667106628
0.50318199396133423 0.72477632761001587 -0.31282442808151245
0.50192052125930786 0.78049099445343018 -0.31824859976768494
0.48391062021255493 0.77462846040725708 -0.30195292830467224
0.48111486434936523 0.67690891027450562 -0.27999281883239746
0.49788004159927368 0.66987210512161255 -0.29846438765525818
-0.56306082010269165 -0.83463174104690552 -0.16289103031158447
-0.56504881381988525 -0.82419794797897339 -0.16396117210388184
-0.60710865259170532 -0.84750264883041382 -0.19557863473892212
-0.56189322471618652 -0.84514528512954712 -0.16701911389827728
-0.52000570297241211 -0.81376057863235474 -0.12936721742153168
-0.52467381954193115 -0.8046720027923584 -0.13120110332965851
-0.60640722513198853 -0.8361961841583252 -0.19578686356544495
-0.60834437608718872 -0.85893046855926514 -0.19995874166488647
-0.51642131805419922 -0.8229556679725647 -0.13332167267799377
0.44815558195114136 0.53633624315261841 -0.2002665102481842
0.46563786268234253 0.57799577713012695 -0.23351037502288818
0.44190725684165955 0.54846823215484619 -0.19597193598747253
0.42837238311767578 0.49893707036972046 -0.16883969306945801
0.45365869998931885 0.52531564235687256 -0.2106766402721405
0.47207647562026978 0.56923705339431763 -0.24472558498382568
0.45838654041290283 0.58760303258895874 -0.22798556089401245
0.42324462532997131 0.51349133253097534 -0.16587631404399872
0.43284773826599121 0.48582714796066284 -0.17835423350334167
-0.40615290403366089 -0.71814298629760742 -0.027642026543617249
-0.41795885562896729 -0.7149767279624939 -0.031613416969776154
-0.44072625041007996 -0.75375109910964966 -0.060042262077331543
-0.3962799608707428 -0.72204887866973877 -0.030812084674835205
-0.37587547302246094 -0.68159222602844238 -0.0012074634432792664
-0.38978436589241028 -0.68072634935379028 -0.0057361647486686707
-0.45032688975334167 -0.74838954210281372 -0.063332602381706238
-0.43275123834609985 -0.75956255197525024 -0.063507646322250366
-0.36424458026885986 -0.68351060152053833 -0.004198908805847168
0.42711079120635986 0.58194899559020996 -0.21101811528205872
0.4408201277256012 0.61430531740188599 -0.23927468061447144
0.42421084642410278 0.59024292230606079 -0.22177115082740784
0.41190636157989502 0.55335152149200439 -0.18503788113594055
0.43096110224723816 0.57197260856628418 -0.20235460996627808
0.44548562169075012 0.60629469156265259 -0.231718510389328
0.43730968236923218 0.62101751565933228 -0.2491188645362854
0.40990930795669556 0.56306838989257812 -0.19679343700408936
0.41465970873832703 0.54157555103302002 -0.17514683306217194
-0.45254486799240112 -0.71278262138366699 -0.068649619817733765
-0.46151798963546753 -0.71395385265350342 -0.084561124444007874
-0.47889918088912964 -0.74003893136978149 -0.097949668765068054
-0.44202506542205811 -0.71230816841125488 -0.053669527173042297
-0.42984193563461304 -0.68523520231246948 -0.044722668826580048
-0.44001185894012451 -0.68805992603302002 -0.061126813292503357
-0.48644480109214783 -0.73978298902511597 -0.11318099498748779
-0.47012639045715332 -0.74137586355209351 -0.083723753690719604
-0.4178040623664856 -0.68273091316223145 -0.029161684215068817
0.46408730745315552 0.72911667823791504 -0.29971370100975037
0.46315991878509521 0.7702401876449585 -0.30671963095664978
0.460182785987854 0.73081594705581665 -0.30728843808174133
0.46015053987503052 0.68866229057312012 -0.28589493036270142
0.46966069936752319 0.72755157947540283 -0.29451432824134827
0.46842336654663086 0.77090895175933838 -0.301735520362854
0.45964989066123962 0.77023541927337646 -0.31394457817077637
0.45613917708396912 0.69204294681549072 -0.29410246014595032
0.46569234132766724 0.68489110469818115 -0.28012913465499878
-0.57331085205078125 -0.80266058444976807 -0.18862736225128174
-0.57609796524047852 -0.79966902732849121 -0.20048972964286804
-0.60751533508300781 -0.812752366065979 -0.21633681654930115
-0.57040762901306152 -0.80771619081497192 -0.17785674333572388
-0.5399775505065918 -0.78643840551376343 -0.15960974991321564
-0.54438382387161255 -0.78407019376754761 -0.17279535531997681
-0.60863834619522095 -0.80948710441589355 -0.22676926851272583
-0.60667401552200317 -0.81828415393829346 -0.20703187584877014
-0.53505861759185791 -0.79059141874313354 -0.14749991893768311
0.42533841729164124 0.8858950138092041 -0.28572508692741394
0.40309077501296997 0.91724997758865356 -0.26937073469161987
0.42499783635139465 0.88065636157989502 -0.29453611373901367
0.44357326626777649 0.84994512796401978 -0.29883325099945068
0.42724311351776123 0.8931344747543335 -0.27855443954467773
0.40322732925415039 0.92635560035705566 -0.26082676649093628
0.40432238578796387 0.91043978929519653 -0.27935683727264404
0.44186532497406006 0.84642833471298218 -0.30669233202934265
0.44698181748390198 0.85508245229721069 -0.29282724857330322
-0.70741015672683716 -0.7974923849105835 -0.29061570763587952
-0.70325738191604614 -0.79583090543746948 -0.29681423306465149
-0.73614823818206787 -0.77898484468460083 -0.31163805723190308
-0.71285736560821533 -0.8013954758644104 -0.28601396083831787
-0.67555999755859375 -0.81010794639587402 -0.26752090454101562
-0.67317807674407959 -0.80752348899841309 -0.27506834268569946
-0.73032093048095703 -0.77853590250015259 -0.3165995180606842
-0.74350076913833618 -0.78147101402282715 -0.30852323770523071
-0.67894506454467773 -0.81505191326141357 -0.26135295629501343
0.32430124282836914 0.96983557939529419 -0.21997600793838501
0.29792383313179016 0.97097277641296387 -0.20513415336608887
0.33067882061004639 0.96008700132369995 -0.23347014188766479
0.35139057040214539 0.96019744873046875 -0.23551124334335327
0.31850603222846985 0.9821239709854126 -0.20762011408805847
0.29031136631965637 0.98340713977813721 -0.19179615378379822
0.30585157871246338 0.96097695827484131 -0.21960437297821045
0.35606947541236877 0.95107460021972656 -0.24792167544364929
0.34757164120674133 0.97188270092010498 -0.22428542375564575
-0.7920106053352356 -0.70054185390472412 -0.35795950889587402
-0.78248113393783569 -0.70464962720870972 -0.36028096079826355
-0.79817920923233032 -0.67115771770477295 -0.36385604739189148
-0.80328446626663208 -0.69747185707092285 -0.35818579792976379
-0.77930557727813721 -0.72921496629714966 -0.34624582529067993
-0.77073508501052856 -0.73174542188644409 -0.34920746088027954
-0.78800332546234131 -0.67674702405929565 -0.36589577794075012
-0.81004106998443604 -0.66623836755752563 -0.36452510952949524
-0.78962314128875732 -0.72809493541717529 -0.34562617540359497
0.23353317379951477 0.92219829559326172 -0.1633467823266983
0.21835547685623169 0.89497619867324829 -0.15057198703289032
0.24437978863716125 0.91379410028457642 -0.17994299530982971
0.25191661715507507 0.94590717554092407 -0.17681834101676941
0.2224375307559967 0.93245035409927368 -0.14803068339824677
0.2067304253578186 0.90391713380813599 -0.1349547952413559
0.22961196303367615 0.88762116432189941 -0.16754373908042908
0.26210319995880127 0.93663376569747925 -0.1928577721118927
0.24162504076957703 0.95726042985916138 -0.16199113428592682
-0.77537184953689575 -0.59148699045181274 -0.3349774181842804
-0.76531076431274414 -0.59997099637985229 -0.33891206979751587
-0.75843191146850586 -0.57028293609619141 -0.31395867466926575
-0.78675937652587891 -0.58288341760635376 -0.33384466171264648
-0.7890428900718689 -0.61570048332214355 -0.35192787647247314
-0.77862799167633057 -0.62350690364837646 -0.35482880473136902
-0.748931884765625 -0.57923001050949097 -0.31906494498252869
-0.76909488439559937 -0.56104683876037598 -0.31157609820365906
-0.80092620849609375 -0.60797697305679321 -0.35186141729354858
0.19244843721389771 0.81829530000686646 -0.1185217946767807
0.18029582500457764 0.82318699359893799 -0.10318650305271149
0.18941947817802429 0.79617154598236084 -0.11118675768375397
0.20393392443656921 0.8141058087348938 -0.13536971807479858
0.19798699021339417 0.84180068969726562 -0.12783849239349365
0.18588730692863464 0.84799021482467651 -0.11222736537456512
0.17727485299110413 0.79983919858932495 -0.096254095435142517
0.20081326365470886 0.79294061660766602 -0.12763507664203644
0.20951318740844727 0.83660918474197388 -0.14493010938167572
-0.70654219388961792 -0.5285491943359375 -0.24891665577888489
-0.69017606973648071 -0.52086895704269409 -0.23006522655487061
-0.71443736553192139 -0.51819133758544922 -0.24360039830207825
-0.7231406569480896 -0.5388985276222229 -0.26948288083076477
-0.69923520088195801 -0.5381615161895752 -0.25660678744316101
-0.68366283178329468 -0.53063404560089111 -0.23814681172370911
-0.69710499048233032 -0.51023226976394653 -0.22422033548355103
-0.73200160264968872 -0.5288422703742981 -0.26490947604179382
-0.7150648832321167 -0.54835766553878784 -0.27655676007270813
0.31957998871803284 0.41594928503036499 -0.050878278911113739
0.32192021608352661 0.39213189482688904 -0.039206035435199738
0.32509878277778625 0.3994564414024353 -0.080447807908058167
0.31497135758399963 0.43369027972221375 -0.062979087233543396
0.31202271580696106 0.44247055053710938 -0.018865473568439484
0.31629621982574463 0.42299246788024902 0.0027460008859634399
0.32549899816513062 0.37143105268478394 -0.077920481562614441
0.32163462042808533 0.4222474992275238 -0.087866529822349548
0.30616432428359985 0.45541596412658691 -0.037013031542301178
-0.32514017820358276 -0.5325353741645813 0.058767903596162796
-0.31151303648948669 -0.53641718626022339 0.035775370895862579
-0.30178534984588623 -0.52472573518753052 0.075150877237319946
-0.34859800338745117 -0.53053057193756104 0.080376170575618744
-0.34365573525428772 -0.5359419584274292 0.040980659425258636
-0.3335627019405365 -0.54173111915588379 0.022616993635892868
-0.2861667275428772 -0.52703201770782471 0.042343579232692719
-0.32733187079429626 -0.52425682544708252 0.10788290202617645
-0.36388298869132996 -0.53210508823394775 0.056218758225440979
0.36515086889266968 0.41550147533416748 -0.12225471436977386
0.36607730388641357 0.39510121941566467 -0.13021542131900787
0.38573271036148071 0.4378635585308075 -0.13007050752639771
0.36328393220901489 0.43779444694519043 -0.12238654494285583
0.34681370854377747 0.40001937747001648 -0.11530768871307373
0.34650465846061707 0.37427479028701782 -0.12249249219894409
0.38789686560630798 0.42064759135246277 -0.13843207061290741
0.38304111361503601 0.45744782686233521 -0.12921516597270966
0.34490996599197388 0.42512434720993042 -0.11695210635662079
-0.31694361567497253 -0.58587068319320679 0.018193747848272324
-0.33095645904541016 -0.61404836177825928 0.020389582961797714
-0.29950776696205139 -0.58137625455856323 0.014505211263895035
-0.3084837794303894 -0.56238245964050293 0.015313535928726196
-0.33721747994422913 -0.59138816595077515 0.012662649154663086
-0.34897786378860474 -0.61774164438247681 0.015392519533634186
-0.31605711579322815 -0.61192148923873901 0.016950953751802444
-0.28659936785697937 -0.55481976270675659 0.012013651430606842
-0.33139330148696899 -0.56896108388900757 0.0081285536289215088
0.2436930239200592 0.57193660736083984 0.061006531119346619
0.25010251998901367 0.56326407194137573 0.091406844556331635
0.2752055823802948 0.52361536026000977 0.03704298660159111
0.2365356981754303 0.57715058326721191 0.034920826554298401
0.20563966035842896 0.61767947673797607 0.087551377713680267
0.21318870782852173 0.60787492990493774 0.11716431379318237
0.28130465745925903 0.51260846853256226 0.068219743669033051
0.2681623101234436 0.52954709529876709 0.011695440858602524
0.19790533185005188 0.62542992830276489 0.060192741453647614
-0.48625746369361877 -0.51087778806686401 0.080850213766098022
-0.43131506443023682 -0.52144515514373779 0.091208271682262421
-0.47481042146682739 -0.51139676570892334 0.11905557662248611
-0.54239583015441895 -0.49521493911743164 0.069945424795150757
-0.49435210227966309 -0.50765502452850342 0.047782130539417267
-0.44077134132385254 -0.51964879035949707 0.059435795992612839
-0.41687574982643127 -0.51943784952163696 0.12964487075805664
-0.53054624795913696 -0.49780735373497009 0.10914801061153412
-0.55190777778625488 -0.4908636212348938 0.03374013677239418
0.14528319239616394 0.73676216602325439 -0.069899648427963257
0.1479569673538208 0.71701085567474365 -0.068145543336868286
0.15547147393226624 0.73617643117904663 -0.072370946407318115
0.14325711131095886 0.75941747426986694 -0.070466563105583191
0.13685241341590881 0.7361149787902832 -0.074346527457237244
0.13691157102584839 0.71783995628356934 -0.069044888019561768
0.15898782014846802 0.7155793309211731 -0.072959855198860168
0.15327209234237671 0.758617103099823 -0.07204592227935791
0.13553941249847412 0.75883901119232178 -0.076000139117240906
-0.65555042028427124 -0.46247059106826782 -0.17957434058189392
-0.65242373943328857 -0.47304299473762512 -0.17615696787834167
-0.63887202739715576 -0.46036040782928467 -0.1655309647321701
-0.65675336122512817 -0.45275455713272095 -0.18840518593788147
-0.67442548274993896 -0.46603584289550781 -0.19398811459541321
-0.67132347822189331 -0.47658827900886536 -0.18951642513275146
-0.63455742597579956 -0.47120597958564758 -0.16375377774238586
-0.64245963096618652 -0.44898930191993713 -0.1727091521024704
-0.6752508282661438 -0.45672962069511414 -0.20368427038192749
0.36586964130401611 0.49406319856643677 -0.15505275130271912
0.38061553239822388 0.50907051563262939 -0.15662623941898346
0.36863493919372559 0.50644385814666748 -0.17063063383102417
0.35230803489685059 0.48416894674301147 -0.15746819972991943
0.36334773898124695 0.47837579250335693 -0.14054146409034729
0.38023504614830017 0.49437302350997925 -0.14399176836013794
0.38145908713340759 0.52084875106811523 -0.17076873779296875
0.35725751519203186 0.49691915512084961 -0.17467887699604034
0.34715539216995239 0.46791520714759827 -0.14024342596530914
-0.38922262191772461 -0.61715924739837646 -0.030878163874149323
-0.40074512362480164 -0.62614130973815918 -0.048011884093284607
-0.39797326922416687 -0.63651394844055176 -0.02604791522026062
-0.37479296326637268 -0.60746592283248901 -0.014091327786445618
-0.38495022058486938 -0.60115361213684082 -0.040238097310066223
-0.39623495936393738 -0.61253470182418823 -0.05760405957698822
-0.40943589806556702 -0.64325934648513794 -0.043002843856811523
-0.38391530513763428 -0.62944680452346802 -0.0097662955522537231
-0.37063959240913391 -0.58843445777893066 -0.022388838231563568
0.32392135262489319 0.48713451623916626 -0.16427130997180939
0.31666445732116699 0.49545902013778687 -0.16474542021751404
0.31340095400810242 0.47524547576904297 -0.14456707239151001
0.3315407931804657 0.48134869337081909 -0.16321957111358643
0.33428862690925598 0.49895066022872925 -0.1830255389213562
0.32846751809120178 0.50674533843994141 -0.18301361799240112
0.30403181910514832 0.48526185750961304 -0.14493407309055328
0.32243806123733521 0.46723368763923645 -0.14327450096607208
0.34037867188453674 0.49374538660049438 -0.18214574456214905
-0.39659321308135986 -0.57503598928451538 -0.06717132031917572
-0.38771665096282959 -0.55840134620666504 -0.050910398364067078
-0.40586289763450623 -0.5703015923500061 -0.074647679924964905
-0.40537825226783752 -0.59139007329940796 -0.082602143287658691
-0.38926944136619568 -0.58069711923599243 -0.059552356600761414
-0.37792956829071045 -0.56462967395782471 -0.041803315281867981
-0.399160236120224 -0.55221372842788696 -0.059971123933792114
-0.41365846991539001 -0.58776813745498657 -0.088640302419662476
-0.39909645915031433 -0.59583234786987305 -0.076149135828018188
0.29414886236190796 0.52390539646148682 -0.17424042522907257
0.28206720948219299 0.51930612325668335 -0.1639605313539505
0.30162835121154785 0.5148734450340271 -0.16934874653816223
0.30514609813690186 0.53175878524780273 -0.18479582667350769
0.28763344883918762 0.53135776519775391 -0.18007844686508179
0.27722051739692688 0.52812284231185913 -0.17320612072944641
0.28800851106643677 0.50833261013031006 -0.15446309745311737
0.31373921036720276 0.52428740262985229 -0.18334567546844482
0.29744869470596313 0.53726929426193237 -0.1875651478767395
-0.43671640753746033 -0.55623394250869751 -0.10734270513057709
-0.42681032419204712 -0.56099575757980347 -0.094717234373092651
-0.43539726734161377 -0.54146528244018555 -0.10339784622192383
-0.44502466917037964 -0.55201965570449829 -0.11989405751228333
-0.44114989042282104 -0.57091450691223145 -0.11334078013896942
-0.43250846862792969 -0.57762748003005981 -0.10386176407337189
-0.42396923899650574 -0.54366105794906616 -0.086582794785499573
-0.44460612535476685 -0.53964906930923462 -0.11869420111179352
-0.44793134927749634 -0.56463420391082764 -0.12299534678459167
0.24655812978744507 0.55862343311309814 -0.14139285683631897
0.23622450232505798 0.58422648906707764 -0.13599427044391632
0.24367159605026245 0.55440998077392578 -0.12383855879306793
0.25777843594551086 0.53658735752105713 -0.14744332432746887
0.24920812249183655 0.56393224000930786 -0.15622583031654358
0.24140265583992004 0.5876086950302124 -0.15115827322006226
0.23026153445243835 0.58286458253860474 -0.11787135899066925
0.25833860039710999 0.52824586629867554 -0.131150022149086
0.25769004225730896 0.54411458969116211 -0.16140575706958771
-0.4775804877281189 -0.51513350009918213 -0.11662624776363373
-0.47453078627586365 -0.51054090261459351 -0.099248155951499939
-0.50212389230728149 -0.51195383071899414 -0.1265263557434082
-0.48166945576667786 -0.51987600326538086 -0.1319127082824707
-0.45589357614517212 -0.52037733793258667 -0.10818728804588318
-0.44812506437301636 -0.51773768663406372 -0.088724002242088318
-0.50260871648788452 -0.50542372465133667 -0.11127927899360657
-0.5037042498588562 -0.51847755908966064 -0.14010246098041534
-0.46276777982711792 -0.5231664776802063 -0.12488842010498047
0.21105563640594482 0.65439337491989136 -0.12009066343307495
0.19992032647132874 0.655170738697052 -0.10414367914199829
0.21845126152038574 0.63331252336502075 -0.12542766332626343
0.22092357277870178 0.65520262718200684 -0.13454711437225342
0.20463272929191589 0.67423546314239502 -0.11506339907646179
0.1929442286491394 0.67459410429000854 -0.10036872327327728
0.20833984017372131 0.63420343399047852 -0.10827100276947021
0.22728142142295837 0.63446801900863647 -0.14025461673736572
0.21515738964080811 0.67489838600158691 -0.12920640408992767
-0.56827151775360107 -0.50629663467407227 -0.15292239189147949
-0.5485302209854126 -0.50790691375732422 -0.1450970470905304
-0.57236689329147339 -0.49560731649398804 -0.14334465563297272
-0.58662587404251099 -0.5052647590637207 -0.16052022576332092
-0.56600683927536011 -0.51635730266571045 -0.16239497065544128
-0.54692977666854858 -0.5171244740486145 -0.15561427175998688
-0.552398681640625 -0.49824687838554382 -0.13383789360523224
-0.5905226469039917 -0.49388659000396729 -0.15231738984584808
-0.58398836851119995 -0.51585686206817627 -0.16925883293151855
0.19124323129653931 0.73354560136795044 -0.10471372306346893
0.17911669611930847 0.73424029350280762 -0.091204538941383362
0.19464913010597229 0.7134091854095459 -0.10698583722114563
0.20246398448944092 0.73292970657348633 -0.11943662166595459
0.18912282586097717 0.75405001640319824 -0.10431098937988281
0.17699497938156128 0.75556504726409912 -0.090395927429199219
0.18257057666778564 0.71357721090316772 -0.093592524528503418
0.20576831698417664 0.71344751119613647 -0.12124460935592651
0.20038613677024841 0.75263196229934692 -0.11962601542472839
-0.63945907354354858 -0.50775015354156494 -0.1874101459980011
-0.62193125486373901 -0.5058402419090271 -0.1772693395614624
-0.64383804798126221 -0.496153324842453 -0.1809869110584259
-0.65675193071365356 -0.51084142923355103 -0.1993027925491333
-0.6353188157081604 -0.51832515001296997 -0.1955951452255249
-0.61845386028289795 -0.51663374900817871 -0.18542852997779846
-0.62580621242523193 -0.49406096339225769 -0.17060068249702454
-0.66186439990997314 -0.49955698847770691 -0.19299229979515076
-0.65185165405273438 -0.52110964059829712 -0.20756301283836365
0.16220483183860779 0.67612570524215698 -0.044444411993026733
0.17236995697021484 0.66057437658309937 -0.036218620836734772
0.17639201879501343 0.66573804616928101 -0.06672137975692749
0.15567123889923096 0.68827015161514282 -0.054631292819976807
0.14316165447235107 0.68929165601730347 -0.019074112176895142
0.15367487072944641 0.67743200063705444 -0.0023954212665557861
0.18619635701179504 0.64742004871368408 -0.064476057887077332
0.16914007067680359 0.68146860599517822 -0.069954141974449158
0.13833186030387878 0.69666248559951782 -0.039547570049762726
-0.60338008403778076 -0.46720167994499207 -0.11289560794830322
-0.58924764394760132 -0.4766421914100647 -0.12317188084125519
-0.58795356750488281 -0.47388386726379395 -0.09239216148853302
-0.62203872203826904 -0.45480364561080933 -0.10315392911434174
-0.61443030834197998 -0.46257635951042175 -0.13250686228275299
-0.60402172803878784 -0.47305780649185181 -0.13772763311862946
-0.57129740715026855 -0.48172464966773987 -0.10770758986473083
-0.61012852191925049 -0.46364307403564453 -0.075447544455528259
-0.62771207094192505 -0.44924664497375488 -0.13015550374984741
0.23314279317855835 0.56476986408233643 -0.048826880753040314
0.23079144954681396 0.57254898548126221 -0.019227474927902222
0.25646278262138367 0.52645683288574219 -0.061306819319725037
0.23662286996841431 0.55760371685028076 -0.077185526490211487
0.2089628279209137 0.60385239124298096 -0.038389086723327637
0.19984853267669678 0.61742281913757324 -0.0032534152269363403
0.25798320770263672 0.52973860502243042 -0.035871125757694244
0.25722810626029968 0.5230172872543335 -0.087347894906997681
0.21676343679428101 0.59260207414627075 -0.069368734955787659
-0.48611387610435486 -0.5026317834854126 -0.03452802449464798
-0.44520610570907593 -0.51247960329055786 -0.01978997141122818
-0.49339801073074341 -0.50253647565841675 -0.0090821161866188049
-0.52798587083816528 -0.49224761128425598 -0.052241556346416473
-0.47901129722595215 -0.50400811433792114 -0.058135613799095154
-0.44278901815414429 -0.51331239938735962 -0.044059038162231445
-0.44670116901397705 -0.51370131969451904 0.0053780525922775269
-0.54341810941696167 -0.48893845081329346 -0.027296669781208038
-0.51535505056381226 -0.49556666612625122 -0.074411734938621521
0.29787135124206543 0.46224460005760193 -0.091814815998077393
0.30301240086555481 0.45507249236106873 -0.084718063473701477
0.30022993683815002 0.4613056480884552 -0.10612837970256805
0.290101557970047 0.47228235006332397 -0.084547355771064758
0.29394945502281189 0.46901074051856995 -0.068264156579971313
0.30890217423439026 0.45115998387336731 -0.10324954986572266
0.28968572616577148 0.47426682710647583 -0.1037256270647049
-0.37685975432395935 -0.53272753953933716 -0.0043361485004425049
-0.37637737393379211 -0.53630077838897705 -0.016854032874107361
-0.36833885312080383 -0.53444749116897583 0.0078040510416030884
-0.3876674473285675 -0.52786213159561157 -0.0047403723001480103
-0.39084905385971069 -0.53005313873291016 -0.024701401591300964
-0.36451765894889832 -0.54103398323059082 -0.0060768797993659973
-0.38243544101715088 -0.52881109714508057 0.014642510563135147
0.22473996877670288 0.73110443353652954 -0.16082330048084259
0.21886333823204041 0.73162132501602173 -0.1479794830083847
0.22720792889595032 0.71272844076156616 -0.16134132444858551
0.231108158826828 0.73101687431335449 -0.172930046916008
0.22340250015258789 0.74972110986709595 -0.16225080192089081
0.21719953417778015 0.75035321712493896 -0.149174764752388
0.22167667746543884 0.7130846381187439 -0.14879664778709412
0.2332673966884613 0.71266424655914307 -0.17325253784656525
0.2300490140914917 0.74964380264282227 -0.17441383004188538
-0.62618231773376465 -0.5385516881942749 -0.22390195727348328
-0.61071795225143433 -0.53668946027755737 -0.21358808875083923
-0.62863916158676147 -0.53325068950653076 -0.21452471613883972
-0.64139729738235474 -0.54146456718444824 -0.23596057295799255
-0.62412786483764648 -0.54473084211349487 -0.2323073148727417
-0.60882085561752319 -0.54263848066329956 -0.22200798988342285
-0.61288005113601685 -0.53159785270690918 -0.2042025625705719
-0.64409345388412476 -0.53594517707824707 -0.22664055228233337
-0.63923603296279907 -0.54787111282348633 -0.24423509836196899
0.23878777027130127 0.65778923034667969 -0.1714463084936142
0.23431828618049622 0.65732681751251221 -0.16004550457000732
0.24322608113288879 0.63847607374191284 -0.17644280195236206
0.24387943744659424 0.65813374519348145 -0.18207287788391113
0.23448139429092407 0.67632496356964111 -0.16700099408626556
0.22964489459991455 0.67619520425796509 -0.15520220994949341
0.23917600512504578 0.63762098550796509 -0.16541065275669098
0.24796503782272339 0.63909333944320679 -0.18654996156692505
0.23990127444267273 0.67646819353103638 -0.17813917994499207
-0.56282007694244385 -0.53486371040344238 -0.19096982479095459
-0.54575520753860474 -0.53448194265365601 -0.18506705760955811
-0.56377494335174561 -0.5302886962890625 -0.18173107504844666
-0.57915639877319336 -0.53513574600219727 -0.19742095470428467
-0.56172144412994385 -0.54021668434143066 -0.19885417819023132
-0.54504978656768799 -0.53964889049530029 -0.19273948669433594
-0.54617983102798462 -0.53010392189025879 -0.17580984532833099
-0.58057099580764771 -0.53039634227752686 -0.18813380599021912
-0.57773333787918091 -0.54067188501358032 -0.20554453134536743
0.25561460852622986 0.57476025819778442 -0.19097214937210083
0.25339704751968384 0.57232826948165894 -0.18071722984313965
0.26014798879623413 0.55732405185699463 -0.19476225972175598
0.25895416736602783 0.57697910070419312 -0.19969898462295532
0.25155389308929443 0.59585326910018921 -0.18651074171066284
0.24862667918205261 0.59403151273727417 -0.17598897218704224
0.25870659947395325 0.55414736270904541 -0.18499666452407837
0.26272878050804138 0.56102800369262695 -0.20247149467468262
0.25545918941497803 0.59725838899612427 -0.19578459858894348
-0.48986777663230896 -0.53080832958221436 -0.16738589107990265
-0.47429946064949036 -0.53105956315994263 -0.16195756196975708
-0.48819226026535034 -0.52747726440429688 -0.15736247599124908
-0.50836479663848877 -0.53205329179763794 -0.17329281568527222
-0.49106496572494507 -0.53523838520050049 -0.1750381737947464
-0.47695434093475342 -0.53512495756149292 -0.16955757141113281
-0.47172757983207703 -0.52823466062545776 -0.15173755586147308
-0.50748264789581299 -0.52828687429428101 -0.16359458863735199
-0.50867974758148193 -0.53677517175674438 -0.18088477849960327
0.28083118796348572 0.5440865159034729 -0.2032528817653656
0.28095987439155579 0.54074943065643311 -0.19505801796913147
0.29026621580123901 0.54813617467880249 -0.20575219392776489
0.2817213237285614 0.5486443042755127 -0.21050328016281128
0.27257832884788513 0.5423281192779541 -0.20073917508125305
0.27247950434684753 0.53873938322067261 -0.1919880211353302
0.29001694917678833 0.54475343227386475 -0.19839596748352051
0.29137697815895081 0.55237782001495361 -0.21301734447479248
0.27375957369804382 0.54733675718307495 -0.2076687216758728
-0.4585338830947876 -0.55004632472991943 -0.1522824764251709
-0.45974871516227722 -0.5614134669303894 -0.15004584193229675
-0.45536273717880249 -0.54873913526535034 -0.14262740314006805
-0.45895543694496155 -0.54057770967483521 -0.15452426671981812
-0.4623868465423584 -0.55264544486999512 -0.16080677509307861
-0.46330493688583374 -0.56419211626052856 -0.15832699835300446
-0.45665159821510315 -0.55971986055374146 -0.1414659321308136
-0.45562967658042908 -0.53895771503448486 -0.1443752646446228
-0.46308693289756775 -0.54356688261032104 -0.16268369555473328
0.32320663332939148 0.54842454195022583 -0.21481198072433472
0.31968766450881958 0.54468494653701782 -0.20544561743736267
0.333647221326828 0.54284709692001343 -0.21828103065490723
0.32559108734130859 0.5527571439743042 -0.22299396991729736
0.31195315718650818 0.55150330066680908 -0.21149042248725891
0.30954667925834656 0.54787915945053101 -0.20349416136741638
0.3297400176525116 0.53885066509246826 -0.20805120468139648
0.33608436584472656 0.54740864038467407 -0.22666633129119873
0.31400752067565918 0.55565404891967773 -0.21921020746231079
-0.45238050818443298 -0.59726434946060181 -0.13747790455818176
-0.44530743360519409 -0.60709047317504883 -0.13215327262878418
-0.44958773255348206 -0.59170109033584595 -0.12896968424320221
-0.45755618810653687 -0.58588546514511108 -0.14267602562904358
-0.45586106181144714 -0.60165703296661377 -0.14579196274280548
-0.44902881979942322 -0.6116907000541687 -0.14066514372825623
-0.44229480624198914 -0.60089743137359619 -0.12299378216266632
-0.45469856262207031 -0.58170074224472046 -0.13481630384922028
-0.46089544892311096 -0.58977669477462769 -0.15071870386600494
0.35147437453269958 0.51844072341918945 -0.22487792372703552
0.3482900857925415 0.51451408863067627 -0.21391424536705017
0.35470056533813477 0.51263928413391113 -0.2239876389503479
0.35360652208328247 0.52265304327011108 -0.23254942893981934
0.34771168231964111 0.52663207054138184 -0.22383472323417664
0.34411320090293884 0.52252155542373657 -0.21287822723388672
0.35208976268768311 0.50884371995925903 -0.21323150396347046
0.3565254807472229 0.51690703630447388 -0.23091816902160645
0.34999322891235352 0.531075119972229 -0.23196938633918762
-0.42070916295051575 -0.61976706981658936 -0.11926347017288208
-0.41489490866661072 -0.62137693166732788 -0.11433318257331848
-0.41735497117042542 -0.61404478549957275 -0.10906624794006348
-0.42850270867347717 -0.61799442768096924 -0.12325012683868408
-0.424295574426651 -0.62405210733413696 -0.12695975601673126
-0.41858041286468506 -0.62531071901321411 -0.12144902348518372
-0.41146665811538696 -0.61623996496200562 -0.10404482483863831
-0.42515498399734497 -0.61186510324478149 -0.11322501301765442
-0.43223926424980164 -0.62250006198883057 -0.13145285844802856
0.37215381860733032 0.52385115623474121 -0.21012464165687561
0.37204733490943909 0.52044868469238281 -0.19893881678581238
0.38173750042915344 0.53784149885177612 -0.20879799127578735
0.37142249941825867 0.52750009298324585 -0.21929043531417847
0.36443933844566345 0.51472586393356323 -0.21519234776496887
0.36344709992408752 0.51121175289154053 -0.20430460572242737
0.38235455751419067 0.53442239761352539 -0.19761019945144653
0.38024485111236572 0.54158884286880493 -0.2184712290763855
0.36472836136817932 0.51868188381195068 -0.22301021218299866
-0.41856837272644043 -0.64071381092071533 -0.090682104229927063
-0.42774522304534912 -0.65435057878494263 -0.086488008499145508
-0.41464999318122864 -0.63803523778915405 -0.078315183520317078
-0.41333359479904175 -0.63086247444152832 -0.098820298910140991
-0.42265164852142334 -0.64221072196960449 -0.10178834199905396
-0.43215072154998779 -0.65515398979187012 -0.098767846822738647
-0.42360559105873108 -0.65238732099533081 -0.073554709553718567
-0.4096125066280365 -0.6273273229598999 -0.087377786636352539
-0.41728216409683228 -0.63330709934234619 -0.10784836113452911
0.22884047031402588 0.80824905633926392 -0.18037879467010498
0.22191834449768066 0.8090595006942749 -0.16712853312492371
0.22517296671867371 0.78804594278335571 -0.17215023934841156
0.23594251275062561 0.80823838710784912 -0.19182184338569641
0.23475798964500427 0.82968491315841675 -0.19006320834159851
0.22775736451148987 0.83060801029205322 -0.17694920301437378
0.21842697262763977 0.78879857063293457 -0.15886321663856506
0.2322196364402771 0.78804832696914673 -0.18397116661071777
0.24175244569778442 0.82953476905822754 -0.20103320479393005
-0.68559104204177856 -0.55922561883926392 -0.28382089734077454
-0.67096048593521118 -0.55142730474472046 -0.26608866453170776
-0.68869274854660034 -0.55312347412109375 -0.2750542163848877
-0.70053762197494507 -0.56957006454467773 -0.30262553691864014
-0.68334782123565674 -0.56608736515045166 -0.29097679257392883
-0.66872870922088623 -0.55822110176086426 -0.27372995018959045
-0.67396587133407593 -0.5454830527305603 -0.2570626437664032
-0.7037358283996582 -0.56340014934539795 -0.29420953989028931
-0.69823360443115234 -0.57631409168243408 -0.30921423435211182
0.2685297429561615 0.90240979194641113 -0.22284775972366333
0.26207968592643738 0.90436214208602905 -0.21074178814888
0.25452888011932373 0.87786084413528442 -0.2116197943687439
0.2739199697971344 0.90045499801635742 -0.23203960061073303
0.28507646918296814 0.92380672693252563 -0.2342475950717926
0.27899664640426636 0.92626863718032837 -0.22267195582389832
0.24777263402938843 0.87935590744018555 -0.19907793402671814
0.26061907410621643 0.87678080797195435 -0.22147351503372192
0.28979691863059998 0.92068105936050415 -0.24263873696327209
-0.7482140064239502 -0.6198585033416748 -0.35876977443695068
-0.73262155055999756 -0.5999068021774292 -0.34132689237594604
-0.75194007158279419 -0.61432290077209473 -0.35206863284111023
-0.76103037595748901 -0.6422761082649231 -0.37237545847892761
-0.74498021602630615 -0.62461209297180176 -0.3632282018661499
-0.72986364364624023 -0.60554772615432739 -0.34663170576095581
-0.73613059520721436 -0.59402912855148315 -0.33394813537597656
-0.76498079299926758 -0.63713335990905762 -0.36643010377883911
-0.75710946321487427 -0.64615142345428467 -0.37564763426780701
0.34720098972320557 0.94733422994613647 -0.26934635639190674
0.34274876117706299 0.94998347759246826 -0.25935956835746765
0.32497242093086243 0.94735372066497803 -0.25742602348327637
0.34975484013557434 0.94263619184494019 -0.27564984560012817
0.36973690986633301 0.93982422351837158 -0.28172197937965393
0.36597201228141785 0.94206422567367554 -0.27226486802101135
0.31989225745201111 0.95022433996200562 -0.24692878127098083
0.32830002903938293 0.94269388914108276 -0.2643389105796814
0.37144425511360168 0.93544250726699829 -0.28741675615310669
-0.767444908618927 -0.71787220239639282 -0.37588521838188171
-0.77137082815170288 -0.69213563203811646 -0.38118475675582886
-0.77089071273803711 -0.71414577960968018 -0.37076196074485779
-0.75784051418304443 -0.74266397953033447 -0.36574402451515198
-0.76296991109848022 -0.71931254863739014 -0.37748515605926514
-0.76670557260513306 -0.69435900449752808 -0.38286575675010681
-0.77522456645965576 -0.68790560960769653 -0.37609070539474487
-0.76071947813034058 -0.73946219682693481 -0.36041790246963501
-0.75384068489074707 -0.74330848455429077 -0.36756700277328491
0.42994099855422974 0.87611955404281616 -0.32151719927787781
0.42839980125427246 0.87668836116790771 -0.31388911604881287
0.41208237409591675 0.90344440937042236 -0.30854606628417969
0.42864137887954712 0.87387180328369141 -0.32495450973510742
0.44420355558395386 0.84439271688461304 -0.33198961615562439
0.44337889552116394 0.84439527988433838 -0.32481864094734192
0.40979564189910889 0.90459436178207397 -0.30031055212020874
0.41182562708854675 0.90036171674728394 -0.31276416778564453
0.44193994998931885 0.8430362343788147 -0.33482140302658081
-0.69862085580825806 -0.80029541254043579 -0.31765168905258179
-0.72275882959365845 -0.78496932983398438 -0.33581674098968506
-0.69938212633132935 -0.79869288206100464 -0.31147244572639465
-0.67148452997207642 -0.81030476093292236 -0.2978861927986145
-0.69707649946212769 -0.79830121994018555 -0.32086890935897827
-0.72028529644012451 -0.78386467695236206 -0.33849027752876282
-0.72425198554992676 -0.78284406661987305 -0.32994860410690308
-0.67152523994445801 -0.80918395519256592 -0.29127448797225952
-0.67091089487075806 -0.80753576755523682 -0.30178442597389221
0.456806480884552 0.73542964458465576 -0.33343005180358887
0.45770815014839172 0.73405164480209351 -0.32580778002738953
0.45777717232704163 0.77279645204544067 -0.33882534503936768
0.45290729403495789 0.73662495613098145 -0.33678349852561951
0.45167380571365356 0.69866299629211426 -0.32201743125915527
0.4529590904712677 0.69690382480621338 -0.31377235054969788
0.45819231867790222 0.77182358503341675 -0.33166036009788513
0.4541797935962677 0.77319240570068359 -0.34158366918563843
0.44768774509429932 0.70059102773666382 -0.32626998424530029
-0.58236122131347656 -0.79982918500900269 -0.23227867484092712
-0.61242401599884033 -0.81006813049316406 -0.2551598846912384
-0.58053189516067505 -0.79969614744186401 -0.22311002016067505
-0.55302727222442627 -0.78428089618682861 -0.20795717835426331
-0.58444243669509888 -0.79625296592712402 -0.23935917019844055
-0.61369132995605469 -0.8064764142036438 -0.26100662350654602
-0.61116206645965576 -0.80970120429992676 -0.24703302979469299
-0.55066651105880737 -0.78426980972290039 -0.19770535826683044
