# XYZ point cloud file
0.068725109100341797 0.28838500380516052 0.73954641819000244
0.040317974984645844 0.2649478018283844 0.74904429912567139
-0.25279593467712402 -0.19064928591251373 0.7637099027633667
-0.25858831405639648 -0.22031399607658386 0.75873100757598877
-0.26820278167724609 -0.25095614790916443 0.7525254487991333
-0.27322781085968018 -0.28233811259269714 0.74229311943054199
-0.2633979320526123 -0.28536182641983032 0.73681521415710449
-0.25226575136184692 -0.28949651122093201 0.73045849800109863
0.17458932101726532 0.45073303580284119 0.6672137975692749
0.16241627931594849 0.44596025347709656 0.67895710468292236
0.15161743760108948 0.44352895021438599 0.68877685070037842
0.14378418028354645 0.41625997424125671 0.70020115375518799
0.14087213575839996 0.39110004901885986 0.70548450946807861
0.13246038556098938 0.36607015132904053 0.71188390254974365
-0.29944866895675659 -0.30515813827514648 0.73862743377685547
-0.32113975286483765 -0.32697182893753052 0.73103451728820801
-0.34677034616470337 -0.34627166390419006 0.72241342067718506
-0.37141066789627075 -0.36955893039703369 0.70841562747955322
-0.36685639619827271 -0.37677273154258728 0.7019343376159668
-0.36397159099578857 -0.38637906312942505 0.69366633892059326
0.12572920322418213 0.56920671463012695 0.66759717464447021
0.11717236042022705 0.55808663368225098 0.67571890354156494
0.10886853933334351 0.54929107427597046 0.68262672424316406
0.11601363122463226 0.52079284191131592 0.68703103065490723
0.12804655730724335 0.49597826600074768 0.68858253955841064
0.13681341707706451 0.46921750903129578 0.69165003299713135
-0.40953713655471802 -0.38035959005355835 0.70030021667480469
-0.44473886489868164 -0.39490699768066406 0.68743753433227539
-0.48001086711883545 -0.40645530819892883 0.67481052875518799
-0.51581192016601562 -0.42274260520935059 0.65942585468292236
-0.51955544948577881 -0.43267571926116943 0.65296566486358643
-0.52561861276626587 -0.44429820775985718 0.64462196826934814
0.0326654352247715 0.61794543266296387 0.69570255279541016
0.029015056788921356 0.60404908657073975 0.69989442825317383
0.024695418775081635 0.59242439270019531 0.70454549789428711
0.041772879660129547 0.57775461673736572 0.70154070854187012
0.062914058566093445 0.56986290216445923 0.69553351402282715
0.082915037870407104 0.55819427967071533 0.69061374664306641
-0.54334956407546997 -0.41655734181404114 0.65458106994628906
-0.56972557306289673 -0.41503509879112244 0.64767491817474365
-0.59279370307922363 -0.41036322712898254 0.64239752292633057
-0.62015438079833984 -0.41193351149559021 0.63281428813934326
-0.62938421964645386 -0.4214438796043396 0.62509942054748535
-0.64151865243911743 -0.43218708038330078 0.61638557910919189
-0.07147061824798584 0.59660059213638306 0.730621337890625
-0.070105962455272675 0.58530932664871216 0.73200654983520508
-0.069409430027008057 0.57550835609436035 0.73509085178375244
-0.044191502034664154 0.57817947864532471 0.72778892517089844
-0.02162475511431694 0.5838361382484436 0.72018599510192871
-0.00043731927871704102 0.58493596315383911 0.71382749080657959
-0.62966632843017578 -0.39526361227035522 0.63519513607025146
-0.64326918125152588 -0.38471609354019165 0.63395166397094727
-0.65316176414489746 -0.3707769513130188 0.63569891452789307
-0.66810214519500732 -0.35761299729347229 0.6353452205657959
-0.67872583866119385 -0.36334213614463806 0.6277235746383667
-0.69160187244415283 -0.37006503343582153 0.62072908878326416
-0.20959383249282837 0.49403342604637146 0.77388787269592285
-0.19862507283687592 0.48831185698509216 0.77644860744476318
-0.19084854423999786 0.48321095108985901 0.78119468688964844
-0.1572614312171936 0.50245118141174316 0.77586746215820312
-0.12737393379211426 0.52661889791488647 0.76350235939025879
-0.097425714135169983 0.54890221357345581 0.75003421306610107
-0.66034936904907227 -0.32854574918746948 0.65242552757263184
-0.65845435857772827 -0.301301509141922 0.66597557067871094
-0.65446954965591431 -0.27275922894477844 0.67965924739837646
-0.65762042999267578 -0.24468293786048889 0.68392419815063477
-0.66800308227539062 -0.24371582269668579 0.67516410350799561
-0.68167906999588013 -0.24230533838272095 0.66744005680084229
-0.30501282215118408 0.41245913505554199 0.78536450862884521
-0.28695040941238403 0.41067543625831604 0.78406476974487305
-0.27376648783683777 0.40902787446975708 0.78543174266815186
-0.24917647242546082 0.42306524515151978 0.7887033224105835
-0.23125071823596954 0.43971931934356689 0.78994286060333252
-0.21001341938972473 0.45809942483901978 0.78928601741790771
-0.64493304491043091 -0.22014784812927246 0.69745802879333496
-0.64011603593826294 -0.19795340299606323 0.70073318481445312
-0.63467866182327271 -0.17821237444877625 0.70246398448944092
-0.63654798269271851 -0.15689177811145782 0.70021867752075195
-0.64758491516113281 -0.15196235477924347 0.69586741924285889
-0.66281265020370483 -0.14584772288799286 0.69322562217712402
-0.33928495645523071 0.34203705191612244 0.78864502906799316
-0.31977319717407227 0.34446829557418823 0.78715825080871582
-0.30464333295822144 0.34639561176300049 0.78803074359893799
-0.28968608379364014 0.3629758358001709 0.78849709033966064
-0.28398686647415161 0.37775471806526184 0.78755772113800049
-0.27543091773986816 0.39251762628555298 0.78695273399353027
-0.62017315626144409 -0.14522337913513184 0.70790612697601318
-0.61040300130844116 -0.13139913976192474 0.7127680778503418
-0.59860658645629883 -0.11887447535991669 0.71838867664337158
-0.59126967191696167 -0.10070134699344635 0.72197532653808594
-0.6000029444694519 -0.092704012989997864 0.71988701820373535
-0.61186051368713379 -0.083259597420692444 0.71985232830047607
-0.28553551435470581 0.30108955502510071 0.78817689418792725
-0.29075545072555542 0.31656432151794434 0.7890312671661377
-0.2930799126625061 0.33231022953987122 0.78943192958831787
-0.56789511442184448 -0.09628826379776001 0.72989296913146973
-0.54905563592910767 -0.086234718561172485 0.73518562316894531
-0.52834254503250122 -0.077500373125076294 0.74005675315856934
-0.26638913154602051 0.3509388267993927 0.78507053852081299
-0.27402472496032715 0.35011184215545654 0.78740608692169189
-0.28262430429458618 0.34912943840026855 0.78894364833831787
-0.26743829250335693 0.29117947816848755 0.78508758544921875
-0.25917297601699829 0.29544585943222046 0.78164792060852051
-0.25194472074508667 0.29929801821708679 0.77716600894927979
-0.25174039602279663 0.31511577963829041 0.77517807483673096
-0.25635063648223877 0.32728719711303711 0.77821874618530273
-0.25890243053436279 0.33947339653968811 0.78077554702758789
-0.55025625228881836 -0.11479781568050385 0.72370374202728271
-0.53491437435150146 -0.10700604319572449 0.72556126117706299
-0.51805227994918823 -0.10003100335597992 0.72704887390136719
-0.50114363431930542 -0.08913923054933548 0.73378384113311768
-0.50256168842315674 -0.083951376378536224 0.73846971988677979
-0.50417804718017578 -0.077871665358543396 0.74217677116394043
-0.57862937450408936 -0.1125146746635437 0.72490322589874268
-0.57337218523025513 -0.11671212315559387 0.72430324554443359
-0.56854027509689331 -0.12022709846496582 0.72287678718566895
-0.24273698031902313 0.40389993786811829 0.78278958797454834
-0.24878661334514618 0.40501111745834351 0.78537154197692871
-0.25569036602973938 0.40620881319046021 0.78699159622192383
-0.25718823075294495 0.36394861340522766 0.78239405155181885
-0.25279530882835388 0.37643539905548096 0.78156530857086182
-0.24609272181987762 0.38933512568473816 0.78047084808349609
-0.59512913227081299 -0.15495719015598297 0.7079087495803833
-0.58605670928955078 -0.14325053989887238 0.71254861354827881
-0.57575482130050659 -0.13280801475048065 0.71712255477905273
-0.62095159292221069 -0.16348220407962799 0.70614159107208252
-0.61458247900009155 -0.16547499597072601 0.70629525184631348
-0.60878455638885498 -0.16694614291191101 0.70532643795013428
-0.17608189582824707 0.46947643160820007 0.77788114547729492
-0.17835158109664917 0.4721350371837616 0.78251945972442627
-0.18133202195167542 0.47518107295036316 0.78525304794311523
-0.22589533030986786 0.41710790991783142 0.77995812892913818
-0.21197368204593658 0.43240422010421753 0.77974069118499756
-0.19488576054573059 0.44895967841148376 0.77765727043151855
-0.62318331003189087 -0.21884247660636902 0.69314444065093994
-0.61748850345611572 -0.19991576671600342 0.69766914844512939
-0.61078941822052002 -0.1830824613571167 0.70080029964447021
-0.64289546012878418 -0.24450191855430603 0.69361197948455811
-0.63725221157073975 -0.24336512386798859 0.69291198253631592
-0.63229596614837646 -0.24181137979030609 0.68999576568603516
-0.069080814719200134 0.54544574022293091 0.72894132137298584
-0.069002673029899597 0.55208092927932739 0.73360550403594971
-0.069005236029624939 0.55915647745132446 0.73670721054077148
-0.14935755729675293 0.48680195212364197 0.76222002506256104
-0.12233705073595047 0.50657200813293457 0.74941718578338623
-0.094990015029907227 0.52456653118133545 0.73585164546966553
-0.63138002157211304 -0.31139063835144043 0.64950871467590332
-0.632160484790802 -0.28808736801147461 0.66203439235687256
-0.63080191612243652 -0.26371753215789795 0.67489492893218994
-0.65059936046600342 -0.3472316563129425 0.64410006999969482
-0.64278185367584229 -0.34209266304969788 0.6440281867980957
-0.63533848524093628 -0.33697414398193359 0.64217722415924072
0.010617885738611221 0.55909198522567749 0.70252716541290283
0.013488970696926117 0.56619298458099365 0.70610940456390381
0.016684208065271378 0.57391029596328735 0.70815300941467285
-0.046846833080053329 0.54820734262466431 0.714316725730896
-0.027099849656224251 0.55292630195617676 0.70754921436309814
-0.0091262664645910263 0.55401366949081421 0.70242428779602051
-0.60168653726577759 -0.36897337436676025 0.63295125961303711
-0.61301565170288086 -0.35984423756599426 0.63208723068237305
-0.62188655138015747 -0.34774547815322876 0.63393878936767578
-0.60596901178359985 -0.39584276080131531 0.64058732986450195
-0.59973227977752686 -0.38885718584060669 0.64031374454498291
-0.59383869171142578 -0.3822949230670929 0.63837480545043945
0.079168945550918579 0.52444738149642944 0.68827354907989502
0.086163885891437531 0.52984607219696045 0.68965578079223633
0.093373298645019531 0.53565078973770142 0.68964099884033203
0.024842485785484314 0.54860895872116089 0.69403314590454102
0.041397176682949066 0.54230070114135742 0.69039344787597656
0.057300642132759094 0.53272980451583862 0.68764793872833252
-0.53316056728363037 -0.38636654615402222 0.65004253387451172
-0.55438518524169922 -0.38524764776229858 0.64381885528564453
-0.57252699136734009 -0.38157141208648682 0.63911616802215576
-0.51173025369644165 -0.40597012639045715 0.66468226909637451
-0.5103679895401001 -0.39846101403236389 0.66369783878326416
-0.50927603244781494 -0.39130377769470215 0.66126811504364014
0.11981561779975891 0.4363105297088623 0.69711613655090332
0.12653066217899323 0.43842479586601257 0.69890213012695312
0.13386315107345581 0.44038522243499756 0.69875311851501465
0.086064107716083527 0.50122219324111938 0.68642139434814453
0.097968071699142456 0.48007133603096008 0.6880495548248291
0.10730993747711182 0.45722696185112 0.69079089164733887
-0.41696178913116455 -0.35816577076911926 0.69159245491027832
-0.44821262359619141 -0.36957359313964844 0.67985188961029053
-0.47933560609817505 -0.37850815057754517 0.66837310791015625
-0.38003760576248169 -0.35861691832542419 0.71284925937652588
-0.38300389051437378 -0.35382792353630066 0.71084952354431152
-0.38543194532394409 -0.34931239485740662 0.70716416835784912
0.098549038171768188 0.34593671560287476 0.7191544771194458
0.10422596335411072 0.34448584914207458 0.72157084941864014
0.1104869544506073 0.34275752305984497 0.72208142280578613
0.11558151245117188 0.41217142343521118 0.69847762584686279
0.1132902204990387 0.39078280329704285 0.70330691337585449
0.10599598288536072 0.36934396624565125 0.70901989936828613
-0.32182234525680542 -0.29569315910339355 0.72720158100128174
-0.34026956558227539 -0.31431606411933899 0.72009468078613281
-0.36210942268371582 -0.33052203059196472 0.7120215892791748
-0.28906524181365967 -0.2782101035118103 0.74561059474945068
-0.29540938138961792 -0.27665057778358459 0.74304449558258057
-0.30112308263778687 -0.27529242634773254 0.73878920078277588
0.0054538138210773468 0.25813198089599609 0.75045764446258545
0.0079839713871479034 0.25421777367591858 0.75468218326568604
0.010514020919799805 0.25005382299423218 0.75704765319824219
0.074250392615795135 0.32388827204704285 0.72377312183380127
0.051447749137878418 0.30083474516868591 0.73200583457946777
0.026942599564790726 0.27965554594993591 0.73950839042663574
-0.27879196405410767 -0.19566188752651215 0.74950516223907471
-0.28480738401412964 -0.22188645601272583 0.74533653259277344
-0.29411637783050537 -0.24872183799743652 0.73989832401275635
-0.25747537612915039 -0.16657033562660217 0.76638531684875488
-0.26392650604248047 -0.16852399706840515 0.76309335231781006
-0.27015316486358643 -0.17037701606750488 0.75796079635620117
-0.070368513464927673 0.22854135930538177 0.75539374351501465
-0.069097436964511871 0.22392664849758148 0.76048243045806885
-0.067964471876621246 0.21906657516956329 0.76398968696594238
-0.018420696258544922 0.24919934570789337 0.74841737747192383
-0.03762127086520195 0.2406834214925766 0.7496330738067627
-0.055207863450050354 0.2355642169713974 0.74973678588867188
-0.28870296478271484 -0.12762367725372314 0.74825775623321533
-0.28175562620162964 -0.13900269567966461 0.75060296058654785
-0.27743253111839294 -0.15357448160648346 0.75204670429229736
-0.27967685461044312 -0.11024697124958038 0.76229321956634521
-0.28584074974060059 -0.1132238358259201 0.7580876350402832
-0.29183447360992432 -0.11596867442131042 0.75228869915008545
-0.2123112827539444 0.24541758000850677 0.77833735942840576
-0.20808717608451843 0.25055578351020813 0.77442145347595215
-0.2046600729227066 0.25495404005050659 0.76918041706085205
-0.21521845459938049 0.26828968524932861 0.76545345783233643
-0.22699838876724243 0.27904295921325684 0.76751625537872314
-0.23699645698070526 0.29075682163238525 0.76968050003051758
-0.48038583993911743 -0.088558807969093323 0.73068356513977051
-0.4602392315864563 -0.0844012051820755 0.73296570777893066
-0.43988710641860962 -0.081739217042922974 0.73515617847442627
-0.41796225309371948 -0.077307194471359253 0.74336791038513184
-0.41593241691589355 -0.073205798864364624 0.7491755485534668
-0.41357970237731934 -0.068103820085525513 0.75376105308532715
-0.13914556801319122 0.22171591222286224 0.77093887329101562
-0.13765934109687805 0.22746078670024872 0.76643168926239014
-0.1364782303571701 0.23277141153812408 0.76030576229095459
-0.15247109532356262 0.24137799441814423 0.7556004524230957
-0.16960793733596802 0.24585168063640594 0.75813519954681396
-0.18621076643466949 0.25161215662956238 0.76076459884643555
-0.40057516098022461 -0.082239367067813873 0.73804473876953125
-0.38223689794540405 -0.085235767066478729 0.7387005090713501
-0.36493796110153198 -0.089399181306362152 0.73917758464813232
-0.34413576126098633 -0.0904570072889328 0.74734115600585938
-0.33931857347488403 -0.086423613131046295 0.75415182113647461
-0.33419275283813477 -0.081872031092643738 0.75937342643737793
-0.087651871144771576 0.23228602111339569 0.74975109100341797
-0.10337010025978088 0.23303200304508209 0.75046300888061523
-0.11919377744197845 0.2349870353937149 0.75166463851928711
-0.33393961191177368 -0.099229887127876282 0.74063873291015625
-0.32043129205703735 -0.1047343909740448 0.74191164970397949
-0.30834168195724487 -0.11107818782329559 0.74358642101287842
-0.44911724328994751 0.13758178055286407 0.63401639461517334
-0.44960075616836548 0.13396866619586945 0.66291689872741699
-0.45147818326950073 0.13084724545478821 0.69351756572723389
-0.47581994533538818 0.21650366485118866 0.70945453643798828
-0.46629858016967773 0.22668091952800751 0.67897331714630127
-0.45260286331176758 0.24228520691394806 0.64956390857696533
-0.43660527467727661 0.21906392276287079 0.61910462379455566
-0.43820124864578247 0.186374232172966 0.61664927005767822
-0.44401127099990845 0.16208344697952271 0.61300194263458252
-0.46835237741470337 0.12410199642181396 0.60669112205505371
-0.49045217037200928 0.10482753813266754 0.60243821144104004
-0.5239032506942749 0.082789912819862366 0.59381234645843506
-0.56414741277694702 0.068102344870567322 0.614174485206604
-0.56205958127975464 0.077134653925895691 0.64805924892425537
-0.56270313262939453 0.080812558531761169 0.68098104000091553
-0.59039843082427979 0.34302771091461182 0.72941756248474121
-0.57651811838150024 0.35177096724510193 0.70136094093322754
-0.55568081140518188 0.36137193441390991 0.67853927612304688
-0.51586717367172241 0.35530364513397217 0.65568351745605469
-0.48746252059936523 0.33371078968048096 0.64564740657806396
-0.4579734206199646 0.30627745389938354 0.63522744178771973
-0.63165545463562012 0.034956809133291245 0.57475173473358154
-0.68189501762390137 0.029859501868486404 0.57222723960876465
-0.72549980878829956 0.027594003826379776 0.57120072841644287
-0.76414406299591064 0.035376075655221939 0.58868551254272461
-0.77384716272354126 0.043140735477209091 0.61401331424713135
-0.78075003623962402 0.045282904058694839 0.64380884170532227
-0.54596167802810669 0.47562184929847717 0.74070751667022705
-0.53220444917678833 0.4805203378200531 0.71170854568481445
-0.51420164108276367 0.48061361908912659 0.68736171722412109
-0.51082950830459595 0.45650136470794678 0.66530585289001465
-0.52390068769454956 0.4267544150352478 0.66075670719146729
-0.5323987603187561 0.39474380016326904 0.66108012199401855
-0.77815103530883789 0.010463722050189972 0.5566335916519165
-0.80487126111984253 -0.012610100209712982 0.54066550731658936
-0.82746350765228271 -0.038620151579380035 0.53041708469390869
-0.85958397388458252 -0.059521850198507309 0.53727233409881592
-0.87742519378662109 -0.059442583471536636 0.55760014057159424
-0.88863027095794678 -0.060396954417228699 0.58524823188781738
-0.33648639917373657 0.59251260757446289 0.72103786468505859
-0.32757967710494995 0.59258806705474854 0.68868899345397949
-0.31885230541229248 0.58405816555023193 0.65527486801147461
-0.37603235244750977 0.52831554412841797 0.6415858268737793
-0.42656487226486206 0.50752615928649902 0.65392255783081055
-0.46941643953323364 0.49020496010780334 0.66392672061920166
-0.83383762836456299 -0.079512596130371094 0.51527583599090576
-0.82096987962722778 -0.10889323055744171 0.50191342830657959
-0.80672097206115723 -0.1445927619934082 0.48675423860549927
-0.82967555522918701 -0.21385183930397034 0.48171994090080261
-0.85057342052459717 -0.22440725564956665 0.507232666015625
-0.86254215240478516 -0.22931620478630066 0.53597176074981689
-0.11727290600538254 0.73090595006942749 0.67863082885742188
-0.11401812732219696 0.72955191135406494 0.64511716365814209
-0.10979469865560532 0.72555071115493774 0.60797345638275146
-0.14948074519634247 0.69014072418212891 0.57929146289825439
-0.19845506548881531 0.65501266717910767 0.59271526336669922
-0.25247359275817871 0.6133536696434021 0.60655510425567627
-0.80854606628417969 -0.25488632917404175 0.43540897965431213
-0.81505972146987915 -0.30750545859336853 0.414939284324646
-0.81840735673904419 -0.35382357239723206 0.39795735478401184
-0.83420485258102417 -0.40485262870788574 0.41931143403053284
-0.84633511304855347 -0.4132506251335144 0.45135512948036194
-0.85458850860595703 -0.41973012685775757 0.48181268572807312
0.044630780816078186 0.8069571852684021 0.61591589450836182
0.044480994343757629 0.80346024036407471 0.58515655994415283
0.043054625391960144 0.79622232913970947 0.55097782611846924
0.0010033436119556427 0.78235352039337158 0.53575873374938965
-0.034249797463417053 0.76810073852539062 0.54951119422912598
-0.068812653422355652 0.74681144952774048 0.55888712406158447
-0.82366710901260376 -0.43084689974784851 0.3750976026058197
-0.82356035709381104 -0.46310088038444519 0.36808210611343384
-0.81625151634216309 -0.49215406179428101 0.36227825284004211
-0.8087306022644043 -0.53176075220108032 0.38915586471557617
-0.81904560327529907 -0.54286575317382812 0.41922983527183533
-0.82586812973022461 -0.5502631664276123 0.44748735427856445
0.24519558250904083 0.7144925594329834 0.46731042861938477
0.24223227798938751 0.71132856607437134 0.44019922614097595
0.23639722168445587 0.70852988958358765 0.40874338150024414
0.18645922839641571 0.74301201105117798 0.40186291933059692
0.1373155415058136 0.76763260364532471 0.44098055362701416
0.087201476097106934 0.78273993730545044 0.48033818602561951
-0.76389187574386597 -0.54356658458709717 0.3491065502166748
-0.71805155277252197 -0.56466549634933472 0.34292370080947876
-0.66342467069625854 -0.58004099130630493 0.34032171964645386
-0.59969168901443481 -0.59228068590164185 0.38711625337600708
-0.5997169017791748 -0.59855383634567261 0.420723557472229
-0.60168015956878662 -0.60304069519042969 0.44842290878295898
0.3320048451423645 0.5172121524810791 0.45133167505264282
0.32771849632263184 0.51411956548690796 0.42181724309921265
0.32257342338562012 0.51270097494125366 0.38542327284812927
0.30927777290344238 0.56724512577056885 0.33491486310958862
0.29088550806045532 0.61910390853881836 0.33775830268859863
0.26490020751953125 0.66728830337524414 0.34837040305137634
-0.54079091548919678 -0.58567088842391968 0.355796217918396
-0.47755879163742065 -0.57536685466766357 0.37348762154579163
-0.4150962233543396 -0.55822312831878662 0.39398962259292603
-0.34842890501022339 -0.52939045429229736 0.46313866972923279
-0.34377533197402954 -0.52869576215744019 0.50166237354278564
-0.34221887588500977 -0.52981781959533691 0.53263866901397705
0.32817775011062622 0.31681424379348755 0.47072893381118774
0.3252519965171814 0.31510844826698303 0.44765877723693848
0.32020998001098633 0.30977451801300049 0.42362165451049805
0.32482129335403442 0.35585275292396545 0.3690791130065918
0.32799041271209717 0.40985015034675598 0.35375183820724487
0.32697749137878418 0.46212944388389587 0.34356775879859924
-0.29862242937088013 -0.50913703441619873 0.43194583058357239
-0.24410553276538849 -0.47808107733726501 0.4481620192527771
-0.18934883177280426 -0.44196340441703796 0.46471375226974487
-0.13769283890724182 -0.40057310461997986 0.51696085929870605
-0.13684676587581635 -0.4017280638217926 0.5428011417388916
-0.13407018780708313 -0.40023484826087952 0.56679379940032959
0.55582934617996216 -0.16854096949100494 0.29350423812866211
0.54569953680038452 -0.20077215135097504 0.29665303230285645
0.53321361541748047 -0.23175354301929474 0.30240243673324585
0.48199546337127686 -0.24756532907485962 0.30205890536308289
0.45292907953262329 -0.23813796043395996 0.29024001955986023
0.42953634262084961 -0.23190504312515259 0.27582183480262756
0.43050622940063477 -0.19092556834220886 0.24706611037254333
0.44369369745254517 -0.15191113948822021 0.23708465695381165
0.45172536373138428 -0.11323946714401245 0.23242196440696716
0.47452867031097412 -0.088117413222789764 0.25433850288391113
0.49856388568878174 -0.10218517482280731 0.27050521969795227
0.52836531400680542 -0.11833138763904572 0.28368568420410156
0.38487958908081055 -0.3399699330329895 0.36131152510643005
0.34801018238067627 -0.33483403921127319 0.34717541933059692
0.31586015224456787 -0.33338037133216858 0.33131077885627747
0.31995630264282227 -0.31695356965065002 0.29477140307426453
0.35264682769775391 -0.29266262054443359 0.2805059552192688
0.38402295112609863 -0.26278328895568848 0.26933258771896362
0.49787271022796631 -0.28631031513214111 0.32322195172309875
0.47529798746109009 -0.30945518612861633 0.33800676465034485
0.45092660188674927 -0.33049073815345764 0.35482367873191833
0.74832463264465332 -0.24052047729492188 0.30339923501014709
0.73823744058609009 -0.27318906784057617 0.31333291530609131
0.72594904899597168 -0.30431303381919861 0.32433760166168213
0.65903204679489136 -0.31575831770896912 0.32843384146690369
0.60830295085906982 -0.29656898975372314 0.32245466113090515
0.56039547920227051 -0.27753946185112 0.31730926036834717
0.60725116729736328 -0.15452897548675537 0.29586616158485413
0.65493655204772949 -0.17312796413898468 0.29572781920433044
0.70559358596801758 -0.19090427458286285 0.29432910680770874
0.56535035371780396 -0.40702652931213379 0.39583969116210938
0.51723641157150269 -0.38546687364578247 0.38860318064689636
0.47036236524581909 -0.36574658751487732 0.38154828548431396
0.69030696153640747 -0.35919642448425293 0.3523431122303009
0.66683477163314819 -0.3831421434879303 0.36925169825553894
0.64092278480529785 -0.40591719746589661 0.38704290986061096
0.92469090223312378 -0.27021601796150208 0.34769931435585022
0.91242778301239014 -0.30167260766029358 0.36928454041481018
0.89792031049728394 -0.33293917775154114 0.38995322585105896
0.8468095064163208 -0.36257871985435486 0.38730433583259583
0.80611735582351685 -0.35690626502037048 0.36734157800674438
0.75999993085861206 -0.34702035784721375 0.35034343600273132
0.80823689699172974 -0.22051794826984406 0.29642525315284729
0.8562920093536377 -0.23079545795917511 0.30237206816673279
0.8994523286819458 -0.23713040351867676 0.31195917725563049
0.7445068359375 -0.47535979747772217 0.45215964317321777
0.70502471923828125 -0.46348521113395691 0.4333687424659729
0.66075128316879272 -0.44751879572868347 0.41752973198890686
0.85827738046646118 -0.39385682344436646 0.42745885252952576
0.83316397666931152 -0.4234795868396759 0.44410830736160278
0.80584698915481567 -0.4528544545173645 0.45946806669235229
0.96293908357620239 -0.23520195484161377 0.34318512678146362
0.98215895891189575 -0.22787477076053619 0.36396068334579468
0.99427264928817749 -0.21847496926784515 0.38664963841438293
0.93045049905776978 -0.34351271390914917 0.48030087351799011
0.92069965600967407 -0.35298734903335571 0.45686912536621094
0.90438580513000488 -0.36014565825462341 0.43293505907058716
0.82982861995697021 -0.47108262777328491 0.54693746566772461
0.81864172220230103 -0.47907575964927673 0.52235829830169678
0.80158507823944092 -0.48312067985534668 0.49746987223625183
0.98071020841598511 -0.13044945895671844 0.27290341258049011
1.0020285844802856 -0.12217114865779877 0.28675419092178345
1.0178012847900391 -0.1149524599313736 0.30944746732711792
0.94637179374694824 -0.20777487754821777 0.30286598205566406
0.95499622821807861 -0.17897005379199982 0.2837250828742981
0.9597892165184021 -0.15433217585086823 0.27188402414321899
0.69890666007995605 -0.55539184808731079 0.51029503345489502
0.72173136472702026 -0.53753584623336792 0.49879840016365051
0.74857509136199951 -0.51179194450378418 0.48665294051170349
0.72409152984619141 -0.56631797552108765 0.58601391315460205
0.70868945121765137 -0.57302016019821167 0.5602571964263916
0.69411975145339966 -0.57099908590316772 0.53641641139984131
0.85760688781738281 -0.068654961884021759 0.28018376231193542
0.89801031351089478 -0.055615838617086411 0.29554826021194458
0.9350782036781311 -0.047122806310653687 0.31752088665962219
0.94164550304412842 -0.12831872701644897 0.261240154504776
0.90960097312927246 -0.11589477956295013 0.25886631011962891
0.86813116073608398 -0.10207225382328033 0.26320329308509827
0.58485966920852661 -0.53807425498962402 0.49553385376930237
0.62435925006866455 -0.55471557378768921 0.50365769863128662
0.65896129608154297 -0.56303983926773071 0.51224923133850098
0.60668617486953735 -0.5523991584777832 0.59570467472076416
0.57882088422775269 -0.54687583446502686 0.55862438678741455
0.55531632900238037 -0.53405648469924927 0.52174866199493408
0.66717636585235596 -0.0020984075963497162 0.33295047283172607
0.7131580114364624 0.012555401772260666 0.35476407408714294
0.7572627067565918 0.022079460322856903 0.38091155886650085
0.77211666107177734 -0.071142092347145081 0.28245517611503601
0.72262561321258545 -0.054657317698001862 0.29399463534355164
0.67381525039672852 -0.03802219033241272 0.30549487471580505
0.41029971837997437 -0.44454428553581238 0.47446894645690918
0.45422285795211792 -0.46847754716873169 0.47834539413452148
0.49848335981369019 -0.4927825927734375 0.48284003138542175
0.43767428398132324 -0.470714271068573 0.59761679172515869
0.40736252069473267 -0.45912864804267883 0.55404126644134521
0.38225340843200684 -0.44174882769584656 0.51042795181274414
0.79546517133712769 -0.11172494292259216 0.27101719379425049
0.77815115451812744 -0.14099164307117462 0.27569743990898132
0.76635271310806274 -0.17328104376792908 0.28395512700080872
0.57232236862182617 -0.10398644208908081 0.29348567128181458
0.5830269455909729 -0.073591873049736023 0.29710683226585388
0.6000596284866333 -0.04580259695649147 0.30431029200553894
0.36826008558273315 -0.4036732017993927 0.43896180391311646
0.38075673580169678 -0.38589823246002197 0.41327720880508423
0.40121692419052124 -0.36817264556884766 0.39189159870147705
0.58576542139053345 -0.45142954587936401 0.42210933566093445
0.56177794933319092 -0.47427690029144287 0.44048991799354553
0.54586511850357056 -0.49617114663124084 0.46196016669273376
0.45696532726287842 -0.044124111533164978 0.25270852446556091
0.45856374502182007 -0.015241896733641624 0.27777093648910522
0.46378886699676514 0.010174408555030823 0.30837756395339966
0.50725102424621582 0.021620355546474457 0.33670678734779358
0.54319602251052856 0.0086996257305145264 0.33122321963310242
0.58324450254440308 -0.0058899261057376862 0.32442748546600342
0.32661521434783936 -0.40222802758216858 0.46671473979949951
0.28857755661010742 -0.38472658395767212 0.46259281039237976
0.25432342290878296 -0.36936181783676147 0.45859503746032715
0.22973702847957611 -0.35177862644195557 0.41354838013648987
0.24282564222812653 -0.34886178374290466 0.3753284215927124
0.26295709609985352 -0.34411460161209106 0.34178677201271057
0.4980393648147583 0.051561404019594193 0.37302491068840027
0.52503287792205811 0.066818565130233765 0.4046441912651062
0.55159002542495728 0.077186360955238342 0.43697035312652588
0.25640231370925903 -0.37905037403106689 0.58283066749572754
0.24036459624767303 -0.3732418417930603 0.5411452054977417
0.22907964885234833 -0.36429515480995178 0.49799355864524841
0.41873782873153687 0.092143967747688293 0.46664267778396606
0.40642774105072021 0.08645312488079071 0.43371087312698364
0.39317154884338379 0.080536171793937683 0.39663520455360413
0.36342877149581909 0.097981303930282593 0.3716813325881958
0.34853523969650269 0.11007261276245117 0.3929983377456665
0.3348119854927063 0.11737130582332611 0.41218394041061401
0.32830649614334106 0.10566195845603943 0.44658306241035461
0.33550935983657837 0.10010303556919098 0.46722730994224548
0.3413349986076355 0.099936246871948242 0.49182784557342529
0.10341173410415649 -0.26858219504356384 0.56939899921417236
0.094963692128658295 -0.27250641584396362 0.54414021968841553
0.080847151577472687 -0.27771642804145813 0.5227280855178833
0.066896528005599976 -0.29773992300033569 0.49256217479705811
0.07947983592748642 -0.30673584342002869 0.47722110152244568
0.096754066646099091 -0.3150516152381897 0.45959791541099548
0.13790974020957947 -0.31462877988815308 0.49050691723823547
0.148564413189888 -0.31268596649169922 0.53127181529998779
0.15800169110298157 -0.31140261888504028 0.56728100776672363
0.44951260089874268 0.040413837879896164 0.34514135122299194
0.42646420001983643 0.048253756016492844 0.34773954749107361
0.40501374006271362 0.058362547308206558 0.34832096099853516
0.15605145692825317 -0.32696735858917236 0.44403308629989624
0.17917053401470184 -0.33438292145729065 0.44848275184631348
0.20091108977794647 -0.34413960576057434 0.45184305310249329
0.29066145420074463 0.14427323639392853 0.46997275948524475
0.29105067253112793 0.13978704810142517 0.4856763482093811
0.2904854416847229 0.13831271231174469 0.50848615169525146
0.30869764089584351 0.12191286683082581 0.44179373979568481
0.29811877012252808 0.12547224760055542 0.45149442553520203
0.29233282804489136 0.13687528669834137 0.4576137363910675
0.027613535523414612 -0.27347838878631592 0.52713286876678467
0.041985005140304565 -0.27151972055435181 0.52142119407653809
0.050728090107440948 -0.27788239717483521 0.51441550254821777
0.032721828669309616 -0.26124498248100281 0.57690894603729248
0.028284460306167603 -0.26753637194633484 0.5548558235168457
0.020991027355194092 -0.27377527952194214 0.53976380825042725
0.29198992252349854 0.17140032351016998 0.4552496075630188
0.29694753885269165 0.20501872897148132 0.44429850578308105
0.30597692728042603 0.245436891913414 0.42615300416946411
-0.080191940069198608 -0.35350662469863892 0.51100742816925049
-0.041599579155445099 -0.31998535990715027 0.52267205715179443
-0.0084696151316165924 -0.29446697235107422 0.52860355377197266
0.036480560898780823 -0.16184477508068085 -0.6593024730682373
-0.0079300347715616226 -0.11704939603805542 -0.70350480079650879
-0.05666051059961319 -0.062661170959472656 -0.73869705200195312
-0.062212780117988586 0.076914951205253601 -0.75741422176361084
-0.013392774388194084 0.14671739935874939 -0.73600900173187256
0.032553035765886307 0.20976357161998749 -0.70686542987823486
0.11259771883487701 0.20284546911716461 -0.66439485549926758
0.1487104594707489 0.15613298118114471 -0.64397323131561279
0.18306861817836761 0.12172798812389374 -0.61293017864227295
0.19341510534286499 0.023677326738834381 -0.58621871471405029
0.16130806505680084 -0.050384890288114548 -0.60039496421813965
0.12224085628986359 -0.12557069957256317 -0.60857272148132324
0.031799573451280594 -0.26580947637557983 -0.5869981050491333
-0.016077678650617599 -0.3254581093788147 -0.55888640880584717
-0.063923150300979614 -0.37542006373405457 -0.52806282043457031
-0.1449275016784668 -0.38722655177116394 -0.5527794361114502
-0.18091803789138794 -0.35558605194091797 -0.59532546997070312
-0.22377996146678925 -0.31965476274490356 -0.63020884990692139
-0.24223531782627106 -0.21738807857036591 -0.69508624076843262
-0.20286385715007782 -0.14781630039215088 -0.72816288471221924
-0.15883240103721619 -0.073281913995742798 -0.7534937858581543
0.1981743723154068 -0.26621049642562866 -0.38548174500465393
0.15953275561332703 -0.25123351812362671 -0.46930253505706787
0.11948411166667938 -0.22848233580589294 -0.54258358478546143
0.24950705468654633 0.064285352826118469 -0.51803743839263916
0.28137803077697754 0.036743547767400742 -0.45425474643707275
0.31107324361801147 0.012504894286394119 -0.37998437881469727
0.32323598861694336 -0.07306380569934845 -0.30068483948707581
0.30080109834671021 -0.14162512123584747 -0.30298122763633728
0.27114379405975342 -0.20922745764255524 -0.3003389835357666
0.19342495501041412 -0.32954522967338562 -0.27192583680152893
0.14775171875953674 -0.37857925891876221 -0.2478705495595932
0.09963776171207428 -0.41928747296333313 -0.22230924665927887
0.010346334427595139 -0.45339065790176392 -0.28705346584320068
-0.031057566404342651 -0.44748207926750183 -0.36736449599266052
-0.071864724159240723 -0.43399536609649658 -0.43904075026512146
0.32964575290679932 -0.25172120332717896 0.025665251538157463
0.3017585277557373 -0.26260247826576233 -0.075952976942062378
0.26992350816726685 -0.27065780758857727 -0.18445287644863129
0.3601108193397522 -0.018517030403017998 -0.20119215548038483
0.37914276123046875 -0.0250265933573246 -0.10161256790161133
0.39538043737411499 -0.027689656242728233 -0.0014328001998364925
0.40662485361099243 -0.088649123907089233 0.086856774985790253
0.39571434259414673 -0.14297622442245483 0.088537812232971191
0.37786287069320679 -0.19390334188938141 0.098105497658252716
0.31962311267852783 -0.28398072719573975 0.12366971373558044
0.28020328283309937 -0.32164838910102844 0.13849551975727081
0.2357809990644455 -0.35294830799102783 0.15886618196964264
0.15458229184150696 -0.40037548542022705 0.091547757387161255
0.12285327911376953 -0.42175912857055664 -0.0062051210552453995
0.08818548172712326 -0.43953725695610046 -0.1042446494102478
0.39651656150817871 -0.22748738527297974 0.2397826611995697
0.38360756635665894 -0.22911573946475983 0.21258975565433502
0.36980694532394409 -0.23356622457504272 0.17165294289588928
0.4212568998336792 -0.049202248454093933 0.15969830751419067
0.43083745241165161 -0.060444757342338562 0.19442640244960785
0.4417693018913269 -0.068550273776054382 0.21827277541160583
0.26813209056854248 -0.33705598115921021 0.29725068807601929
0.24810363352298737 -0.34306171536445618 0.27524825930595398
0.22389627993106842 -0.35450264811515808 0.24390533566474915
0.40812760591506958 0.0071149468421936035 0.17169216275215149
0.40099257230758667 0.031680259853601456 0.23058582842350006
0.39152610301971436 0.05543087050318718 0.28563538193702698
0.13638937473297119 -0.33954423666000366 0.37923228740692139
0.15216158330440521 -0.35346457362174988 0.32539623975753784
0.1664486825466156 -0.36690548062324524 0.26647031307220459
0.22089187800884247 0.74615204334259033 0.20039086043834686
0.22434855997562408 0.73009216785430908 0.25877708196640015
0.22695006430149078 0.71720963716506958 0.31699001789093018
0.32743394374847412 0.51953601837158203 0.27379113435745239
0.33946484327316284 0.52666014432907104 0.19782812893390656
0.35468578338623047 0.53319793939590454 0.11353425681591034
0.34142732620239258 0.61241006851196289 0.051404718309640884
0.3050873875617981 0.67388194799423218 0.078312739729881287
0.26269668340682983 0.72521001100540161 0.10881410539150238
-0.59928566217422485 -0.61576354503631592 0.092744216322898865
-0.53175771236419678 -0.62718778848648071 0.10325930267572403
-0.45893877744674683 -0.63114243745803833 0.11594872176647186
-0.37425988912582397 -0.59874480962753296 0.20493699610233307
-0.36883652210235596 -0.57331609725952148 0.28194800019264221
-0.36206918954849243 -0.55130207538604736 0.35290780663490295
-0.61206281185150146 -0.5883144736289978 0.28691190481185913
-0.62500250339508057 -0.59163904190063477 0.22218799591064453
-0.64097309112548828 -0.59521079063415527 0.15530383586883545
-0.1742229163646698 0.080716446042060852 -0.78334152698516846
-0.24286003410816193 0.16546112298965454 -0.78982222080230713
-0.31542593240737915 0.25130695104598999 -0.78135263919830322
-0.32808762788772583 0.41840070486068726 -0.73033535480499268
-0.26361474394798279 0.49184116721153259 -0.69420516490936279
-0.1999259889125824 0.55239683389663696 -0.65287351608276367
-0.076939120888710022 0.5148126482963562 -0.65218722820281982
-0.020722460001707077 0.42618429660797119 -0.67335081100463867
0.029052060097455978 0.34026959538459778 -0.68004608154296875
-0.33841854333877563 -0.23141695559024811 -0.68782830238342285
-0.40947705507278442 -0.17914955317974091 -0.70876646041870117
-0.48596912622451782 -0.12266425788402557 -0.71844446659088135
-0.53454345464706421 0.030345913022756577 -0.73486661911010742
-0.49436545372009277 0.13180479407310486 -0.75241398811340332
-0.44576400518417358 0.23478178679943085 -0.76050364971160889
-0.81931310892105103 0.47355267405509949 -0.0083472998812794685
-0.82067537307739258 0.44133466482162476 0.076563633978366852
-0.80912524461746216 0.40549579262733459 0.15726803243160248
-0.720866858959198 0.45786091685295105 0.26331523060798645
-0.65460145473480225 0.54467231035232544 0.28427386283874512
-0.58624982833862305 0.62353724241256714 0.29495352506637573
-0.54526180028915405 0.72419524192810059 0.23401181399822235
-0.55829828977584839 0.75413483381271362 0.16844046115875244
-0.55924975872039795 0.78051716089248657 0.097991153597831726
-0.61725997924804688 0.74350708723068237 0.0069358246400952339
-0.68316107988357544 0.67167633771896362 -0.022210201248526573
-0.74675601720809937 0.59017461538314819 -0.058691184967756271
-0.86233812570571899 0.40893059968948364 -0.13364818692207336
-0.91035258769989014 0.31545206904411316 -0.16787675023078918
-0.94811481237411499 0.22482796013355255 -0.20094719529151917
-0.98217898607254028 0.11769343912601471 -0.15763600170612335
-0.98219412565231323 0.089912727475166321 -0.081932954490184784
-0.97085320949554443 0.057518761605024338 -0.0070041664876043797
-0.92188459634780884 0.097915366291999817 0.11199668794870377
-0.88528579473495483 0.18336299061775208 0.15624189376831055
-0.8382875919342041 0.27393761277198792 0.19747975468635559
-0.71359294652938843 0.5453941822052002 -0.38158151507377625
-0.75412940979003906 0.54100263118743896 -0.28640252351760864
-0.78518354892730713 0.52530711889266968 -0.19095022976398468
-0.5333372950553894 0.82112956047058105 -0.053230151534080505
-0.50711077451705933 0.83165985345840454 -0.13301163911819458
-0.47006982564926147 0.8312373161315918 -0.21569216251373291
-0.48211425542831421 0.76506513357162476 -0.33816388249397278
-0.54335689544677734 0.69988143444061279 -0.38508787751197815
-0.60396939516067505 0.62266385555267334 -0.43336045742034912
-0.72132045030593872 0.43885523080825806 -0.49886223673820496
-0.77390086650848389 0.33880922198295593 -0.51217985153198242
-0.81753432750701904 0.2398182600736618 -0.51902246475219727
-0.89537811279296875 0.16501902043819427 -0.45580890774726868
-0.93078631162643433 0.16777071356773376 -0.38381496071815491
-0.95614796876907349 0.15848007798194885 -0.30938109755516052
-0.46442121267318726 0.40350139141082764 -0.70639622211456299
-0.5364488959312439 0.46220371127128601 -0.64079189300537109
-0.60360080003738403 0.50671619176864624 -0.56200456619262695
-0.35764169692993164 0.78421562910079956 -0.39010229706764221
-0.28624635934829712 0.7360876202583313 -0.47573831677436829
-0.21201920509338379 0.67394596338272095 -0.552085280418396
-0.64408314228057861 -0.00068755075335502625 -0.68598639965057373
-0.7197566032409668 0.058543059974908829 -0.64324271678924561
-0.78896629810333252 0.10947051644325256 -0.58802974224090576
-0.11693373322486877 0.71525084972381592 0.43429601192474365
-0.10717075318098068 0.71240460872650146 0.4794706404209137
-0.10438483208417892 0.71496379375457764 0.52432334423065186
0.036378964781761169 0.78082007169723511 0.47457855939865112
0.030216455459594727 0.77728992700576782 0.43399161100387573
0.020946327596902847 0.77928876876831055 0.393250972032547
-0.032132938504219055 0.77904284000396729 0.37426409125328064
-0.06717999279499054 0.76554769277572632 0.38210532069206238
-0.1007644310593605 0.74804413318634033 0.38477063179016113
-0.81251013278961182 -0.36270475387573242 0.19399701058864594
-0.811928391456604 -0.39648312330245972 0.19366207718849182
-0.80714607238769531 -0.42992711067199707 0.19254742562770844
-0.78569573163986206 -0.47842288017272949 0.23450064659118652
-0.7840346097946167 -0.49216935038566589 0.27959433197975159
-0.78875565528869629 -0.50557160377502441 0.32004436850547791
-0.80794692039489746 -0.38280758261680603 0.34622839093208313
-0.79978561401367188 -0.36830145120620728 0.30324584245681763
-0.79967266321182251 -0.3501599133014679 0.25478890538215637
-0.24184638261795044 0.8084445595741272 0.26344576478004456
-0.20454078912734985 0.77658504247665405 0.30647435784339905
-0.16733762621879578 0.74789911508560181 0.34807544946670532
-0.010582825168967247 0.80811488628387451 0.31561738252639771
-0.031205086037516594 0.83331888914108276 0.2781655490398407
-0.051657862961292267 0.86080199480056763 0.23944362998008728
-0.12188046425580978 0.88328653573989868 0.211771160364151
-0.17186646163463593 0.87393313646316528 0.21426631510257721
-0.22159945964813232 0.85925233364105225 0.21337300539016724
-0.93371140956878662 -0.253956139087677 -0.073355585336685181
-0.92575860023498535 -0.30417194962501526 -0.06825660914182663
-0.91383010149002075 -0.35381323099136353 -0.060663744807243347
-0.8712080717086792 -0.4184606671333313 0.0058570681139826775
-0.8435099720954895 -0.43420711159706116 0.068228475749492645
-0.81678545475006104 -0.44947552680969238 0.12824644148349762
-0.83780896663665771 -0.29903575778007507 0.13791428506374359
-0.87280195951461792 -0.2674134373664856 0.070850037038326263
-0.9093327522277832 -0.23487740755081177 0.0010180054232478142
-0.30257236957550049 0.90692991018295288 0.050647854804992676
-0.3023800253868103 0.88887643814086914 0.11005695164203644
-0.293071448802948 0.86647176742553711 0.16579790413379669
-0.081833496689796448 0.90786576271057129 0.15164653956890106
-0.088745176792144775 0.92396873235702515 0.10123395174741745
-0.089862354099750519 0.93539494276046753 0.046876557171344757
-0.13788905739784241 0.9480549693107605 -0.0037566961254924536
-0.18902240693569183 0.94504773616790771 -0.0059602111577987671
-0.240618035197258 0.93527328968048096 -0.010897193104028702
-0.9530143141746521 -0.1790686696767807 -0.33277258276939392
-0.94480973482131958 -0.23669661581516266 -0.3235967755317688
-0.93182492256164551 -0.2928045392036438 -0.31025823950767517
-0.91692876815795898 -0.35659685730934143 -0.23954503238201141
-0.91715282201766968 -0.37000855803489685 -0.18007546663284302
-0.91009420156478882 -0.38567754626274109 -0.1192278116941452
-0.95977139472961426 -0.17644187808036804 -0.13799715042114258
-0.96842139959335327 -0.15323135256767273 -0.20487983524799347
-0.96809583902359009 -0.13448329269886017 -0.26993069052696228
-0.22874715924263 0.92489874362945557 -0.20959551632404327
-0.25916332006454468 0.93249523639678955 -0.14254243671894073
-0.28086477518081665 0.93013918399810791 -0.076353564858436584
-0.073686957359313965 0.94504445791244507 -0.072478629648685455
-0.059276904910802841 0.94222426414489746 -0.13282118737697601
-0.04483533650636673 0.93263751268386841 -0.18779835104942322
-0.058415576815605164 0.92364931106567383 -0.23984892666339874
-0.094617761671543121 0.92226636409759521 -0.25493422150611877
-0.13856762647628784 0.91508066654205322 -0.26822426915168762
-0.85334771871566772 -0.20187288522720337 -0.53449153900146484
-0.85026389360427856 -0.25815311074256897 -0.51636803150177002
-0.84547573328018188 -0.305472731590271 -0.49333587288856506
-0.85890281200408936 -0.33857572078704834 -0.44577276706695557
-0.88013511896133423 -0.33981797099113464 -0.40428340435028076
-0.89755266904830933 -0.3418651819229126 -0.35360264778137207
-0.94672733545303345 -0.11175127327442169 -0.39429342746734619
-0.9258539080619812 -0.11050371825695038 -0.45145827531814575
-0.8963434100151062 -0.11919526755809784 -0.50249636173248291
0.0012560393661260605 0.90140831470489502 -0.25624158978462219
0.048859074711799622 0.86888939142227173 -0.2944776713848114
0.099687173962593079 0.82732647657394409 -0.33411192893981934
0.13253882527351379 0.74733704328536987 -0.41613867878913879
0.10411264002323151 0.72463160753250122 -0.45037323236465454
0.071481674909591675 0.70537108182907104 -0.48037055134773254
-0.020545730367302895 0.75836586952209473 -0.46190041303634644
-0.079781241714954376 0.81904441118240356 -0.40631824731826782
-0.13730397820472717 0.86849278211593628 -0.34350621700286865
-0.80588078498840332 -0.17597134411334991 -0.57785725593566895
-0.74610990285873413 -0.22111956775188446 -0.59982991218566895
-0.68006539344787598 -0.27033248543739319 -0.61097478866577148
-0.61793148517608643 -0.36884069442749023 -0.57960057258605957
-0.6283104419708252 -0.41639399528503418 -0.54555428028106689
-0.64256876707077026 -0.46003761887550354 -0.50936722755432129
-0.72099947929382324 -0.45192492008209229 -0.47748517990112305
-0.77021020650863647 -0.40867310762405396 -0.47976583242416382
-0.81211012601852417 -0.36799147725105286 -0.47747877240180969
-0.0018351245671510696 0.67359697818756104 -0.5307462215423584
-0.042799659073352814 0.65631461143493652 -0.55458164215087891
-0.088525205850601196 0.63293641805648804 -0.58109283447265625
-0.35972607135772705 0.85260069370269775 -0.283447265625
-0.30004048347473145 0.87688130140304565 -0.2778022289276123
-0.24264320731163025 0.89298146963119507 -0.27779999375343323
-0.86275464296340942 -0.076779350638389587 -0.54648947715759277
-0.86648237705230713 -0.0093045812100172043 -0.54121196269989014
-0.86331278085708618 0.064454123377799988 -0.53272330760955811
-0.58484429121017456 -0.1411309540271759 -0.68937003612518311
-0.59688317775726318 -0.20764125883579254 -0.66525804996490479
-0.60433465242385864 -0.26561933755874634 -0.63936352729797363
-0.48322707414627075 0.84737777709960938 0.023205611854791641
-0.41751736402511597 0.87976706027984619 0.012400003150105476
