# XYZ point cloud file
0.32908180356025696 0.31715697050094604 -0.031724348664283752
0.31912720203399658 0.31968006491661072 -0.027640044689178467
0.31737563014030457 0.2949373722076416 -0.026144534349441528
0.33617359399795532 0.28989294171333313 -0.031753867864608765
0.33977824449539185 0.31457716226577759 -0.035257115960121155
-0.38934352993965149 -0.33756861090660095 -0.016954988241195679
-0.37988778948783875 -0.33749216794967651 -0.01002250611782074
-0.38828891515731812 -0.32781678438186646 -0.018583312630653381
-0.39855509996414185 -0.33754271268844604 -0.024343505501747131
-0.39071252942085266 -0.34809628129005432 -0.014150246977806091
-0.38119992613792419 -0.34750914573669434 -0.0068475604057312012
-0.37885257601737976 -0.3282586932182312 -0.011992156505584717
-0.39738345146179199 -0.32737615704536438 -0.025548934936523438
-0.40006491541862488 -0.34846669435501099 -0.021982386708259583
0.3201393187046051 0.2557520866394043 -0.02617916464805603
0.32829782366752625 0.25491821765899658 -0.027487382292747498
0.32251954078674316 0.26739117503166199 -0.027313694357872009
0.31285122036933899 0.25647091865539551 -0.024279743432998657
0.31773614883422852 0.24607495963573456 -0.024470478296279907
0.32527601718902588 0.2458043247461319 -0.025500044226646423
0.33123564720153809 0.26580676436424255 -0.028949245810508728
0.31457525491714478 0.26871955394744873 -0.025086864829063416
0.31140443682670593 0.24682925641536713 -0.022908717393875122
-0.35076454281806946 -0.33547219634056091 0.0078022927045822144
-0.36017593741416931 -0.33648893237113953 0.0023133456707000732
-0.35292655229568481 -0.34363663196563721 0.010873779654502869
-0.34279713034629822 -0.33417201042175293 0.013005226850509644
-0.34887605905532837 -0.32814547419548035 0.006003454327583313
-0.35855036973953247 -0.32843863964080811 0.00031332671642303467
-0.3619493842124939 -0.34530541300773621 0.0056070387363433838
-0.34517639875411987 -0.34164604544639587 0.015841469168663025
-0.34124106168746948 -0.32779255509376526 0.011270076036453247
0.36701861023902893 0.22271125018596649 -0.023358240723609924
0.36687803268432617 0.21602623164653778 -0.018876254558563232
0.37327197194099426 0.23239044845104218 -0.024766311049461365
0.36617079377174377 0.23024757206439972 -0.026874169707298279
0.36197718977928162 0.21478761732578278 -0.022745609283447266
0.36196386814117432 0.20958003401756287 -0.019113019108772278
0.37368613481521606 0.2247491329908371 -0.019746780395507812
0.37175163626670837 0.24060313403606415 -0.028797551989555359
0.36130321025848389 0.22150690853595734 -0.025355562567710876
-0.34224992990493774 -0.38459879159927368 0.051316455006599426
-0.35163789987564087 -0.38945075869560242 0.049066640436649323
-0.33709082007408142 -0.38472703099250793 0.059654667973518372
-0.33459556102752686 -0.38077497482299805 0.05251011997461319
-0.34766235947608948 -0.3832741379737854 0.043245509266853333
-0.35728567838668823 -0.38748821616172791 0.039530083537101746
-0.34598895907402039 -0.39013966917991638 0.058935701847076416
-0.33058056235313416 -0.38095536828041077 0.059168688952922821
-0.33946713805198669 -0.37958782911300659 0.046104639768600464
0.3984341025352478 0.26511549949645996 -0.045015335083007812
0.40764927864074707 0.27733218669891357 -0.055233895778656006
0.39121836423873901 0.2747853696346283 -0.044875785708427429
0.38926970958709717 0.25380483269691467 -0.035594314336776733
0.40445691347122192 0.25592035055160522 -0.044027641415596008
0.4162963330745697 0.26814854145050049 -0.056910678744316101
0.3977755606174469 0.28700226545333862 -0.052414864301681519
0.3844950795173645 0.26313462853431702 -0.037787124514579773
0.39288222789764404 0.24495075643062592 -0.032308414578437805
-0.38495209813117981 -0.41171553730964661 0.024218067526817322
-0.38929519057273865 -0.40366527438163757 0.015134662389755249
-0.39719027280807495 -0.42021557688713074 0.011125534772872925
-0.38050684332847595 -0.41841575503349304 0.033780902624130249
-0.37328088283538818 -0.40325570106506348 0.03566443920135498
-0.37839725613594055 -0.39785730838775635 0.025551468133926392
-0.40044179558753967 -0.40930873155593872 0.0035538822412490845
-0.39383634924888611 -0.42974174022674561 0.019166141748428345
-0.36807155609130859 -0.40733334422111511 0.046237409114837646
0.4304688572883606 0.32231354713439941 -0.078166931867599487
0.43536999821662903 0.33926907181739807 -0.082166582345962524
0.41370049118995667 0.32871556282043457 -0.069226756691932678
0.42405730485916138 0.30599814653396606 -0.072440981864929199
0.44587340950965881 0.31636983156204224 -0.086068570613861084
0.45198822021484375 0.33540681004524231 -0.091120213270187378
0.41734245419502258 0.34357607364654541 -0.072233095765113831
0.40919199585914612 0.31405743956565857 -0.065006673336029053
0.43760791420936584 0.29841670393943787 -0.078780591487884521
-0.43686279654502869 -0.43909996747970581 -0.02787412703037262
-0.43520748615264893 -0.42136219143867493 -0.030580341815948486
-0.4500294029712677 -0.44213947653770447 -0.039863958954811096
-0.43835908174514771 -0.45535731315612793 -0.024905949831008911
-0.42336896061897278 -0.43434643745422363 -0.01544247567653656
-0.42354181408882141 -0.41835987567901611 -0.019730433821678162
-0.44654616713523865 -0.42338821291923523 -0.04088476300239563
-0.45333269238471985 -0.45938259363174438 -0.038680851459503174
-0.42306530475616455 -0.44888514280319214 -0.01079966127872467
0.43885770440101624 0.38887083530426025 -0.085461586713790894
0.43598717451095581 0.40330615639686584 -0.084653258323669434
0.42255380749702454 0.38544479012489319 -0.07555486261844635
0.43969529867172241 0.37305331230163574 -0.085560113191604614
0.45384958386421204 0.39289292693138123 -0.094616323709487915
0.44897714257240295 0.40980854630470276 -0.093061566352844238
0.42218846082687378 0.39757522940635681 -0.075921565294265747
0.42182579636573792 0.37225621938705444 -0.075112521648406982
0.45609569549560547 0.37434709072113037 -0.095102518796920776
-0.48326727747917175 -0.43985030055046082 -0.073984861373901367
-0.47571718692779541 -0.42383521795272827 -0.068739771842956543
-0.49116846919059753 -0.43523889780044556 -0.084709376096725464
-0.49078565835952759 -0.45448142290115356 -0.079411625862121582
-0.47359281778335571 -0.44256144762039185 -0.062899291515350342
-0.46703308820724487 -0.42462915182113647 -0.059808596968650818
-0.48314794898033142 -0.42204710841178894 -0.077749282121658325
-0.49941074848175049 -0.44753968715667725 -0.092242628335952759
-0.48000496625900269 -0.45895078778266907 -0.06599658727645874
0.41312012076377869 0.43240803480148315 -0.078974515199661255
0.40267390012741089 0.43719878792762756 -0.076754987239837646
0.40428608655929565 0.42016735672950745 -0.071288138628005981
0.42280131578445435 0.4253067672252655 -0.081224501132965088
0.42091202735900879 0.44382607936859131 -0.08588370680809021
0.4088839590549469 0.44858863949775696 -0.083017200231552124
0.39499592781066895 0.42456892132759094 -0.06945820152759552
0.4129403829574585 0.4148908257484436 -0.073639392852783203
0.43206939101219177 0.43570682406425476 -0.088492423295974731
-0.5005413293838501 -0.40868419408798218 -0.11128309369087219
-0.49070724844932556 -0.40138888359069824 -0.097796827554702759
-0.49961766600608826 -0.39756506681442261 -0.11771023273468018
-0.50957560539245605 -0.41505691409111023 -0.12381845712661743
-0.49978271126747131 -0.41930526494979858 -0.10358557105064392
-0.49053636193275452 -0.41071274876594543 -0.092221111059188843
-0.49005076289176941 -0.39151763916015625 -0.10367777943611145
-0.50801390409469604 -0.40231752395629883 -0.13038507103919983
-0.50884103775024414 -0.42732644081115723 -0.11489102244377136
0.37514236569404602 0.4371056854724884 -0.07041524350643158
0.36906987428665161 0.42969566583633423 -0.066326379776000977
0.38235831260681152 0.43916267156600952 -0.072465121746063232
0.37404567003250122 0.4418322741985321 -0.072086125612258911
0.36399346590042114 0.43251535296440125 -0.066459551453590393
0.37661218643188477 0.42866712808609009 -0.066924616694450378
0.38500559329986572 0.44763204455375671 -0.076385572552680969
-0.48988547921180725 -0.36980229616165161 -0.12415164709091187
-0.49354064464569092 -0.376813143491745 -0.12453192472457886
-0.48374763131141663 -0.36468231678009033 -0.11681121587753296
-0.49208551645278931 -0.36805915832519531 -0.13016441464424133
-0.49907529354095459 -0.37834617495536804 -0.13414251804351807
-0.48587539792060852 -0.37245616316795349 -0.11303600668907166
-0.48357453942298889 -0.35919341444969177 -0.12148764729499817
0.42005118727684021 0.17923729121685028 -0.03257414698600769
0.42000454664230347 0.18104501068592072 -0.015079185366630554
0.39581707119941711 0.16126534342765808 -0.01280529797077179
0.41517764329910278 0.18688918650150299 -0.049772202968597412
0.44381675124168396 0.20089799165725708 -0.05428670346736908
0.4437260627746582 0.2023482471704483 -0.037878051400184631
0.39574053883552551 0.16311399638652802 0.0058108419179916382
0.39152237772941589 0.16894975304603577 -0.03159545361995697
0.43855395913124084 0.20868059992790222 -0.06991519033908844
-0.32790568470954895 -0.44064638018608093 0.091112695634365082
-0.30377212166786194 -0.41711637377738953 0.10597998648881912
-0.32785481214523315 -0.4372723400592804 0.11184024065732956
-0.35443654656410217 -0.46356993913650513 0.071377202868461609
-0.33265513181686401 -0.43773633241653442 0.063302472233772278
-0.30923494696617126 -0.41506671905517578 0.077180482447147369
-0.30348533391952515 -0.41348180174827576 0.1277824342250824
-0.35441169142723083 -0.46049138903617859 0.091118276119232178
-0.35860201716423035 -0.45989236235618591 0.044603794813156128
0.50244319438934326 0.2928125262260437 -0.10197359323501587
0.50088566541671753 0.29219463467597961 -0.089163392782211304
0.48615041375160217 0.25797379016876221 -0.090636730194091797
0.49811482429504395 0.30087482929229736 -0.11318901181221008
0.51371598243713379 0.33018851280212402 -0.10865110158920288
0.51134860515594482 0.3290044367313385 -0.09701964259147644
0.48530933260917664 0.25808995962142944 -0.076579421758651733
0.48113077878952026 0.26610639691352844 -0.10322487354278564
0.51038581132888794 0.33776247501373291 -0.11871245503425598
-0.44396257400512695 -0.51428836584091187 0.0047899633646011353
-0.41329580545425415 -0.50162267684936523 0.027135163545608521
-0.44294622540473938 -0.51119011640548706 0.020637109875679016
-0.47370335459709167 -0.52142000198364258 -0.018099099397659302
-0.44716557860374451 -0.51028591394424438 -0.01752665638923645
-0.41674387454986572 -0.49732935428619385 0.0030433237552642822
-0.41271862387657166 -0.49871900677680969 0.044482573866844177
-0.4723181426525116 -0.5180131196975708 -0.0038514286279678345
-0.47657060623168945 -0.51808106899261475 -0.038336619734764099
0.50662946701049805 0.44449082016944885 -0.10175889730453491
0.50217986106872559 0.4439966082572937 -0.092451930046081543
0.51589161157608032 0.40755906701087952 -0.10772651433944702
0.50744187831878662 0.44645664095878601 -0.11036509275436401
0.49201643466949463 0.47783413529396057 -0.094400882720947266
0.48710912466049194 0.47838345170021057 -0.085350751876831055
0.5120241641998291 0.4063875675201416 -0.097896397113800049
0.51525998115539551 0.41214507818222046 -0.11649700999259949
0.49406790733337402 0.47652104496955872 -0.10300701856613159
-0.54494822025299072 -0.50210797786712646 -0.092033356428146362
-0.52515512704849243 -0.51519870758056641 -0.066696405410766602
-0.54406082630157471 -0.49764165282249451 -0.082432210445404053
-0.55997860431671143 -0.48400577902793884 -0.11717286705970764
-0.54507738351821899 -0.50259244441986084 -0.10413452982902527
-0.52657127380371094 -0.51422399282455444 -0.081810861825942993
-0.52377814054489136 -0.51106458902359009 -0.055635049939155579
-0.55987715721130371 -0.47927188873291016 -0.10887768864631653
-0.55838662385940552 -0.48584100604057312 -0.12601327896118164
0.42970860004425049 0.5416487455368042 -0.079558074474334717
0.42210155725479126 0.54497396945953369 -0.068629845976829529
0.45248085260391235 0.52746480703353882 -0.082868307828903198
0.43897342681884766 0.5331871509552002 -0.091174393892288208
0.40588808059692383 0.54803597927093506 -0.076585501432418823
0.39739549160003662 0.55228424072265625 -0.064505651593208313
0.44597253203392029 0.52998596429824829 -0.07297082245349884
0.45885962247848511 0.52081030607223511 -0.093042194843292236
0.41742783784866333 0.5376211404800415 -0.089556753635406494
-0.57343161106109619 -0.41383710503578186 -0.18504667282104492
-0.57423347234725952 -0.43867224454879761 -0.16502925753593445
-0.5754169225692749 -0.4070412814617157 -0.17764729261398315
-0.56781584024429321 -0.38878241181373596 -0.19946640729904175
-0.56915807723999023 -0.42295363545417786 -0.18822398781776428
-0.57041376829147339 -0.44493904709815979 -0.16929426789283752
-0.57560265064239502 -0.43274492025375366 -0.15784648060798645
-0.57057291269302368 -0.38129705190658569 -0.19165006279945374
-0.56275749206542969 -0.400177001953125 -0.20176371932029724
0.3373713493347168 0.52014201879501343 -0.062286421656608582
0.32783550024032593 0.52726167440414429 -0.046891480684280396
0.35905572772026062 0.53626590967178345 -0.06827014684677124
0.35209962725639343 0.50467902421951294 -0.078614592552185059
0.31729254126548767 0.50028860569000244 -0.055357754230499268
0.30800190567970276 0.50826084613800049 -0.039232298731803894
0.34957683086395264 0.54245924949645996 -0.053862646222114563
0.37330484390258789 0.52224963903427124 -0.083658754825592041
0.33197936415672302 0.48363503813743591 -0.072292044758796692
-0.5285075306892395 -0.32281407713890076 -0.19315865635871887
-0.54446244239807129 -0.34267088770866394 -0.20338410139083862
-0.53403222560882568 -0.31457489728927612 -0.18324825167655945
-0.51130622625350952 -0.30513712763786316 -0.17789113521575928
-0.52005624771118164 -0.33756148815155029 -0.19550997018814087
-0.53723055124282837 -0.35686656832695007 -0.20528885722160339
-0.54903489351272583 -0.33444613218307495 -0.19423630833625793
-0.51775401830673218 -0.29713445901870728 -0.16731908917427063
-0.50164115428924561 -0.31992462277412415 -0.18081435561180115
0.26997515559196472 0.43904370069503784 -0.031607717275619507
0.2631259560585022 0.44892266392707825 -0.015489906072616577
0.28330543637275696 0.45868408679962158 -0.039484515786170959
0.2820093035697937 0.42038115859031677 -0.047675207257270813
0.25940489768981934 0.41989725828170776 -0.024921625852584839
0.2535107433795929 0.43038320541381836 -0.0089703649282455444
0.27544784545898438 0.46800485253334045 -0.023089662194252014
0.29653307795524597 0.4404742419719696 -0.056169658899307251
0.27017387747764587 0.40086212754249573 -0.040513575077056885
-0.46282047033309937 -0.26570591330528259 -0.12346071004867554
-0.47798168659210205 -0.27646651864051819 -0.14146602153778076
-0.47152432799339294 -0.25982347130775452 -0.11241430044174194
-0.44833782315254211 -0.25759416818618774 -0.10671567916870117
-0.45014533400535583 -0.27809840440750122 -0.12708672881126404
-0.46618807315826416 -0.28995954990386963 -0.14500269293785095
-0.48601296544075012 -0.2697283923625946 -0.13037595152854919
-0.45770978927612305 -0.25247281789779663 -0.095616579055786133
-0.43485018610954285 -0.26884159445762634 -0.11065542697906494
0.35406360030174255 0.29563051462173462 -0.073542550206184387
0.37352326512336731 0.31688585877418518 -0.08709418773651123
0.38125860691070557 0.24700604379177094 -0.071561276912689209
0.33589228987693787 0.27676171064376831 -0.061771348118782043
0.32565352320671082 0.34603393077850342 -0.070009037852287292
0.34331667423248291 0.36692520976066589 -0.081383317708969116
0.40240159630775452 0.26855555176734924 -0.087460070848464966
0.36074754595756531 0.22862868010997772 -0.057550475001335144
0.30991604924201965 0.32670450210571289 -0.06027771532535553
-0.38572826981544495 -0.36511367559432983 -0.055342212319374084
-0.36242610216140747 -0.39879855513572693 -0.012997865676879883
-0.40681669116020203 -0.3822874128818512 -0.0727357417345047
-0.41029083728790283 -0.32982954382896423 -0.092475473880767822
-0.3664214015007019 -0.34901726245880127 -0.041232332587242126
-0.34154140949249268 -0.37998828291893005 0.00046357512474060059
-0.38551762700080872 -0.41797077655792236 -0.030462697148323059
-0.42935526371002197 -0.34496736526489258 -0.11000055074691772
-0.39255046844482422 -0.31647694110870361 -0.077484935522079468
0.43259719014167786 0.39674285054206848 -0.11637994647026062
0.40142181515693665 0.4405425488948822 -0.10704034566879272
0.44948673248291016 0.42405164241790771 -0.12032601237297058
0.46213105320930481 0.35434919595718384 -0.12113896012306213
0.4136316180229187 0.36831760406494141 -0.10965287685394287
0.38189151883125305 0.4151151180267334 -0.10085850954055786
0.42011532187461853 0.46379086375236511 -0.11102595925331116
0.47724920511245728 0.3858954906463623 -0.12525069713592529
0.44379913806915283 0.32297682762145996 -0.11358213424682617
-0.47927561402320862 -0.4317190945148468 -0.12460902333259583
-0.50269776582717896 -0.44516173005104065 -0.13794222474098206
-0.49445444345474243 -0.39406991004943848 -0.16035038232803345
-0.4543992280960083 -0.41634276509284973 -0.10880699753761292
-0.46511447429656982 -0.46765464544296265 -0.084848761558532715
-0.49115025997161865 -0.47867441177368164 -0.10065069794654846
-0.5153961181640625 -0.41001331806182861 -0.17165258526802063
-0.4721170961856842 -0.37765249609947205 -0.14546692371368408
-0.43774643540382385 -0.45331847667694092 -0.067720025777816772
0.47705692052841187 0.47703024744987488 -0.11756795644760132
0.46583548188209534 0.49745962023735046 -0.11212971806526184
0.49082991480827332 0.46561738848686218 -0.11886841058731079
0.47298339009284973 0.46655276417732239 -0.12063568830490112
0.45199522376060486 0.494549959897995 -0.11293467879295349
0.48014569282531738 0.48898807168006897 -0.11167272925376892
0.49293923377990723 0.44170761108398438 -0.12381628155708313
-0.54736238718032837 -0.46691271662712097 -0.15573957562446594
-0.54692769050598145 -0.48263579607009888 -0.14008831977844238
-0.55520588159561157 -0.4530642032623291 -0.17136877775192261
-0.53864532709121704 -0.4637434184551239 -0.15426135063171387
-0.53272068500518799 -0.48749098181724548 -0.12729570269584656
-0.55714511871337891 -0.46916079521179199 -0.15545171499252319
-0.54699140787124634 -0.43890714645385742 -0.17847061157226562
0.24386028945446014 0.36659401655197144 -0.018265083432197571
0.23837076127529144 0.35716035962104797 -0.017851307988166809
0.23898214101791382 0.37978821992874146 0.00084829330444335938
0.24749992787837982 0.38224208354949951 -0.018573939800262451
0.25200524926185608 0.345807284116745 -0.03697909414768219
0.24620725214481354 0.33502879738807678 -0.040680989623069763
0.23337782919406891 0.37105470895767212 0.0047717392444610596
0.24260936677455902 0.39446550607681274 -0.0014718472957611084
0.25623607635498047 0.36229193210601807 -0.035054206848144531
-0.40868133306503296 -0.24821881949901581 -0.072171479463577271
-0.4205474853515625 -0.24345661699771881 -0.057675778865814209
-0.40090447664260864 -0.2439463883638382 -0.068023532629013062
-0.39246654510498047 -0.25734406709671021 -0.081344455480575562
-0.42044216394424438 -0.25010854005813599 -0.080372899770736694
-0.43135946989059448 -0.24549220502376556 -0.067985400557518005
-0.41385802626609802 -0.2391621321439743 -0.049578189849853516
-0.38280165195465088 -0.25262284278869629 -0.081732720136642456
-0.40538477897644043 -0.25970503687858582 -0.086715400218963623
0.29404279589653015 0.23040066659450531 -0.058148488402366638
0.27820724248886108 0.27527710795402527 -0.058556690812110901
0.30609127879142761 0.24442245066165924 -0.053453773260116577
0.30870243906974792 0.1876637190580368 -0.050796717405319214
0.28244394063949585 0.21766270697116852 -0.067106723785400391
0.26936548948287964 0.26236283779144287 -0.067234829068183899
0.28674972057342529 0.29101181030273438 -0.053945183753967285
0.32440707087516785 0.19958776235580444 -0.046534836292266846
0.29388117790222168 0.17639432847499847 -0.059480324387550354
-0.31853160262107849 -0.31383571028709412 -0.036772608757019043
-0.33308979868888855 -0.32357898354530334 -0.031425386667251587
-0.34595540165901184 -0.29168745875358582 -0.063960418105125427
-0.30468875169754028 -0.30436807870864868 -0.047488123178482056
-0.29250404238700867 -0.33420884609222412 -0.0030017346143722534
-0.30696675181388855 -0.34753751754760742 0.0056998878717422485
-0.36038115620613098 -0.29807272553443909 -0.062295123934745789
-0.33286041021347046 -0.28441894054412842 -0.071888744831085205
-0.27870282530784607 -0.32186666131019592 -0.016659095883369446
0.32888853549957275 0.12230658531188965 0.0080782920122146606
0.30957630276679993 0.1110057532787323 0.0043075382709503174
0.32638397812843323 0.13184770941734314 -0.015855401754379272
0.34973478317260742 0.13369905948638916 0.0079980641603469849
0.32918190956115723 0.12198103964328766 0.031642839312553406
0.31005388498306274 0.10990685224533081 0.031845241785049438
0.3074488639831543 0.12155941128730774 -0.022165074944496155
0.34670785069465637 0.14234080910682678 -0.014011651277542114
0.34981706738471985 0.1343509703874588 0.029244333505630493
-0.24778833985328674 -0.35615545511245728 0.10228385031223297
-0.25597482919692993 -0.35582786798477173 0.069440282881259918
-0.23236069083213806 -0.34012907743453979 0.089566245675086975
-0.24562843143939972 -0.35286903381347656 0.13005432486534119
-0.26409333944320679 -0.37421166896820068 0.11127942800521851
-0.27130973339080811 -0.37352097034454346 0.08016938716173172
-0.24150687456130981 -0.33998730778694153 0.054208345711231232
-0.22952756285667419 -0.33686149120330811 0.12199251353740692
-0.26268088817596436 -0.37068548798561096 0.13617885112762451
0.029631022363901138 0.32765907049179077 0.48974177241325378
0.019726058468222618 0.32365924119949341 0.50029587745666504
0.010968886315822601 0.32005074620246887 0.50937223434448242
0.014763336628675461 0.31011113524436951 0.51859736442565918
0.022909410297870636 0.30168619751930237 0.52094590663909912
0.028364051133394241 0.29240936040878296 0.52364414930343628
0.040202639997005463 0.28098851442337036 0.52025353908538818
0.052419662475585938 0.2790779173374176 0.51235127449035645
0.066160500049591064 0.27687335014343262 0.5030519962310791
0.076288416981697083 0.2903485894203186 0.48790138959884644
0.068068280816078186 0.30557304620742798 0.48393714427947998
0.055794615298509598 0.31948578357696533 0.48063024878501892
-0.3698866069316864 -0.06592424213886261 0.47970381379127502
-0.35083046555519104 -0.070115260779857635 0.49085426330566406
-0.33043456077575684 -0.07116951048374176 0.50172513723373413
-0.31243205070495605 -0.058109629899263382 0.51926738023757935
-0.3154880702495575 -0.0476275235414505 0.52553659677505493
-0.31829389929771423 -0.038434378802776337 0.53075069189071655
-0.33405730128288269 -0.033004458993673325 0.52880549430847168
-0.34716683626174927 -0.032499730587005615 0.52206480503082275
-0.3595212996006012 -0.029955349862575531 0.51517796516418457
-0.37377795577049255 -0.031745936721563339 0.5009952187538147
-0.37789338827133179 -0.039886366575956345 0.49168506264686584
-0.38247209787368774 -0.049112390726804733 0.48085308074951172
0.067828714847564697 0.33919984102249146 0.43867427110671997
0.058810275048017502 0.33706328272819519 0.45228353142738342
0.049526575952768326 0.33455237746238708 0.46547141671180725
0.092836380004882812 0.27176254987716675 0.4807506799697876
0.10471904277801514 0.26895299553871155 0.46815899014472961
0.11601981520652771 0.26604095101356506 0.45499083399772644
0.12274868786334991 0.28465774655342102 0.43597123026847839
0.11261364817619324 0.30540329217910767 0.43138793110847473
0.097108215093612671 0.32450363039970398 0.42770761251449585
-0.37715208530426025 -0.10379602015018463 0.42906579375267029
-0.35291871428489685 -0.10993370413780212 0.44383147358894348
-0.32682773470878601 -0.11185792088508606 0.4580136239528656
-0.30194908380508423 -0.099605649709701538 0.48202598094940186
-0.30424961447715759 -0.089661173522472382 0.49277302622795105
-0.30671000480651855 -0.07950245589017868 0.50280094146728516
-0.39052349328994751 -0.067773737013339996 0.45597130060195923
-0.39356851577758789 -0.076556302607059479 0.44247031211853027
-0.39622074365615845 -0.085119836032390594 0.42854562401771545
0.079068824648857117 0.25839430093765259 0.49761933088302612
0.073567375540733337 0.24283389747142792 0.50297665596008301
0.063892841339111328 0.22830162942409515 0.50819826126098633
0.060127187520265579 0.20722371339797974 0.50322449207305908
0.069026365876197815 0.19931735098361969 0.49244147539138794
0.077346399426460266 0.19156354665756226 0.48094385862350464
0.10368658602237701 0.201144739985466 0.46245628595352173
0.11703860759735107 0.22058640420436859 0.45530229806900024
0.12497256696224213 0.24147595465183258 0.44815352559089661
-0.27247354388237 -0.10255871713161469 0.48186013102531433
-0.24616226553916931 -0.09171353280544281 0.49067679047584534
-0.22189635038375854 -0.077415511012077332 0.49721518158912659
-0.20848590135574341 -0.053101830184459686 0.51120865345001221
-0.21647688746452332 -0.045997034758329391 0.52063620090484619
-0.22503124177455902 -0.038820724934339523 0.52914154529571533
-0.25015473365783691 -0.044479150325059891 0.53278297185897827
-0.26844316720962524 -0.055294409394264221 0.527435302734375
-0.28847101330757141 -0.0636020228266716 0.52037358283996582
0.030099537223577499 0.27242118120193481 0.52986431121826172
0.026385154575109482 0.26241958141326904 0.53314876556396484
0.019988715648651123 0.2529844343662262 0.53630805015563965
0.018700597807765007 0.23903240263462067 0.53415912389755249
0.028498902916908264 0.2319040447473526 0.52823376655578613
0.039434507489204407 0.22379927337169647 0.52121531963348389
-0.24496053159236908 -0.024112805724143982 0.54153931140899658
-0.25551134347915649 -0.017057579010725021 0.5455024242401123
-0.26497849822044373 -0.010884545743465424 0.54868310689926147
-0.2823217511177063 -0.014610841870307922 0.54902017116546631
-0.29411512613296509 -0.021872878074645996 0.54532492160797119
-0.30705589056015015 -0.027571888640522957 0.54064500331878662
0.00026117917150259018 0.23752854764461517 0.54152369499206543
-0.012304151430726051 0.2320495992898941 0.54325258731842041
-0.026021430268883705 0.22822169959545135 0.54420047998428345
-0.03844001516699791 0.21878556907176971 0.53975880146026611
-0.036062933504581451 0.20921675860881805 0.53457164764404297
-0.033469028770923615 0.19838312268257141 0.52844804525375366
-0.0081575717777013779 0.19028647243976593 0.52118974924087524
0.013499878346920013 0.19614122807979584 0.51966512203216553
0.033284053206443787 0.20456878840923309 0.51683497428894043
-0.22210347652435303 -0.016851257532835007 0.53772151470184326
-0.2134360671043396 -0.0010350495576858521 0.53729796409606934
-0.20869599282741547 0.015296205878257751 0.53513240814208984
-0.22167782485485077 0.03229961171746254 0.5374833345413208
-0.23509208858013153 0.032773379236459732 0.54235386848449707
-0.2470649778842926 0.033129829913377762 0.54637360572814941
-0.25638172030448914 0.023513037711381912 0.55213487148284912
-0.25916552543640137 0.013317331671714783 0.55315554141998291
-0.26449683308601379 0.0033243484795093536 0.55298733711242676
-0.028411492705345154 0.176643967628479 0.51253706216812134
-0.026099618524312973 0.16651904582977295 0.50287795066833496
-0.023874163627624512 0.15669235587120056 0.4925367534160614
0.0079199876636266708 0.15081204473972321 0.48138535022735596
0.036378439515829086 0.15842139720916748 0.47888162732124329
0.062569186091423035 0.16954559087753296 0.47467303276062012
-0.18390695750713348 -0.040488176047801971 0.50283443927764893
-0.171725794672966 -0.019201051443815231 0.5020301342010498
-0.16467423737049103 0.0028549544513225555 0.49917683005332947
-0.17367035150527954 0.026815872639417648 0.50477802753448486
-0.18445272743701935 0.028665933758020401 0.51460027694702148
-0.19584494829177856 0.030276443809270859 0.52359962463378906
-0.053752735257148743 0.18713800609111786 0.51938426494598389
-0.076073706150054932 0.18998074531555176 0.51623022556304932
-0.097034811973571777 0.19567041099071503 0.5121232271194458
-0.1205441802740097 0.19545663893222809 0.49764871597290039
-0.12446089088916779 0.18720099329948425 0.48702365159988403
-0.12786227464675903 0.17922528088092804 0.47586452960968018
-0.10695311427116394 0.15966884791851044 0.4708213210105896
-0.080081596970558167 0.15159709751605988 0.47614037990570068
-0.051344148814678192 0.14732787013053894 0.47996237874031067
-0.16772125661373138 0.045935686677694321 0.48840239644050598
-0.17773444950580597 0.065465927124023438 0.48092129826545715
-0.19270475208759308 0.082778140902519226 0.47227057814598083
-0.22039039433002472 0.094609975814819336 0.47382524609565735
-0.22883988916873932 0.091760486364364624 0.4847491979598999
-0.2376193106174469 0.088414683938026428 0.49511399865150452
-0.23181116580963135 0.073938682675361633 0.51247358322143555
-0.22007925808429718 0.061346005648374557 0.51973766088485718
-0.2120693176984787 0.047042910009622574 0.52613377571105957
-0.054967228323221207 0.22597412765026093 0.54316949844360352
-0.069252461194992065 0.22764377295970917 0.54129970073699951
-0.082804456353187561 0.23114131391048431 0.53886699676513672
-0.098951175808906555 0.23032514750957489 0.53055024147033691
-0.10421906411647797 0.22236774861812592 0.52391916513442993
-0.11013293266296387 0.21337024867534637 0.51622796058654785
-0.25682967901229858 0.079241842031478882 0.51304501295089722
-0.26654025912284851 0.073944464325904846 0.5203782320022583
-0.27514201402664185 0.069210723042488098 0.52668666839599609
-0.27186873555183411 0.059471871703863144 0.53738152980804443
-0.2641998827457428 0.05179918184876442 0.54231941699981689
-0.25893518328666687 0.043068740516901016 0.54658675193786621
-0.10588529706001282 0.24352218210697174 0.53333139419555664
-0.1145550012588501 0.25197392702102661 0.530525803565979
-0.12077502906322479 0.26139006018638611 0.52775204181671143
-0.13029254972934723 0.26898843050003052 0.518196702003479
-0.13868573307991028 0.26604819297790527 0.50982236862182617
-0.14808762073516846 0.26275429129600525 0.50007027387619019
-0.15292006731033325 0.24345539510250092 0.49334108829498291
-0.14426018297672272 0.22859178483486176 0.49792763590812683
-0.13175031542778015 0.21529622375965118 0.50268971920013428
-0.26495856046676636 0.092005923390388489 0.49653074145317078
-0.28508147597312927 0.096792235970497131 0.48821735382080078
-0.30634027719497681 0.098493531346321106 0.47976616024971008
-0.3299659788608551 0.090380027890205383 0.48283290863037109
-0.33183863759040833 0.083773374557495117 0.49323287606239319
-0.33346143364906311 0.077928513288497925 0.50220483541488647
-0.32086971402168274 0.074656009674072266 0.51513886451721191
-0.30691090226173401 0.073567599058151245 0.52081906795501709
-0.29365056753158569 0.07056938111782074 0.52647054195404053
-0.1649891585111618 0.25595486164093018 0.47700068354606628
-0.17161868512630463 0.25264361500740051 0.46409916877746582
-0.17752011120319366 0.24936769902706146 0.45065054297447205
-0.1779596358537674 0.22467617690563202 0.44323578476905823
-0.16715484857559204 0.20460404455661774 0.45021232962608337
-0.15128853917121887 0.18660484254360199 0.45742404460906982
-0.23541197180747986 0.10810811817646027 0.45214259624481201
-0.26143211126327515 0.11514483392238617 0.44104069471359253
-0.28897774219512939 0.11799889802932739 0.4295215904712677
-0.3197915256023407 0.11205188930034637 0.43174773454666138
-0.32264682650566101 0.10753148794174194 0.44546601176261902
-0.32534658908843994 0.10256239771842957 0.45871067047119141
-0.15683692693710327 0.27561777830123901 0.48530605435371399
-0.15189133584499359 0.29172113537788391 0.48204410076141357
-0.1426912248134613 0.3070005476474762 0.47932940721511841
-0.13430631160736084 0.32348042726516724 0.46429994702339172
-0.13812720775604248 0.32573422789573669 0.4506402313709259
-0.14128799736499786 0.32772085070610046 0.4364696741104126
-0.16191315650939941 0.31080237030982971 0.42434844374656677
-0.17461396753787994 0.29004934430122375 0.42755159735679626
-0.18180175125598907 0.26819264888763428 0.43172281980514526
-0.34388306736946106 0.10986870527267456 0.40605825185775757
-0.36922308802604675 0.099117830395698547 0.39491325616836548
-0.39204642176628113 0.08465111255645752 0.38495039939880371
-0.40941396355628967 0.065554842352867126 0.39345532655715942
-0.40700641274452209 0.063952907919883728 0.40995746850967407
-0.40400061011314392 0.06208786740899086 0.42607757449150085
-0.38536825776100159 0.072949901223182678 0.44746392965316772
-0.36797702312469482 0.083762630820274353 0.4546457827091217
-0.34857496619224548 0.091881498694419861 0.46272262930870056
-0.12425588071346283 0.28148797154426575 0.52246838808059692
-0.12130278348922729 0.29144635796546936 0.52007871866226196
-0.11547316610813141 0.30092373490333557 0.51796174049377441
-0.11110870540142059 0.31155470013618469 0.50880444049835205
-0.11690899729728699 0.31439092755317688 0.49968326091766357
-0.12336775660514832 0.31763899326324463 0.48906758427619934
-0.39499762654304504 0.057040754705667496 0.45641019940376282
-0.38957506418228149 0.054166439920663834 0.46989184617996216
-0.38470184803009033 0.051642823964357376 0.48153033852577209
-0.37176701426506042 0.05835023894906044 0.49438798427581787
-0.36065027117729187 0.065284594893455505 0.49887830018997192
-0.34823757410049438 0.070473402738571167 0.50400334596633911
-0.095939144492149353 0.31716969609260559 0.51485466957092285
-0.082975819706916809 0.3232969343662262 0.51392960548400879
-0.068617850542068481 0.32766130566596985 0.5134044885635376
-0.052330166101455688 0.33387255668640137 0.5058971643447876
-0.05107526108622551 0.33928084373474121 0.49669882655143738
-0.049554388970136642 0.34542718529701233 0.48598667979240417
-0.070827722549438477 0.3483167290687561 0.47418197989463806
-0.09273645281791687 0.34185758233070374 0.4746900200843811
-0.11256898939609528 0.33257025480270386 0.47567102313041687
-0.41151413321495056 0.044782150536775589 0.43757829070091248
-0.41941216588020325 0.028491664677858353 0.43550693988800049
-0.42358687520027161 0.011633716523647308 0.43559598922729492
-0.41638323664665222 -0.0012478828430175781 0.45337545871734619
-0.40873724222183228 0.0024009831249713898 0.46737635135650635
-0.40190693736076355 0.0056075714528560638 0.47942343354225159
-0.39685842394828796 0.018851008266210556 0.48727694153785706
-0.3940596878528595 0.029691260308027267 0.4871203601360321
-0.38877031207084656 0.040200117975473404 0.48832643032073975
-0.045328155159950256 0.35698860883712769 0.46128466725349426
-0.042639542371034622 0.36185261607170105 0.44783157110214233
-0.039721179753541946 0.3663487434387207 0.4339374303817749
-0.066887877881526947 0.3665747344493866 0.41959571838378906
-0.095558762550354004 0.35800245404243469 0.4198015034198761
-0.12165156006813049 0.34548830986022949 0.42057335376739502
-0.4268200695514679 0.046796206384897232 0.37094473838806152
-0.43763086199760437 0.024865902960300446 0.36783549189567566
-0.4436441957950592 0.0021359063684940338 0.36777579784393311
-0.44012868404388428 -0.016652945429086685 0.38829800486564636
-0.43540254235267639 -0.012812003493309021 0.405305415391922
-0.4300709068775177 -0.0089660622179508209 0.4219440221786499
-0.024095773696899414 0.35125744342803955 0.47430408000946045
-0.0010311463847756386 0.34762832522392273 0.47496888041496277
0.020592143759131432 0.34094807505607605 0.47617518901824951
0.051917079836130142 0.35452714562416077 0.42275255918502808
0.023936521261930466 0.36419865489006042 0.42128846049308777
-0.006005934439599514 0.36972382664680481 0.42034924030303955
-0.44004565477371216 -0.0421142578125 0.37816756963729858
-0.43058842420578003 -0.06199418380856514 0.38822644948959351
-0.41664391756057739 -0.079393252730369568 0.4005509614944458
-0.40112888813018799 -0.04839644581079483 0.45881396532058716
-0.41226071119308472 -0.035680569708347321 0.45005825161933899
-0.41994276642799377 -0.021068057045340538 0.44298970699310303
-0.037927154451608658 0.32979875802993774 0.51349842548370361
-0.022755498066544533 0.3274969756603241 0.51412618160247803
-0.008511057123541832 0.32328209280967712 0.51517045497894287
-0.3804815411567688 -0.019072819501161575 0.50217306613922119
-0.38833725452423096 -0.011134112253785133 0.49663713574409485
-0.39393854141235352 -0.0019547119736671448 0.49212107062339783
-0.0046387352049350739 0.31503462791442871 0.52871489524841309
-0.0022351881489157677 0.31579840183258057 0.5256008505821228
0.00025376677513122559 0.3162873387336731 0.52182126045227051
-0.054434463381767273 0.32820948958396912 0.51848703622817993
-0.05528949573636055 0.32743328809738159 0.52233684062957764
-0.055892881006002426 0.32635045051574707 0.52558684349060059
-0.042937334626913071 0.32378202676773071 0.52893590927124023
-0.030277105048298836 0.32210910320281982 0.52927565574645996
-0.018767237663269043 0.31827983260154724 0.53038871288299561
-0.37442389130592346 -0.0087912324815988541 0.51855045557022095
-0.38156351447105408 -0.0027058422565460205 0.51372677087783813
-0.38610199093818665 0.0048986077308654785 0.51029706001281738
-0.39223644137382507 0.012041281908750534 0.50345969200134277
-0.39374884963035583 0.010952338576316833 0.49964427947998047
-0.39474517107009888 0.0097910575568675995 0.49522072076797485
-0.36943244934082031 -0.021769624203443527 0.51370429992675781
-0.36882275342941284 -0.019429873675107956 0.51753968000411987
-0.36791643500328064 -0.01716676726937294 0.52072763442993164
-0.10543985664844513 0.30900949239730835 0.52161610126495361
-0.10503071546554565 0.30897554755210876 0.52571427822113037
-0.10419771075248718 0.30870327353477478 0.52913409471511841
-0.09232686460018158 0.31393030285835266 0.53092896938323975
-0.081658750772476196 0.31914392113685608 0.52967357635498047
-0.069330893456935883 0.32227915525436401 0.52914595603942871
-0.38933843374252319 0.022444687783718109 0.50636422634124756
-0.38780999183654785 0.031463827937841415 0.50606775283813477
-0.38322743773460388 0.040159773081541061 0.50757664442062378
-0.37915217876434326 0.049289960414171219 0.50564026832580566
-0.37986049056053162 0.049429487437009811 0.50168406963348389
-0.38009953498840332 0.049402903765439987 0.49711808562278748
-0.12146875262260437 0.27296119928359985 0.53024590015411377
-0.12033189833164215 0.27404335141181946 0.53422015905380249
-0.1187925785779953 0.27487307786941528 0.53741466999053955
-0.11576572060585022 0.28430992364883423 0.53794944286346436
-0.11409388482570648 0.29260262846946716 0.53578126430511475
-0.10898776352405548 0.30029168725013733 0.53405475616455078
-0.36890417337417603 0.055604521185159683 0.5130230188369751
-0.35987958312034607 0.061519186943769455 0.51655089855194092
-0.34923079609870911 0.065441355109214783 0.5210648775100708
-0.33752840757369995 0.070225536823272705 0.52249658107757568
-0.33700445294380188 0.071133196353912354 0.51902061700820923
-0.33608195185661316 0.07184775173664093 0.51490223407745361
-0.093706712126731873 0.23991979658603668 0.5406486988067627
-0.093304619193077087 0.24197037518024445 0.54426282644271851
-0.092697843909263611 0.24380691349506378 0.54711008071899414
-0.10009662806987762 0.25231373310089111 0.54698187112808228
-0.10771527886390686 0.25910329818725586 0.54464530944824219
-0.11244091391563416 0.26710596680641174 0.54245555400848389
-0.32541853189468384 0.06908746063709259 0.53064537048339844
-0.31352612376213074 0.068692222237586975 0.53529787063598633
-0.30255338549613953 0.066068261861801147 0.5401076078414917
-0.28959855437278748 0.063742950558662415 0.54276597499847412
-0.28765234351158142 0.064238995313644409 0.5399705171585083
-0.28547775745391846 0.064545944333076477 0.53641629219055176
-0.041762661188840866 0.23040668666362762 0.54817330837249756
-0.042753871530294418 0.23297007381916046 0.55150628089904785
-0.043619927018880844 0.23528958857059479 0.55411398410797119
-0.057102348655462265 0.23814298212528229 0.555014967918396
-0.069165050983428955 0.23896656930446625 0.55351853370666504
-0.080324217677116394 0.24199683964252472 0.55156850814819336
-0.2839333713054657 0.056888189166784286 0.54945957660675049
-0.2772560715675354 0.050804425030946732 0.55359601974487305
-0.27343586087226868 0.043434601277112961 0.55707746744155884
-0.26709583401679993 0.035316895693540573 0.55879175662994385
-0.26431769132614136 0.034884553402662277 0.55652821063995361
-0.26136159896850586 0.034215476363897324 0.55345165729522705
0.0071070697158575058 0.24779991805553436 0.54340511560440063
0.0047815702855587006 0.24978511035442352 0.5469125509262085
0.0025334944948554039 0.25148853659629822 0.54970073699951172
-0.010227395221590996 0.24777711927890778 0.55386316776275635
-0.020418830215930939 0.24302656948566437 0.55528467893600464
-0.03212539479136467 0.24023501574993134 0.55596911907196045
-0.27111154794692993 0.026811596006155014 0.56190717220306396
-0.2727038562297821 0.018352348357439041 0.56292229890823364
-0.27734845876693726 0.010195132344961166 0.56261527538299561
-0.28061950206756592 0.00016035139560699463 0.56009888648986816
-0.27849870920181274 -0.0014249533414840698 0.55782055854797363
-0.27623665332794189 -0.003232855349779129 0.55482602119445801
0.025712378323078156 0.28374823927879333 0.53137493133544922
0.022674828767776489 0.28456681966781616 0.53493881225585938
0.019632257521152496 0.2850305438041687 0.53779351711273193
0.014601966366171837 0.27669650316238403 0.54329109191894531
0.01223866268992424 0.26841750741004944 0.54622364044189453
0.0065533574670553207 0.26079779863357544 0.54914963245391846
-0.2923169732093811 -0.0051127299666404724 0.55874437093734741
-0.30183503031730652 -0.011448279023170471 0.55536955595016479
-0.31279376149177551 -0.015851493924856186 0.55105090141296387
-0.32361680269241333 -0.022468438372015953 0.54421257972717285
-0.32293283939361572 -0.024862270802259445 0.54180175065994263
-0.32201248407363892 -0.027350284159183502 0.53877341747283936
0.0011250656098127365 0.30734497308731079 0.53338766098022461
0.0084966570138931274 0.30082309246063232 0.53519487380981445
0.012693777680397034 0.29331129789352417 0.53762078285217285
-0.33569419384002686 -0.020420229062438011 0.5405735969543457
-0.34649413824081421 -0.020339649170637131 0.53495591878890991
-0.3564494252204895 -0.017834030091762543 0.52947783470153809
-0.014670554548501968 0.30906707048416138 0.53584527969360352
-0.023537568747997284 0.30303394794464111 0.54035186767578125
-0.034796848893165588 0.29506483674049377 0.54517310857772827
-0.025449980050325394 0.28355786204338074 0.548797607421875
-0.0082826670259237289 0.28442263603210449 0.54610413312911987
0.0050985245034098625 0.28495347499847412 0.54324102401733398
-0.34566384553909302 0.010806843638420105 0.53837323188781738
-0.35448560118675232 0.00041564926505088806 0.53311729431152344
-0.36120063066482544 -0.0078057032078504562 0.52825599908828735
-0.3254493772983551 -0.012137278914451599 0.54730117321014404
-0.32685363292694092 -0.0029076188802719116 0.54782170057296753
-0.32853561639785767 0.008813660591840744 0.54741352796554565
-0.031735211610794067 0.27091330289840698 0.55337142944335938
-0.01864822581410408 0.26370140910148621 0.55377388000488281
-0.0084416940808296204 0.25799852609634399 0.55319631099700928
-0.29074490070343018 0.0060308948159217834 0.5605161190032959
-0.30017375946044922 0.011044695973396301 0.55804836750030518
-0.31230759620666504 0.01729331910610199 0.55365419387817383
-0.049502328038215637 0.2646421492099762 0.55500185489654541
-0.047588687390089035 0.25361782312393188 0.55647492408752441
-0.045939523726701736 0.2449604719877243 0.55672281980514526
-0.27997061610221863 0.034508887678384781 0.55936002731323242
-0.29185435175895691 0.03302566334605217 0.55717825889587402
-0.3071351945400238 0.030818041414022446 0.5532066822052002
-0.068488754332065582 0.26796132326126099 0.55253612995147705
-0.07839299738407135 0.25883764028549194 0.55219018459320068
-0.085811927914619446 0.25169232487678528 0.55107474327087402
-0.29810711741447449 0.057566840201616287 0.54642754793167114
-0.30588346719741821 0.050825063139200211 0.54722869396209717
-0.31586077809333801 0.04177059605717659 0.54714047908782959
-0.078302711248397827 0.27975043654441833 0.54874986410140991
-0.094487622380256653 0.27817577123641968 0.54611468315124512
-0.10675045847892761 0.27682122588157654 0.54322957992553711
-0.33695632219314575 0.062597349286079407 0.53005582094192505
-0.33578482270240784 0.054656226187944412 0.53454649448394775
-0.33406153321266174 0.044078361243009567 0.53920960426330566
-0.07273063063621521 0.29275688529014587 0.54549479484558105
-0.085532456636428833 0.29934784770011902 0.54091298580169678
-0.095140978693962097 0.30425176024436951 0.53651762008666992
-0.37079575657844543 0.045726906508207321 0.51635205745697021
-0.36192998290061951 0.04163336381316185 0.52398824691772461
-0.35015749931335449 0.036034498363733292 0.53277546167373657
-0.054354358464479446 0.29923245310783386 0.54399126768112183
-0.055379610508680344 0.31004422903060913 0.53846001625061035
-0.055980641394853592 0.31823459267616272 0.53338509798049927
-0.38095071911811829 0.015643317252397537 0.51438802480697632
-0.36967301368713379 0.018495846539735794 0.5224955677986145
-0.35487034916877747 0.021954003721475601 0.531982421875
0.39492809772491455 -0.22899208962917328 0.57762426137924194
0.41073259711265564 -0.21824793517589569 0.56500488519668579
0.42537927627563477 -0.2077832818031311 0.55189496278762817
0.43822073936462402 -0.19041018187999725 0.54969513416290283
0.43489858508110046 -0.18337397277355194 0.56014788150787354
0.42908895015716553 -0.17688500881195068 0.57039308547973633
0.41045674681663513 -0.18002739548683167 0.58934849500656128
0.39828473329544067 -0.18940356373786926 0.5987582802772522
0.38468009233474731 -0.19906991720199585 0.60847902297973633
0.37346529960632324 -0.21653655171394348 0.61235815286636353
0.37619408965110779 -0.22435428202152252 0.60587406158447266
0.37778151035308838 -0.23215588927268982 0.59828758239746094
0.35421484708786011 -0.21815380454063416 0.62699633836746216
0.33824074268341064 -0.22703030705451965 0.63522303104400635
0.32260659337043762 -0.23511472344398499 0.64262163639068604
0.30629539489746094 -0.25369936227798462 0.64525949954986572
0.30514496564865112 -0.26430419087409973 0.63977712392807007
0.30398902297019958 -0.27394941449165344 0.63247692584991455
0.32138025760650635 -0.27235126495361328 0.61637276411056519
0.34065580368041992 -0.26171573996543884 0.60853642225265503
0.35966649651527405 -0.25085285305976868 0.59955382347106934
0.45137917995452881 -0.1881624311208725 0.52603930234909058
0.46198713779449463 -0.17893646657466888 0.51428055763244629
0.46994858980178833 -0.16985087096691132 0.50400590896606445
0.47176149487495422 -0.15520112216472626 0.51143622398376465
0.46471673250198364 -0.14972731471061707 0.52740710973739624
0.45399749279022217 -0.14447957277297974 0.54335451126098633
0.43942764401435852 -0.1479606032371521 0.56241214275360107
0.43572559952735901 -0.15567499399185181 0.56720590591430664
0.42945969104766846 -0.16326633095741272 0.57332009077072144
0.29486224055290222 -0.24786104261875153 0.65451741218566895
0.28284624218940735 -0.25196027755737305 0.65899205207824707
0.27135911583900452 -0.2541424036026001 0.66259574890136719
0.25410977005958557 -0.27079641819000244 0.66243451833724976
0.24800308048725128 -0.28624910116195679 0.65744763612747192
0.24160625040531158 -0.29992976784706116 0.65011203289031982
0.25015035271644592 -0.30747392773628235 0.6377372145652771
0.26654595136642456 -0.30092430114746094 0.63403308391571045
0.28399553894996643 -0.29239395260810852 0.62913346290588379
0.47477239370346069 -0.15135522186756134 0.4900188148021698
0.47094404697418213 -0.14135497808456421 0.4864523708820343
0.46308544278144836 -0.13031522929668427 0.4846605658531189
0.45259135961532593 -0.11351481080055237 0.50245958566665649
