# XYZ point cloud file
-0.95334786176681519 -0.015591168776154518 -0.040400005877017975
-0.96289926767349243 0.038115654140710831 -0.18166996538639069
-0.95174187421798706 -0.082375556230545044 -0.23909421265125275
-0.29566723108291626 0.69232243299484253 0.34602487087249756
-0.35128319263458252 0.65095990896224976 0.3703015148639679
-0.25198426842689514 0.66343009471893311 0.38594239950180054
-0.24455642700195312 0.72403711080551147 0.32297185063362122
-0.33985781669616699 0.7246282696723938 0.30358403921127319
-0.39873808622360229 0.68416249752044678 0.32680228352546692
-0.30431908369064331 0.62146788835525513 0.41036322712898254
-0.20460011065006256 0.6956821084022522 0.36336120963096619
-0.28483706712722778 0.75559067726135254 0.28076684474945068
-0.85582268238067627 -0.17849306762218475 0.12821564078330994
-0.81693315505981445 -0.21399836242198944 0.19184406101703644
-0.85121399164199829 -0.12653450667858124 0.16662946343421936
-0.89625829458236694 -0.14121901988983154 0.060711048543453217
-0.85463207960128784 -0.22398377954959869 0.097951337695121765
-0.81847697496414185 -0.25739672780036926 0.1628948450088501
-0.80962693691253662 -0.16359551250934601 0.22871750593185425
-0.89429754018783569 -0.087359435856342316 0.099715031683444977
-0.89230120182037354 -0.189250648021698 0.02987821027636528
-0.18711438775062561 0.62610524892807007 0.50602787733078003
-0.18789640069007874 0.62753200531005859 0.54642736911773682
-0.14336539804935455 0.65959298610687256 0.48896077275276184
-0.19553361833095551 0.6298755407333374 0.46537566184997559
-0.23470871150493622 0.58374196290969849 0.52427208423614502
-0.23787248134613037 0.58571279048919678 0.56203818321228027
-0.14231613278388977 0.66135841608047485 0.53157305717468262
-0.15215086936950684 0.66297322511672974 0.44599142670631409
-0.24323247373104095 0.5873827338218689 0.48649260401725769
-0.77361786365509033 -0.28356084227561951 0.34236034750938416
-0.77903443574905396 -0.32602384686470032 0.32087612152099609
-0.78260624408721924 -0.29486843943595886 0.38027256727218628
-0.76199716329574585 -0.23433245718479156 0.36949163675308228
-0.77389919757843018 -0.26732355356216431 0.29924723505973816
-0.77899730205535889 -0.30913826823234558 0.27490013837814331
-0.78730976581573486 -0.33869966864585876 0.36154818534851074
-0.77282685041427612 -0.24430109560489655 0.40358543395996094
-0.76254743337631226 -0.21844567358493805 0.33023321628570557
-0.5424346923828125 0.44945028424263 0.40187901258468628
-0.48864012956619263 0.41645678877830505 0.45277032256126404
-0.47612440586090088 0.52918857336044312 0.40084969997406006
-0.59415203332901001 0.48661112785339355 0.34558811783790588
-0.60742044448852539 0.36140167713165283 0.39364901185035706
-0.55134963989257812 0.3241330087184906 0.45396313071250916
-0.42429336905479431 0.4981987476348877 0.4457055926322937
-0.52724713087081909 0.56468433141708374 0.35046610236167908
-0.65946817398071289 0.40091672539710999 0.33046525716781616
-0.77322942018508911 0.090261563658714294 0.30003076791763306
-0.81105136871337891 0.0080154277384281158 0.25541990995407104
-0.72447311878204346 0.049840528517961502 0.36133956909179688
-0.72507017850875854 0.17828521132469177 0.34125614166259766
-0.82158458232879639 0.13222862780094147 0.23222409188747406
-0.85796463489532471 0.049457918852567673 0.18846599757671356
-0.76497822999954224 -0.03135409951210022 0.31552273035049438
-0.67188018560409546 0.13674966990947723 0.4068543016910553
-0.77527147531509399 0.22045557200908661 0.27217432856559753
-0.44008854031562805 0.40794950723648071 0.62561631202697754
-0.45763128995895386 0.36118286848068237 0.62739205360412598
-0.47669237852096558 0.41079604625701904 0.6368478536605835
-0.42478024959564209 0.45317962765693665 0.63127803802490234
-0.4057515561580658 0.40328359603881836 0.6147606372833252
-0.42751011252403259 0.34371975064277649 0.61683058738708496
-0.48930689692497253 0.37391138076782227 0.63818109035491943
-0.46423795819282532 0.44560715556144714 0.64219439029693604
-0.38285180926322937 0.4621308445930481 0.6194770336151123
-0.72976469993591309 -0.042250499129295349 0.51696121692657471
-0.7592121958732605 -0.028508299961686134 0.52392148971557617
-0.6937677264213562 -0.0057941339910030365 0.53924298286437988
-0.70042914152145386 -0.054456517100334167 0.51128745079040527
-0.76731580495834351 -0.079193726181983948 0.5020744800567627
-0.78779476881027222 -0.057516783475875854 0.51263821125030518
-0.73019266128540039 -0.00064257532358169556 0.54224824905395508
-0.65382260084152222 -0.0077995620667934418 0.53813135623931885
-0.74701279401779175 -0.10355827212333679 0.49111419916152954
-0.38099709153175354 0.38619694113731384 0.55972981452941895
-0.37307631969451904 0.39104703068733215 0.58311116695404053
-0.33429989218711853 0.46153032779693604 0.55178618431091309
-0.40370458364486694 0.384966641664505 0.53154635429382324
-0.4209405779838562 0.31101793050765991 0.5662003755569458
-0.40542468428611755 0.31829968094825745 0.58739054203033447
-0.33339479565620422 0.46513658761978149 0.58022201061248779
-0.34960377216339111 0.46398055553436279 0.52050292491912842
-0.45297461748123169 0.30034869909286499 0.54061925411224365
-0.65692055225372314 -0.042083963751792908 0.4728771448135376
-0.70312261581420898 -0.1109231561422348 0.43637803196907043
-0.6612999439239502 -0.056361604481935501 0.49124190211296082
-0.60661786794662476 0.02283918485045433 0.5085068941116333
-0.663482666015625 -0.018318518996238708 0.44781368970870972
-0.7079002857208252 -0.092212364077568054 0.40600576996803284
-0.71163803339004517 -0.12200237810611725 0.45988374948501587
-0.60802751779556274 0.0038351677358150482 0.52393221855163574
-0.61056667566299438 0.055716384202241898 0.49030366539955139
-0.45347219705581665 0.18381538987159729 0.58117294311523438
-0.44048967957496643 0.17991030216217041 0.59202373027801514
-0.45564711093902588 0.20464134216308594 0.57662177085876465
-0.46613913774490356 0.16831998527050018 0.57480204105377197
-0.44829714298248291 0.15816400945186615 0.58891808986663818
-0.43637523055076599 0.21078480780124664 0.59278106689453125
-0.48318460583686829 0.18819569051265717 0.56154036521911621
-0.49919214844703674 0.11291618645191193 0.56876289844512939
-0.52148491144180298 0.10252200067043304 0.55808866024017334
-0.48833721876144409 0.10571971535682678 0.57927608489990234
-0.49029466509819031 0.13086822628974915 0.56843876838684082
-0.51954269409179688 0.13180072605609894 0.55133676528930664
-0.51793277263641357 0.084277093410491943 0.56966781616210938
-0.47026327252388 0.12411350011825562 0.58334171772003174
0.12369611859321594 0.7435600757598877 0.3503594696521759
0.12922190129756927 0.73924541473388672 0.39651072025299072
0.17318905889987946 0.72779440879821777 0.30371958017349243
0.11646123230457306 0.75229036808013916 0.30405345559120178
0.074684485793113708 0.75017791986465454 0.39542922377586365
0.080615073442459106 0.75034326314926147 0.43738758563995361
0.17754493653774261 0.71899509429931641 0.3550458550453186
0.16761197149753571 0.74035358428955078 0.25223037600517273
0.066458456218242645 0.75499731302261353 0.35330799221992493
-0.70706987380981445 -0.54061317443847656 0.25111246109008789
-0.66335016489028931 -0.56423968076705933 0.23624591529369354
-0.70289665460586548 -0.54687583446502686 0.30146345496177673
-0.74189037084579468 -0.51301747560501099 0.26860195398330688
-0.71588534116744995 -0.53456383943557739 0.19739510118961334
-0.67597097158432007 -0.56281787157058716 0.17630505561828613
-0.65450036525726318 -0.56591594219207764 0.29346942901611328
-0.74262541532516479 -0.52306550741195679 0.31251144409179688
-0.74662822484970093 -0.50301116704940796 0.22069130837917328
0.077820658683776855 0.80354142189025879 0.19057260453701019
0.13443833589553833 0.79078143835067749 0.13423779606819153
0.062719680368900299 0.82382285594940186 0.15749533474445343
0.022533850744366646 0.80664342641830444 0.2416054755449295
0.093061141669750214 0.78336012363433838 0.22402754426002502
0.14784224331378937 0.77291256189346313 0.16736653447151184
0.12139239907264709 0.80814844369888306 0.10143615305423737
0.0054093245416879654 0.8302619457244873 0.20638597011566162
0.039779447019100189 0.78418636322021484 0.27644988894462585
-0.77042096853256226 -0.50932878255844116 0.037855856120586395
-0.79117029905319214 -0.49836504459381104 -0.013798609375953674
-0.73012852668762207 -0.54614722728729248 0.015502194873988628
-0.74891197681427002 -0.51923859119415283 0.089841976761817932
-0.80123615264892578 -0.46941426396369934 0.060817975550889969
-0.82495427131652832 -0.45664992928504944 0.00463881716132164
-0.74820691347122192 -0.53706365823745728 -0.033360552042722702
-0.71065223217010498 -0.55411428213119507 0.065076246857643127
-0.77763879299163818 -0.4814111590385437 0.11603821814060211
0.031137591227889061 0.86495435237884521 0.041754424571990967
0.085478641092777252 0.84559041261672974 -0.0022301869466900826
0.02924673818051815 0.86958318948745728 -0.0057522002607584
-0.026487130671739578 0.88077330589294434 0.079977966845035553
0.038136236369609833 0.8557085394859314 0.084397099912166595
0.095261506736278534 0.83676344156265259 0.034796759486198425
0.082651175558567047 0.84907180070877075 -0.045307226479053497
-0.027729962021112442 0.88833099603652954 0.02926301397383213
-0.020305933430790901 0.86873722076416016 0.12652130424976349
-0.82365214824676514 -0.45983812212944031 -0.166646808385849
-0.82140868902206421 -0.44893360137939453 -0.21716564893722534
-0.78295034170150757 -0.49903959035873413 -0.17426538467407227
-0.81925565004348755 -0.47283342480659485 -0.11599913984537125
-0.86187338829040527 -0.41523116827011108 -0.16298884153366089
-0.86024761199951172 -0.40337890386581421 -0.21759961545467377
-0.78161925077438354 -0.48924794793128967 -0.2204255610704422
-0.77627050876617432 -0.51235097646713257 -0.12807357311248779
-0.85694295167922974 -0.42890951037406921 -0.10767919570207596
0.048039540648460388 0.85947275161743164 -0.17213186621665955
0.054394729435443878 0.84782528877258301 -0.2279762327671051
-0.0025362651795148849 0.88600826263427734 -0.1421397477388382
0.039517328143119812 0.86677539348602295 -0.11438608169555664
0.093882188200950623 0.83375132083892822 -0.20329225063323975
0.10145850479602814 0.81532800197601318 -0.26179605722427368
0.0065230149775743484 0.87647092342376709 -0.19577613472938538
-0.013934580609202385 0.89097148180007935 -0.083971120417118073
0.088135488331317902 0.84388828277587891 -0.14683793485164642
-0.78478670120239258 -0.43104895949363708 -0.36817058920860291
-0.82321971654891968 -0.3869510293006897 -0.37358635663986206
-0.76602834463119507 -0.42324107885360718 -0.41394993662834167
-0.74798977375030518 -0.46960002183914185 -0.36526164412498474
-0.80096203088760376 -0.43582084774971008 -0.318794846534729
-0.83978694677352905 -0.39024803042411804 -0.32431912422180176
-0.8046303391456604 -0.38144168257713318 -0.41646626591682434
-0.72473686933517456 -0.46342873573303223 -0.41078132390975952
-0.76395785808563232 -0.4754810631275177 -0.31668075919151306
0.36327815055847168 0.081117540597915649 -0.085112109780311584
0.36845767498016357 0.023050751537084579 -0.084971405565738678
0.35215586423873901 0.086022883653640747 -0.17453566193580627
0.35725823044776917 0.13934779167175293 -0.083323933184146881
0.36993768811225891 0.079905137419700623 0.0032546878792345524
0.37953561544418335 0.020585048943758011 0.0077537205070257187
0.35399401187896729 0.029326584190130234 -0.17803081870079041
0.34892812371253967 0.1412721574306488 -0.17079010605812073
0.36012217402458191 0.14096070826053619 0.0060678767040371895
0.010125281289219856 -0.45969763398170471 0.027731582522392273
-0.014833712019026279 -0.47608700394630432 -0.060553267598152161
0.064686685800552368 -0.44186708331108093 0.020455505698919296
0.031115463003516197 -0.43891814351081848 0.11286423355340958
-0.044900845736265182 -0.47688040137290955 0.033996842801570892
-0.064105182886123657 -0.4916948676109314 -0.052654188126325607
0.034799866378307343 -0.45932522416114807 -0.071203179657459259
0.091198079288005829 -0.42062696814537048 0.11036696285009384
-0.029565159231424332 -0.4561532735824585 0.11987808346748352
0.36471644043922424 0.31981626152992249 -0.091107301414012909
0.36406713724136353 0.34027585387229919 -0.014969777315855026
0.35755112767219543 0.25963249802589417 -0.085525937378406525
0.36010643839836121 0.30469760298728943 -0.16407454013824463
0.37274408340454102 0.37642592191696167 -0.097942650318145752
0.37095817923545837 0.40610891580581665 -0.028096657246351242
0.35714128613471985 0.27215275168418884 -0.001341390423476696
0.3519929051399231 0.25105747580528259 -0.16517579555511475
0.37047553062438965 0.35510030388832092 -0.16425660252571106
-0.20717452466487885 -0.55781632661819458 0.035258620977401733
-0.15457254648208618 -0.52593499422073364 0.038186840713024139
-0.21636472642421722 -0.55066496133804321 0.10714436322450638
-0.25615629553794861 -0.58906960487365723 0.029612280428409576
-0.20413210988044739 -0.56110084056854248 -0.036586437374353409
-0.15953932702541351 -0.53358352184295654 -0.041027180850505829
-0.15413039922714233 -0.51222032308578491 0.11877472698688507
-0.27589157223701477 -0.58727383613586426 0.093002229928970337
-0.24522426724433899 -0.58993589878082275 -0.033467128872871399
0.33539697527885437 0.38252666592597961 0.22471946477890015
0.32468250393867493 0.38723409175872803 0.29686242341995239
0.3312164843082428 0.32242953777313232 0.24348205327987671
0.34769627451896667 0.37393724918365479 0.14550305902957916
0.33649754524230957 0.44293135404586792 0.21142484247684479
0.32453101873397827 0.44194278120994568 0.28518640995025635
0.32106655836105347 0.33177173137664795 0.31422051787376404
0.34225821495056152 0.30624791979789734 0.16598542034626007
0.35115030407905579 0.44194492697715759 0.12950839102268219
-0.24112087488174438 -0.50303840637207031 0.32670792937278748
-0.18165221810340881 -0.46497836709022522 0.3460584282875061
-0.24306681752204895 -0.48499265313148499 0.39330357313156128
-0.30120390653610229 -0.5371551513671875 0.3077874481678009
-0.23573444783687592 -0.52206367254257202 0.25432530045509338
-0.17025652527809143 -0.48041996359825134 0.27454468607902527
-0.18723131716251373 -0.44876006245613098 0.41160759329795837
-0.29903081059455872 -0.51653242111206055 0.37576353549957275
-0.30116870999336243 -0.56042307615280151 0.23369553685188293
0.32670396566390991 0.16442869603633881 0.33158111572265625
0.31590563058853149 0.17441397905349731 0.37008535861968994
0.33066925406455994 0.12563028931617737 0.36498191952705383
0.33806395530700684 0.14807917177677155 0.29070857167243958
0.32542774081230164 0.21141107380390167 0.29825994372367859
0.31521442532539368 0.22304023802280426 0.3514116108417511
0.31869015097618103 0.13432013988494873 0.39212161302566528
0.34348735213279724 0.11137068271636963 0.33580160140991211
0.33608549833297729 0.19167612493038177 0.24089094996452332
-0.011730468831956387 -0.35444337129592896 0.42146724462509155
0.035817258059978485 -0.32619220018386841 0.45033270120620728
-0.022082552313804626 -0.34390178322792053 0.45601004362106323
-0.065543726086616516 -0.38829544186592102 0.39335665106773376
0.004439452663064003 -0.36325940489768982 0.3842090368270874
0.052519500255584717 -0.33435305953025818 0.42452129721641541
0.024362144991755486 -0.31681767106056213 0.47374090552330017
-0.075123436748981476 -0.37583050131797791 0.44217720627784729
-0.048854738473892212 -0.39858955144882202 0.34028679132461548
0.37106889486312866 0.07387736439704895 0.19684605300426483
0.37868395447731018 0.048181656748056412 0.21749910712242126
0.3726184070110321 0.07651713490486145 0.15202783048152924
0.3619503378868103 0.097577095031738281 0.22018368542194366
0.36868166923522949 0.069755136966705322 0.26397368311882019
0.38477924466133118 0.032604459673166275 0.16132946312427521
0.35992527008056641 0.12184727191925049 0.16192133724689484
0.076314628124237061 -0.3773728609085083 0.29512760043144226
0.065490767359733582 -0.39370930194854736 0.25335633754730225
0.10892350971698761 -0.36461997032165527 0.31304159760475159
0.053745120763778687 -0.37442639470100403 0.31797721982002258
0.017954787239432335 -0.40204504132270813 0.26499015092849731
0.11497174203395844 -0.38021084666252136 0.25865349173545837
0.092881835997104645 -0.35241729021072388 0.35770630836486816
0.28951844573020935 0.15978814661502838 0.43615341186523438
0.28701534867286682 0.17516736686229706 0.43982520699501038
0.2874482274055481 0.13707418739795685 0.44354718923568726
0.29555061459541321 0.1689399927854538 0.42429408431053162
0.29507392644882202 0.20288071036338806 0.42273998260498047
0.28313556313514709 0.14749725162982941 0.45051214098930359
0.29618337750434875 0.13625018298625946 0.43203127384185791
-0.012555544264614582 -0.30352583527565002 0.51059877872467041
0.01080000214278698 -0.28714326024055481 0.5148003101348877
-0.029328728094696999 -0.31012263894081116 0.51513957977294922
-0.020205538719892502 -0.31537798047065735 0.50162410736083984
0.015142245218157768 -0.29465508460998535 0.5058901309967041
-0.0014530196785926819 -0.28896704316139221 0.52164566516876221
-0.055630974471569061 -0.33521661162376404 0.50333106517791748
0.1867339164018631 0.5504721999168396 -0.47244572639465332
0.21309870481491089 0.57476550340652466 -0.44481962919235229
0.22108371555805206 0.48013514280319214 -0.47375616431236267
0.15860578417778015 0.52646458148956299 -0.50078034400939941
0.14886248111724854 0.62305986881256104 -0.45630273222923279
0.17579947412014008 0.64660274982452393 -0.42539793252944946
0.24727252125740051 0.50683885812759399 -0.44835853576660156
0.19475769996643066 0.45032542943954468 -0.50212430953979492
0.11903546750545502 0.60212427377700806 -0.48543423414230347
-0.47961467504501343 -0.47720843553543091 -0.48058956861495972
-0.41587063670158386 -0.5010412335395813 -0.44584396481513977
-0.49357375502586365 -0.51491314172744751 -0.44759276509284973
-0.54530620574951172 -0.44882234930992126 -0.50431978702545166
-0.46603798866271973 -0.43710252642631531 -0.51471686363220215
-0.39862653613090515 -0.46386834979057312 -0.48022881150245667
-0.43073076009750366 -0.53739845752716064 -0.41337478160858154
-0.55969774723052979 -0.48888760805130005 -0.4699397087097168
-0.53346425294876099 -0.40567240118980408 -0.53840947151184082
0.06427484005689621 0.46478742361068726 -0.58420348167419434
0.01774262823164463 0.54713529348373413 -0.56443285942077637
0.097811833024024963 0.48525744676589966 -0.55659019947052002
0.10391022264957428 0.38496884703636169 -0.59227275848388672
0.027234559878706932 0.43805870413780212 -0.61280369758605957
-0.022965505719184875 0.52250653505325317 -0.5923999547958374
0.053892940282821655 0.56620311737060547 -0.53853726387023926
0.13638772070407867 0.40420600771903992 -0.56250202655792236
0.070430770516395569 0.35677507519721985 -0.62053489685058594
-0.43350547552108765 -0.30375498533248901 -0.61585414409637451
-0.44426703453063965 -0.35141631960868835 -0.58303797245025635
-0.50490230321884155 -0.26091682910919189 -0.63185322284698486
-0.41798985004425049 -0.24953487515449524 -0.64704787731170654
-0.36679494380950928 -0.34079143404960632 -0.59229552745819092
-0.37536624073982239 -0.38460168242454529 -0.55504190921783447
-0.51491481065750122 -0.31290885806083679 -0.60238826274871826
-0.49082523584365845 -0.20108611881732941 -0.66018080711364746
-0.35072624683380127 -0.29273727536201477 -0.62511289119720459
0.31006535887718201 0.33180251717567444 -0.36655896902084351
0.33259910345077515 0.30872896313667297 -0.30350875854492188
0.29514780640602112 0.2917170524597168 -0.38168454170227051
0.28300103545188904 0.36806520819664001 -0.41960585117340088
0.32959502935409546 0.3678935170173645 -0.35192379355430603
0.34898138046264648 0.3493368923664093 -0.29295435547828674
0.32076922059059143 0.26517227292060852 -0.31415042281150818
0.26364415884017944 0.32991853356361389 -0.44110479950904846
0.30583250522613525 0.40079471468925476 -0.40053069591522217
-0.26315271854400635 -0.54864645004272461 -0.26367801427841187
-0.23522922396659851 -0.5228458046913147 -0.28393524885177612
-0.23107905685901642 -0.55656957626342773 -0.18715669214725494
-0.28671768307685852 -0.57874828577041626 -0.24130465090274811
-0.30554658174514771 -0.53664255142211914 -0.3357473611831665
-0.2809312641620636 -0.50717371702194214 -0.36280280351638794
-0.19870467483997345 -0.53212165832519531 -0.20240966975688934
-0.25980675220489502 -0.585296630859375 -0.16993145644664764
-0.32522395253181458 -0.56918436288833618 -0.30834612250328064
0.28598350286483765 0.14348495006561279 -0.41185277700424194
0.28419286012649536 0.085771322250366211 -0.41927421092987061
0.25638604164123535 0.17139872908592224 -0.47369673848152161
0.28496226668357849 0.19748848676681519 -0.40444937348365784
0.31302961707115173 0.11761930584907532 -0.34053823351860046
0.31151077151298523 0.061162266880273819 -0.34778812527656555
0.25489199161529541 0.11228708922863007 -0.48066988587379456
0.25254008173942566 0.23028703033924103 -0.46834918856620789
0.31260770559310913 0.16991996765136719 -0.33280739188194275
-0.12094820290803909 -0.48079803586006165 -0.3158327043056488
-0.16002926230430603 -0.46788719296455383 -0.38924691081047058
-0.076562963426113129 -0.46740788221359253 -0.32605168223381042
-0.081462971866130829 -0.48717415332794189 -0.23498301208019257
-0.16349710524082184 -0.49083510041236877 -0.30870980024337769
-0.20656473934650421 -0.47495192289352417 -0.38792446255683899
-0.11499360203742981 -0.4552728533744812 -0.3967348039150238
-0.036960959434509277 -0.47282814979553223 -0.2469886839389801
-0.12358265370130539 -0.49909889698028564 -0.22525925934314728
0.1774444580078125 0.21786190569400787 -0.58337175846099854
0.16266065835952759 0.25651136040687561 -0.58956634998321533
0.19968882203102112 0.21064640581607819 -0.56196951866149902
0.16820152103900909 0.18635658919811249 -0.59666049480438232
0.1393028050661087 0.22803966701030731 -0.6121598482131958
0.18936000764369965 0.26588049530982971 -0.56057226657867432
0.1965399831533432 0.15938019752502441 -0.56970477104187012
-0.2275313138961792 -0.4047907292842865 -0.52960610389709473
-0.21561010181903839 -0.42763584852218628 -0.49941840767860413
-0.26035267114639282 -0.3942609429359436 -0.54521274566650391
-0.20633985102176666 -0.38939195871353149 -0.54354977607727051
-0.17738941311836243 -0.41506019234657288 -0.50547957420349121
-0.2599460780620575 -0.42514660954475403 -0.50752758979797363
-0.24409392476081848 -0.36182913184165955 -0.57325387001037598
0.16358466446399689 0.98616200685501099 -0.15142478048801422
0.15506827831268311 0.9903368353843689 -0.15741139650344849
0.16000406444072723 0.95290255546569824 -0.14478743076324463
0.17491750419139862 0.98076075315475464 -0.15368103981018066
0.17050759494304657 1.0218287706375122 -0.16050079464912415
0.16271603107452393 1.0281789302825928 -0.16631923615932465
0.1509518027305603 0.95509135723114014 -0.15087133646011353
0.17169970273971558 0.9494747519493103 -0.14686320722103119
0.18131120502948761 1.0142282247543335 -0.16302584111690521
-0.85280829668045044 -0.58807885646820068 -0.36840379238128662
-0.82810831069946289 -0.57711517810821533 -0.34288722276687622
-0.85747963190078735 -0.57822632789611816 -0.38203063607215881
-0.87802833318710327 -0.60259956121444702 -0.39662894606590271
-0.84549832344055176 -0.59934943914413452 -0.36050847172737122
-0.82215917110443115 -0.58911222219467163 -0.33607125282287598
-0.83148908615112305 -0.56639599800109863 -0.35552138090133667
-0.88408517837524414 -0.59386390447616577 -0.4112861156463623
-0.86924177408218384 -0.61293065547943115 -0.38760203123092651
0.21678087115287781 1.1417043209075928 -0.19935494661331177
0.19666922092437744 1.1014714241027832 -0.1846538633108139
0.22525292634963989 1.12746262550354 -0.20289722084999084
0.24198299646377563 1.1768609285354614 -0.2157411128282547
0.21157556772232056 1.1544374227523804 -0.20371292531490326
0.19053465127944946 1.1122128963470459 -0.18964852392673492
0.2060694694519043 1.0893257856369019 -0.18786607682704926
0.2492506206035614 1.1607913970947266 -0.21953146159648895
0.23788744211196899 1.1913247108459473 -0.21943064033985138
-0.95473307371139526 -0.67410790920257568 -0.48950979113578796
-0.94179624319076538 -0.68094485998153687 -0.47710847854614258
-0.9303901195526123 -0.64529114961624146 -0.45930695533752441
-0.96477752923965454 -0.6692497730255127 -0.5064995288848877
-0.97399657964706421 -0.70777332782745361 -0.51392507553100586
-0.96005231142044067 -0.71299898624420166 -0.50088596343994141
-0.9187014102935791 -0.65342968702316284 -0.44791936874389648
-0.93920439481735229 -0.63905644416809082 -0.47575703263282776
-0.98508375883102417 -0.70453101396560669 -0.53104245662689209
0.34882226586341858 1.2161123752593994 -0.27486854791641235
0.30886220932006836 1.2158876657485962 -0.25336703658103943
0.35014680027961731 1.1972693204879761 -0.27833887934684753
0.39043548703193665 1.2039706707000732 -0.29857403039932251
0.34978470206260681 1.2333172559738159 -0.27729597687721252
0.30787751078605652 1.232658863067627 -0.25598347187042236
0.31251785159111023 1.1974278688430786 -0.25719326734542847
0.38930618762969971 1.1853699684143066 -0.30132070183753967
0.39341965317726135 1.2210602760314941 -0.30121687054634094
-0.97586250305175781 -0.83442193269729614 -0.52091026306152344
-0.96108764410018921 -0.83204787969589233 -0.50980699062347412
-0.98572498559951782 -0.78925269842147827 -0.5302969217300415
-0.98830902576446533 -0.83827298879623413 -0.53498733043670654
-0.95626604557037354 -0.87914752960205078 -0.50304603576660156
-0.94211798906326294 -0.87379509210586548 -0.49359598755836487
-0.97080188989639282 -0.78980857133865356 -0.51790893077850342
-0.99806821346282959 -0.79042136669158936 -0.54591190814971924
-0.96840953826904297 -0.88570022583007812 -0.51536047458648682
0.50522589683532715 1.0988174676895142 -0.38216102123260498
0.4705435037612915 1.1440625190734863 -0.35384052991867065
0.49762448668479919 1.0851733684539795 -0.37999412417411804
0.53393757343292236 1.0462473630905151 -0.40620744228363037
0.51339763402938843 1.1118661165237427 -0.38876816630363464
0.47724226117134094 1.159075140953064 -0.35863062739372253
0.46482476592063904 1.1280786991119385 -0.35368353128433228
0.52483999729156494 1.0354979038238525 -0.40200409293174744
0.54321980476379395 1.0567806959152222 -0.41480246186256409
-0.84605699777603149 -0.9859386682510376 -0.42100244760513306
-0.83695346117019653 -0.97376221418380737 -0.41685312986373901
-0.89011842012405396 -0.95708537101745605 -0.45160207152366638
-0.85452282428741455 -0.99858003854751587 -0.4287114143371582
-0.79723858833312988 -1.0056346654891968 -0.38788795471191406
-0.79070556163787842 -0.99233603477478027 -0.38530087471008301
-0.87883037328720093 -0.94666135311126709 -0.44575521349906921
-0.90026628971099854 -0.96818697452545166 -0.46060982346534729
-0.80363863706588745 -1.0192180871963501 -0.39455908536911011
0.56928926706314087 0.86575263738632202 -0.42134898900985718
0.56627881526947021 0.92774307727813721 -0.42728382349014282
0.55869114398956299 0.86594456434249878 -0.41323468089103699
0.56509095430374146 0.80432963371276855 -0.40521255135536194
0.57910835742950439 0.86610239744186401 -0.4346347451210022
0.57637321949005127 0.93178915977478027 -0.43938040733337402
0.5556827187538147 0.92405426502227783 -0.4199584424495697
0.55488055944442749 0.80838662385940552 -0.39687389135360718
0.57431471347808838 0.80097919702529907 -0.41919943690299988
-0.64068830013275146 -0.99517959356307983 -0.27851063013076782
-0.64326322078704834 -0.98291319608688354 -0.27942276000976562
-0.69303804636001587 -1.0103074312210083 -0.31632295250892639
-0.63920021057128906 -1.0074092149734497 -0.28369820117950439
-0.58964830636978149 -0.97068250179290771 -0.23946061730384827
-0.59536820650100708 -0.96003270149230957 -0.24124808609485626
-0.69244515895843506 -0.9969826340675354 -0.3162580132484436
-0.69436568021774292 -1.0236552953720093 -0.32177773118019104
-0.5853385329246521 -0.98131555318832397 -0.24446180462837219
0.52081197500228882 0.64002668857574463 -0.30635759234428406
0.53975945711135864 0.69035440683364868 -0.34467637538909912
0.51331609487533569 0.65405052900314331 -0.30080980062484741
0.49902787804603577 0.59471589326858521 -0.27000060677528381
0.52726370096206665 0.62746888399124146 -0.31905186176300049
0.54724746942520142 0.68050044775009155 -0.35827437043190002
0.53116327524185181 0.70135176181793213 -0.33773061633110046
0.49277034401893616 0.61165124177932739 -0.26597517728805542
0.50433355569839478 0.57965290546417236 -0.28167760372161865
-0.45518574118614197 -0.85870581865310669 -0.11964625120162964
-0.46923673152923584 -0.85511165857315063 -0.12395432591438293
-0.49592098593711853 -0.90039998292922974 -0.15799583494663239
-0.4435635507106781 -0.86300718784332275 -0.12371760606765747
-0.4196661114692688 -0.81582176685333252 -0.088189378380775452
-0.436158686876297 -0.81496220827102661 -0.093170858919620514
-0.5074048638343811 -0.89419639110565186 -0.16149029135704041
-0.48650082945823669 -0.90697449445724487 -0.1624256819486618
-0.4060109555721283 -0.81775319576263428 -0.092033937573432922
0.49487319588661194 0.69356822967529297 -0.31720492243766785
0.50968611240386963 0.73272913694381714 -0.3498365581035614
0.49103906750679016 0.70357340574264526 -0.32955086231231689
0.47817131876945496 0.65886425971984863 -0.28710871934890747
0.49981012940406799 0.68166255950927734 -0.30738821625709534
0.51551657915115356 0.72318500280380249 -0.34128487110137939
0.50518691539764404 0.74083459377288818 -0.3611445426940918
0.47534725069999695 0.67059093713760376 -0.30061405897140503
0.48188266158103943 0.6447833776473999 -0.27587407827377319
-0.51085799932479858 -0.85219299793243408 -0.16666786372661591
-0.52177035808563232 -0.85330432653427124 -0.18521577119827271
-0.54201596975326538 -0.88397753238677979 -0.20131908357143402
-0.49813345074653625 -0.85184282064437866 -0.14927180111408234
-0.48412996530532837 -0.81998860836029053 -0.1382458359003067
-0.49642917513847351 -0.82305651903152466 -0.15739336609840393
-0.55126112699508667 -0.88339948654174805 -0.21905854344367981
-0.53132855892181396 -0.88577353954315186 -0.18482221662998199
-0.469646155834198 -0.81723511219024658 -0.12014287710189819
0.53332436084747314 0.87002700567245483 -0.41817757487297058
0.531238853931427 0.91859638690948486 -0.42521306872367859
0.52851605415344238 0.87216103076934814 -0.42695075273513794
0.52983343601226807 0.82195025682449341 -0.40299385786056519
0.54003775119781494 0.868152916431427 -0.41223406791687012
0.53753727674484253 0.91935074329376221 -0.41945120692253113
0.52693748474121094 0.9187237024307251 -0.43363299965858459
0.52485054731369019 0.82607865333557129 -0.41246065497398376
0.53656744956970215 0.81746369600296021 -0.3964468240737915
-0.65400344133377075 -0.95704001188278198 -0.30763301253318787
-0.65762418508529663 -0.95324027538299561 -0.32143977284431458
-0.69470763206481934 -0.96883529424667358 -0.33973565697669983
-0.6502302885055542 -0.96323508024215698 -0.29517307877540588
-0.61441713571548462 -0.93808645009994507 -0.27379408478736877
-0.61996203660964966 -0.93501609563827515 -0.28913822770118713
-0.69634175300598145 -0.96471959352493286 -0.35189059376716614
-0.6933860182762146 -0.97559165954589844 -0.32896628975868225
-0.60825836658477783 -0.94321584701538086 -0.25977900624275208
0.48489746451377869 1.0533052682876587 -0.39629775285720825
0.45847171545028687 1.0892744064331055 -0.37563487887382507
0.48439380526542664 1.0473846197128296 -0.4068082869052887
0.50677037239074707 1.0117542743682861 -0.4131806492805481
0.48716273903846741 1.0616593360900879 -0.38769581913948059
0.45865112543106079 1.0997486114501953 -0.36532226204872131
0.45982196927070618 1.0815702676773071 -0.3876098096370697
0.50464534759521484 1.0078041553497314 -0.42248979210853577
0.51082015037536621 1.017699122428894 -0.40604454278945923
-0.81432867050170898 -0.9508354663848877 -0.42438045144081116
-0.80962181091308594 -0.94861805438995361 -0.43172204494476318
-0.84901785850524902 -0.92905527353286743 -0.44791647791862488
-0.82055157423019409 -0.95567178726196289 -0.41895231604576111
-0.77604687213897705 -0.96567714214324951 -0.39830803871154785
-0.77347445487976074 -0.96237218379974365 -0.40716925263404846
-0.84228670597076416 -0.9282652735710144 -0.4538763165473938
-0.85754650831222534 -0.93222159147262573 -0.44415292143821716
-0.7797849178314209 -0.9717402458190918 -0.39111492037773132
0.36586138606071472 1.1481142044067383 -0.31417366862297058
0.33514863252639771 1.1484837532043457 -0.29606661200523376
0.37324368953704834 1.137158989906311 -0.33048024773597717
0.39756676554679871 1.1377761363983154 -0.33335837721824646
0.35908636450767517 1.162102222442627 -0.2991466224193573
0.32625532150268555 1.1625781059265137 -0.27983766794204712
0.34433707594871521 1.137297511100769 -0.31356468796730042
0.40296310186386108 1.1274912357330322 -0.34833240509033203
0.39310282468795776 1.1511276960372925 -0.31972420215606689
-0.91743278503417969 -0.83659207820892334 -0.49886283278465271
-0.90619063377380371 -0.84116232395172119 -0.50193345546722412
-0.92542344331741333 -0.80197638273239136 -0.50481021404266357
-0.93076711893081665 -0.83320683240890503 -0.49877932667732239
-0.90162676572799683 -0.87040144205093384 -0.48620155453681946
-0.8915601372718811 -0.87311720848083496 -0.48995786905288696
-0.9133840799331665 -0.80828434228897095 -0.507607102394104
-0.93949747085571289 -0.79641443490982056 -0.50518083572387695
-0.91377639770507812 -0.86931478977203369 -0.48520120978355408
0.26134470105171204 1.088569164276123 -0.2468140721321106
0.24433413147926331 1.0558598041534424 -0.23221665620803833
0.27388569712638855 1.0793770551681519 -0.26683536171913147
0.28218209743499756 1.1172311305999756 -0.26240691542625427
0.24844324588775635 1.099967360496521 -0.22823995351791382
0.23084315657615662 1.0656955242156982 -0.21331383287906647
0.25732746720314026 1.0479209423065186 -0.25265899300575256
0.29397696256637573 1.1069865226745605 -0.2817828357219696
0.27019301056861877 1.1299554109573364 -0.24439486861228943
-0.89950531721115112 -0.70857787132263184 -0.46906062960624695
-0.88758760690689087 -0.71824061870574951 -0.47416800260543823
-0.87950021028518677 -0.68387436866760254 -0.44411000609397888
-0.91305273771286011 -0.69872230291366577 -0.46721580624580383
-0.91550672054290771 -0.73687064647674561 -0.4893869161605835
-0.90316170454025269 -0.74575799703598022 -0.49326667189598083
-0.86826121807098389 -0.69406032562255859 -0.45059627294540405
-0.89217817783355713 -0.67329496145248413 -0.44079315662384033
-0.92964506149291992 -0.72803044319152832 -0.48881071805953979
0.21614953875541687 0.96418219804763794 -0.1961175799369812
0.20211261510848999 0.9692503809928894 -0.1776510626077652
0.21320429444313049 0.93787801265716553 -0.18805506825447083
0.22935158014297485 0.95996969938278198 -0.21632824838161469
0.2219734787940979 0.99222034215927124 -0.20653006434440613
0.20797920227050781 0.99880892038345337 -0.18770276010036469
0.19919188320636749 0.94151747226715088 -0.17009775340557098
0.22628846764564514 0.93478018045425415 -0.20776574313640594
0.23523777723312378 0.98683661222457886 -0.2270573228597641
-0.81773817539215088 -0.63554203510284424 -0.36757749319076538
-0.798187255859375 -0.6267019510269165 -0.34555381536483765
-0.82711219787597656 -0.6236688494682312 -0.36084052920341492
-0.83754944801330566 -0.64747881889343262 -0.39169043302536011
-0.8091278076171875 -0.64648264646530151 -0.37707251310348511
-0.79051703214645386 -0.63782763481140137 -0.35549545288085938
-0.80641728639602661 -0.61449557542800903 -0.33820921182632446
-0.8480713963508606 -0.63595926761627197 -0.38581386208534241
-0.82802265882492065 -0.65824073553085327 -0.40047371387481689
0.37546324729919434 0.49145698547363281 -0.1310780942440033
0.37897312641143799 0.46314775943756104 -0.11808550357818604
0.38159045577049255 0.47300541400909424 -0.1664741039276123
0.36939612030982971 0.5125812292098999 -0.14469769597053528
0.36679297685623169 0.52159702777862549 -0.092470735311508179
0.37272566556930542 0.49815130233764648 -0.067702941596508026
0.38268572092056274 0.43996468186378479 -0.16431814432144165
0.37687918543815613 0.49996250867843628 -0.17446544766426086
0.35920870304107666 0.53722453117370605 -0.11331453174352646
-0.3615444004535675 -0.64108377695083618 -0.014495538547635078
-0.34597375988960266 -0.64471518993377686 -0.041976839303970337
-0.3338300883769989 -0.63187652826309204 0.0044655269011855125
-0.38867872953414917 -0.63982510566711426 0.01153053343296051
-0.38368570804595947 -0.64496982097625732 -0.035093970596790314
-0.3721260130405426 -0.6510503888130188 -0.05710197240114212
-0.3161797821521759 -0.63333356380462646 -0.0345647893846035
-0.36312839388847351 -0.63278478384017944 0.043584197759628296
-0.40720593929290771 -0.64130735397338867 -0.01658518984913826
0.42741149663925171 0.49390387535095215 -0.21613010764122009
0.42872431874275208 0.47014492750167847 -0.22610688209533691
0.45099687576293945 0.52086567878723145 -0.2251579761505127
0.42476227879524231 0.52010089159011841 -0.21559885144233704
0.40630850195884705 0.47510898113250732 -0.20797796547412872
0.40629345178604126 0.44501370191574097 -0.21716734766960144
0.45369255542755127 0.50089061260223389 -0.23554323613643646
0.44745513796806335 0.54383015632629395 -0.22352422773838043
0.40352356433868408 0.50465703010559082 -0.20914448797702789
-0.35178422927856445 -0.7025187611579895 -0.063964813947677612
-0.36765497922897339 -0.73602771759033203 -0.061869457364082336
-0.33144345879554749 -0.69676417112350464 -0.068579018115997314
-0.34236997365951538 -0.67462342977523804 -0.066872075200080872
-0.37566220760345459 -0.70927375555038452 -0.070162460207939148
-0.38890638947486877 -0.74060475826263428 -0.067438304424285889
-0.35024559497833252 -0.73311865329742432 -0.066199183464050293
-0.31684675812721252 -0.66517740488052368 -0.071043521165847778
-0.36936736106872559 -0.68263459205627441 -0.074985302984714508
0.28566411137580872 0.67025077342987061 0.0068266014568507671
0.29410073161125183 0.65931397676467896 0.042197857052087784
0.32315459847450256 0.61472624540328979 -0.023493506014347076
0.27651920914649963 0.676979660987854 -0.023550413548946381
0.24058946967124939 0.72253245115280151 0.040261048823595047
0.25037127733230591 0.71030986309051514 0.074646808207035065
0.3312913179397583 0.60101407766342163 0.012731177732348442
0.31414690613746643 0.62228101491928101 -0.052983913570642471
0.2306843101978302 0.73227030038833618 0.0084728095680475235
-0.55106127262115479 -0.61956489086151123 0.015843646600842476
-0.48594704270362854 -0.63115584850311279 0.026453843340277672
-0.53667604923248291 -0.62102514505386353 0.060517091304063797
-0.61769843101501465 -0.60198730230331421 0.0047648446634411812
-0.56143426895141602 -0.61499977111816406 -0.022784769535064697
-0.4978630542755127 -0.62833434343338013 -0.010659735649824142
-0.46808597445487976 -0.62958800792694092 0.071402944624423981
-0.60277414321899414 -0.60590732097625732 0.050542522221803665
-0.6298363208770752 -0.59603452682495117 -0.037489514797925949
0.16343817114830017 0.86588358879089355 -0.14016710221767426
0.16702403128147125 0.8426479697227478 -0.13873489201068878
0.17538110911846161 0.86547559499740601 -0.14332777261734009
0.16058412194252014 0.89251583814620972 -0.14013361930847168
0.1534247100353241 0.86507385969161987 -0.14522281289100647
0.15398779511451721 0.84342026710510254 -0.13951335847377777
0.17992009222507477 0.84132885932922363 -0.14469636976718903
0.17234854400157928 0.89182639122009277 -0.14224702119827271
0.15138264000415802 0.89183259010314941 -0.14648252725601196
-0.75742161273956299 -0.5587044358253479 -0.28526198863983154
-0.75344830751419067 -0.57117718458175659 -0.28161844611167908
-0.73750478029251099 -0.55627530813217163 -0.2690635621547699
-0.75924181938171387 -0.54704540967941284 -0.29534447193145752
-0.77990299463272095 -0.56288051605224609 -0.30188736319541931
-0.77593421936035156 -0.57536029815673828 -0.29700213670730591
-0.73216676712036133 -0.56899833679199219 -0.26738527417182922
-0.74212551116943359 -0.54276520013809204 -0.27709850668907166
-0.78129112720489502 -0.55167132616043091 -0.31300854682922363
0.42589884996414185 0.58729410171508789 -0.25247147679328918
0.44291236996650696 0.60530328750610352 -0.25423142313957214
0.4285351037979126 0.60236257314682007 -0.27050772309303284
0.41008174419403076 0.57543951272964478 -0.25528484582901001
0.42359042167663574 0.56836992502212524 -0.2357911616563797
0.44305959343910217 0.58764165639877319 -0.23978057503700256
0.44333323836326599 0.61958217620849609 -0.27055168151855469
0.41524231433868408 0.59103453159332275 -0.27528226375579834
0.40475305914878845 0.55571728944778442 -0.23536726832389832
-0.43737292289733887 -0.73943710327148438 -0.12093284726142883
-0.45115703344345093 -0.74975740909576416 -0.14108510315418243
-0.44716650247573853 -0.76252996921539307 -0.11560510843992233
-0.42019018530845642 -0.72820949554443359 -0.1012355163693428
-0.43288892507553101 -0.72024869918823242 -0.13158319890499115
-0.44635042548179626 -0.73338049650192261 -0.15208345651626587
-0.4609210193157196 -0.77022248506546021 -0.13548387587070465
-0.43038031458854675 -0.75438612699508667 -0.09656938910484314
-0.41588208079338074 -0.70549356937408447 -0.11054576188325882
0.37645557522773743 0.57853454351425171 -0.2625465989112854
0.36773675680160522 0.58819311857223511 -0.26269620656967163
0.36478081345558167 0.56376659870147705 -0.23946131765842438
0.38556355237960815 0.5718543529510498 -0.26165246963500977
0.38797405362129211 0.59318667650222778 -0.28451260924339294
0.38096705079078674 0.60223764181137085 -0.28413888812065125
0.35354474186897278 0.57536917924880981 -0.23938718438148499
0.37560763955116272 0.5544896125793457 -0.23838090896606445
0.39526647329330444 0.58716273307800293 -0.28376862406730652
-0.44775375723838806 -0.68899160623550415 -0.16225050389766693
-0.43725821375846863 -0.66969650983810425 -0.14284311234951019
-0.45893460512161255 -0.68340009450912476 -0.17069610953330994
-0.45812764763832092 -0.70797830820083618 -0.18067517876625061
-0.4388408362865448 -0.69571787118911743 -0.15361873805522919
-0.4253997802734375 -0.67708152532577515 -0.13253381848335266
-0.45106402039527893 -0.66239500045776367 -0.1530606746673584
-0.46808761358261108 -0.70371609926223755 -0.18748356401920319
-0.45049300789833069 -0.71325886249542236 -0.17335605621337891
0.34044274687767029 0.62146919965744019 -0.27252611517906189
0.32656082510948181 0.61551475524902344 -0.26028341054916382
0.34954226016998291 0.61085724830627441 -0.26720428466796875
0.35297632217407227 0.63123816251754761 -0.28497412800788879
0.33248710632324219 0.63026934862136841 -0.2790294885635376
0.32046094536781311 0.62605184316635132 -0.27079546451568604
0.33399835228919983 0.60245519876480103 -0.24956265091896057
0.36327353119850159 0.62258350849151611 -0.28368240594863892
0.34374150633811951 0.63764166831970215 -0.2878953218460083
-0.4962998628616333 -0.66655606031417847 -0.2080456018447876
-0.48424777388572693 -0.67231309413909912 -0.19355690479278564
-0.49495169520378113 -0.64926278591156006 -0.20300845801830292
-0.50645887851715088 -0.66141223907470703 -0.22249989211559296
-0.50136339664459229 -0.68375164270401001 -0.21542394161224365
-0.49083468317985535 -0.69174128770828247 -0.20466446876525879
-0.48106113076210022 -0.65208810567855835 -0.18355143070220947
-0.50618714094161987 -0.64688128232955933 -0.22074092924594879
-0.50969874858856201 -0.67622768878936768 -0.2264455258846283
0.2845156192779541 0.66040140390396118 -0.23177291452884674
0.27196699380874634 0.69016057252883911 -0.22444279491901398
0.28161898255348206 0.65488439798355103 -0.2111726850271225
0.29802048206329346 0.6348763108253479 -0.23978765308856964
0.28717628121376038 0.66712498664855957 -0.24913403391838074
0.27763375639915466 0.6946789026260376 -0.24230757355690002
0.26540592312812805 0.68791896104812622 -0.20302003622055054
0.29923313856124878 0.62460929155349731 -0.22087012231349945
0.29743441939353943 0.64412885904312134 -0.25599706172943115
-0.5454363226890564 -0.61877608299255371 -0.21683673560619354
-0.54152882099151611 -0.61380314826965332 -0.19632729887962341
-0.57461726665496826 -0.61526137590408325 -0.22782526910305023
-0.5505143404006958 -0.62400645017623901 -0.23486532270908356
-0.51960992813110352 -0.6247372031211853 -0.20756076276302338
-0.51006060838699341 -0.62202388048171997 -0.18476346135139465
-0.5749586820602417 -0.60802125930786133 -0.20968550443649292
-0.57666683197021484 -0.62258434295654297 -0.24395093321800232
-0.52803832292556763 -0.62768650054931641 -0.22713305056095123
0.24131107330322266 0.7717512845993042 -0.20312295854091644
0.22856861352920532 0.77198177576065063 -0.18407893180847168
0.25031256675720215 0.74725073575973511 -0.21018210053443909
0.25256538391113281 0.77331912517547607 -0.22033806145191193
0.23347181081771851 0.79482311010360718 -0.19648656249046326
0.22005721926689148 0.79458510875701904 -0.17891527712345123
0.23880141973495483 0.74760156869888306 -0.18973517417907715
0.26032990217208862 0.74921500682830811 -0.22779908776283264
0.24550926685333252 0.79622352123260498 -0.2133522629737854
-0.65319842100143433 -0.60922408103942871 -0.25718837976455688
-0.62974917888641357 -0.61093252897262573 -0.24848449230194092
-0.65800654888153076 -0.5970032811164856 -0.24551570415496826
-0.67499828338623047 -0.6081739068031311 -0.26567333936691284
-0.65055471658706665 -0.6207459568977356 -0.26867681741714478
-0.6279289722442627 -0.62144637107849121 -0.26116237044334412
-0.63422983884811401 -0.59996604919433594 -0.23486842215061188
-0.6796191930770874 -0.59509944915771484 -0.25560316443443298
-0.67188781499862671 -0.62033426761627197 -0.27632209658622742
0.21676518023014069 0.8640407919883728 -0.18228764832019806
0.20280022919178009 0.86422276496887207 -0.1660914272069931
0.22112509608268738 0.84048175811767578 -0.18562088906764984
0.22963392734527588 0.86396723985671997 -0.19988870620727539
0.21386636793613434 0.88811266422271729 -0.18117314577102661
0.19989295303821564 0.88924837112426758 -0.16447566449642181
0.20722448825836182 0.84004837274551392 -0.16957731544971466
0.23387205600738525 0.84116268157958984 -0.20265461504459381
0.22678723931312561 0.88711291551589966 -0.19949500262737274
-0.73775863647460938 -0.611427903175354 -0.29616081714630127
-0.71693038940429688 -0.60910594463348389 -0.28457969427108765
-0.74299347400665283 -0.59805554151535034 -0.28816702961921692
-0.75832802057266235 -0.61508536338806152 -0.30984267592430115
-0.73286694288253784 -0.62355291843414307 -0.30619245767593384
-0.7128138542175293 -0.62150239944458008 -0.29457199573516846
-0.72156995534896851 -0.59551542997360229 -0.27630358934402466
-0.76442235708236694 -0.60209256410598755 -0.30197364091873169
-0.75254994630813599 -0.62683141231536865 -0.31997162103652954
0.18517524003982544 0.79415994882583618 -0.11235693842172623
0.19764542579650879 0.7758374810218811 -0.10336232930421829
0.20155298709869385 0.78286439180374146 -0.1391969621181488
0.17700083553791046 0.80860459804534912 -0.12384146451950073
0.16310018301010132 0.80853617191314697 -0.081684611737728119
0.17610567808151245 0.79432451725006104 -0.06264563649892807
0.21351282298564911 0.76144903898239136 -0.13731056451797485
0.192625492811203 0.80131608247756958 -0.14237892627716064
0.15678364038467407 0.81769156455993652 -0.10544979572296143
-0.69435471296310425 -0.56508719921112061 -0.20815066993236542
-0.67777663469314575 -0.57561075687408447 -0.22084169089794159
-0.67558103799819946 -0.57321363687515259 -0.18457579612731934
-0.71633148193359375 -0.55116218328475952 -0.19589847326278687
-0.7079157829284668 -0.55931574106216431 -0.23083646595478058
-0.69557929039001465 -0.57128512859344482 -0.23752285540103912
-0.65618449449539185 -0.58165925741195679 -0.20320834219455719
-0.70148205757141113 -0.56210476160049438 -0.16382920742034912
