# XYZ point cloud file
-0.8581855297088623 -0.17884291708469391 0.52005398273468018
-0.88068276643753052 -0.13952814042568207 0.55979609489440918
-0.87556523084640503 -0.096309930086135864 0.54454362392425537
-0.8477141261100769 -0.12736997008323669 0.51170039176940918
-0.83652818202972412 -0.16839256882667542 0.49728789925575256
-0.87058383226394653 -0.18341311812400818 0.5479743480682373
-0.88728773593902588 -0.098694294691085815 0.57178068161010742
-0.85641235113143921 -0.092002332210540771 0.52482664585113525
-0.21312575042247772 0.66025447845458984 0.66623055934906006
-0.21951155364513397 0.65989398956298828 0.69946444034576416
-0.16097895801067352 0.6948663592338562 0.65491342544555664
-0.20559057593345642 0.65732371807098389 0.6302725076675415
-0.26905295252799988 0.62470048666000366 0.67737507820129395
-0.27680739760398865 0.62446486949920654 0.71024513244628906
-0.16577208042144775 0.69521582126617432 0.68836295604705811
-0.15495413541793823 0.69205951690673828 0.61820030212402344
-0.26076596975326538 0.61900144815444946 0.6424335241317749
-0.84228098392486572 -0.32308369874954224 0.47778570652008057
-0.8425329327583313 -0.37008324265480042 0.46383452415466309
-0.85147213935852051 -0.32787555456161499 0.50800991058349609
-0.84384334087371826 -0.27394509315490723 0.49250364303588867
-0.82855737209320068 -0.31626603007316589 0.44713914394378662
-0.8302188515663147 -0.36299267411231995 0.43207433819770813
-0.85105091333389282 -0.37559610605239868 0.4943198561668396
-0.8544621467590332 -0.27871027588844299 0.52203738689422607
-0.82644152641296387 -0.26531204581260681 0.46418967843055725
-0.0358867347240448 0.7802392840385437 0.62409520149230957
-0.037142559885978699 0.7830960750579834 0.6566627025604248
0.0021735019981861115 0.79586422443389893 0.60829401016235352
-0.034620776772499084 0.77384108304977417 0.58786940574645996
-0.073432981967926025 0.75662034749984741 0.63502109050750732
-0.0755653977394104 0.75883936882019043 0.66816318035125732
0.0016334131360054016 0.79915571212768555 0.6400378942489624
0.0021038725972175598 0.7887418270111084 0.57302522659301758
-0.070751741528511047 0.75132495164871216 0.5981595516204834
-0.84703594446182251 -0.48642420768737793 0.43253439664840698
-0.8384854793548584 -0.51653766632080078 0.42545413970947266
-0.85488218069076538 -0.49389168620109558 0.46202731132507324
-0.84740817546844482 -0.45223748683929443 0.44104254245758057
-0.83503001928329468 -0.47599306702613831 0.40153071284294128
-0.82698768377304077 -0.50554823875427246 0.39508289098739624
-0.84595602750778198 -0.52409493923187256 0.45430737733840942
-0.8554806113243103 -0.45933181047439575 0.47107923030853271
-0.83528751134872437 -0.44272664189338684 0.40940922498703003
0.14632827043533325 0.77491086721420288 0.50944006443023682
0.14791198074817657 0.77833229303359985 0.53769028186798096
0.19716416299343109 0.7462502121925354 0.470878005027771
0.14225795865058899 0.76949602365493774 0.47764414548873901
0.093825772404670715 0.79367554187774658 0.54939818382263184
0.094672292470932007 0.79720789194107056 0.57884299755096436
0.19945837557315826 0.74952751398086548 0.4982474148273468
0.19203738868236542 0.74219191074371338 0.43966382741928101
0.091048449277877808 0.78709280490875244 0.51654374599456787
-0.72554534673690796 -0.58422279357910156 0.41133099794387817
-0.66416299343109131 -0.59558975696563721 0.41304883360862732
-0.73010873794555664 -0.59038996696472168 0.43860024213790894
-0.77794253826141357 -0.56610649824142456 0.41409021615982056
-0.72007429599761963 -0.57476979494094849 0.38040617108345032
-0.66153478622436523 -0.58759748935699463 0.38099446892738342
-0.66739892959594727 -0.60092383623123169 0.44028180837631226
-0.78375303745269775 -0.57297545671463013 0.44172516465187073
-0.76977330446243286 -0.55559533834457397 0.38386660814285278
0.29994067549705505 0.61586833000183105 0.41682937741279602
0.30380964279174805 0.61918121576309204 0.4452839195728302
0.31664097309112549 0.56425338983535767 0.41757231950759888
0.29419431090354919 0.61430013179779053 0.382558673620224
0.27549147605895996 0.66490119695663452 0.42315506935119629
0.27895480394363403 0.66813462972640991 0.45072826743125916
0.32077890634536743 0.56756472587585449 0.44680881500244141
0.31123799085617065 0.56284970045089722 0.38185903429985046
0.2695496678352356 0.66288423538208008 0.39053180813789368
-0.46623003482818604 -0.57569205760955811 0.45872434973716736
-0.40283411741256714 -0.55415207147598267 0.48137965798377991
-0.46628451347351074 -0.5784568190574646 0.4885161817073822
-0.53173220157623291 -0.59115540981292725 0.43750658631324768
-0.46943342685699463 -0.57336330413818359 0.4217035174369812
-0.40691950917243958 -0.55355864763259888 0.44318625330924988
-0.40208601951599121 -0.55608487129211426 0.51206886768341064
-0.53267335891723633 -0.59475535154342651 0.46614491939544678
-0.53359311819076538 -0.58688080310821533 0.40216836333274841
0.3343864381313324 0.41305798292160034 0.43177273869514465
0.33836761116981506 0.4151703417301178 0.45885485410690308
0.33155277371406555 0.36368775367736816 0.43879905343055725
0.32928115129470825 0.41068083047866821 0.39871940016746521
0.33298671245574951 0.46224749088287354 0.42639896273612976
0.33719345927238464 0.4648614227771759 0.45505061745643616
0.33511283993721008 0.36560490727424622 0.46380406618118286
0.32639342546463013 0.35960540175437927 0.40987634658813477
0.32793846726417542 0.46061015129089355 0.39091837406158447
-0.23504301905632019 -0.4710979163646698 0.52847492694854736
-0.18492861092090607 -0.43803000450134277 0.53676486015319824
-0.23210583627223969 -0.47057998180389404 0.55685889720916748
-0.28724479675292969 -0.50110125541687012 0.51732814311981201
-0.23943257331848145 -0.47239953279495239 0.49361485242843628
-0.18749333918094635 -0.43811440467834473 0.50603878498077393
-0.18197409808635712 -0.43703112006187439 0.56291675567626953
-0.28488317131996155 -0.50132787227630615 0.54738855361938477
-0.29213899374008179 -0.50254082679748535 0.47994071245193481
0.48234975337982178 -0.17166270315647125 0.27401486039161682
0.46969553828239441 -0.20600549876689911 0.28150835633277893
0.4602682888507843 -0.16070133447647095 0.25725987553596497
0.49143022298812866 -0.136847123503685 0.27026262879371643
0.51032000780105591 -0.18523791432380676 0.28778252005577087
0.49777203798294067 -0.21758380532264709 0.29413491487503052
0.44743192195892334 -0.19733433425426483 0.26608461141586304
0.46874213218688965 -0.12402257323265076 0.2529093325138092
0.51999413967132568 -0.15200419723987579 0.28454366326332092
0.40312215685844421 -0.29407835006713867 0.31496110558509827
0.3752003014087677 -0.2921847403049469 0.29926925897598267
0.42956840991973877 -0.26800534129142761 0.3023112416267395
0.4362671971321106 -0.2996094822883606 0.32837238907814026
0.37515541911125183 -0.31651389598846436 0.3300347626209259
0.34482690691947937 -0.31555840373039246 0.31370636820793152
0.40416029095649719 -0.2642136812210083 0.28753307461738586
0.46043819189071655 -0.2752416729927063 0.3146548867225647
0.41045016050338745 -0.32119536399841309 0.34429943561553955
0.63485962152481079 -0.23848147690296173 0.30667722225189209
0.62266677618026733 -0.26884004473686218 0.31381610035896301
0.58726722002029419 -0.21944542229175568 0.30341961979866028
0.64500492811203003 -0.20648269355297089 0.30137118697166443
0.68557143211364746 -0.25694179534912109 0.30972689390182495
0.67341798543930054 -0.28762677311897278 0.31855741143226624
0.57495206594467163 -0.24979197978973389 0.30948558449745178
0.59747862815856934 -0.187596395611763 0.29953756928443909
0.69562047719955444 -0.2246013730764389 0.30237352848052979
0.56636655330657959 -0.34406152367591858 0.35355228185653687
0.51869869232177734 -0.32521578669548035 0.3469356894493103
0.58844846487045288 -0.32158493995666504 0.33731266856193542
0.61601608991622925 -0.36408191919326782 0.36081618070602417
0.54212522506713867 -0.36507734656333923 0.37138056755065918
0.49478805065155029 -0.34601017832756042 0.36436435580253601
0.54063528776168823 -0.30272623896598816 0.33133301138877869
0.63869500160217285 -0.34111151099205017 0.34415116906166077
0.59101754426956177 -0.3857387900352478 0.37876495718955994
0.83450186252593994 -0.29590165615081787 0.3363131582736969
0.82140970230102539 -0.32711631059646606 0.35242652893066406
0.78747427463531494 -0.28654691576957703 0.32369464635848999
0.84532052278518677 -0.2637360692024231 0.32017451524734497
0.87632298469543457 -0.30110028386116028 0.35212060809135437
0.86258763074874878 -0.33228158950805664 0.3706933856010437
0.77488607168197632 -0.31775036454200745 0.33720454573631287
0.7978096604347229 -0.25405257940292358 0.31072187423706055
0.88779431581497192 -0.26935219764709473 0.33301109075546265
0.75935322046279907 -0.41142663359642029 0.40217030048370361
0.71431368589401245 -0.39908623695373535 0.3845612108707428
0.78387916088104248 -0.38480997085571289 0.38541048765182495
0.79916054010391235 -0.4196564257144928 0.42268669605255127
0.73237860202789307 -0.43736904859542847 0.41868633031845093
0.6877896785736084 -0.42330193519592285 0.40178000926971436
0.73836112022399902 -0.37393170595169067 0.36768555641174316
0.82402795553207397 -0.39152374863624573 0.40604564547538757
0.77194076776504517 -0.44736331701278687 0.4385150671005249
0.9542115330696106 -0.28963258862495422 0.41388189792633057
0.96505087614059448 -0.27966737747192383 0.43654787540435791
0.93812304735183716 -0.32114717364311218 0.43683648109436035
0.93657523393630981 -0.29746082425117493 0.39160484075546265
0.96813732385635376 -0.25854179263114929 0.3898671567440033
0.97966259717941284 -0.24870458245277405 0.4123871922492981
0.94830149412155151 -0.31131550669670105 0.45982411503791809
0.92127418518066406 -0.32879209518432617 0.41369742155075073
0.94967567920684814 -0.26626637578010559 0.36843186616897583
0.87172114849090576 -0.41626417636871338 0.4944014847278595
0.89676904678344727 -0.38462847471237183 0.47727516293525696
0.88154935836791992 -0.4078410267829895 0.51849758625030518
0.84494501352310181 -0.44766080379486084 0.50975692272186279
0.85560786724090576 -0.42177483439445496 0.46968421339988708
0.88073700666427612 -0.39103102684020996 0.45286700129508972
0.90637338161468506 -0.37567314505577087 0.5010371208190918
0.85529744625091553 -0.4396100640296936 0.53411757946014404
0.82849198579788208 -0.4523349404335022 0.48490351438522339
1.0008389949798584 -0.17049488425254822 0.31872609257698059
1.0134952068328857 -0.1626693457365036 0.34220388531684875
0.99218481779098511 -0.19845378398895264 0.34094917774200439
0.98098677396774292 -0.17683002352714539 0.29954099655151367
1.0043903589248657 -0.14503538608551025 0.30080166459083557
1.0179520845413208 -0.13769909739494324 0.32394096255302429
1.0044873952865601 -0.18983010947704315 0.36408814787864685
0.97260135412216187 -0.20512756705284119 0.3206200897693634
0.98429208993911743 -0.15196284651756287 0.28450202941894531
0.76237118244171143 -0.53666836023330688 0.54680037498474121
0.78977197408676147 -0.50923365354537964 0.5360187292098999
0.77558624744415283 -0.52794820070266724 0.5714336633682251
0.73524016141891479 -0.55838018655776978 0.5555579662322998
0.74468427896499634 -0.53974658250808716 0.52245020866394043
0.77205860614776611 -0.51309067010879517 0.51128411293029785
0.80194330215454102 -0.50078147649765015 0.56060504913330078
0.74929195642471313 -0.55024641752243042 0.58034121990203857
0.71920967102050781 -0.55913698673248291 0.53202545642852783
0.96381443738937378 -0.087451383471488953 0.2818533182144165
0.98906606435775757 -0.079399377107620239 0.30435881018638611
0.98653918504714966 -0.10391570627689362 0.28205454349517822
0.93494832515716553 -0.099431112408638 0.26691225171089172
0.93334412574768066 -0.071875989437103271 0.28719830513000488
0.96465033292770386 -0.063552111387252808 0.30934959650039673
1.0063762664794922 -0.096338480710983276 0.3046129047870636
0.96224898099899292 -0.1141459196805954 0.26811715960502625
0.89866524934768677 -0.084617018699645996 0.27202647924423218
0.64778757095336914 -0.57318329811096191 0.56290888786315918
0.67865848541259766 -0.57696342468261719 0.56337141990661621
0.66874706745147705 -0.57162207365036011 0.59408700466156006
0.61434870958328247 -0.5623784065246582 0.56138241291046143
0.63085663318634033 -0.56693053245544434 0.53227734565734863
0.66371965408325195 -0.57291829586029053 0.5366661548614502
0.69643682241439819 -0.5724683403968811 0.59146368503570557
0.63886046409606934 -0.56436479091644287 0.59560751914978027
0.59419691562652588 -0.55292117595672607 0.52739524841308594
0.80966216325759888 -0.022465398535132408 0.32440006732940674
0.85358560085296631 -0.013513416051864624 0.34766474366188049
0.85500043630599976 -0.039634861052036285 0.30961954593658447
0.76299744844436646 -0.036283772438764572 0.30677103996276855
0.76164740324020386 -0.0051811281591653824 0.34013521671295166
0.80654221773147583 0.0040449649095535278 0.36469146609306335
0.89623290300369263 -0.03092060424387455 0.33197852969169617
0.81066602468490601 -0.053043656051158905 0.29341438412666321
0.71444028615951538 -0.019423741847276688 0.32061102986335754
0.49607717990875244 -0.50544279813766479 0.55756640434265137
0.538310706615448 -0.52710181474685669 0.5584871768951416
0.52747225761413574 -0.51559567451477051 0.59888315200805664
0.45200780034065247 -0.48238354921340942 0.55648088455200195
0.46944227814674377 -0.48859912157058716 0.51641392707824707
0.51269888877868652 -0.51187175512313843 0.51926159858703613
0.56843221187591553 -0.53530699014663696 0.59789979457855225
0.48348057270050049 -0.49365311861038208 0.5991816520690918
0.42555025219917297 -0.46483510732650757 0.51387894153594971
0.67481696605682373 -0.1089572012424469 0.28966996073722839
0.72547674179077148 -0.12576140463352203 0.28308758139610291
0.66285169124603271 -0.14062026143074036 0.2925247848033905
0.62655723094940186 -0.091624483466148376 0.29522573947906494
0.69326812028884888 -0.080054208636283875 0.29001536965370178
0.74359208345413208 -0.096554875373840332 0.28086501359939575
0.71351015567779541 -0.15787205100059509 0.2886011004447937
0.61496454477310181 -0.12265037000179291 0.29516103863716125
0.6446840763092041 -0.063239529728889465 0.29858934879302979
0.46860378980636597 -0.42691108584403992 0.42706111073493958
0.49063926935195923 -0.40614134073257446 0.40759661793708801
0.51472198963165283 -0.4504983127117157 0.4336070716381073
0.45482924580574036 -0.44766449928283691 0.45026609301567078
0.42353326082229614 -0.40486717224121094 0.42096349596977234
0.44467711448669434 -0.3853813111782074 0.40082630515098572
0.53772598505020142 -0.42871260643005371 0.41462573409080505
0.49996942281723022 -0.47190800309181213 0.45601251721382141
0.41053169965744019 -0.42447713017463684 0.44513523578643799
0.87566256523132324 -0.16740107536315918 0.27244216203689575
0.88930666446685791 -0.13958302140235901 0.26285621523857117
0.91797149181365967 -0.17575065791606903 0.27633869647979736
0.86467063426971436 -0.19844301044940948 0.2869911789894104
0.82787048816680908 -0.15569259226322174 0.2730829119682312
0.84395390748977661 -0.12687171995639801 0.26569604873657227
0.92702478170394897 -0.14976690709590912 0.26579400897026062
0.90822368860244751 -0.20557573437690735 0.29336482286453247
0.81631320714950562 -0.18754497170448303 0.28453347086906433
0.6497807502746582 -0.51475423574447632 0.46538877487182617
0.68839073181152344 -0.52859991788864136 0.4811614453792572
0.63114702701568604 -0.53657644987106323 0.48313593864440918
0.60669237375259399 -0.49602633714675903 0.45222920179367065
0.67526787519454956 -0.48967933654785156 0.44971612095832825
0.7145538330078125 -0.50320792198181152 0.46735954284667969
0.66788196563720703 -0.54808026552200317 0.49571892619132996
0.58955299854278564 -0.51831632852554321 0.47219175100326538
0.63145315647125244 -0.4719773530960083 0.43501350283622742
0.50980395078659058 -0.041779100894927979 0.29270023107528687
0.52183669805526733 -0.015351863577961922 0.31059059500694275
0.54336082935333252 -0.057475786656141281 0.29701262712478638
0.50296521186828613 -0.071071282029151917 0.27939498424530029
0.4814029335975647 -0.027792474254965782 0.28627246618270874
0.49012422561645508 -0.0019429102540016174 0.31040552258491516
0.55823123455047607 -0.03040001355111599 0.30914086103439331
0.53433448076248169 -0.087230503559112549 0.28892618417739868
0.47711181640625 -0.056773826479911804 0.26725509762763977
0.30303722620010376 -0.36132708191871643 0.39646503329277039
0.33994898200035095 -0.37169048190116882 0.40592730045318604
0.29070857167243958 -0.37253284454345703 0.4273841381072998
0.2703784704208374 -0.35404694080352783 0.38639944791793823
0.3228592574596405 -0.34940707683563232 0.37022233009338379
0.35994794964790344 -0.35660481452941895 0.382499098777771
0.32767489552497864 -0.38651731610298157 0.43387734889984131
0.25776505470275879 -0.36117911338806152 0.42077434062957764
0.29024890065193176 -0.34565487504005432 0.35676282644271851
0.6128125786781311 0.042820613831281662 0.38334420323371887
0.64956402778625488 0.053056772798299789 0.41291210055351257
0.66188865900039673 0.027986783534288406 0.37019622325897217
0.57492351531982422 0.027501780539751053 0.35640254616737366
0.56639236211776733 0.055670846253633499 0.39509639143943787
0.59806859493255615 0.066095948219299316 0.4261963963508606
0.7029576301574707 0.037898313254117966 0.39804661273956299
0.61932891607284546 0.012944534420967102 0.345863938331604
0.53392404317855835 0.040253501385450363 0.36567670106887817
0.31713059544563293 -0.41376444697380066 0.54903304576873779
0.3612808883190155 -0.43590801954269409 0.55226421356201172
0.34100955724716187 -0.4232599139213562 0.59247350692749023
0.27615949511528015 -0.39276865124702454 0.54543650150299072
0.29835313558578491 -0.39971211552619934 0.50498771667480469
0.33897107839584351 -0.41986232995986938 0.50824439525604248
0.38879391551017761 -0.44674888253211975 0.59600627422332764
0.2960146963596344 -0.4004875123500824 0.5881417989730835
0.26123633980751038 -0.38118928670883179 0.50172805786132812
0.36749550700187683 0.093399003148078918 0.45093408226966858
0.38549473881721497 0.089533835649490356 0.44227710366249084
0.35748669505119324 0.096242770552635193 0.42296513915061951
0.35094708204269409 0.096568658947944641 0.4593866765499115
0.37623566389083862 0.095147937536239624 0.4791397750377655
0.39583081007003784 0.093138307332992554 0.47307431697845459
0.37396439909934998 0.08835369348526001 0.40904432535171509
0.34234407544136047 0.10143285989761353 0.43564605712890625
0.35824286937713623 0.097140043973922729 0.48546048998832703
0.11888185143470764 -0.29166662693023682 0.5369880199432373
0.10408152639865875 -0.29631569981575012 0.50739526748657227
0.13281078636646271 -0.30175283551216125 0.53361308574676514
0.12840268015861511 -0.28866863250732422 0.56672108173370361
0.10648919641971588 -0.28213229775428772 0.54072880744934082
0.091511264443397522 -0.28721407055854797 0.51587891578674316
0.11971487104892731 -0.30542314052581787 0.49788561463356018
0.14229749143123627 -0.2994219958782196 0.56659615039825439
0.11563557386398315 -0.2786581814289093 0.56785738468170166
0.45654645562171936 0.077919736504554749 0.42131772637367249
0.48788785934448242 0.072973698377609253 0.41398084163665771
0.43883690237998962 0.06459634006023407 0.38657641410827637
0.42934781312942505 0.081869050860404968 0.42766451835632324
0.47433936595916748 0.087088033556938171 0.45455130934715271
0.50967490673065186 0.082998007535934448 0.44689357280731201
0.46605974435806274 0.058180499821901321 0.38080835342407227
0.41430103778839111 0.071686029434204102 0.39090049266815186
0.44402849674224854 0.089519426226615906 0.46111613512039185
0.18675482273101807 -0.33950003981590271 0.53522014617919922
0.17995406687259674 -0.33599656820297241 0.49353599548339844
0.21086794137954712 -0.35546773672103882 0.53830277919769287
0.1973000168800354 -0.34148797392845154 0.57410705089569092
0.16623355448246002 -0.32535210251808167 0.53268373012542725
0.15818022191524506 -0.3247637152671814 0.49076142907142639
0.20267593860626221 -0.34923648834228516 0.49606302380561829
0.2236434668302536 -0.35930973291397095 0.57857835292816162
0.17581386864185333 -0.3255474865436554 0.57036077976226807
0.3046703040599823 0.10628806054592133 0.48221394419670105
0.30684936046600342 0.10532166063785553 0.5056988000869751
0.31885051727294922 0.10121788084506989 0.47564578056335449
0.30092567205429077 0.1115431934595108 0.46480563282966614
0.29467853903770447 0.11784423887729645 0.48610386252403259
0.29510435461997986 0.11643902957439423 0.50931942462921143
0.32287997007369995 0.10061810910701752 0.49945881962776184
0.31326687335968018 0.10670134425163269 0.45699545741081238
0.2931063175201416 0.1232101172208786 0.46965554356575012
0.070463106036186218 -0.25672724843025208 0.55133974552154541
0.083776205778121948 -0.26307094097137451 0.54816102981567383
0.076699063181877136 -0.25138282775878906 0.57459151744842529
0.05269501730799675 -0.25730231404304504 0.55385756492614746
0.05969678983092308 -0.26239839196205139 0.53395271301269531
0.071247860789299011 -0.26840543746948242 0.52911412715911865
0.09113648533821106 -0.25848159193992615 0.57218468189239502
0.057976622134447098 -0.25116395950317383 0.57644116878509521
0.043495293706655502 -0.26379498839378357 0.53793871402740479
0.30291593074798584 0.21419127285480499 0.47111999988555908
0.29421856999397278 0.17187558114528656 0.4804646372795105
0.29957535862922668 0.21166761219501495 0.45539143681526184
0.31412914395332336 0.26266905665397644 0.4594632089138031
0.30380439758300781 0.21463872492313385 0.49243608117103577
0.29402512311935425 0.17123550176620483 0.50235974788665771
0.29274570941925049 0.17306853830814362 0.46546247601509094
0.30966731905937195 0.25790297985076904 0.44030624628067017
0.31609582901000977 0.26390451192855835 0.48120787739753723
-0.043927431106567383 -0.32385802268981934 0.55263018608093262
-0.045701056718826294 -0.32397192716598511 0.53563821315765381
-0.0043375883251428604 -0.29117733240127563 0.5548025369644165
-0.041041389107704163 -0.32030099630355835 0.57412183284759521
-0.088616758584976196 -0.3622230589389801 0.54859459400177002
-0.089188322424888611 -0.3609720766544342 0.5277332067489624
-0.0087350755929946899 -0.2945404052734375 0.53956353664398193
-0.00080106034874916077 -0.28601953387260437 0.57631349563598633
-0.08593953400850296 -0.35986903309822083 0.57094180583953857
0.081748709082603455 0.026179209351539612 -0.68470442295074463
0.03700261190533638 0.079040765762329102 -0.71368885040283203
0.11933162808418274 0.093967586755752563 -0.6636357307434082
0.12307095527648926 -0.016568755730986595 -0.64619064331054688
0.038950409740209579 -0.045898117125034332 -0.69903123378753662
-0.0083404053002595901 0.0084754787385463715 -0.73147058486938477
0.078338339924812317 0.14409193396568298 -0.68858909606933594
0.15762417018413544 0.054634761065244675 -0.62878847122192383
0.082286342978477478 -0.090424709022045135 -0.65730047225952148
-0.098523080348968506 -0.25378194451332092 -0.65648114681243896
-0.14117348194122314 -0.31061363220214844 -0.62369906902313232
-0.14626318216323853 -0.20577852427959442 -0.6945185661315918
-0.05316663533449173 -0.18895065784454346 -0.68444037437438965
-0.055672068148851395 -0.29398933053016663 -0.61065554618835449
-0.10103718936443329 -0.34685793519020081 -0.57886695861816406
-0.18688821792602539 -0.26810762286186218 -0.66108286380767822
-0.10190914571285248 -0.13694004714488983 -0.72163534164428711
-0.0089749153703451157 -0.23206295073032379 -0.63885700702667236
0.23560760915279388 -0.10932253301143646 -0.47079244256019592
0.19965407252311707 -0.083273947238922119 -0.53952944278717041
0.26308813691139221 -0.035623446106910706 -0.46240538358688354
0.26952207088470459 -0.12944115698337555 -0.39134711027145386
0.20080481469631195 -0.1827070564031601 -0.4735051691532135
0.1626681387424469 -0.15811426937580109 -0.54488992691040039
0.2293730229139328 -0.0086320322006940842 -0.5283503532409668
0.29461976885795593 -0.057940550148487091 -0.38585826754570007
0.23716975748538971 -0.20031002163887024 -0.39141845703125
0.06772315502166748 -0.36951220035552979 -0.42001274228096008
0.018772110342979431 -0.4143168032169342 -0.39080852270126343
0.026359923183917999 -0.35197198390960693 -0.49284461140632629
0.11536060273647308 -0.31511887907981873 -0.44720166921615601
0.108565554022789 -0.37878501415252686 -0.33770221471786499
0.060013536363840103 -0.42142453789710999 -0.30987274646759033
-0.022461142390966415 -0.39915722608566284 -0.46279585361480713
0.074399843811988831 -0.29496803879737854 -0.5206531286239624
0.15532578527927399 -0.32708847522735596 -0.3636990487575531
0.35541436076164246 -0.14925810694694519 -0.094138152897357941
0.32980009913444519 -0.148701012134552 -0.19902454316616058
0.37123265862464905 -0.087949976325035095 -0.098186932504177094
0.37749248743057251 -0.14671435952186584 0.0054739257320761681
0.33219704031944275 -0.20829272270202637 -0.086098253726959229
0.30337753891944885 -0.21208459138870239 -0.19338583946228027
0.34889599680900574 -0.083807319402694702 -0.20060667395591736
0.39056971669197083 -0.088600277900695801 0.0022673713974654675
0.35719749331474304 -0.20158466696739197 0.014573559165000916
0.22182466089725494 -0.35600346326828003 -0.040376350283622742
0.17444021999835968 -0.39256119728088379 -0.021285003051161766
0.18643572926521301 -0.37063455581665039 -0.14405113458633423
0.26468348503112793 -0.31276756525039673 -0.058469213545322418
0.2534167468547821 -0.3386913537979126 0.057449176907539368
0.20697689056396484 -0.37271583080291748 0.076998487114906311
0.13866060972213745 -0.40930783748626709 -0.12221194803714752
0.23073349893093109 -0.32453155517578125 -0.16508558392524719
0.29465591907501221 -0.29834365844726562 0.041207965463399887
0.41966110467910767 -0.14454758167266846 0.19002027809619904
0.40876400470733643 -0.14320303499698639 0.14944964647293091
0.42782580852508545 -0.10134503245353699 0.18645939230918884
0.4304274320602417 -0.14741663634777069 0.21773114800453186
0.40511509776115417 -0.18792146444320679 0.20073765516281128
0.39285802841186523 -0.1900286078453064 0.15969464182853699
0.41797176003456116 -0.094659455120563507 0.14719526469707489
0.43826302886009216 -0.10708989202976227 0.2133357971906662
0.41675010323524475 -0.18837800621986389 0.22835603356361389
0.31853419542312622 -0.30093339085578918 0.23620525002479553
0.28195741772651672 -0.32693997025489807 0.25223538279533386
0.30116146802902222 -0.30962857604026794 0.197413370013237
0.35338819026947021 -0.26791071891784668 0.22453057765960693
0.33455121517181396 -0.29566475749015808 0.26245677471160889
0.30022358894348145 -0.3205430805683136 0.27713871002197266
0.26067820191383362 -0.33797261118888855 0.21594491600990295
0.3382343053817749 -0.2745077908039093 0.18431557714939117
0.36765637993812561 -0.26428547501564026 0.25137564539909363
0.42448312044143677 0.0013751313090324402 0.26172792911529541
0.43946027755737305 -0.0073302946984767914 0.27113416790962219
0.4282248318195343 -0.027444839477539062 0.22292688488960266
0.41179326176643372 0.012825813144445419 0.24880975484848022
0.42240890860557556 0.026266660541296005 0.30522915720939636
0.44113048911094666 0.017788112163543701 0.30787882208824158
0.44061243534088135 -0.036253452301025391 0.24015450477600098
0.41786789894104004 -0.015326486900448799 0.19855751097202301
0.40548998117446899 0.037421528249979019 0.30032861232757568
0.20095640420913696 -0.34447044134140015 0.3558095395565033
0.22126786410808563 -0.34760159254074097 0.31235304474830627
0.22081936895847321 -0.34554243087768555 0.3665461540222168
0.186521977186203 -0.33875027298927307 0.40235841274261475
0.17942275106906891 -0.34679082036018372 0.34257316589355469
0.19807785749435425 -0.35541412234306335 0.28998669981956482
0.24134986102581024 -0.34444940090179443 0.32896995544433594
0.20709483325481415 -0.34426859021186829 0.40857940912246704
0.16427882015705109 -0.33594045042991638 0.39474818110466003
0.29748934507369995 0.640178382396698 0.21044310927391052
0.29243311285972595 0.62644094228744507 0.2782781720161438
0.32278048992156982 0.58453309535980225 0.20018769800662994
0.30280894041061401 0.65571713447570801 0.14113959670066833
0.26444357633590698 0.68876230716705322 0.22930607199668884
0.26353219151496887 0.67448002099990845 0.29240107536315918
0.31350728869438171 0.5732886791229248 0.27281931042671204
0.33398652076721191 0.59648764133453369 0.1224723607301712
0.26485252380371094 0.70559990406036377 0.16598518192768097
-0.49985772371292114 -0.60011285543441772 0.24280977249145508
-0.43361619114875793 -0.59138333797454834 0.26192286610603333
-0.48671713471412659 -0.58549165725708008 0.31244924664497375
-0.56377589702606201 -0.60030603408813477 0.22842781245708466
-0.51437586545944214 -0.61550301313400269 0.17112407088279724
-0.44410479068756104 -0.61313015222549438 0.18718928098678589
-0.42314198613166809 -0.57193523645401001 0.33259695768356323
-0.54974406957626343 -0.59122377634048462 0.29637059569358826
-0.5800926685333252 -0.60963833332061768 0.15882062911987305
-0.127507284283638 0.31345975399017334 -0.74376833438873291
-0.19260965287685394 0.40370014309883118 -0.72743332386016846
-0.071291118860244751 0.37407782673835754 -0.70814454555511475
-0.067265316843986511 0.22481094300746918 -0.74469184875488281
-0.18522365391254425 0.24272201955318451 -0.77219092845916748
-0.25434070825576782 0.33169505000114441 -0.75955665111541748
-0.13197968900203705 0.46399548649787903 -0.6889491081237793
-0.016239598393440247 0.2863079309463501 -0.71216559410095215
-0.12035422027111053 0.15494860708713531 -0.76954686641693115
-0.33789590001106262 -0.01446615532040596 -0.76551651954650879
-0.37655892968177795 -0.10169939696788788 -0.73813796043395996
-0.41418725252151489 0.057978149503469467 -0.76670694351196289
-0.29248130321502686 0.075537636876106262 -0.78359055519104004
-0.26605823636054993 -0.084719419479370117 -0.75053572654724121
-0.30473363399505615 -0.16286994516849518 -0.71962857246398926
-0.4533504843711853 -0.037390124052762985 -0.74389195442199707
-0.36732774972915649 0.1553947925567627 -0.77998602390289307
-0.22169001400470734 -0.0028401874005794525 -0.77272963523864746
-0.69290351867675781 0.61244511604309082 0.14066046476364136
-0.68041718006134033 0.57888174057006836 0.21495449542999268
-0.62537240982055664 0.68773329257965088 0.16063879430294037
-0.69258767366409302 0.64257866144180298 0.061462245881557465
-0.75790965557098389 0.52851057052612305 0.1115185022354126
-0.74598246812820435 0.49359747767448425 0.1896502822637558
-0.6124606728553772 0.6559259295463562 0.23046453297138214
-0.625771164894104 0.71608644723892212 0.085846871137619019
-0.75691020488739014 0.55994236469268799 0.028735078871250153
-0.920249342918396 0.25552347302436829 -0.00032329373061656952
-0.95638138055801392 0.16815192997455597 -0.040719378739595413
-0.90883302688598633 0.22041453421115875 0.07934918999671936
-0.87358540296554565 0.3468901515007019 0.039003107696771622
-0.91932636499404907 0.28653421998023987 -0.082620501518249512
-0.95594662427902222 0.1977078765630722 -0.11986110359430313
-0.94493573904037476 0.13422827422618866 0.036731269210577011
-0.86221921443939209 0.31116294860839844 0.11991337686777115
-0.87226659059524536 0.37878274917602539 -0.045389018952846527
-0.63199883699417114 0.70486396551132202 -0.20003923773765564
-0.66149067878723145 0.69069522619247437 -0.10971825569868088
-0.56941002607345581 0.77318835258483887 -0.16044725477695465
-0.5922849178314209 0.70797336101531982 -0.29193940758705139
-0.6930273175239563 0.62575012445449829 -0.24424044787883759
-0.72368043661117554 0.61047476530075073 -0.15015359222888947
-0.59731847047805786 0.76070255041122437 -0.075336597859859467
-0.53087735176086426 0.77466672658920288 -0.24796104431152344
-0.65259963274002075 0.62989163398742676 -0.33894020318984985
-0.85913431644439697 0.34824880957603455 -0.34197068214416504
-0.90016692876815796 0.25397983193397522 -0.36276891827583313
-0.88810718059539795 0.3348272442817688 -0.25445255637168884
-0.80858373641967773 0.44430044293403625 -0.31732162833213806
-0.82047277688980103 0.34984859824180603 -0.42808014154434204
-0.86306524276733398 0.25341346859931946 -0.44188317656517029
-0.92734915018081665 0.24253310263156891 -0.28177854418754578
-0.83896702527999878 0.42941465973854065 -0.22465206682682037
-0.76871174573898315 0.44764319062232971 -0.40906891226768494
-0.40947842597961426 0.6222999095916748 -0.56117403507232666
-0.4794154167175293 0.66761863231658936 -0.47576224803924561
-0.34617361426353455 0.6845557689666748 -0.51490342617034912
-0.3357560932636261 0.56221139430999756 -0.63514375686645508
-0.47291404008865356 0.54690402746200562 -0.60529839992523193
-0.54117989540100098 0.59135788679122925 -0.5227360725402832
-0.41742223501205444 0.73122197389602661 -0.42837086319923401
-0.27164867520332336 0.62339484691619873 -0.59111380577087402
-0.40032750368118286 0.48775884509086609 -0.67540419101715088
-0.64358675479888916 0.2558339536190033 -0.65716981887817383
-0.68611735105514526 0.15249167382717133 -0.65105116367340088
-0.71173441410064697 0.30357003211975098 -0.58864903450012207
-0.59221303462982178 0.36014407873153687 -0.65486550331115723
-0.56960439682006836 0.19656041264533997 -0.71240746974945068
-0.61092168092727661 0.092961698770523071 -0.70039021968841553
-0.7551112174987793 0.20213668048381805 -0.58878648281097412
-0.65949767827987671 0.40593579411506653 -0.5809624195098877
-0.51955109834671021 0.30132481455802917 -0.71535992622375488
-0.040809724479913712 0.75307083129882812 0.46582964062690735
-0.035848736763000488 0.75795167684555054 0.50788915157318115
-0.0076433718204498291 0.7669023871421814 0.45495694875717163
-0.050696365535259247 0.75386840105056763 0.42350360751152039
-0.072787508368492126 0.73394834995269775 0.47192114591598511
-0.068807035684585571 0.73783081769943237 0.51575660705566406
-0.0019668024033308029 0.77188146114349365 0.49552801251411438
-0.017285736277699471 0.76761013269424438 0.41417539119720459
-0.082706823945045471 0.73562413454055786 0.42777276039123535
-0.80104535818099976 -0.43396598100662231 0.29187414050102234
-0.79581165313720703 -0.46345794200897217 0.28791934251785278
-0.80916857719421387 -0.44948717951774597 0.33215174078941345
-0.80069875717163086 -0.40282601118087769 0.29578614234924316
-0.80023032426834106 -0.41658368706703186 0.24628010392189026
-0.79560720920562744 -0.44750115275382996 0.24359211325645447
-0.80291879177093506 -0.47840288281440735 0.3271976113319397
-0.80900484323501587 -0.4181080162525177 0.33774563670158386
-0.80005168914794922 -0.3847757875919342 0.24837350845336914
-0.11953097581863403 0.81085759401321411 0.30097794532775879
-0.0913267582654953 0.78340548276901245 0.34139576554298401
-0.077159002423286438 0.82275307178497314 0.29591414332389832
-0.14758037030696869 0.8414115309715271 0.25902193784713745
-0.16091883182525635 0.79468232393264771 0.30158433318138123
-0.12827280163764954 0.76659202575683594 0.34287863969802856
-0.05308174341917038 0.796242356300354 0.33499470353126526
-0.10105039179325104 0.85212403535842896 0.25525957345962524
-0.19350200891494751 0.82592606544494629 0.25888267159461975
-0.86337417364120483 -0.35192656517028809 0.069253504276275635
-0.85534632205963135 -0.39330261945724487 0.072457477450370789
-0.83282887935638428 -0.37519598007202148 0.1343742311000824
-0.86764311790466309 -0.31040158867835999 0.066533952951431274
-0.89549100399017334 -0.3282722532749176 0.0012012450024485588
-0.88535511493682861 -0.37400275468826294 0.0066966330632567406
-0.82674604654312134 -0.41225618124008179 0.13532325625419617
-0.83504581451416016 -0.33801570534706116 0.13307975232601166
-0.90181201696395874 -0.28220745921134949 -0.0027923504821956158
-0.19468970596790314 0.91571044921875 0.11117014288902283
-0.18696936964988708 0.89577347040176392 0.16461467742919922
-0.14258089661598206 0.92200595140457153 0.1113332062959671
-0.19501565396785736 0.93101155757904053 0.054202273488044739
-0.24694937467575073 0.90324664115905762 0.10822391510009766
-0.23856198787689209 0.88212597370147705 0.16273057460784912
-0.13535726070404053 0.90363889932632446 0.16349197924137115
-0.14323467016220093 0.93568062782287598 0.055513542145490646
-0.24709077179431915 0.91985172033309937 0.050198350101709366
-0.9488677978515625 -0.26486936211585999 -0.19897831976413727
-0.93563205003738403 -0.31884250044822693 -0.18803209066390991
-0.94065660238265991 -0.28379654884338379 -0.13416279852390289
-0.95774275064468384 -0.20990292727947235 -0.20614832639694214
-0.94896984100341797 -0.24934804439544678 -0.26173296570777893
-0.93577438592910767 -0.30449476838111877 -0.24949219822883606
-0.92777824401855469 -0.33598628640174866 -0.12473265081644058
-0.94938206672668457 -0.23081730306148529 -0.14034394919872284
-0.95759528875350952 -0.1929730623960495 -0.26989561319351196
-0.15545894205570221 0.94810819625854492 -0.1317560076713562
-0.17524804174900055 0.94828516244888306 -0.068397842347621918
-0.10758291184902191 0.94826853275299072 -0.12720176577568054
-0.12888370454311371 0.93899619579315186 -0.19409298896789551
-0.20518623292446136 0.94089829921722412 -0.13872924447059631
-0.22618971765041351 0.93992805480957031 -0.074107930064201355
-0.12498822808265686 0.94965934753417969 -0.065548412501811981
-0.086604446172714233 0.93879479169845581 -0.18533888459205627
-0.17601242661476135 0.93235230445861816 -0.20355245471000671
-0.90982049703598022 -0.23258252441883087 -0.43387436866760254
-0.89809304475784302 -0.28843382000923157 -0.41783523559570312
-0.92927587032318115 -0.23210686445236206 -0.38060840964317322
-0.91689693927764893 -0.1735226958990097 -0.44592335820198059
-0.88293939828872681 -0.2408507764339447 -0.4793662428855896
-0.87390142679214478 -0.29256817698478699 -0.46041148900985718
-0.9165194034576416 -0.28885135054588318 -0.3661993145942688
-0.93709999322891235 -0.17345832288265228 -0.39099195599555969
-0.88847184181213379 -0.18286687135696411 -0.49396392703056335
0.0015411879867315292 0.84083575010299683 -0.36308833956718445
0.054171245545148849 0.78563064336776733 -0.40979272127151489
-0.035991799086332321 0.82822978496551514 -0.38701191544532776
-0.049167882651090622 0.88570898771286011 -0.31087926030158997
0.03123810887336731 0.85308539867401123 -0.33275645971298218
0.08291018009185791 0.80389308929443359 -0.37593391537666321
0.019329357892274857 0.7695348858833313 -0.43763476610183716
-0.089761391282081604 0.87629538774490356 -0.32947304844856262
-0.017126429826021194 0.89180171489715576 -0.28770557045936584
-0.74961560964584351 -0.33232009410858154 -0.54850578308105469
-0.74540483951568604 -0.28003489971160889 -0.57606375217437744
-0.69014841318130493 -0.37590348720550537 -0.55026757717132568
-0.75645166635513306 -0.37687629461288452 -0.51572024822235107
-0.80260103940963745 -0.29188182950019836 -0.53714025020599365
-0.80220633745193481 -0.23759125173091888 -0.55993247032165527
-0.68246006965637207 -0.32588174939155579 -0.58171093463897705
-0.70163595676422119 -0.42021530866622925 -0.51486575603485107
-0.80356454849243164 -0.33704984188079834 -0.50898587703704834
-0.17474138736724854 0.78856909275054932 -0.43099042773246765
-0.22793060541152954 0.76619279384613037 -0.44816645979881287
-0.24066311120986938 0.83840936422348022 -0.35545027256011963
-0.1251833438873291 0.80379557609558105 -0.4182523787021637
-0.10667373239994049 0.72611898183822632 -0.49856579303741455
-0.15614140033721924 0.70367938280105591 -0.52100396156311035
-0.29726922512054443 0.81537711620330811 -0.36680656671524048
-0.18692831695079803 0.85374188423156738 -0.34930986166000366
-0.061536345630884171 0.74196857213973999 -0.47963976860046387
-0.7421678900718689 -0.09880480170249939 -0.62451720237731934
-0.80778473615646362 -0.049314647912979126 -0.58671534061431885
-0.73466390371322632 -0.026532860472798347 -0.63322734832763672
-0.67006224393844604 -0.15406598150730133 -0.65073776245117188
-0.74380409717559814 -0.16329123079776764 -0.61337137222290039
-0.80655884742736816 -0.11578267812728882 -0.58406674861907959
-0.80253928899765015 0.024172466248273849 -0.58661818504333496
-0.66026467084884644 -0.084149777889251709 -0.66782736778259277
-0.67466497421264648 -0.21562591195106506 -0.63149619102478027
-0.37776011228561401 0.89619022607803345 -0.1277601420879364
-0.44137188792228699 0.86832958459854126 -0.12424764782190323
-0.4013427197933197 0.89010578393936157 -0.056560661643743515
-0.3162689208984375 0.91535192728042603 -0.13612285256385803
-0.34414461255073547 0.89170920848846436 -0.20126642286777496
-0.40601694583892822 0.86580902338027954 -0.20202067494392395
-0.46617025136947632 0.86006587743759155 -0.049261514097452164
-0.33882898092269897 0.91130274534225464 -0.067895293235778809
-0.28433865308761597 0.90911984443664551 -0.20595484972000122
-0.9393000602722168 0.015691898763179779 -0.4260425865650177
-0.96196353435516357 0.010876737534999847 -0.36222937703132629
-0.93957918882369995 0.086783409118652344 -0.4050479531288147
-0.90711081027984619 0.0092945694923400879 -0.48563715815544128
-0.93218338489532471 -0.049945790320634842 -0.44221624732017517
-0.95386302471160889 -0.052805125713348389 -0.38223183155059814
-0.96345531940460205 0.079816341400146484 -0.33648425340652466
-0.90583342313766479 0.082031577825546265 -0.47034406661987305
-0.90142238140106201 -0.057670813053846359 -0.49699470400810242
-0.42381703853607178 0.83705264329910278 0.14272432029247284
-0.48951315879821777 0.80018401145935059 0.15984036028385162
-0.41233405470848083 0.81131362915039062 0.20201602578163147
-0.36086368560791016 0.86468464136123657 0.1237650066614151
-0.42454987764358521 0.85887414216995239 0.079170309007167816
-0.49046903848648071 0.82422518730163574 0.093234866857528687
-0.4770885705947876 0.772430419921875 0.22184745967388153
-0.35050651431083679 0.84079980850219727 0.18097978830337524
-0.36127057671546936 0.8844335675239563 0.062628552317619324
-0.9852328896522522 -0.043309003114700317 -0.15809567272663116
-0.97528111934661865 -0.071194648742675781 -0.087958097457885742
-0.98780530691146851 0.018487907946109772 -0.121799036860466
-0.98507499694824219 -0.020226377993822098 -0.22740800678730011
-0.97640025615692139 -0.10011973977088928 -0.1866891086101532
-0.96721887588500977 -0.12559239566326141 -0.11843736469745636
-0.97709512710571289 -0.01170731894671917 -0.049445308744907379
-0.98778319358825684 0.043928507715463638 -0.19406473636627197
-0.97607666254043579 -0.079360082745552063 -0.25352185964584351
-0.30387711524963379 0.71562868356704712 0.3468363881111145
-0.36062395572662354 0.67285817861557007 0.37181743979454041
-0.25876230001449585 0.6860206127166748 0.38745284080505371
-0.25170284509658813 0.74847888946533203 0.32309034466743469
-0.34953925013542175 0.74874603748321533 0.3036486804485321
-0.40964296460151672 0.70688527822494507 0.32756310701370239
-0.31214058399200439 0.64264899492263794 0.41256409883499146
-0.21041037142276764 0.71940356492996216 0.36421021819114685
-0.29335042834281921 0.78084099292755127 0.2801232635974884
-0.87557178735733032 -0.17906354367733002 0.12235228717327118
-0.83523410558700562 -0.2155749648809433 0.18728162348270416
-0.87089496850967407 -0.12591458857059479 0.16194908320903778
-0.91752099990844727 -0.14072859287261963 0.05346209928393364
-0.8742910623550415 -0.22558760643005371 0.091114498674869537
-0.83676111698150635 -0.25997063517570496 0.15741404891014099
-0.82779097557067871 -0.1640031486749649 0.22527943551540375
-0.91556555032730103 -0.085644036531448364 0.093684419989585876
-0.91339433193206787 -0.18984407186508179 0.021617665886878967
-0.19150841236114502 0.64752006530761719 0.51015841960906982
-0.19212917983531952 0.64880996942520142 0.55160295963287354
-0.14686465263366699 0.68213135004043579 0.49259322881698608
-0.20034870505332947 0.65152102708816528 0.4685191810131073
-0.24005155265331268 0.60378408432006836 0.52891111373901367
-0.24312977492809296 0.60563254356384277 0.56766808032989502
-0.14559841156005859 0.68376725912094116 0.53630030155181885
-0.15608957409858704 0.68574017286300659 0.44857752323150635
-0.24898518621921539 0.6076396107673645 0.49021816253662109
-0.78980427980422974 -0.28736263513565063 0.34116122126579285
-0.79527270793914795 -0.33084747195243835 0.31897181272506714
-0.79879730939865112 -0.29915928840637207 0.38003888726234436
-0.77797621488571167 -0.2369353175163269 0.36914229393005371
-0.79036432504653931 -0.27052891254425049 0.29701310396194458
-0.79552221298217773 -0.31333547830581665 0.27188873291015625
-0.80351567268371582 -0.34405595064163208 0.36067104339599609
-0.78888136148452759 -0.2473507821559906 0.40411782264709473
-0.7787926197052002 -0.2204786092042923 0.32894742488861084
-0.55564206838607788 0.46520659327507019 0.40423592925071716
-0.50008749961853027 0.43139085173606873 0.45604345202445984
-0.48798757791519165 0.54728591442108154 0.40321084856987
-0.60910946130752563 0.50332850217819214 0.34689855575561523
-0.62194448709487915 0.37464895844459534 0.39572319388389587
-0.56399273872375488 0.33641883730888367 0.45716634392738342
-0.43448373675346375 0.51554179191589355 0.44884574413299561
-0.54081034660339355 0.58367770910263062 0.35192236304283142
-0.67579305171966553 0.41521286964416504 0.33132767677307129
-0.79124546051025391 0.096221104264259338 0.29932555556297302
-0.82988232374191284 0.011887658387422562 0.25339841842651367
-0.74077743291854858 0.054721254855394363 0.3618093729019165
-0.74204766750335693 0.18654003739356995 0.34175708889961243
-0.84133929014205933 0.13933566212654114 0.23018200695514679
-0.87849098443984985 0.05446697399020195 0.18512061238288879
-0.78217631578445435 -0.028540514409542084 0.31466221809387207
-0.68700742721557617 0.14389865100383759 0.40861502289772034
-0.79404163360595703 0.22986035048961639 0.27131509780883789
-0.44945195317268372 0.42215240001678467 0.63305902481079102
-0.46723034977912903 0.37410217523574829 0.63476359844207764
-0.4869542121887207 0.4248630702495575 0.64475977420806885
-0.43392378091812134 0.46858558058738708 0.63898622989654541
-0.4142647385597229 0.41756418347358704 0.62174665927886963
-0.43630948662757874 0.35636889934539795 0.62371826171875
-0.49972367286682129 0.38697168231010437 0.64602935314178467
-0.47430869936943054 0.46059888601303101 0.65033280849456787
-0.39101496338844299 0.47800102829933167 0.62672686576843262
-0.74507743120193481 -0.04040849581360817 0.52105474472045898
-0.77530783414840698 -0.026473410427570343 0.52838766574859619
-0.70821475982666016 -0.0029525868594646454 0.54389524459838867
-0.71496272087097168 -0.052773937582969666 0.51504826545715332
-0.78349757194519043 -0.07840178906917572 0.50580382347106934
-0.80454778671264648 -0.056304149329662323 0.51682472229003906
-0.74558192491531372 0.002157554030418396 0.54716777801513672
-0.66724216938018799 -0.0048283189535140991 0.54256200790405273
-0.76261806488037109 -0.1032550036907196 0.49436578154563904
-0.38905620574951172 0.40038058161735535 0.56511867046356201
-0.38084521889686584 0.40529152750968933 0.58908319473266602
-0.34153026342391968 0.47788438200950623 0.55707406997680664
-0.41247105598449707 0.39913704991340637 0.53631258010864258
-0.42966291308403015 0.32307103276252747 0.57162177562713623
-0.41368290781974792 0.33051875233650208 0.59331417083740234
-0.34048581123352051 0.48146751523017883 0.5862497091293335
-0.35738229751586914 0.48046156764030457 0.52507007122039795
-0.46258974075317383 0.31209453940391541 0.54548811912536621
-0.67057180404663086 -0.039730500429868698 0.47550472617149353
-0.71782463788986206 -0.1103845089673996 0.43799266219139099
-0.67491543292999268 -0.054470717906951904 0.49430000782012939
-0.61909985542297363 0.026928883045911789 0.51208961009979248
-0.67752283811569214 -0.015279395505785942 0.44992968440055847
-0.72294807434082031 -0.091087393462657928 0.40694311261177063
-0.72640061378479004 -0.12188421189785004 0.46209335327148438
-0.62039053440093994 0.007366616278886795 0.52783644199371338
-0.6233789324760437 0.060707923024892807 0.49357715249061584
