# XYZ point cloud file
0.43156874954268848 0.54500462360106161 -0.08308602858098052
0.42392982712782407 0.54833818100450205 -0.072096756335780582
0.45445976963047707 0.53076379985280708 -0.086434246048924745
0.4408761095086472 0.53651030020108958 -0.094769955597534927
0.40762824062014441 0.55140949918601334 -0.080079353056587754
0.39909972272737992 0.55566983631497979 -0.067931743050219179
0.44792469687586989 0.53329028234651765 -0.076481913374373239
0.46086677647574664 0.52408340790668029 -0.096665804884205619
0.41922189067651616 0.54095392507148599 -0.093127303316205723
-0.57611909610445067 -0.41574850410176734 -0.18874299390596455
-0.57689715381953799 -0.44071523886105102 -0.16863460705489858
-0.57811283525012158 -0.40892271023349636 -0.18130281991294034
-0.57049935554159559 -0.39056065044759014 -0.20322916720684725
-0.57182166681218027 -0.42490693782938593 -0.191942527699138
-0.57305811337428691 -0.44700955685147559 -0.17292588906357159
-0.57827135897064186 -0.43476183906524224 -0.16141284169001435
-0.57326866531051601 -0.38304243543817962 -0.19536917996153236
-0.56541127560715987 -0.40200837400773881 -0.20554578701856568
0.33879581959087091 0.523333800729744 -0.065670759081891461
0.3292194963808644 0.53047803624243484 -0.05018972250873352
0.36057508643139974 0.53955208881653116 -0.071693706227007076
0.35359422922684408 0.50780799362981144 -0.082096497557720249
0.31863277674747414 0.50336803629823512 -0.058700746191771541
0.30930301426552831 0.51136889604659341 -0.042485412845275489
0.3510558517302258 0.54576576335952354 -0.057205421445477883
0.37489180404329969 0.5254795786159655 -0.087174283217897885
0.33338980672331187 0.48664591819563807 -0.07573600052774479
-0.53102691098651211 -0.32424469463543149 -0.19689334899968719
-0.54705764188868511 -0.34420528378365933 -0.20716578249949713
-0.53657655226980061 -0.3159712160772129 -0.18692659698595926
-0.51373872738676174 -0.30647595963048069 -0.18155547641913533
-0.52252717217598021 -0.33906000169056105 -0.19926789231967496
-0.53978339232710348 -0.35846698097288532 -0.20909046227192818
-0.55165089060485095 -0.33594548759749787 -0.19796612259475177
-0.52021550944372119 -0.29844095069045762 -0.17092319036152037
-0.50401950488824054 -0.32133071648201905 -0.18450559721785964
0.27113020382778302 0.44178350400515698 -0.034821632547685694
0.26425291633924974 0.4517018843424141 -0.018614976944345774
0.28451052292520707 0.46153185801533314 -0.042739785454316226
0.28322300441055065 0.42304054195574547 -0.050984646289135571
0.26052250397485277 0.42253343929668163 -0.028101857357746951
0.25460461980847421 0.43306240590486966 -0.0120630874431569
0.27662036896689385 0.47088869041962667 -0.026254232977758668
0.29780206903400741 0.44324478044697502 -0.059524218960897268
0.27134436925934052 0.40341517191189857 -0.043786192808293461
-0.46499438567641838 -0.26684213439260929 -0.12687377336074424
-0.48023803297348777 -0.27765796855065844 -0.14496198387089404
-0.4737369602484115 -0.2609393122126672 -0.11576394231480253
-0.45043218810687358 -0.25868831837318429 -0.11005262839539781
-0.45225191773487461 -0.27928806162069586 -0.13053150551037995
-0.46838085211731995 -0.29121039136120153 -0.14852966988854077
-0.48830508109212384 -0.27089481529678805 -0.13380843871041281
-0.45984566458801934 -0.25355077042565521 -0.098889685901999202
-0.43687402098156614 -0.2699829080489663 -0.11402580739472584
0.35568579014286783 0.29771779666491605 -0.077078517112846273
0.37522112715397343 0.31909469226925824 -0.090703521714377289
0.38304423552165484 0.24886534510737038 -0.075124827406626266
0.33744268913140113 0.27874071297457814 -0.065242811430638231
0.32710926775760635 0.34835535288065611 -0.073488407677450795
0.34484087360107885 0.36936453846945827 -0.084924109298217865
0.40426939556721109 0.27053965380297773 -0.091109789691712351
0.36245103617645552 0.23038002018532563 -0.061036537956976111
0.31131095385531271 0.32891740895896071 -0.063704669136564418
-0.38741558140017546 -0.36672808291048908 -0.05850794842012777
-0.36394886735246401 -0.40058372304296741 -0.015981878862528581
-0.40861196175252062 -0.38399242778195919 -0.075979492206212529
-0.4121461323636324 -0.33126789429646752 -0.095795515300744816
-0.36801136526714845 -0.35054625206953727 -0.044335519028164683
-0.34296086597520931 -0.38167335169105188 -0.0024612309829132595
-0.3871572908371731 -0.41985750115781972 -0.03352439793664691
-0.43130969001708702 -0.34648502042361595 -0.11339992837412977
-0.39431410128102551 -0.31784468186203918 -0.080737944056405442
0.43452471361921197 0.39939256812750801 -0.12014734079440681
0.40317683646272562 0.44338978943124641 -0.1107227438445732
0.45148061745061119 0.42684803155538942 -0.12411488581670282
0.46422541532181533 0.35680574072820714 -0.12496682534880832
0.41548500578435271 0.37081286992689988 -0.11338387522964199
0.38356759309130212 0.41782275343039266 -0.10450573581259109
0.42194787290768215 0.4667656057289945 -0.11473282824353553
0.47939867550461546 0.38851892266652366 -0.1290980706847728
0.44582474211593093 0.32526427210160702 -0.11737107417891302
-0.48144157011269023 -0.43369056711506238 -0.12807801160790244
-0.50498248462676543 -0.44720796911607097 -0.14146596356259755
-0.49674193469924849 -0.39584889921752497 -0.16397249742238501
-0.45643849286143878 -0.41822991876942983 -0.11220924128170634
-0.46716202670721779 -0.46981209278020164 -0.088143228440450083
-0.49333262596147426 -0.48089511914076455 -0.10400944662604872
-0.51778729074342655 -0.41187894397639835 -0.17532201101018585
-0.47429177576630738 -0.37934304174697819 -0.14902469138979135
-0.439653337793599 -0.45539592360763026 -0.070943305446971999
0.47916108403726809 0.48010451024122736 -0.12134295512507315
0.46787648954982386 0.50062739378754784 -0.11586202427549053
0.49300801199062277 0.46864280877569664 -0.12266389824221036
0.47507081378624477 0.46957375498461063 -0.12442697965485744
0.45396835870551322 0.497695982742555 -0.11666226685413433
0.48226296135127084 0.49212134608361946 -0.11541611776823557
0.49513738722226125 0.44461698479325573 -0.12764685880435567
-0.54987021013575887 -0.46908505657194455 -0.15932824559382325
-0.5494137301998766 -0.48489204128593399 -0.14360523232880928
-0.55777153932533718 -0.45516604725076171 -0.17502455613747336
-0.54111047184452765 -0.46589574265621381 -0.15784768894009343
-0.53512419206039175 -0.48976840768744323 -0.13076086105082124
-0.55970028483787826 -0.47134980483157507 -0.15903284256716527
-0.54952892444797741 -0.44093141792118407 -0.18216228282927627
0.24493434820989202 0.36895375408306563 -0.021421011291636705
0.23942293370450496 0.35946996347220139 -0.021004765515864859
0.24003832626101002 0.38220387618109797 -0.0022040360368506817
0.24858334861898818 0.38468186701934071 -0.021728147832940914
0.25311790149839047 0.34807493461183869 -0.040241728612544186
0.24729430837288907 0.337240973571171 -0.043961942915074964
0.23441363237848933 0.37342234411502084 0.0017396530669584465
0.24367392218669481 0.39695707255667811 -0.0045328529037921006
0.25736215275411234 0.36464327118601725 -0.038304130592288127
-0.41055875993186786 -0.24925749652669246 -0.075361113789596396
-0.42247630474885506 -0.24448346049842598 -0.060783004172236643
-0.40274256190177166 -0.24496106561783482 -0.071196428863214423
-0.39426475298957275 -0.25841586586113607 -0.084594731252353395
-0.42238294474543026 -0.25115997660785105 -0.083595702397009364
-0.43334834086218638 -0.24653126139765361 -0.071137055367280572
-0.41575011647690185 -0.24016696071713514 -0.052648275192872684
-0.38455463434118448 -0.25366570836043223 -0.08499001474970258
-0.40724985622769538 -0.2607936756911815 -0.089984067873395579
0.29541272355188841 0.23212455714296462 -0.061589450025444692
0.27947352589986485 0.27721595123856102 -0.061971698323032148
0.3075169349155234 0.24622103922190838 -0.056874703892474648
0.31017398838054167 0.1891800748684416 -0.054227422981111634
0.28375675766582753 0.21932016109239086 -0.070588780684929159
0.27058864548948858 0.26423578752768861 -0.0706915704357165
0.28805326214095461 0.29303198859916668 -0.057337426804505986
0.32595330661770616 0.20117052979284406 -0.049951033502198317
0.29527887547212911 0.17784970261124991 -0.062947909630066856
-0.3198991708216678 -0.31516493634829978 -0.039874531041936917
-0.33452067476725644 -0.32496663482234978 -0.034493970614342756
-0.34749088027643621 -0.29291126593821004 -0.067169974387943143
-0.30600017593959428 -0.30563861082538468 -0.050649717443018438
-0.29370679756182394 -0.3356378072158861 -0.0059615935527038422
-0.30822807807094593 -0.34904402983698302 0.0027886729130271737
-0.36198381659973888 -0.29933686264379245 -0.065488508321496997
-0.33434033136211344 -0.28559642890464998 -0.075144380297710506
-0.27985336269477751 -0.3232215545564846 -0.019692183528662172
0.33053815442766055 0.1234866322639325 0.0049020465334201901
0.31113331883732465 0.11212040797581679 0.0011220279107233833
0.32799895488989511 0.13308283058689446 -0.019145492258925589
0.35148197515526014 0.13494731134531734 0.0048108313180554307
0.33084995151860824 0.12315088032469776 0.028583598217683998
0.31163342776814368 0.11100601264396934 0.02879609914678824
0.30897064132517887 0.12273528327152405 -0.02547695349251794
0.34841957668155249 0.14363861274526971 -0.017303081852201252
0.35157938316704601 0.13559455945609286 0.026163089136982398
-0.24868158839302695 -0.35770843508071648 0.099808281704076268
-0.25693238604577295 -0.35737150045208577 0.066807107169941565
-0.23319491107792528 -0.3415891194667896 0.087022355003892951
-0.24649295000539345 -0.35441486641647268 0.1277167171999809
-0.26505154903808603 -0.37586684568793638 0.10885350521915456
-0.27232637663953335 -0.37516507554828848 0.077593949787211097
-0.24241186984092161 -0.34143847281052775 0.051494952255950563
-0.23032639432145169 -0.33831580047046028 0.11960928634977328
-0.26361627868049442 -0.37233164597468171 0.13387722922891221
0.030021064377971925 0.32951856251919887 0.48925322873368587
0.020076464953554495 0.3254894193986031 0.49986540500206583
0.011284115067745907 0.32185476150193082 0.50899185958792348
0.015109438409062918 0.31186432222634553 0.51825651889330926
0.023302382923667223 0.30340104119413258 0.5206078490686914
0.0287911613668487 0.29407994256841519 0.52331218242801603
0.040692514598775147 0.28261001694177401 0.51989197599243642
0.052965785556961423 0.28069952017710131 0.51194099343110255
0.066769627376392887 0.27849497556670588 0.50258478710316923
0.076929836788509898 0.29204842575736101 0.48735659855318858
0.068657625303167935 0.30734574422489103 0.483384089954143
0.056312909448289136 0.32132225036690709 0.48007465901195162
-0.37127791582313552 -0.066239493732307614 0.47930258733640474
-0.35211668912641425 -0.070445092427219719 0.49049345776361314
-0.33161088200186412 -0.071497479077232071 0.50140355437037276
-0.31351341544354505 -0.058369259933249762 0.51902524260367544
-0.31658590086163862 -0.047838974120462459 0.52533172022296348
-0.31940703225537936 -0.038603520355125077 0.53057718221501182
-0.33525328850313041 -0.03315446445161422 0.52863561536307702
-0.34843313265579379 -0.032651888202887579 0.52187080750943826
-0.36085544291195387 -0.030099051309111915 0.514959479107021
-0.37519217089477003 -0.03190105019261795 0.50071551897429267
-0.37933026460543978 -0.040080813808259702 0.49135887218362595
-0.38393445704227319 -0.049351249306164503 0.48047278800897486
0.068366282655742891 0.34115667117034143 0.43790855876348828
0.059313813307278543 0.33899949580018363 0.45159123584449928
0.049994636574035273 0.33646607668073536 0.46485043166167411
0.093565258214131045 0.27338158481296604 0.48015159031941407
0.10549966479387604 0.27056928184821116 0.46748768294401788
0.1168489361513526 0.26765379822515378 0.45424483057090703
0.12358761845713144 0.28637407529966807 0.43513266659065442
0.11338751433440335 0.30721905155836582 0.43054151808511704
0.097791804104148047 0.32640743574134767 0.42686102622113303
-0.37859488811252057 -0.10428497782562582 0.42840345602398211
-0.35422699376989747 -0.1104454444446664 0.44322311636240391
-0.32799494734055606 -0.11237022197653737 0.45745666427008536
-0.30298206106300785 -0.10005229327244464 0.48157547850762988
-0.30529182330780114 -0.090063539925075473 0.4923813219297199
-0.30776291669275962 -0.079859337226920207 0.50246469711233455
-0.39203344483641273 -0.068100636580962742 0.45546586336024275
-0.39509841937312135 -0.076923587354861142 0.44189652551075476
-0.39776909763268575 -0.085526028838793691 0.42790121866098291
0.079748458841776823 0.25993296678458877 0.49710907468657956
0.07423192080709011 0.24429009781888064 0.50249117933872656
0.064520884646563345 0.229678168462323 0.50774020088723626
0.060744448063062326 0.20849512952756696 0.50273654039467963
0.069684608645048982 0.20055829688528831 0.49189048716091649
0.078042114917878658 0.19277470263399718 0.48032684334973957
0.10449506227161454 0.20242490841596864 0.46173205534431605
0.11789784179908523 0.22197334696137697 0.45454021161359126
0.12585482195534714 0.24297390459423271 0.44735800373871754
-0.27335825629815869 -0.10300386538595054 0.48138673827866518
-0.24691563730405564 -0.0920935616288516 0.49023264136486538
-0.22253206391876978 -0.07771350399181258 0.49679165191869185
-0.20905817566574364 -0.053276628134361778 0.51085437541282253
-0.21708611231888114 -0.046144346536350966 0.52033716147717102
-0.22568091289438985 -0.038940145703760858 0.52889356771380247
-0.25092384047147814 -0.044641857303981257 0.53256889516057182
-0.26930125286362444 -0.055518996790822839 0.52720361546265937
-0.2894292683147584 -0.063876296598412582 0.52011786797843418
0.030550627993294228 0.27399091226294225 0.52955463224671173
0.026825538160126124 0.26393622433831809 0.53285436561790767
0.020404664485514611 0.25444944579251394 0.53603034584624032
0.019116227371866946 0.24042798309158572 0.53386647943785959
0.028962988540297017 0.23327172093214224 0.52790199105445823
0.039952480687447368 0.22513520018472113 0.52083779968000876
-0.24570868813184726 -0.024174537343150521 0.5413727439117072
-0.25631305437828372 -0.017091417656060568 0.54536572082174195
-0.26582847162722639 -0.010894008001776562 0.54857126213188834
-0.2832557922832098 -0.014648483821124138 0.54892105257844448
-0.29510655136383845 -0.021951758863808828 0.54521301363663599
-0.30811197723705402 -0.027684475337242359 0.54051685103280223
0.00059104892891619423 0.2389038281337055 0.5412802633854864
-0.012032617621136341 0.23339006628939676 0.54302460534783403
-0.025815426705797923 0.22953525163911512 0.54398562339507395
-0.038293843397948155 0.22004700159653626 0.53952708912014946
-0.035903390720375863 0.21043377870350519 0.53430888571954038
-0.03329501730639272 0.19954988929876741 0.52814888469677368
-0.0078582680930114664 0.19142950844174955 0.52083344202991033
0.013902739569523669 0.1973258332822633 0.51928798084785743
0.03377880274369835 0.20580722701426782 0.51643288715555247
-0.2227444903825791 -0.016862892371851221 0.53752244521569703
-0.21404287525224008 -0.0009630218745869043 0.53709646602042582
-0.20928965414986994 0.015452946565354647 0.53492283333431012
-0.22234375125291145 0.032533055069554631 0.53730106642751529
-0.23582160190174284 0.033000004713215583 0.54220557783348844
-0.24785143383765779 0.033350190811371902 0.54625394723591425
-0.25720520269842012 0.023678274974092688 0.55204693643229241
-0.25999661489091208 0.013429886771783174 0.55307091954822529
-0.26534913890824785 0.0033842847733162804 0.55290189657218858
-0.02821173821518156 0.17771118844055159 0.51214695593667425
-0.025889690204141492 0.16754073138778394 0.50243436178844858
-0.023655140866105907 0.15767017815461284 0.49203642566523498
0.008292597489511562 0.15178211032380939 0.48080465888238449
0.036886813978938497 0.15944588066275456 0.47827110531256184
0.06319888241824774 0.17064135026279209 0.47402709156536188
-0.18436969178027457 -0.04058360956043492 0.502425693210933
-0.17214008302118 -0.019183506745179126 0.50161659034757988
-0.16506749099309287 0.0029872310387921916 0.4987522812938448
-0.17411748397813898 0.027060449844915235 0.50439672064183749
-0.18494759564711999 0.028910165913770269 0.51427623313841586
-0.19639102200227876 0.030519107675313961 0.52332911003538629
-0.053680011348634961 0.18824105498896229 0.51905015781079111
-0.076115924967833148 0.1910869135048581 0.51589738412601904
-0.097187424519337873 0.19679498719751884 0.51178694811917924
-0.1208240306789299 0.19657267053192864 0.49725698606944618
-0.12476328350899124 0.1882777225150816 0.4865787241470319
-0.12818519156856487 0.18026459731298303 0.47536351483646977
-0.10716481303270922 0.16062410610551234 0.47027300530807514
-0.080151305240731191 0.1525248661804785 0.47559644924511735
-0.051265729628802069 0.14824871393754974 0.4794154885997991
-0.16816089504254023 0.046284827287714853 0.48794245168244171
-0.17823991545270057 0.065909617249366378 0.48043851308201518
-0.1933003631621561 0.083303059750602371 0.47176180019388342
-0.22112922640098659 0.09517809695383242 0.47334831205632139
-0.22961147355746131 0.092305693702308428 0.48433160082944132
-0.23842541666888922 0.08893457620463846 0.49475302951220457
-0.2325680946057439 0.074383221648389494 0.51218954452704746
-0.22076571144758628 0.061731549125666016 0.51947672725649563
-0.21270351700691376 0.047359253431543694 0.52589365765456519
-0.054904859390072169 0.22726104981775222 0.54296924524613488
-0.069263477904499854 0.22893188920462362 0.54110090819758661
-0.082886576222786973 0.23244031907443244 0.53866697839778421
-0.099119137827819503 0.23161435527406679 0.53031997891553972
-0.104413634907291 0.22361694209074576 0.52365670700070033
-0.11035751019828756 0.21457424670783085 0.51592807756665815
-0.25771364928244023 0.079698881977278452 0.51278353447852598
-0.26746449485381951 0.07436709176950608 0.52015820894098685
-0.27610200763739062 0.069602696738533074 0.52650242239462697
-0.27279948342931132 0.059813183830864328 0.53724456941555276
-0.26508474591225906 0.052104647717699654 0.54219867395984123
-0.25978600116672457 0.04333202339282316 0.54648032074986796
-0.10609304537638184 0.24487228547378162 0.5331248827220626
-0.1148125326592544 0.25336241215314426 0.5303146606379473
-0.12107065349699798 0.26282308545626032 0.5275349459594606
-0.13064648770019061 0.27045761334943197 0.51794169007180946
-0.1390858349378693 0.26750130031959662 0.5095304929986586
-0.14853966330419988 0.26418944064857097 0.49973528936848094
-0.1533904109774567 0.24479431972501578 0.49296888108444603
-0.14467601399896318 0.22985969795981179 0.49756653432014003
-0.13209322757719949 0.21650300564822286 0.50233850109813816
-0.26590170563139215 0.092528218796733119 0.49619759848537803
-0.28613339316906999 0.097330456081889033 0.48785888995315668
-0.30750495953368212 0.099031701045245085 0.47938135309222318
-0.33124170112729706 0.090863754864256491 0.48247714354323057
-0.33311262128394586 0.08421929705365605 0.49292775671319028
-0.33473397603580013 0.078341106133233585 0.50194340417762739
-0.32206858754625667 0.075054378872462579 0.51493161538835253
-0.30803562196133594 0.073966068974883684 0.52062976892002388
-0.29470360833463599 0.070958070368719275 0.52629885338857618
-0.16553804704251301 0.25735550683113895 0.47656032597918829
-0.17220794448044635 0.25402893416800798 0.46359803432068364
-0.17814655560054499 0.25073847265275828 0.45008543211579422
-0.17858004156100116 0.22592653034124702 0.44262485479877522
-0.16770552693609131 0.20575778321730451 0.44962095995917684
-0.15174525805021921 0.18767494583397512 0.45685062407975879
-0.23624841059397089 0.10874329414038392 0.4515734152305671
-0.26240986920484122 0.11580492811835971 0.44043733736645513
-0.29010240164633655 0.11866239948683849 0.4288815247918033
-0.32106479020544443 0.11266810374480093 0.4311384374636088
-0.32392204210798242 0.10811853842263941 0.44492537752441719
-0.32662313097781931 0.10311828619879862 0.45823602040852657
-0.15735007798400913 0.27711773115545346 0.48490856815990507
-0.15239096100002791 0.29330516844075627 0.48163285768738767
-0.14315532846493473 0.30866671439023086 0.4789038064607386
-0.13474834956344317 0.32523882602310861 0.46379972962013005
-0.13859922500270266 0.32750686054628442 0.45007551344271052
-0.14178691904086965 0.32950690699966834 0.43583739597073812
-0.16251416196787183 0.31249744015060577 0.42366416506611115
-0.17526458401227429 0.29163292878650371 0.42688455480310195
-0.18247323905673979 0.26966190318691574 0.43107353685805849
-0.34529332876264968 0.11047042770929563 0.40533734275112543
-0.37076156957942435 0.099656300319606012 0.3941508708067939
-0.39369778145123907 0.085108807844323175 0.38414923625137704
-0.41113527259408955 0.0659047458198012 0.39270176368302961
-0.40870312165084327 0.064290022718382189 0.40928372092517945
-0.40566986929867016 0.062411348348826293 0.42548128958437764
-0.38693548018352586 0.073329667563520828 0.44696493519791852
-0.36945843158417996 0.084203089401476749 0.45417422045113448
-0.34995846524840968 0.092370000536883518 0.4622804992687537
-0.12458356807748819 0.2830211011915843 0.52223498516389055
-0.12162290136859663 0.2930315804876743 0.51983505215901782
-0.1157709295936 0.30256011675650751 0.51770689894335042
-0.11139708256189107 0.31324984851047999 0.50850491857064684
-0.11723430220050643 0.31610038207159641 0.49934344813928588
-0.12373451799559662 0.3193650678596538 0.48868069673816295
-0.3965977446066114 0.057332730786088706 0.45595664906458744
-0.39113698220600746 0.054442026616217359 0.46950052343889848
-0.38622989065516206 0.051904205409074561 0.48119256626151402
-0.37322513800691592 0.058647298274368057 0.49410755028406694
-0.36205367229849295 0.065620594435372409 0.49861486577211983
-0.34957834855834047 0.070840131259981828 0.5037585638804154
-0.096150752320087032 0.31889886766893139 0.51457655626210275
-0.083126877396687504 0.32506401641321503 0.51363997429533614
-0.068700183475959728 0.32945818917533864 0.51310364908953132
-0.05234012638728798 0.33571206108489371 0.50554959394031063
-0.051088489521837192 0.34115140584216108 0.49630664206151492
-0.04957102035302622 0.34733313931683274 0.48554234040416477
-0.070960253442212809 0.35022989519488379 0.47369510589495506
-0.092974178801648058 0.34372641255833192 0.4742187954255237
-0.11289967989987376 0.33438156903241634 0.47521533582141356
-0.41320316776315197 0.045011061986209466 0.43703814771622346
-0.42113312367575795 0.028635910900765754 0.43495601162095021
-0.42531933068975042 0.011691685908074193 0.43504221370396834
-0.41806008718208859 -0.0012567224624350781 0.45290031416797971
-0.41036811143766544 0.0024092884427652506 0.46696680648574107
-0.4034969703626064 0.0056310687953631047 0.47907024146512622
-0.39842498288423578 0.018940294298512322 0.48696417851384072
-0.39561829983704799 0.02983611873822388 0.48680884820645948
-0.39030749050372077 0.040399752770097552 0.4880210676695883
-0.045347610565954162 0.35896367455526534 0.46071862361483951
-0.042657844806603264 0.36385838345801669 0.44719847630964865
-0.039737291340953516 0.36838367570216313 0.43323474061665523
-0.06704959123634853 0.36860123584549642 0.41884098250713891
-0.095858406092295234 0.35997055921315302 0.41906501834056498
-0.12207370642890755 0.34737949915641175 0.41985458643691742
-0.42863380641905563 0.047051563494258125 0.37008443608610075
-0.43948865473019505 0.025007300285547297 0.36695921656206709
-0.4455195645664205 0.0021608756304484431 0.36689505036969555
-0.44196167657299917 -0.016727242503656582 0.38750992102195658
-0.43720200913510937 -0.012870945029429863 0.40460008931146785
-0.43183407690981052 -0.009009106502317319 0.42131920047315424
-0.023997115471612655 0.35321074308871281 0.47378564410638074
-0.00081520989603127685 0.34957591975180025 0.47443601600045932
0.020920264186584662 0.34287383296480023 0.47563047407437442
0.052355755613739348 0.35655753900861209 0.42192462907949513
0.024229548495488328 0.36626241717786956 0.42047672017736554
-0.0058656789865508298 0.37179908104458159 0.41955618003685069
-0.44187151820982712 -0.04231151477428173 0.37731948775263896
-0.43234923438485473 -0.062289016282002924 0.38741431844423257
-0.41831699460688698 -0.079771684011768138 0.39978381244818817
-0.40270021146839363 -0.048633725738148018 0.45833744047309383
-0.41390062622374402 -0.035857386907237943 0.44955079853222707
-0.42163392293396756 -0.021173691437575505 0.44245796620404976
-0.037857770808027366 0.33162305437167561 0.51317704832544697
-0.02260886274478837 0.3293178398710388 0.5137962270309262
-0.0082904690276174413 0.32508942187931023 0.51483399807558605
-0.3819352078347738 -0.019168939532853247 0.50190866080368068
-0.38983829090446043 -0.011192947960319045 0.49635374436107721
-0.3954757346699237 -0.0019691956221093918 0.49182261003447691
-0.0043847208177964564 0.31679794655470528 0.52844003378444138
-0.0019718292037722296 0.31756801254329181 0.52530906183988735
0.00052655658751557533 0.31806214443501502 0.52150910562257513
-0.054442840922222083 0.33001498194588141 0.51820156368025172
-0.055298973394615092 0.32923300483886742 0.52207087453055301
-0.05590247901632156 0.32814323746690166 0.52533705519052332
-0.042878645899465266 0.32556787850675428 0.52869264303885766
-0.030154201720817172 0.32389341323294674 0.52902453529892235
-0.018584134456949425 0.32005095442567266 0.53013344665422357
-0.3758413495957838 -0.0088389441763287169 0.5183671520673534
-0.38302328530273683 -0.0027253608051726053 0.51352683891811624
-0.3875909568396092 0.0049157578973495278 0.51008606198990014
-0.39376469624931493 0.012093155635598332 0.50322166868401919
-0.39528684173095852 0.010999410064137911 0.49938797806192087
-0.39629057813371926 0.0098334563623026019 0.49494263950965534
-0.37082144846801368 -0.021877443022220625 0.51348851697933329
-0.37020725545407973 -0.019527131164720376 0.5173433998473993
-0.36929538465437672 -0.017253438554413029 0.52054746136795971
-0.10568948559780018 0.31069025388442717 0.52137534091487281
-0.10527537609285609 0.31065484453279124 0.52549363213791001
-0.10443563615729809 0.3103804190478775 0.5289297376915707
-0.092507276137324526 0.31563930184356837 0.53072706747447795
-0.081789792497081376 0.32088519943440819 0.52945986133309231
-0.069402644989073392 0.32404295888531187 0.5289219823349246
-0.3908558968628984 0.022548872276847577 0.50614249948399548
-0.38932505549355068 0.031613877689037659 0.50584683610331682
-0.38472331347812833 0.040355062119076593 0.50736326830146161
-0.38063410458383007 0.049533663900292221 0.50541774173249365
-0.38134882509883383 0.049674956680721249 0.50144235513138502
-0.38159236298846516 0.04964984919449697 0.49685384489442341
-0.12177237174829567 0.27445055617500569 0.53004605805896687
-0.12062762125080032 0.27553719344544803 0.53403971034357411
-0.1190788333024685 0.27637070122956731 0.53724938269378342
-0.11604164395045609 0.28585599735276535 0.53778816959575115
-0.11436757544499708 0.29419168998104606 0.53561109852235211
-0.10924145483119313 0.30192248424751444 0.53387522435770141
-0.37033327593307958 0.055882532531195031 0.51283229080345527
-0.3612644922890722 0.061830266997495498 0.51637352068393139
-0.35056162552262027 0.065776129579979845 0.52090388596782644
-0.33880255911369589 0.070589981418977141 0.52233621915545358
-0.33827899008407913 0.071503744327412813 0.51884286268655777
-0.33735517665517134 0.07222389951203359 0.51470359387903641
-0.093846642728639587 0.24125589517121068 0.54046863399546474
-0.09344110142038764 0.24331552599480136 0.54410121299330938
-0.092830260612612472 0.24516053379139244 0.54696287259194187
-0.10027064775786704 0.25370570426059003 0.54684252227607089
-0.10793258721240787 0.26052575853217741 0.54450223027276023
-0.11268770989066482 0.26856652718179608 0.54230792989804044
-0.32662598521970521 0.069449830413328056 0.53051647556568182
-0.31467080554067844 0.069057400638392955 0.5351835326844856
-0.3036385843071886 0.06642461608656279 0.54000850115229559
-0.29061611680416921 0.064093818361435156 0.54267001982256924
-0.28866245871035806 0.064594447529277774 0.53985945266942281
-0.28647974636672252 0.064905429473120183 0.53628610566659574
-0.041633411700576654 0.23172105126911027 0.54799025323907646
-0.042628583367657749 0.23429540113145172 0.55134137701254116
-0.043498357881225337 0.2366250232110382 0.55396362192252979
-0.057048831123913991 0.23948489675494697 0.55487974252180761
-0.069173111218587297 0.24030654994904119 0.55338473910844965
-0.080390866884461565 0.24334651094221652 0.55143406152090346
-0.28491420742983398 0.057205529573951155 0.5493903611566473
-0.2781973553636613 0.051093578089036001 0.55354036408158991
-0.27435163636342225 0.043687850731681674 0.55703369870392727
-0.26797439161461051 0.035532554438639535 0.55874895450556006
-0.26518375533036509 0.035100428915149487 0.5564720142425057
-0.26221482949919162 0.034430771206818755 0.55337782197235241
0.0074667636406777552 0.24922937624361349 0.54317002894215483
0.0051310975045813501 0.25122188461478612 0.54669726124319029
0.0028728883823857 0.25293152196414781 0.54950159325472647
-0.0099465627673940814 0.24919308742383187 0.55369244013590091
-0.02018514704233268 0.24441275985711089 0.55512649692762639
-0.031947983007168029 0.24160068206817084 0.55582165409153039
-0.27200325799375197 0.026981538511004488 0.56187962334275077
-0.27359814322838194 0.018478930418667015 0.56289776077492726
-0.27826163693052763 0.010278683031562409 0.56258950122534068
-0.28154526481541714 0.00019305166915501576 0.56005918520944031
-0.27941469134728375 -0.0013981354963537793 0.55776733804935641
-0.2771424874814491 -0.0032126643817448064 0.55475559481213244
0.026136500951035375 0.28537138455643229 0.53108012658920578
0.023085900602267985 0.2861910732979196 0.53466424065276863
0.02002997848327492 0.28665434353198593 0.53753541397287374
0.014983098948013154 0.27827402283277036 0.54306087782527213
0.012614652895433766 0.26995143642284736 0.54600657015832688
0.0069072824696671063 0.26228956909237233 0.548948411563281
-0.29329905698483294 -0.005112173579223403 0.55870424018499298
-0.30286345488857019 -0.011483213115070272 0.5553170376429124
-0.31387740436297873 -0.015912752570015568 0.55098303601643006
-0.32475559820036309 -0.022566000151478548 0.54411593890169563
-0.32406860458472209 -0.024970485235692213 0.54169165326681901
-0.32314447939969132 -0.027469255362638237 0.5386466323902005
0.0014153129596486836 0.3090714251797857 0.53312911420965992
0.0088284587566230845 0.30252041675477437 0.534937678846783
0.013052315861084053 0.29497262731195806 0.53736986665719322
-0.33689683014115746 -0.020512844071187284 0.54046812089058438
-0.34775458621423799 -0.020435695969513525 0.53483017795773546
-0.35776470235656838 -0.017921005396610429 0.52933281013827926
-0.014458166996534638 0.3107925544296527 0.53561083802754372
-0.023362808332132785 0.30472282369479087 0.54014397191082031
-0.034670373348051911 0.29670606590422532 0.54499421789505664
-0.025268099034269569 0.28514557823857356 0.54862582468134757
-0.0080177024871644371 0.28602508037399854 0.54590703480505187
0.0054277959105908692 0.28656695692137235 0.54302042437035503
-0.34693472390326802 0.010865071000669732 0.53827555015251638
-0.35579846422354672 0.00041925688956366558 0.53299582648016397
-0.36254592955509152 -0.0078448882361409136 0.52811202194230955
-0.32660075281487844 -0.012185559058352495 0.54722491565809428
-0.3280166745076552 -0.0029108836077219521 0.54775257825480073
-0.32971371184398629 0.0088679645907110138 0.54734791632567747
-0.031574444703251027 0.27243291301848871 0.55322224276315302
-0.018418074826387319 0.26519215234044391 0.55361460513969196
-0.0081580355254441891 0.25946662892821948 0.5530247910769317
-0.29172396463887079 0.0060871401886559914 0.56048790095943057
-0.30120428426158763 0.011121682955857054 0.55801639478654441
-0.3134050845394285 0.017396403877825269 0.55361124850388377
-0.04942544849892562 0.26612022577416083 0.55487104676092946
-0.04749522442295024 0.2550414977379587 0.55634596881096354
-0.045832951172953759 0.24634180449323692 0.55659066900656329
-0.28091246817742704 0.034713265215786424 0.55932895000205773
-0.29285607215271597 0.033216967818418403 0.55714419489876632
-0.30821466004529746 0.030991487773705709 0.55316287885787241
-0.068509990778827884 0.26944643679671154 0.55240779352476854
-0.078458798243633873 0.26027204429847528 0.55206374476810782
-0.085911574147010131 0.25308747680177279 0.5509453732705708
-0.29916106164320261 0.05788090297283241 0.54635358997548744
-0.30697188192706537 0.051101029253374147 0.54716168496346451
-0.31699393900369316 0.041996044561400964 0.54707677724767501
-0.078381941762017959 0.28129026409150615 0.54861400599284482
-0.094648460517486224 0.2796999043717483 0.54597661947441511
-0.10697366013884928 0.27833301068550687 0.54308532773266638
-0.33821809156690502 0.062921323469629184 0.52992979708822685
-0.33703318975192503 0.054939637025391799 0.5344390401179302
-0.33529223028721394 0.044308291104705411 0.53912019431108904
-0.072791537912912985 0.29436573124032694 0.54534362271661618
-0.085663973941898355 0.30098426162219538 0.54075053685143182
-0.095326137936677255 0.30590894083536069 0.53634193422964749
-0.37222650644101768 0.04595343576275801 0.51617557136488057
-0.36330894446226897 0.041841556844039077 0.52384199686984956
-0.35146856053869485 0.036217961592975287 0.53266246831422759
-0.054328392516515105 0.30088419613494044 0.54382196925018511
-0.055368572219384363 0.31175132455008325 0.53826788969343953
-0.055980674434092575 0.3199840279983206 0.53317119659633017
-0.38241698403287411 0.015715258078542238 0.51419774969060228
-0.37107893506392187 0.018585137200746504 0.52233871832002343
-0.3561977515979754 0.022065085711377615 0.53186359632558289
0.39750359794167139 -0.2297372027575873 0.5771061051328783
0.4133719765035464 -0.21892620037523139 0.56441663614480841
0.42807656157268109 -0.20839653993448726 0.55123496054272803
0.44097090616211904 -0.19092912859599595 0.5490215054874612
0.4376357627439123 -0.18386357547816712 0.55953133145617406
0.43180094615466497 -0.17734930405603436 0.56983404622932299
0.41309117696579478 -0.18052457474740413 0.58889592149715286
0.40087036664866565 -0.18995758928058037 0.59835772479350813
0.38721016235528355 -0.19968316663641369 0.60813295009367563
0.37595188398301965 -0.21724431806397435 0.61203286250464484
0.37869390177120632 -0.22509710591844229 0.60551158795272353
0.38028807480938931 -0.23293383830002495 0.59788334789430087
0.35661686932008385 -0.21888561706346898 0.62675702153047519
0.34057393448622186 -0.22781814436892031 0.63503275730762831
0.32487162546748255 -0.2359541293262562 0.64247626731893481
0.30849122554628194 -0.2546412142735679 0.64513196653518512
0.30733695979972203 -0.26529742650844895 0.63961912326040116
0.30617534360035836 -0.2749885909495689 0.63227973714574848
0.32364085227942263 -0.27336696560590268 0.61608367430289812
0.34300095708924389 -0.26266501443193879 0.60819857409316025
0.36209398187378805 -0.2517342515965163 0.59916179814966597
0.45417679658531351 -0.18865416279919225 0.52523935236529351
0.46482413265592448 -0.17937205791016103 0.51341799153110945
0.4728129657110951 -0.17023305280465711 0.50308990118589481
0.47463216624681454 -0.15551214118554174 0.51056142331600696
0.46756075680453779 -0.15002086267754167 0.52661882828597051
0.45679657562784165 -0.14475879312651924 0.54265522494899898
0.44216963655974451 -0.1482722382395322 0.56181682778886222
0.43845678724933623 -0.156028844950377 0.56663417602245203
0.43216820980154763 -0.16366366974596022 0.57278043814301083
0.2970045704157756 -0.24878352783686919 0.65444619413061123
0.28493414130444161 -0.25291139600619184 0.65895018056252685
0.27339355539777105 -0.25511203395755228 0.66257918926424186
0.25606731036405239 -0.27185834223219507 0.66242321159771445
0.24993514040720766 -0.28738946731075188 0.65741005039705835
0.24350871938044066 -0.30113902520613567 0.65003736831342374
0.25209067442916772 -0.30871145222073315 0.63759204481418186
0.26856166168260676 -0.30211885208946487 0.63386030107892433
0.28608999566982929 -0.29353466541646844 0.62892701584950073
0.47764073857934775 -0.15163746051698515 0.4890366110108898
0.47378533902177555 -0.14158815800281627 0.48545883925873135
0.46588025067249134 -0.13049710425864444 0.48366784414544201
0.45533747154670628 -0.11362540161637676 0.50156920309212549
0.44855770475768847 -0.10849160153867815 0.52017125848084045
0.43553140440996529 -0.10327488483322425 0.53853955363573769
0.42782901176382798 -0.10951216936215386 0.55546642412420777
0.43546339967376158 -0.12020230428103185 0.55544912790407319
0.44064274449109214 -0.13044107008608996 0.55633191925561909
0.24976285452429436 -0.25252492446817543 0.66754956311160574
0.23732881156538727 -0.24783625857371147 0.66889882495515518
0.22473546485886026 -0.24142109162229777 0.66938959787118324
0.20571869527694858 -0.25317759126131512 0.66604881470891941
0.1987955248905201 -0.27084691539580907 0.65997616551270233
0.19106848885092764 -0.28521234282272234 0.64992908618128964
0.19643294875877665 -0.30390264466821149 0.6383155208937209
0.20977735235332023 -0.31000439103350208 0.64024659759397262
0.22299434374484756 -0.3129464986723659 0.64082297981456349
0.43831074962443833 -0.10356749353801288 0.48391091245887285
0.419145668682261 -0.087741379908824912 0.4850691864393486
0.39692939264571508 -0.070897983808478587 0.48626430380424546
0.37726318348015986 -0.051983688622286146 0.50649777780199856
0.37464196441015335 -0.051056444870621887 0.52551234458814156
0.36621577199713118 -0.050958892003124916 0.54357879314801849
0.37541090033062624 -0.065256009827403982 0.55947279190821519
0.39269922590607992 -0.077108284279549452 0.55837350056011781
0.40666442627951394 -0.088073768902998478 0.5571775959650862
0.19983250970735628 -0.2250164321976279 0.66749016974517761
0.18678547104755344 -0.21498254340306647 0.6648222200395959
0.17210636901221221 -0.20313237191571018 0.66074113434531889
0.14343100216389348 -0.20419647305181479 0.64984134468933896
0.13206096527082134 -0.21799085170009341 0.64104084548445583
0.12079752466397166 -0.22884190513800939 0.62782882317252064
0.12996945267964077 -0.25253386435129138 0.61794917796907844
0.14887905292028542 -0.26859670338373909 0.6250232566762226
0.16631971940660628 -0.28285882318432243 0.6307118858506765
0.34494823044220191 -0.035829251523100993 0.48679637567422418
0.31693218493347075 -0.018839660945737802 0.48586630165411449
0.28936361582756909 -0.0033032405646643559 0.48443672922714104
0.26452316140977061 0.012389986119992653 0.50284405860997627
0.2600621354741468 0.013087587068119702 0.52259918381364012
0.25162590984236938 0.012057656432508529 0.54116254785587692
0.26882432061717326 -0.0049340176605943212 0.55911469537204261
0.29855048525178451 -0.020661864315910675 0.56002606603826788
0.32765977571467131 -0.036727048170183497 0.5604068993257767
0.13414476011436222 -0.17219465014162744 0.64753250072988244
0.11162229934276838 -0.15395752049000802 0.63884249741876853
0.088987579352930904 -0.13560453577657694 0.6296150202883497
0.056308825963206605 -0.13246248344557582 0.6120312609918559
0.045513876069710697 -0.14581130188369684 0.60012012414336025
0.036000998434496334 -0.15714627776372875 0.58478398418874045
0.046113241579820718 -0.181363558901322 0.57692054274028637
0.066489957515939266 -0.19891159863552632 0.58821114046451362
0.088098867652145529 -0.2170846317761353 0.59925771083052704
0.070909619282023412 0.10530931146763448 0.54081363543371708
0.092673516011265181 0.097654901575476488 0.51722096282752172
0.10907139957155548 0.090037572016804596 0.49436929939729113
0.1279676670765888 0.099093026969073766 0.46747319047501906
0.14095171492569242 0.1182668416339123 0.45855707560918935
0.15648525197322272 0.13997518430069819 0.44872284879151941
0.16256952799855801 0.16976553599195751 0.45423572703193116
0.14955271921120661 0.17780934325671671 0.4697236907532969
0.13456768304731698 0.18633893754977929 0.48410526815699262
0.1007027880832357 0.17346309911330471 0.51023307307755172
0.080191265204239845 0.15334711852245958 0.52659567399292606
0.059256137763468247 0.13373898053735617 0.54416139786318651
-0.11731080773990551 -0.013934439210644561 0.57092880327625817
-0.14561289841955244 -0.036185780396553111 0.55933878585532293
-0.17396240287249337 -0.057860340347916525 0.54835589322951639
-0.19493979953924762 -0.090608585742963738 0.5310747812293275
-0.18767557658202161 -0.10397188261000294 0.5214215364312581
-0.18157839845262708 -0.11641702921378617 0.51001870379778058
-0.14731165227671367 -0.11057789487299147 0.5025103101923134
-0.11879727783900587 -0.094923834177706168 0.50681266564100003
-0.093383235612288826 -0.081682108220651001 0.51056626311331144
-0.074694482460067421 -0.059558055255984781 0.53120607030881883
-0.077728818545347578 -0.041627862004011897 0.55013943007618082
-0.081229879553372172 -0.019794334186552364 0.56856463618827613
0.18468870046426972 0.18708791055377469 0.4314522506445142
0.19481860938377865 0.21160413105357098 0.42453277363749803
0.20241944520918242 0.23687724357587517 0.4177255623828694
0.19960368319282473 0.26972003508543629 0.42353546002029374
0.18786293924600889 0.27638046233805891 0.43630647261183514
0.17382694689586753 0.28172997319836812 0.44816470642945883
0.15435864603245059 0.26157087702069981 0.46584514239499097
0.14617573589277927 0.23868297996351431 0.47406899506447586
0.13446983828540832 0.21616510475430448 0.48387498496824843
-0.23171175634024122 -0.095098015259295593 0.52842375126416652
-0.26108404089466231 -0.10965055583580294 0.51889903578634611
-0.29044750717780171 -0.12160564034580203 0.50883039316277157
-0.31749350064301141 -0.14322764359108944 0.49189606261255325
-0.31278274142030443 -0.15470763348650624 0.48510721988109495
-0.3068713270743651 -0.16462727130976637 0.47676130768879504
-0.26934266681328822 -0.16272876539503783 0.47819387990455159
-0.23823181238224761 -0.15217948213484628 0.48667988469498091
-0.20766704346309867 -0.14017295338492075 0.49287884869020326
0.21038595778810554 0.29004591149845405 0.40135845231563622
0.20945052756058391 0.31775623692569199 0.39310766628793992
0.20338229828703236 0.34585311931747698 0.38758753770124998
0.18127973773217337 0.37640872732168829 0.40147418588288808
0.16819949124071459 0.37691626765393382 0.41635060045482586
0.15348024156255097 0.37538230816254514 0.4304565630482064
0.15018807494900555 0.35100268553170477 0.4434848982797811
0.15708454676189348 0.32946855053919821 0.4468457501123651
0.15994207925194359 0.30723112702686339 0.45214467159851973
-0.34812793980943918 -0.1380638801427746 0.48454972832651555
-0.37595296987373134 -0.14236366863663488 0.47064857272993549
-0.40278682372098173 -0.14365990097935233 0.45682593553252099
-0.43340155570888478 -0.15476631115366007 0.43332121238832066
-0.43592858406131862 -0.16783295134363491 0.42144459136125739
-0.43618822672652313 -0.17938096913926979 0.40884407459259609
-0.40107061269650035 -0.18989688161260135 0.41303984791686077
-0.36749203501314454 -0.18703440287997647 0.43180707672928959
-0.33407071477808781 -0.18066825376302922 0.45026328221527173
0.17029113441309612 0.40211463312649998 0.39306625164485753
0.14461365623813921 0.42785505318700434 0.40356498776484406
0.11649649811561612 0.44913265962848081 0.41579392917655583
0.083406054594649989 0.46112671270399819 0.43938073944771605
0.077357960057103464 0.45451459125896343 0.44970578885619444
0.071285036436946184 0.44494489031334294 0.45785332680282415
0.085317643427396228 0.4228395033478729 0.45660178291709302
0.10502201849024284 0.40841948115607662 0.45021579024975023
0.1234632208053882 0.39104211715605153 0.4452896928211304
-0.45253299709657946 -0.13608659755113295 0.43317667115052927
-0.47423475885490701 -0.12785746521370273 0.42452968630664789
-0.49252416975180524 -0.11790558144390929 0.41832104088769462
-0.5194124628189638 -0.11479316116967346 0.40346832775733188
-0.52990999271609973 -0.12250758588910549 0.39032979999364426
-0.53685440017232977 -0.12942925083059614 0.37613099424509289
-0.52162752345219299 -0.15156351175680466 0.36576895255697184
-0.49685661056151426 -0.1671424383339892 0.37266042146876432
-0.46705030713099943 -0.17980446001024233 0.38262143243136265
0.063886866037322923 0.46969484011808271 0.43511655755207262
0.04024997048033091 0.46878192910350769 0.44045341005426392
0.015883808541227847 0.46301323794836946 0.44400904426767657
-0.013281769332056544 0.45324735186649656 0.4606427286396706
-0.014153845362186075 0.44897281527177246 0.47257686222119427
-0.014017536099796602 0.44210493636716297 0.48149072608414928
0.011008144204555852 0.43862234738168082 0.48165610232769579
0.030870603299432621 0.44078828531103553 0.47616178740248305
0.048488039822776698 0.43921861698645503 0.47008567600791312
-0.5149680699661785 -0.096544009797335933 0.41418079919795048
-0.51903294193458205 -0.084790994645066925 0.41568151425131494
-0.51950499911248871 -0.070626767978928556 0.41848450582058505
-0.52743157944858743 -0.055030955363563144 0.41093431182025775
-0.53481676011980961 -0.057216241617908351 0.3965664188583311
-0.53879532703718069 -0.059331849990438973 0.38025721699207493
-0.54476948600481212 -0.08237573644972411 0.36145870442664307
-0.54841261728931012 -0.10099449721503267 0.36004177185489838
-0.54732866534782654 -0.1181305037122635 0.35990681299761956
-0.042557249430060624 0.44472394207744403 0.44907893486584288
-0.077161897146041394 0.43476792888532023 0.45114181969339556
-0.1135549674828415 0.42508490710896241 0.4525207065128386
-0.15480813702405405 0.41449636472117424 0.46779927560157419
-0.15624522399374002 0.41003262744225955 0.48100430761758123
-0.15440226585580746 0.40348979137695973 0.49130473996144747
-0.11419774197683388 0.40513117116720865 0.49601118245478532
-0.078295654655721914 0.41538148077599601 0.49367711228235261
-0.043787533511486405 0.42511399305601882 0.49048302641142061
-0.51320828909594929 -0.029973787220420489 0.42476485111468348
-0.50821541185619001 -0.0041921180911555223 0.42739952001810549
-0.50318335622122501 0.022587887394583422 0.42965075232443634
-0.50922357162390608 0.049660594471425221 0.42007262833519854
-0.51639186340773657 0.049221646777089414 0.405040857915065
-0.52001597539402533 0.047408201922763502 0.38812354735178145
-0.52253814416084798 0.016976276140812104 0.36982435057761043
-0.52707215943892527 -0.010601894073186961 0.36800892571311594
-0.53265496990053285 -0.03708333995895402 0.36584867617552791
-0.18630406973255098 0.40897572698507045 0.4521154442276254
-0.22005280362444296 0.40207499745433084 0.4505154548425398
-0.25037501696623654 0.39449770548194907 0.44859975028355714
-0.27737571277077994 0.38312597248330416 0.46255677339360762
-0.2732485875253573 0.37887560064899806 0.47715530210072804
-0.26402488221924764 0.37282026226192699 0.48912187589150924
-0.23088631338234011 0.3732607991964827 0.49740754668842319
-0.20751101926040705 0.38035456163099579 0.49784489064023879
-0.18015026639210335 0.38748012337482152 0.49796071759335087
-0.49657141416426659 0.071226686468235476 0.43286666663877138
-0.49466554116424172 0.091295942595370855 0.43426674368231694
-0.49206694288594904 0.10878509580725085 0.43615399823150741
-0.49947517234809491 0.13123049461291444 0.42696285056261229
-0.5078539453086417 0.13636270034436174 0.41129734666801965
-0.51224014683333685 0.13904420318512678 0.39377448803160703
-0.51682308151347744 0.1187808469098251 0.37317044322163195
-0.51846247129842138 0.095951809487956286 0.37188179896719942
-0.51881716529189936 0.071046592908579329 0.37145877271288485
-0.29571347693501426 0.37297496794292695 0.44566622424873265
-0.30919525001362091 0.35825171077129014 0.44537760781146191
-0.31618127005364816 0.34129509591908203 0.44623165952205246
-0.31575375266739864 0.32237756187199385 0.46446425043713452
-0.30913731507997749 0.32146640403975835 0.4794493258100409
-0.29742653298575372 0.31959570429712758 0.49188616501011462
-0.28086215524664537 0.33161150031897213 0.49819203299880976
-0.27528168471530412 0.34464049013788556 0.49712371003352274
-0.26496151657337236 0.35586311791046898 0.49678402097854679
-0.47991529717299503 0.13678099016661538 0.44327082938406215
-0.46883554050363763 0.14736101916269725 0.44891870971781855
-0.45400829791261682 0.15550781398830435 0.45589185453724257
