# XYZ point cloud file
0.27690151333808899 -0.35087153315544128 0.40325534343719482
0.31164106726646423 -0.3608773946762085 0.41248515248298645
0.26498422026634216 -0.36116445064544678 0.43246620893478394
0.24616055190563202 -0.34381452202796936 0.39350125193595886
0.2958759069442749 -0.33992937207221985 0.37850335240364075
0.33078965544700623 -0.34692728519439697 0.39037272334098816
0.29976582527160645 -0.37461122870445251 0.43891456723213196
0.23398424685001373 -0.35023406147956848 0.42594900727272034
0.26517444849014282 -0.33622807264328003 0.36556583642959595
0.57269728183746338 0.028559911996126175 0.39010629057884216
0.60732024908065796 0.038148935884237289 0.41819733381271362
0.61903113126754761 0.014091722667217255 0.37807607650756836
0.53694558143615723 0.014194484800100327 0.3645225465297699
0.52886605262756348 0.04112500324845314 0.40084663033485413
0.55868625640869141 0.050940569490194321 0.43035346269607544
0.65774112939834595 0.023330476135015488 0.40457254648208618
0.57885301113128662 3.9584934711456299e-05 0.35492768883705139
0.49824985861778259 0.026609752327203751 0.37295493483543396
0.28891012072563171 -0.39952313899993896 0.54782736301422119
0.33043724298477173 -0.42075368762016296 0.55128991603851318
0.31113976240158081 -0.40838953852653503 0.58907556533813477
0.25038030743598938 -0.37940320372581482 0.54404628276824951
0.27153828740119934 -0.38639369606971741 0.50600874423980713
0.30974292755126953 -0.40571427345275879 0.5094611644744873
0.35608839988708496 -0.43091639876365662 0.59285366535186768
0.26882603764533997 -0.38656565546989441 0.58456408977508545
0.23662935197353363 -0.36863678693771362 0.50258517265319824
0.34089896082878113 0.078624099493026733 0.45215862989425659
0.35792732238769531 0.074781030416488647 0.44411301612854004
0.33163127303123474 0.081203192472457886 0.42565459012985229
0.32523742318153381 0.08179791271686554 0.46002432703971863
0.34900122880935669 0.080395311117172241 0.47884881496429443
0.36753582954406738 0.078310281038284302 0.47324934601783752
0.3472231924533844 0.073535323143005371 0.41265267133712769
0.31728783249855042 0.086302921175956726 0.43751066923141479
0.33197891712188721 0.082453399896621704 0.48469927906990051
0.10259625315666199 -0.28276032209396362 0.53446030616760254
0.088754862546920776 -0.28723514080047607 0.50644189119338989
0.11570054292678833 -0.29241600632667542 0.53142094612121582
0.11143636703491211 -0.27980488538742065 0.56259024143218994
0.090937122702598572 -0.27363511919975281 0.53785800933837891
0.076896309852600098 -0.2784864604473114 0.51432240009307861
0.10351349413394928 -0.29601892828941345 0.49761036038398743
0.12448395788669586 -0.29006943106651306 0.56262564659118652
0.099442586302757263 -0.2702440619468689 0.5635218620300293
0.42509463429450989 0.063139289617538452 0.42481416463851929
0.4547126293182373 0.058183740824460983 0.41810324788093567
0.40847009420394897 0.050457123667001724 0.39196997880935669
0.39938923716545105 0.067115649580955505 0.43062102794647217
0.44177570939064026 0.071885257959365845 0.45626124739646912
0.4751756489276886 0.067706465721130371 0.44926577806472778
0.43417632579803467 0.044153999537229538 0.38672605156898499
0.38531619310379028 0.057367336004972458 0.39586150646209717
0.41311711072921753 0.074452251195907593 0.46226519346237183
0.16637299954891205 -0.32847267389297485 0.53350925445556641
0.16022318601608276 -0.32538393139839172 0.49406224489212036
0.18901635706424713 -0.34371930360794067 0.53667068481445312
0.17608863115310669 -0.33017587661743164 0.57032632827758789
0.14710621535778046 -0.31496873497962952 0.53089737892150879
0.13975246250629425 -0.31462636590003967 0.49123665690422058
0.18157598376274109 -0.33804655075073242 0.49667251110076904
0.20081698894500732 -0.3471817672252655 0.57482516765594482
0.15593099594116211 -0.31497898697853088 0.56655395030975342
0.28145197033882141 0.091476276516914368 0.48124966025352478
0.28336304426193237 0.090700283646583557 0.50345766544342041
0.29485046863555908 0.086536943912506104 0.47516235709190369
0.27805766463279724 0.096355646848678589 0.46474552154541016
0.27207547426223755 0.10249470174312592 0.48478972911834717
0.27232843637466431 0.10131549835205078 0.50673544406890869
0.29851064085960388 0.086095646023750305 0.49768927693367004
0.28972780704498291 0.091637685894966125 0.45747220516204834
0.27072876691818237 0.10746869444847107 0.46920496225357056
0.057027582079172134 -0.24929353594779968 0.54750144481658936
0.069577023386955261 -0.25540745258331299 0.54461956024169922
0.062820523977279663 -0.24413897097110748 0.5694727897644043
0.040220949798822403 -0.24968738853931427 0.54977691173553467
0.046916838735342026 -0.25468456745147705 0.53104591369628906
0.057813968509435654 -0.26047807931900024 0.52658295631408691
0.076421931385993958 -0.25096967816352844 0.56733179092407227
0.045122187584638596 -0.24377995729446411 0.57110595703125
0.031575344502925873 -0.25585669279098511 0.53472328186035156
0.28067299723625183 0.19336329400539398 0.47005787491798401
0.27208137512207031 0.15350982546806335 0.47910869121551514
0.27759185433387756 0.19090119004249573 0.45519366860389709
0.29170185327529907 0.23900476098060608 0.45879781246185303
0.28138837218284607 0.1939186155796051 0.49019989371299744
0.27176287770271301 0.15304951369762421 0.49979811906814575
0.27078846096992493 0.1545499712228775 0.46491792798042297
0.2875649631023407 0.23441010713577271 0.44070222973823547
0.29343923926353455 0.24029925465583801 0.47934615612030029
-0.051561407744884491 -0.31185343861579895 0.54846620559692383
-0.05313640832901001 -0.31205877661705017 0.5324021577835083
-0.013924002647399902 -0.28125911951065063 0.55054545402526855
-0.048936381936073303 -0.30837401747703552 0.56876587867736816
-0.094048470258712769 -0.34779232740402222 0.5446326732635498
-0.094454348087310791 -0.34674233198165894 0.52491116523742676
-0.01801295205950737 -0.28450316190719604 0.53614282608032227
-0.010672435164451599 -0.27627205848693848 0.57085692882537842
-0.091634884476661682 -0.34544232487678528 0.56574726104736328
0.077208533883094788 0.0098377689719200134 -0.62208521366119385
0.035503681749105453 0.059926781803369522 -0.65008234977722168
0.11310113966464996 0.073740065097808838 -0.60239231586456299
0.11569766700267792 -0.030608091503381729 -0.58517098426818848
0.036315847188234329 -0.058033596724271774 -0.63541209697723389
-0.0077611673623323441 -0.0065195523202419281 -0.66669845581054688
0.074897244572639465 0.12124118208885193 -0.6265404224395752
0.14877542853355408 0.03651953861117363 -0.56898260116577148
0.076674893498420715 -0.10015396773815155 -0.59543454647064209
-0.095388054847717285 -0.25313389301300049 -0.59469163417816162
-0.13630782067775726 -0.30629470944404602 -0.56360769271850586
-0.13990405201911926 -0.20767155289649963 -0.63122856616973877
-0.051880218088626862 -0.1924038827419281 -0.62125444412231445
-0.055479086935520172 -0.29114311933517456 -0.55087637901306152
-0.098927989602088928 -0.34054583311080933 -0.52077305316925049
-0.1789555698633194 -0.26603719592094421 -0.59947919845581055
-0.097318202257156372 -0.14314253628253937 -0.6570274829864502
-0.010725021362304688 -0.23316927254199982 -0.57764112949371338
0.22027532756328583 -0.1179383397102356 -0.41817405819892883
0.18691350519657135 -0.093507513403892517 -0.48350265622138977
0.24674354493618011 -0.048458833247423172 -0.41056200861930847
0.2516913115978241 -0.13668134808540344 -0.34277880191802979
0.18685752153396606 -0.18702876567840576 -0.42047113180160522
0.151437908411026 -0.163974329829216 -0.48830518126487732
0.21548694372177124 -0.023135773837566376 -0.47324547171592712
0.27590903639793396 -0.069280043244361877 -0.33790513873100281
0.22059185802936554 -0.20339608192443848 -0.34258183836936951
0.059396285563707352 -0.36217543482780457 -0.36952251195907593
0.012635618448257446 -0.4039493203163147 -0.34193485975265503
0.020883809775114059 -0.34576955437660217 -0.43869748711585999
0.10497602820396423 -0.31131917238235474 -0.39527618885040283
0.097422271966934204 -0.3707045316696167 -0.29144877195358276
0.051063094288110733 -0.41044485569000244 -0.26517161726951599
-0.025777049362659454 -0.38978815078735352 -0.41029572486877441
0.066867157816886902 -0.2924538254737854 -0.4650510847568512
0.14214576780796051 -0.32238182425498962 -0.31606388092041016
0.33091640472412109 -0.15410627424716949 -0.061328023672103882
0.30734723806381226 -0.15407317876815796 -0.16058322787284851
0.3463471531867981 -0.096327602863311768 -0.065455414354801178
0.3511994481086731 -0.15121769905090332 0.032902587205171585
0.30848824977874756 -0.20965549349784851 -0.053489133715629578
0.28187242150306702 -0.21372297406196594 -0.1550041139125824
0.32588693499565125 -0.092915304005146027 -0.16238358616828918
0.36401143670082092 -0.096430674195289612 0.029575105756521225
0.33155733346939087 -0.20284748077392578 0.041733346879482269
0.20282338559627533 -0.34808680415153503 -0.0099986810237169266
0.15766535699367523 -0.38214686512947083 0.0079902457073330879
0.16989758610725403 -0.36232233047485352 -0.10806964337825775
0.2437499612569809 -0.30767682194709778 -0.027114808559417725
0.23221711814403534 -0.33132803440093994 0.082505598664283752
0.18796782195568085 -0.36299878358840942 0.10091648250818253
0.12433809041976929 -0.39836031198501587 -0.087473168969154358
0.21222282946109772 -0.31923344731330872 -0.12797489762306213
0.27158060669898987 -0.29362258315086365 0.067147880792617798
0.3899533748626709 -0.14828099310398102 0.20750311017036438
0.37991046905517578 -0.14719404280185699 0.16909734904766083
0.39801391959190369 -0.10754784941673279 0.20390787720680237
0.39993816614151001 -0.15089127421379089 0.23376795649528503
0.37581980228424072 -0.18908147513866425 0.21782240271568298
0.36446884274482727 -0.1912485659122467 0.17898449301719666
0.38898885250091553 -0.10141400992870331 0.16670817136764526
0.40767109394073486 -0.11287814378738403 0.22940099239349365
0.38664400577545166 -0.18941955268383026 0.24398946762084961
0.29295560717582703 -0.29497462511062622 0.25154301524162292
0.25810635089874268 -0.31916695833206177 0.26663646101951599
0.27670833468437195 -0.30331307649612427 0.21484388411045074
0.32620397210121155 -0.26411223411560059 0.2405087947845459
0.30797117948532104 -0.28994527459144592 0.27640804648399353
0.27526348829269409 -0.31309732794761658 0.29023388028144836
0.23813565075397491 -0.32966819405555725 0.23229227960109711
0.31207728385925293 -0.27049428224563599 0.20246484875679016
0.33955132961273193 -0.26061853766441345 0.26593464612960815
0.39517909288406372 -0.009981837123632431 0.27433586120605469
0.40920767188072205 -0.018257364630699158 0.28336969017982483
0.39872917532920837 -0.037492185831069946 0.23788581788539886
0.38335308432579041 0.00084734708070755005 0.26197993755340576
0.39314666390419006 0.013835173100233078 0.31526219844818115
0.41075512766838074 0.0057018287479877472 0.31793341040611267
0.41026368737220764 -0.045794747769832611 0.25429439544677734
0.38918086886405945 -0.026124456897377968 0.21472054719924927
0.37727499008178711 0.024468902498483658 0.31045776605606079
0.18082568049430847 -0.33444675803184509 0.36411911249160767
0.20025208592414856 -0.33784094452857971 0.32320395112037659
0.19951988756656647 -0.33553814888000488 0.37438985705375671
0.16695284843444824 -0.32863029837608337 0.40797463059425354
0.16054233908653259 -0.33656427264213562 0.35149857401847839
0.17841710150241852 -0.34519463777542114 0.30198296904563904
0.2191498875617981 -0.33490458130836487 0.33900433778762817
0.18631130456924438 -0.33395737409591675 0.41401207447052002
0.14600419998168945 -0.32585877180099487 0.4006321132183075
0.28031095862388611 0.59417146444320679 0.22097468376159668
0.27502492070198059 0.581673264503479 0.28512418270111084
0.30384838581085205 0.54134178161621094 0.21179857850074768
0.28586813807487488 0.60835999250411987 0.1554277241230011
0.24934230744838715 0.64044398069381714 0.23828229308128357
0.24799661338329315 0.6273689866065979 0.29798188805580139
0.29456827044487 0.53126198053359985 0.28043827414512634
0.31499037146568298 0.55204504728317261 0.13836278021335602
0.25023394823074341 0.65593546628952026 0.17834973335266113
-0.48255079984664917 -0.57146733999252319 0.25478851795196533
-0.42001456022262573 -0.56359094381332397 0.27318945527076721
-0.47044187784194946 -0.5572969913482666 0.32056868076324463
-0.54285603761672974 -0.57126539945602417 0.24081626534461975
-0.4959549605846405 -0.58636736869812012 0.18707177042961121
-0.42964115738868713 -0.58454674482345581 0.20265853404998779
-0.41039463877677917 -0.54483330249786377 0.33989971876144409
-0.52993661165237427 -0.56234574317932129 0.30503466725349426
-0.55792635679244995 -0.58041489124298096 0.17501316964626312
-0.11798043549060822 0.28243967890739441 -0.68101310729980469
-0.17890733480453491 0.36829236149787903 -0.66655731201171875
-0.064624130725860596 0.33952301740646362 -0.64740967750549316
-0.061725743114948273 0.19822770357131958 -0.68094778060913086
-0.17287333309650421 0.21585351228713989 -0.7077564001083374
-0.23758068680763245 0.30051472783088684 -0.69681298732757568
-0.12140041589736938 0.42505642771720886 -0.63022255897521973
-0.013248277828097343 0.25616014003753662 -0.65030777454376221
-0.11226138472557068 0.13245733082294464 -0.70429801940917969
-0.31909364461898804 -0.025949738919734955 -0.70070338249206543
-0.35644268989562988 -0.10789889097213745 -0.67450356483459473
-0.39062109589576721 0.043058622628450394 -0.70275771617889404
-0.27540045976638794 0.058627266436815262 -0.71808958053588867
-0.2518400251865387 -0.092764586210250854 -0.6856609582901001
-0.28915348649024963 -0.1661093533039093 -0.65618622303009033
-0.42847669124603271 -0.046602550894021988 -0.68081986904144287
-0.34553560614585876 0.13465973734855652 -0.7156529426574707
-0.20917198061943054 -0.015882698819041252 -0.7068932056427002
-0.65520161390304565 0.57492834329605103 0.14925242960453033
-0.64410138130187988 0.54360967874526978 0.2197386771440506
-0.59095108509063721 0.64568507671356201 0.16804710030555725
-0.65420299768447876 0.60287880897521973 0.074232116341590881
-0.71707689762115479 0.49592393636703491 0.12187115848064423
-0.70653808116912842 0.46335923671722412 0.19598869979381561
-0.57940894365310669 0.61599308252334595 0.2343028336763382
-0.59066730737686157 0.67198759317398071 0.09719713032245636
-0.71540117263793945 0.52507233619689941 0.043459236621856689
-0.87184160947799683 0.23849231004714966 0.016993533819913864
-0.90639525651931763 0.15595081448554993 -0.020824264734983444
-0.86179596185684204 0.20575642585754395 0.092564940452575684
-0.82730090618133545 0.32472249865531921 0.053838323801755905
-0.87024414539337158 0.26724669337272644 -0.060956753790378571
-0.90528899431228638 0.18335500359535217 -0.095786780118942261
-0.89629977941513062 0.12432011961936951 0.052640393376350403
-0.81731468439102173 0.29141092300415039 0.13058286905288696
-0.82531040906906128 0.3542933464050293 -0.026094619184732437
-0.59492677450180054 0.65956407785415649 -0.17287428677082062
-0.62343716621398926 0.64698821306228638 -0.087624527513980865
-0.53551530838012695 0.72390657663345337 -0.13553321361541748
-0.55683237314224243 0.66160434484481812 -0.25948268175125122
-0.65291768312454224 0.58498609066009521 -0.21449087560176849
-0.68255603313446045 0.57139796018600464 -0.12568286061286926
-0.56248587369918823 0.71287482976913452 -0.055207535624504089
-0.49857550859451294 0.72444331645965576 -0.21799395978450775
-0.61412447690963745 0.58797776699066162 -0.3037467896938324
-0.81136000156402588 0.3234097957611084 -0.30602928996086121
-0.85071277618408203 0.23451638221740723 -0.32531574368476868
-0.83935767412185669 0.31151768565177917 -0.22342938184738159
-0.76302415132522583 0.41394135355949402 -0.28305864334106445
-0.77430582046508789 0.32406944036483765 -0.3871631920337677
-0.81519055366516113 0.23318681120872498 -0.39983600378036499
-0.8769647479057312 0.22443404793739319 -0.2488853931427002
-0.7923961877822876 0.40070998668670654 -0.19559070467948914
-0.72477966547012329 0.41620182991027832 -0.36952325701713562
-0.38315269351005554 0.5775335431098938 -0.51219940185546875
-0.44939842820167542 0.62143188714981079 -0.43221732974052429
-0.32315045595169067 0.63618075847625732 -0.46850469708442688
-0.31351020932197571 0.51972723007202148 -0.5812523365020752
-0.44339033961296082 0.50648671388626099 -0.55378186702728271
-0.50804668664932251 0.54953682422637939 -0.47647637128829956
-0.39063194394111633 0.68136924505233765 -0.38748028874397278
-0.25274428725242615 0.57734060287475586 -0.53966271877288818
-0.37483692169189453 0.44960543513298035 -0.61919713020324707
-0.60652256011962891 0.23242449760437012 -0.60193228721618652
-0.64751994609832764 0.1351456493139267 -0.59573769569396973
-0.67095863819122314 0.27848294377326965 -0.53791379928588867
-0.5572134256362915 0.33060649037361145 -0.60012161731719971
-0.53674024343490601 0.1755085289478302 -0.65329074859619141
-0.57662838697433472 0.078016877174377441 -0.64151442050933838
-0.71270370483398438 0.18297313153743744 -0.53764760494232178
-0.62088078260421753 0.3748566210269928 -0.53100025653839111
-0.48864367604255676 0.2740953266620636 -0.65645766258239746
-0.039990101009607315 0.7050323486328125 0.45949363708496094
-0.035517636686563492 0.70988136529922485 0.49922996759414673
-0.0084854606539011002 0.7177809476852417 0.44933131337165833
-0.049071960151195526 0.70558351278305054 0.41943898797035217
-0.070382967591285706 0.68724477291107178 0.46518006920814514
-0.066855043172836304 0.69116932153701782 0.50659489631652832
-0.0033272746950387955 0.72270762920379639 0.48766502737998962
-0.017346467822790146 0.71825551986694336 0.41073799133300781
-0.079478219151496887 0.68861395120620728 0.42339780926704407
-0.766154944896698 -0.41191744804382324 0.29825180768966675
-0.76140850782394409 -0.43984630703926086 0.29473799467086792
-0.77418720722198486 -0.4262579083442688 0.33635789155960083
-0.76561641693115234 -0.38247358798980713 0.30174803733825684
-0.76498138904571533 -0.39579856395721436 0.25506651401519775
-0.76083022356033325 -0.42506140470504761 0.25275522470474243
-0.76847052574157715 -0.45365643501281738 0.33190232515335083
-0.77382981777191162 -0.39657577872276306 0.3414405882358551
-0.76458573341369629 -0.36573430895805359 0.25683927536010742
-0.1129453182220459 0.75914174318313599 0.30289170145988464
-0.086746275424957275 0.73325783014297485 0.34142667055130005
-0.072792530059814453 0.77003014087677002 0.29828575253486633
-0.13896551728248596 0.78794485330581665 0.26288431882858276
-0.15217386186122894 0.74417310953140259 0.30331996083259583
-0.12178826332092285 0.7176588773727417 0.34271395206451416
-0.050477609038352966 0.74505794048309326 0.33552628755569458
-0.094900950789451599 0.79769295454025269 0.25954067707061768
-0.18246793746948242 0.77365714311599731 0.26257622241973877
-0.82309460639953613 -0.33539441227912903 0.087011069059371948
-0.81584060192108154 -0.37452536821365356 0.090354844927787781
-0.7948000431060791 -0.35718259215354919 0.14887244999408722
-0.82679915428161621 -0.29614761471748352 0.084146663546562195
-0.85285365581512451 -0.31324991583824158 0.022367974743247032
-0.84365445375442505 -0.35649579763412476 0.027917612344026566
-0.7893376350402832 -0.39223608374595642 0.15004603564739227
-0.79660695791244507 -0.3220466673374176 0.14739501476287842
-0.85845518112182617 -0.26970693469047546 0.018258057534694672
-0.18203116953372955 0.8575291633605957 0.12242747098207474
-0.17520660161972046 0.83898401260375977 0.17309795320034027
-0.13275250792503357 0.86308795213699341 0.12285488098859787
-0.18188339471817017 0.8716159462928772 0.068502791225910187
-0.23148222267627716 0.84612530469894409 0.11940959841012955
-0.22404266893863678 0.82646387815475464 0.17109528183937073
-0.1263776421546936 0.84602141380310059 0.17229737341403961
-0.13293354213237762 0.87564802169799805 0.070023611187934875
-0.23114393651485443 0.86143594980239868 0.064478248357772827
-0.90161007642745972 -0.25425505638122559 -0.16749551892280579
-0.88957673311233521 -0.30527609586715698 -0.156723752617836
-0.89438211917877197 -0.27177545428276062 -0.10608528554439545
-0.90953856706619263 -0.20230337977409363 -0.17467963695526123
-0.90121454000473022 -0.23999954760074615 -0.22688764333724976
-0.88923579454421997 -0.29212072491645813 -0.21488547325134277
-0.88266390562057495 -0.32111877202987671 -0.09675963968038559
-0.90219014883041382 -0.22169595956802368 -0.11232134699821472
-0.90889066457748413 -0.18672563135623932 -0.23501724004745483
-0.14327001571655273 0.88625806570053101 -0.10706385970115662
-0.16234414279460907 0.88698714971542358 -0.04732319712638855
-0.098062872886657715 0.88608080148696899 -0.10247338563203812
-0.11785773932933807 0.87704300880432129 -0.16574084758758545
-0.19026485085487366 0.87977290153503418 -0.11390528082847595
-0.21050249040126801 0.87943553924560547 -0.052971072494983673
-0.11486546695232391 0.8879278302192688 -0.044336944818496704
-0.077966243028640747 0.87659329175949097 -0.1572137176990509
-0.16237835586071014 0.87105703353881836 -0.1749192476272583
-0.86307108402252197 -0.22557701170444489 -0.38940033316612244
-0.85250735282897949 -0.27832803130149841 -0.37381374835968018
-0.8817673921585083 -0.2246340811252594 -0.33919477462768555
-0.869240403175354 -0.16980333626270294 -0.40120983123779297
-0.83746421337127686 -0.23388712108135223 -0.43216559290885925
-0.82942771911621094 -0.28269338607788086 -0.41386738419532776
-0.8702283501625061 -0.27824729681015015 -0.3251362144947052
-0.88865602016448975 -0.16923251748085022 -0.34943261742591858
-0.84216749668121338 -0.17915822565555573 -0.44636687636375427
0.0056386217474937439 0.78222143650054932 -0.323985755443573
0.055227030068635941 0.72936487197875977 -0.36743712425231934
-0.029774311929941177 0.77043610811233521 -0.34673342108726501
-0.042245429009199142 0.82533806562423706 -0.27525508403778076
0.033607121556997299 0.79377055168151855 -0.29522842168807983
0.082314580678939819 0.74662512540817261 -0.3353922963142395
0.022353760898113251 0.71423673629760742 -0.39384812116622925
-0.080557823181152344 0.81662660837173462 -0.29300627112388611
-0.012065431103110313 0.83100587129592896 -0.2532067596912384
-0.71177536249160767 -0.321756511926651 -0.496092289686203
-0.70723879337310791 -0.27256929874420166 -0.52244269847869873
-0.65590858459472656 -0.36339059472084045 -0.49711570143699646
-0.71876555681228638 -0.36358761787414551 -0.46486863493919373
-0.76159942150115967 -0.28307977318763733 -0.48593559861183167
-0.76068168878555298 -0.2319381982088089 -0.50781941413879395
-0.64808017015457153 -0.31639325618743896 -0.52710139751434326
-0.66730707883834839 -0.40493893623352051 -0.46344989538192749
-0.76301813125610352 -0.32556316256523132 -0.45904812216758728
-0.1609002947807312 0.73371648788452148 -0.3888639509677887
-0.21121911704540253 0.71286159753799438 -0.40526759624481201
-0.2232593446969986 0.7817922830581665 -0.3182138204574585
-0.11403948068618774 0.7478145956993103 -0.37662899494171143
-0.096656277775764465 0.67376303672790527 -0.45189425349235535
-0.14342799782752991 0.65278613567352295 -0.47324681282043457
-0.27684614062309265 0.76038104295730591 -0.32913526892662048
-0.17241215705871582 0.79591608047485352 -0.3121877908706665
-0.054004400968551636 0.68852335214614868 -0.43384340405464172
-0.70252668857574463 -0.10168485343456268 -0.56937706470489502
-0.76437467336654663 -0.054188698530197144 -0.5343782901763916
-0.69484078884124756 -0.03351578488945961 -0.57802975177764893
-0.63466072082519531 -0.15460634231567383 -0.59335744380950928
-0.70462465286254883 -0.1625262051820755 -0.55843830108642578
-0.7637326717376709 -0.11697918176651001 -0.53143751621246338
-0.75886619091033936 0.015202861279249191 -0.53473114967346191
-0.62477552890777588 -0.088734902441501617 -0.60989797115325928
-0.63958775997161865 -0.21260769665241241 -0.5748065710067749
-0.35371431708335876 0.83889669179916382 -0.10429219901561737
-0.41404539346694946 0.81307321786880493 -0.10117648541927338
-0.37646660208702087 0.83378970623016357 -0.037125326693058014
-0.29542341828346252 0.85648554563522339 -0.11194685101509094
-0.32154887914657593 0.8339313268661499 -0.17350958287715912
-0.380196213722229 0.80991923809051514 -0.1744273453950882
-0.43798527121543884 0.80594116449356079 -0.030425149947404861
-0.31717643141746521 0.85327446460723877 -0.047594837844371796
-0.26488521695137024 0.8499024510383606 -0.17769156396389008
-0.88910126686096191 0.0092630572617053986 -0.38378813862800598
-0.91093140840530396 0.0053001977503299713 -0.32360255718231201
-0.88895523548126221 0.076569139957427979 -0.36441484093666077
-0.85838079452514648 0.0025887377560138702 -0.4398578405380249
-0.88277477025985718 -0.052909955382347107 -0.39860066771507263
-0.90363782644271851 -0.055057357996702194 -0.34203925728797913
-0.9119756817817688 0.070613205432891846 -0.29973435401916504
-0.85671782493591309 0.071400493383407593 -0.42587274312973022
-0.8534427285194397 -0.060796558856964111 -0.45012009143829346
-0.39929091930389404 0.78513514995574951 0.15136855840682983
-0.46174025535583496 0.75090557336807251 0.16738279163837433
-0.38898998498916626 0.76111835241317749 0.20762373507022858
-0.33949139714241028 0.810646653175354 0.1336560845375061
-0.39943912625312805 0.80534237623214722 0.091176539659500122
-0.46206426620483398 0.77319169044494629 0.10429197549819946
-0.45058116316795349 0.72499608993530273 0.22622224688529968
-0.33022773265838623 0.78837651014328003 0.18793016672134399
-0.33936169743537903 0.82890897989273071 0.075763620436191559
-0.93454426527023315 -0.044386804103851318 -0.13052505254745483
-0.92577105760574341 -0.070349425077438354 -0.064017906785011292
-0.93672645092010498 0.014254901558160782 -0.096647925674915314
-0.93380701541900635 -0.023032328113913536 -0.19616034626960754
-0.92645597457885742 -0.098314106464385986 -0.15711866319179535
-0.91838115453720093 -0.12200354039669037 -0.092413619160652161
-0.92726731300354004 -0.013881050050258636 -0.028027426451444626
-0.93608212471008301 0.03781886026263237 -0.16508974134922028
-0.9255945086479187 -0.07913941890001297 -0.22039523720741272
-0.28810608386993408 0.67084962129592896 0.34572497010231018
-0.34219163656234741 0.63102841377258301 0.36926236748695374
-0.24594743549823761 0.6428036093711853 0.38456353545188904
-0.23842275142669678 0.70134061574935913 0.32339116930961609
-0.33074009418487549 0.70219838619232178 0.30443099141120911
-0.38798397779464722 0.66325485706329346 0.32693448662757874
-0.29685565829277039 0.60238993167877197 0.40824812650680542
-0.19987435638904572 0.67382985353469849 0.36267891526222229
-0.27727082371711731 0.73194736242294312 0.28233474493026733
-0.83363515138626099 -0.17163631319999695 0.13598482310771942
-0.79618710279464722 -0.20600998401641846 0.19781024754047394
-0.82905310392379761 -0.12119787931442261 0.17307969927787781
-0.87256813049316406 -0.13555352389812469 0.070395603775978088
-0.83258861303329468 -0.21580557525157928 0.10678053647279739
-0.79778540134429932 -0.248138427734375 0.16986985504627228
-0.78899383544921875 -0.1570928543806076 0.23342134058475494
-0.87054657936096191 -0.083261884748935699 0.10805254429578781
-0.86884874105453491 -0.18219642341136932 0.040652140974998474
-0.18342941999435425 0.60672640800476074 0.501151442527771
-0.18425391614437103 0.60822045803070068 0.54029631614685059
-0.14088451862335205 0.63897788524627686 0.48460051417350769
-0.19150269031524658 0.61030060052871704 0.46173122525215149
-0.22973421216011047 0.56589072942733765 0.51886004209518433
-0.232860267162323 0.56791329383850098 0.55544722080230713
-0.13993717730045319 0.64079946279525757 0.52589225769042969
-0.14930993318557739 0.64216911792755127 0.44293525815010071
-0.23791438341140747 0.56934762001037598 0.4822237491607666
-0.75472539663314819 -0.27316975593566895 0.34393578767776489
-0.76008665561676025 -0.31435790657997131 0.32322010397911072
-0.76354312896728516 -0.28399389982223511 0.3806898295879364
-0.74333786964416504 -0.2254321426153183 0.37011680006980896
-0.75486379861831665 -0.25754949450492859 0.3021119236946106
-0.75990909337997437 -0.29811835289001465 0.27862069010734558
-0.76822316646575928 -0.32650318741798401 0.36265364289283752
-0.75392848253250122 -0.23496255278587341 0.40316367149353027
-0.74374496936798096 -0.21014030277729034 0.33202892541885376
-0.52820128202438354 0.43651208281517029 0.4000619649887085
-0.4762776792049408 0.40448561310768127 0.44956403970718384
-0.4636574387550354 0.51354688405990601 0.39896917343139648
-0.57808750867843628 0.47255527973175049 0.34531977772712708
-0.59147447347640991 0.35139456391334534 0.39220637083053589
-0.53737694025039673 0.31524235010147095 0.45085540413856506
-0.41361892223358154 0.48345279693603516 0.4426136314868927
-0.51298385858535767 0.54799026250839233 0.3499571681022644
-0.64166021347045898 0.3897017240524292 0.33077758550643921
-0.75294941663742065 0.088975474238395691 0.30191376805305481
-0.78981375694274902 0.0092870853841304779 0.25883537530899048
-0.70595318078994751 0.049796942621469498 0.36152210831642151
-0.70604109764099121 0.17421706020832062 0.34171435236930847
-0.79953998327255249 0.1296333372592926 0.23600505292415619
-0.83501040935516357 0.049433771520853043 0.19375702738761902
-0.74541181325912476 -0.028866279870271683 0.31726744771003723
-0.65475982427597046 0.13395433127880096 0.40549033880233765
-0.7544177770614624 0.21507507562637329 0.27456608414649963
-0.42956507205963135 0.39653414487838745 0.61717438697814941
-0.44673392176628113 0.35128083825111389 0.61898922920227051
-0.46504658460617065 0.39945238828659058 0.62798559665679932
-0.41457989811897278 0.44032645225524902 0.62256705760955811
-0.39628708362579346 0.39186191558837891 0.60672831535339355
-0.41758745908737183 0.33422291278839111 0.60885500907897949
-0.47740396857261658 0.3637566864490509 0.62935388088226318
-0.45286351442337036 0.43315699696540833 0.63309574127197266
-0.37389561533927917 0.44882071018218994 0.61118197441101074
-0.71168392896652222 -0.039008896797895432 0.51256871223449707
-0.74018436670303345 -0.025568882003426552 0.51922428607940674
-0.67671066522598267 -0.0037475563585758209 0.53412806987762451
-0.68328875303268433 -0.050956390798091888 0.50715541839599609
-0.74817800521850586 -0.074716709554195404 0.49817422032356262
-0.76796567440032959 -0.053609386086463928 0.50831663608551025
-0.71199619770050049 0.0013815872371196747 0.53696143627166748
-0.63800597190856934 -0.005835212767124176 0.53312742710113525
-0.72856974601745605 -0.098428890109062195 0.48765447735786438
-0.37226098775863647 0.37506839632987976 0.5534893274307251
-0.36460959911346436 0.37980324029922485 0.5761488676071167
-0.32672709226608276 0.4478851854801178 0.54567289352416992
-0.39422053098678589 0.37388068437576294 0.52614009380340576
-0.41124695539474487 0.30237329006195068 0.55988991260528564
-0.39622274041175842 0.30943182110786438 0.58043313026428223
-0.3258877694606781 0.45145323872566223 0.57322132587432861
-0.3414933979511261 0.45022973418235779 0.51532304286956787
-0.44228264689445496 0.29207855463027954 0.53507137298583984
-0.6410137414932251 -0.039223618805408478 0.46997761726379395
-0.68596571683883667 -0.10586831718683243 0.43470916152000427
-0.64534085988998413 -0.052994802594184875 0.48780488967895508
-0.59210008382797241 0.02360934391617775 0.50442135334014893
-0.6472441554069519 -0.016237331554293633 0.4456138014793396
-0.69047552347183228 -0.087800942361354828 0.40521746873855591
-0.69429886341094971 -0.11651158332824707 0.45750248432159424
-0.59356087446212769 0.005239538848400116 0.51941812038421631
-0.59577798843383789 0.055434722453355789 0.48668590188026428
-0.44324970245361328 0.17926029860973358 0.57468235492706299
-0.43070173263549805 0.17545920610427856 0.58523130416870117
-0.44527545571327209 0.19943754374980927 0.57021212577819824
-0.45556843280792236 0.16427180171012878 0.56852734088897705
-0.43833926320075989 0.15440475940704346 0.58226609230041504
-0.42660656571388245 0.20536626875400543 0.58588981628417969
-0.47199276089668274 0.18355745077133179 0.55559206008911133
-0.48778471350669861 0.11068229377269745 0.56276452541351318
-0.50940579175949097 0.10065975785255432 0.55240833759307861
-0.47730961441993713 0.10369826853275299 0.57299125194549561
-0.47909823060035706 0.12804675102233887 0.56241810321807861
-0.5074080228805542 0.12900789082050323 0.54579031467437744
-0.50604885816574097 0.082997724413871765 0.56368470191955566
-0.45973673462867737 0.12147010862827301 0.57691407203674316
0.11846120655536652 0.71903073787689209 0.35053756833076477
0.12371878325939178 0.71495413780212402 0.39528307318687439
0.16645045578479767 0.70345240831375122 0.30547067523002625
0.11156325042247772 0.72739225625991821 0.30562719702720642
0.070908725261688232 0.725738525390625 0.39410826563835144
0.0765819251537323 0.72599047422409058 0.43477919697761536
0.17054924368858337 0.69504779577255249 0.35524111986160278
0.16118183732032776 0.71550446748733521 0.25553011894226074
0.063029035925865173 0.73032474517822266 0.35326194763183594
-0.69098389148712158 -0.52275222539901733 0.25631773471832275
-0.64867359399795532 -0.54584240913391113 0.24205239117145538
-0.68705135583877563 -0.52870059013366699 0.30513590574264526
-0.72466081380844116 -0.49583983421325684 0.27313020825386047
-0.6994098424911499 -0.51700317859649658 0.20422959327697754
-0.66079252958297729 -0.54458111524581909 0.18393881618976593
-0.64020514488220215 -0.54734450578689575 0.29752662777900696
-0.72548675537109375 -0.50545656681060791 0.31570741534233093
-0.72913157939910889 -0.48625501990318298 0.22666582465171814
0.074500948190689087 0.77688992023468018 0.19544924795627594
0.12942245602607727 0.76417291164398193 0.14099195599555969
0.05999760702252388 0.7965085506439209 0.16331350803375244
0.020844362676143646 0.78022861480712891 0.24479684233665466
0.089139118790626526 0.75736880302429199 0.22795096039772034
0.14228969812393188 0.746898353099823 0.17316806316375732
0.11689980328083038 0.7809607982635498 0.10913480818271637
0.0043956562876701355 0.80308264493942261 0.21057257056236267
0.03741508349776268 0.75849884748458862 0.27865472435951233
-0.75188595056533813 -0.49278438091278076 0.049458920955657959
-0.77186292409896851 -0.48222517967224121 -0.00066462531685829163
-0.71293038129806519 -0.52866667509078979 0.027967218309640884
-0.73116952180862427 -0.50232404470443726 0.099902376532554626
-0.78164750337600708 -0.45393368601799011 0.071548856794834137
-0.80448698997497559 -0.44163116812705994 0.017030404880642891
-0.73033064603805542 -0.51993143558502197 -0.019441112875938416
-0.69417273998260498 -0.53632301092147827 0.076064392924308777
-0.75892060995101929 -0.46549457311630249 0.12513579428195953
0.029743630439043045 0.83616858720779419 0.050985142588615417
0.082413628697395325 0.81709319353103638 0.0085097383707761765
0.028012074530124664 0.84053331613540649 0.0049318522214889526
-0.026110775768756866 0.85180479288101196 0.087881244719028473
0.036417294293642044 0.82729864120483398 0.092346407473087311
0.091796830296516418 0.80860412120819092 0.044432796537876129
0.079762488603591919 0.82036125659942627 -0.033249545842409134
-0.027198288589715958 0.85899698734283447 0.038712151348590851
-0.020246110856533051 0.84024423360824585 0.13302858173847198
-0.80293220281600952 -0.44518566131591797 -0.14894741773605347
-0.80062967538833618 -0.43476206064224243 -0.19792918860912323
-0.76361453533172607 -0.48333907127380371 -0.15615254640579224
-0.79880756139755249 -0.45765846967697144 -0.099823310971260071
-0.83981978893280029 -0.40181335806846619 -0.14559043943881989
-0.83810532093048096 -0.39048019051551819 -0.19854125380516052
-0.76220792531967163 -0.47397902607917786 -0.20090912282466888
-0.7572704553604126 -0.49613833427429199 -0.11134158074855804
-0.83518862724304199 -0.41493740677833557 -0.091945767402648926
0.046483490616083145 0.83022201061248779 -0.15624195337295532
0.052700113505125046 0.81876230239868164 -0.2103167325258255
-0.0024874582886695862 0.85619628429412842 -0.12733881175518036
0.038148123770952225 0.83748406171798706 -0.10031672567129135
0.090872585773468018 0.80505025386810303 -0.18628782033920288
0.0982532799243927 0.78701275587081909 -0.24291950464248657
0.0063531361520290375 0.84677773714065552 -0.179274782538414
-0.013619035482406616 0.8612026572227478 -0.071002699434757233
0.085239216685295105 0.81504577398300171 -0.13161675631999969
-0.76480871438980103 -0.41796591877937317 -0.34424692392349243
-0.8018871545791626 -0.37511056661605835 -0.3496820330619812
-0.74652141332626343 -0.41058889031410217 -0.38859796524047852
-0.72929149866104126 -0.45544701814651489 -0.34125882387161255
-0.78058832883834839 -0.42240026593208313 -0.29641416668891907
-0.81804126501083374 -0.37811461091041565 -0.30195915699005127
-0.78377699851989746 -0.36995252966880798 -0.39121752977371216
-0.70665490627288818 -0.44967111945152283 -0.38534584641456604
-0.74487292766571045 -0.46095907688140869 -0.29419299960136414
0.3490607738494873 0.075059697031974792 -0.069263234734535217
0.35387420654296875 0.018770899623632431 -0.068961970508098602
0.33845877647399902 0.079612359404563904 -0.15595443546772003
0.34343016147613525 0.1315150111913681 -0.067697227001190186
0.35535305738449097 0.074098646640777588 0.016385998576879501
0.36443600058555603 0.016591459512710571 0.020922077819705009
0.34004548192024231 0.024653736501932144 -0.1591862291097641
0.33551990985870361 0.13317427039146423 -0.15247860550880432
0.34605240821838379 0.13330808281898499 0.01893097348511219
0.0047138296067714691 -0.44747620820999146 0.040909536182880402
-0.019374430179595947 -0.46350759267807007 -0.044645808637142181
0.057663869112730026 -0.43040964007377625 0.033908165991306305
0.024977166205644608 -0.42718484997749329 0.123391292989254
-0.048682481050491333 -0.46391603350639343 0.046928770840167999
-0.067191384732723236 -0.47843721508979797 -0.03703722357749939
0.028802398592233658 -0.44746842980384827 -0.054922617971897125
0.083270803093910217 -0.40967863798141479 0.12102959305047989
-0.033900275826454163 -0.44365346431732178 0.13012602925300598
0.35131078958511353 0.30635440349578857 -0.075710378587245941
0.35061874985694885 0.32638809084892273 -0.0019833706319332123
0.34414398670196533 0.24807244539260864 -0.070153087377548218
0.34691944718360901 0.29152360558509827 -0.14638884365558624
0.35930284857749939 0.36116641759872437 -0.082471743226051331
0.35755318403244019 0.39012539386749268 -0.01486847922205925
0.34364154934883118 0.2604331374168396 0.011393817141652107
0.33886879682540894 0.23956829309463501 -0.1473267525434494
0.3571467399597168 0.34033024311065674 -0.14668187499046326
-0.20622639358043671 -0.54177141189575195 0.048078522086143494
-0.15514357388019562 -0.51105427742004395 0.050924718379974365
-0.21523475646972656 -0.53461551666259766 0.11770562827587128
-0.25379392504692078 -0.5718998908996582 0.042603038251399994
-0.20316204428672791 -0.54515814781188965 -0.021530523896217346
-0.15984302759170532 -0.51866161823272705 -0.02582801878452301
-0.15480966866016388 -0.49754881858825684 0.1289844810962677
-0.27302518486976624 -0.56991952657699585 0.10399259626865387
-0.24309100210666656 -0.57294762134552002 -0.018503811210393906
0.32255908846855164 0.3680776059627533 0.23012907803058624
0.31206443905830383 0.37287122011184692 0.30000928044319153
0.31826162338256836 0.30990442633628845 0.24846510589122772
0.33458831906318665 0.35949751734733582 0.15340742468833923
0.32386317849159241 0.42657437920570374 0.21708562970161438
0.31213217973709106 0.42585685849189758 0.28854739665985107
0.30833300948143005 0.31918364763259888 0.31697279214859009
0.32904225587844849 0.29397597908973694 0.17342810332775116
0.33820480108261108 0.42534655332565308 0.13773123919963837
-0.2394467294216156 -0.48778444528579712 0.33030739426612854
-0.18171679973602295 -0.45105993747711182 0.34906372427940369
-0.24138684570789337 -0.47011098265647888 0.39479172229766846
-0.29775872826576233 -0.52068436145782471 0.31195610761642456
-0.23416563868522644 -0.50643479824066162 0.26022380590438843
-0.17060118913650513 -0.46625640988349915 0.27982324361801147
-0.18718242645263672 -0.43514737486839294 0.41253232955932617
-0.29570060968399048 -0.50052446126937866 0.37777867913246155
-0.29767540097236633 -0.54343175888061523 0.24021786451339722
0.31317245960235596 0.15704311430454254 0.33425521850585938
0.3026750385761261 0.16686123609542847 0.37152266502380371
0.31681826710700989 0.11952045559883118 0.36673420667648315
0.32419580221176147 0.14104928076267242 0.29471078515052795
0.31216135621070862 0.20248736441135406 0.30183625221252441
0.30221065878868103 0.21393579244613647 0.35329481959342957
0.3051922619342804 0.12805686891078949 0.39298993349075317
0.32924133539199829 0.10557812452316284 0.3385174572467804
0.32252147793769836 0.18317094445228577 0.24631336331367493
-0.016792768612504005 -0.34434205293655396 0.42214789986610413
0.029333215206861496 -0.31705528497695923 0.45012989640235901
-0.026848724111914635 -0.33399710059165955 0.45557570457458496
-0.069011695683002472 -0.37703230977058411 0.39490118622779846
-0.0010879747569561005 -0.35304272174835205 0.38609439134597778
0.045535843819379807 -0.3250921368598938 0.42516845464706421
0.018224004656076431 -0.30786722898483276 0.47276866436004639
-0.078337714076042175 -0.36478781700134277 0.44216141104698181
-0.052780985832214355 -0.38720965385437012 0.34352988004684448
0.35608392953872681 0.068773508071899414 0.20400883257389069
0.36333575844764709 0.043901141732931137 0.22410567104816437
0.35767453908920288 0.071205765008926392 0.16057229042053223
0.34728989005088806 0.09183521568775177 0.22654491662979126
0.35363668203353882 0.064967617392539978 0.26906737685203552
0.36928719282150269 0.028633233159780502 0.169725701212883
0.34551692008972168 0.115205317735672 0.1700156182050705
0.068672582507133484 -0.36721324920654297 0.29993405938148499
0.058199848979711533 -0.38311836123466492 0.25947898626327515
0.10028631985187531 -0.35492199659347534 0.31731811165809631
0.046770934015512466 -0.36421668529510498 0.32202881574630737
0.012083824723958969 -0.39099690318107605 0.2706904411315918
0.10618889331817627 -0.37019816040992737 0.26466459035873413
0.084704622626304626 -0.34291994571685791 0.36054021120071411
0.27693474292755127 0.15295860171318054 0.43553966283798218
0.27455705404281616 0.16788092255592346 0.43905222415924072
0.27483493089675903 0.1309744119644165 0.44276201725006104
0.28283384442329407 0.16177420318126678 0.42403331398963928
0.28249490261077881 0.19466269016265869 0.422435462474823
0.27068024873733521 0.14110909402370453 0.44947591423988342
0.28331750631332397 0.13011403381824493 0.43162000179290771
-0.017570333555340767 -0.29475691914558411 0.50838512182235718
0.005113452672958374 -0.27895238995552063 0.51245450973510742
-0.033856198191642761 -0.301078200340271 0.51277315616607666
-0.025009779259562492 -0.30623951554298401 0.49970605969429016
0.0093106105923652649 -0.28627115488052368 0.50384777784347534
-0.0067792460322380066 -0.28065803647041321 0.51907122135162354
-0.059412889182567596 -0.32533469796180725 0.50135016441345215
0.18032743036746979 0.52948105335235596 -0.44619250297546387
0.20591378211975098 0.55300396680831909 -0.41943871974945068
0.21336802840232849 0.46119457483291626 -0.44721245765686035
0.15303453803062439 0.50623947381973267 -0.47363671660423279
0.1438557356595993 0.60000109672546387 -0.43081098794937134
0.16998809576034546 0.62280350923538208 -0.40087687969207764
0.23879636824131012 0.48704797029495239 -0.42262500524520874
0.1878010630607605 0.43232375383377075 -0.47467043995857239
0.11492878198623657 0.57974016666412354 -0.45903876423835754
-0.46903851628303528 -0.46407923102378845 -0.4525202214717865
-0.4074120819568634 -0.48730692267417908 -0.41867133975028992
-0.48275810480117798 -0.50047957897186279 -0.42046773433685303
-0.53255569934844971 -0.43640241026878357 -0.47571006417274475
-0.45567905902862549 -0.42535337805747986 -0.48567542433738708
-0.39050853252410889 -0.45143714547157288 -0.45206165313720703
-0.42199903726577759 -0.52239990234375 -0.38713535666465759
-0.54670518636703491 -0.47508519887924194 -0.44231158494949341
-0.52086657285690308 -0.39472055435180664 -0.50884008407592773
0.061550762504339218 0.44657933712005615 -0.55448329448699951
0.016714245080947876 0.52659797668457031 -0.53562808036804199
0.094074010848999023 0.46637183427810669 -0.52771890163421631
0.099691912531852722 0.36906760931015015 -0.56201827526092529
0.025612190365791321 0.42073151469230652 -0.58219361305236816
-0.022772442549467087 0.50279974937438965 -0.56273698806762695
0.051768053323030472 0.5450177788734436 -0.51051974296569824
0.13118022680282593 0.38767492771148682 -0.53316175937652588
0.067198261618614197 0.34178835153579712 -0.58939075469970703
-0.42350059747695923 -0.29651704430580139 -0.58398449420928955
-0.43415641784667969 -0.34257796406745911 -0.55207455158233643
-0.49250912666320801 -0.25479435920715332 -0.59973132610321045
-0.40821731090545654 -0.24411261081695557 -0.61433112621307373
-0.35902631282806396 -0.33258065581321716 -0.5609358549118042
-0.36755388975143433 -0.37490543723106384 -0.52473211288452148
-0.50244849920272827 -0.30506366491317749 -0.57105588912963867
-0.47860515117645264 -0.19694006443023682 -0.62731802463531494
-0.34322601556777954 -0.28615778684616089 -0.59283852577209473
0.29888179898262024 0.31742310523986816 -0.34277361631393433
0.3205249011516571 0.29515287280082703 -0.28157109022140503
0.28431054949760437 0.27858957648277283 -0.35735064744949341
0.2728772759437561 0.35251742601394653 -0.39432564377784729
0.31790933012962341 0.35236808657646179 -0.32865285873413086
0.336525559425354 0.33447524905204773 -0.2714226245880127
0.30892544984817505 0.25295665860176086 -0.29178798198699951
0.25402209162712097 0.31556123495101929 -0.41509205102920532
0.29508468508720398 0.38420504331588745 -0.37588733434677124
-0.25990962982177734 -0.53349041938781738 -0.24173825979232788
-0.23272237181663513 -0.50864100456237793 -0.26138830184936523
-0.2289920300245285 -0.54107630252838135 -0.16750477254390717
-0.28289222717285156 -0.56251770257949829 -0.22001820802688599
-0.30082181096076965 -0.52190148830413818 -0.31168681383132935
-0.27681532502174377 -0.49350383877754211 -0.33794060349464417
-0.19750517606735229 -0.5175400972366333 -0.18229374289512634
-0.25696361064910889 -0.56876683235168457 -0.15078654885292053
-0.3200545608997345 -0.55329358577728271 -0.28508090972900391
0.27495819330215454 0.13489349186420441 -0.38620492815971375
0.27303165197372437 0.07895129919052124 -0.39324533939361572
0.24648489058017731 0.1618824303150177 -0.44626414775848389
0.2741466760635376 0.18725025653839111 -0.37917706370353699
0.30094948410987854 0.1099238395690918 -0.31697806715965271
0.29929050803184509 0.055198837071657181 -0.32385516166687012
0.24484001100063324 0.10458558797836304 -0.45286580920219421
0.24295692145824432 0.21897727251052856 -0.44124665856361389
0.30071213841438293 0.16062913835048676 -0.30962726473808289
-0.12177017331123352 -0.46838352084159851 -0.29220786690711975
-0.15946638584136963 -0.45593109726905823 -0.36345618963241577
-0.078692063689231873 -0.45559206604957581 -0.30206739902496338
-0.08367234468460083 -0.47448486089706421 -0.21377071738243103
-0.16305133700370789 -0.47794052958488464 -0.2853543758392334
-0.20458997786045074 -0.46260911226272583 -0.36223888397216797
-0.11576555669307709 -0.44388630986213684 -0.37066584825515747
-0.04047451913356781 -0.46077224612236023 -0.2253640741109848
-0.12454889714717865 -0.48586568236351013 -0.2043909877538681
0.17034420371055603 0.20689299702644348 -0.55281317234039307
0.15616557002067566 0.24438276886940002 -0.55894625186920166
0.19183701276779175 0.19987949728965759 -0.5320136547088623
0.16129912436008453 0.17635913193225861 -0.56562292575836182
0.1334693431854248 0.21681353449821472 -0.58080637454986572
0.18202078342437744 0.25344559550285339 -0.53082609176635742
0.18861772119998932 0.15018931031227112 -0.53937780857086182
