# XYZ point cloud file
0.46129068732261658 0.51820927858352661 -0.24931682646274567
0.45480290055274963 0.56193357706069946 -0.23693940043449402
0.4102032482624054 0.52179372310638428 -0.2222515195608139
-0.35485970973968506 -0.71216690540313721 -0.075085625052452087
-0.37090736627578735 -0.74639517068862915 -0.07298731803894043
-0.33415699005126953 -0.70621144771575928 -0.079833231866359711
-0.34537568688392639 -0.68368411064147949 -0.078007310628890991
-0.37919577956199646 -0.71912902593612671 -0.081353403627872467
-0.39257201552391052 -0.7511284351348877 -0.078616052865982056
-0.35318157076835632 -0.74335265159606934 -0.077443622052669525
-0.31940203905105591 -0.67394661903381348 -0.082309029996395111
-0.37289267778396606 -0.69193416833877563 -0.086222335696220398
0.29002952575683594 0.68964022397994995 -0.0013217296218499541
0.29877260327339172 0.67843490839004517 0.034689072519540787
0.32837587594985962 0.63324892520904541 -0.032477047294378281
0.28059440851211548 0.69654053449630737 -0.032249201089143753
0.24397203326225281 0.74268895387649536 0.033022172749042511
0.25408869981765747 0.73018014430999756 0.068021245300769806
0.33682620525360107 0.61921095848083496 0.004397829994559288
0.31908008456230164 0.64098960161209106 -0.062498945742845535
0.23374643921852112 0.75265747308731079 0.00066551216877996922
-0.55811351537704468 -0.62854671478271484 0.0070496378466486931
-0.49165454506874084 -0.64014291763305664 0.0176540557295084
-0.54331529140472412 -0.63009089231491089 0.052550807595252991
-0.62614923715591431 -0.61085176467895508 -0.0040134387090802193
-0.56881594657897949 -0.62383687496185303 -0.032292187213897705
-0.50391918420791626 -0.63722020387649536 -0.020143300294876099
-0.47332319617271423 -0.63858741521835327 0.063433915376663208
-0.61078894138336182 -0.61490440368652344 0.042605917900800705
-0.63866657018661499 -0.60472476482391357 -0.047043550759553909
0.16425979137420654 0.88898921012878418 -0.150355264544487
0.16800770163536072 0.86531013250350952 -0.14896269142627716
0.17642837762832642 0.88862645626068115 -0.153612419962883
0.16124923527240753 0.91613036394119263 -0.1502472311258316
0.15403962135314941 0.88813811540603638 -0.15548336505889893
0.15471194684505463 0.86605006456375122 -0.14971756935119629
0.18114356696605682 0.8640289306640625 -0.15508027374744415
0.17323984205722809 0.91547727584838867 -0.15243683755397797
0.15185272693634033 0.91541451215744019 -0.15669569373130798
-0.76958656311035156 -0.56654036045074463 -0.29919931292533875
-0.76547819375991821 -0.57925039529800415 -0.29552674293518066
-0.74924427270889282 -0.56402814388275146 -0.28273504972457886
-0.7715151309967041 -0.55463588237762451 -0.30944466590881348
-0.79253804683685303 -0.57084232568740845 -0.31609591841697693
-0.78843075037002563 -0.58356267213821411 -0.3111574649810791
-0.74374920129776001 -0.57698321342468262 -0.28107059001922607
-0.75402915477752686 -0.55025213956832886 -0.29088035225868225
-0.79402732849121094 -0.55939233303070068 -0.32740259170532227
0.4325791597366333 0.60623520612716675 -0.26628324389457703
0.44985145330429077 0.6246647834777832 -0.26808115839958191
0.43515858054161072 0.62165224552154541 -0.2846418023109436
0.41649022698402405 0.59409618377685547 -0.26913613080978394
0.43034473061561584 0.58689188957214355 -0.24931760132312775
0.45010942220687866 0.60662347078323364 -0.25339227914810181
0.45018008351325989 0.63926416635513306 -0.284685879945755
0.42163568735122681 0.61006438732147217 -0.2894999086856842
0.41118884086608887 0.57391977310180664 -0.24886341392993927
-0.44214063882827759 -0.74999016523361206 -0.13301482796669006
-0.45621192455291748 -0.76051473617553711 -0.15354697406291962
-0.45202279090881348 -0.77358412742614746 -0.12761247158050537
-0.42460924386978149 -0.73852682113647461 -0.11295384168624878
-0.43767213821411133 -0.73038411140441895 -0.1438383162021637
-0.45140480995178223 -0.74377274513244629 -0.16473312675952911
-0.46607300639152527 -0.78143000602722168 -0.14785937964916229
-0.43488577008247375 -0.76526445150375366 -0.1082325279712677
-0.42032960057258606 -0.7153281569480896 -0.12240184843540192
0.3821755051612854 0.59714186191558838 -0.27643677592277527
0.37324950098991394 0.60695624351501465 -0.27654078602790833
0.37039437890052795 0.58198451995849609 -0.25290438532829285
0.39148911833763123 0.59036362171173096 -0.27556750178337097
0.39380094408988953 0.61217767000198364 -0.29882794618606567
0.38662391901016235 0.62137782573699951 -0.2984047532081604
0.35889530181884766 0.59377068281173706 -0.25276830792427063
0.38147076964378357 0.57256484031677246 -0.25185644626617432
0.40126064419746399 0.60606205463409424 -0.29810497164726257
-0.45303252339363098 -0.6984979510307312 -0.17498491704463959
-0.4423501193523407 -0.67883414030075073 -0.1551806628704071
-0.46447673439979553 -0.69281882047653198 -0.18354992568492889
-0.46358922123908997 -0.71784913539886475 -0.19378684461116791
-0.44389569759368896 -0.70534288883209229 -0.16622649133205414
-0.43020305037498474 -0.6863437294960022 -0.14472195506095886
-0.45648202300071716 -0.67141729593276978 -0.16554057598114014
-0.47377908229827881 -0.71352481842041016 -0.20068943500518799
-0.45576485991477966 -0.72322183847427368 -0.18635949492454529
0.3452688455581665 0.64080238342285156 -0.2864031195640564
0.33117339015007019 0.63464885950088501 -0.27389681339263916
0.35460129380226135 0.63000476360321045 -0.2810293436050415
0.35797473788261414 0.650840163230896 -0.29910537600517273
0.33710619807243347 0.64976012706756592 -0.2929891049861908
0.32488471269607544 0.64539426565170288 -0.28457075357437134
0.33883592486381531 0.62133628129959106 -0.26302012801170349
0.36850938200950623 0.64205253124237061 -0.29783895611763
0.34852710366249084 0.6573408842086792 -0.30204164981842041
-0.50274109840393066 -0.67569589614868164 -0.22148112952709198
-0.4903908371925354 -0.68155521154403687 -0.20675794780254364
-0.50141781568527222 -0.65807247161865234 -0.21630668640136719
-0.51315885782241821 -0.67045474052429199 -0.23617608845233917
-0.50785923004150391 -0.69322818517684937 -0.22903166711330414
-0.49706420302391052 -0.70136040449142456 -0.21811172366142273
-0.48719021677970886 -0.66094815731048584 -0.19651614129543304
-0.51293188333511353 -0.6556435227394104 -0.2343476414680481
-0.51641702651977539 -0.6855618953704834 -0.24022622406482697
0.28821849822998047 0.68018180131912231 -0.24459986388683319
0.27533310651779175 0.71045601367950439 -0.23701758682727814
0.2853446900844574 0.6744953989982605 -0.22360298037528992
0.30206090211868286 0.65422958135604858 -0.25287237763404846
0.29085633158683777 0.68708938360214233 -0.26229080557823181
0.28104260563850403 0.71512812376022339 -0.2552359402179718
0.26871329545974731 0.70809304714202881 -0.21516363322734833
0.3033897876739502 0.64372009038925171 -0.23361438512802124
0.30138233304023743 0.66370034217834473 -0.26937371492385864
-0.55304247140884399 -0.6271483302116394 -0.23018667101860046
-0.54901927709579468 -0.62211406230926514 -0.20927566289901733
-0.58283740282058716 -0.62364870309829712 -0.24129849672317505
-0.55825090408325195 -0.63245564699172974 -0.24856579303741455
-0.52666300535202026 -0.63315063714981079 -0.22081746160984039
-0.51687300205230713 -0.63040417432785034 -0.19759547710418701
-0.58316129446029663 -0.61631315946578979 -0.22278578579425812
-0.5849449634552002 -0.63108271360397339 -0.25775119662284851
-0.53530037403106689 -0.63614124059677124 -0.24075524508953094
0.2438303530216217 0.79347032308578491 -0.21499310433864594
0.2308923602104187 0.79361003637313843 -0.19554071128368378
0.25308027863502502 0.76854324340820312 -0.22227607667446136
0.25524944067001343 0.79515385627746582 -0.23257222771644592
0.23576951026916504 0.81694644689559937 -0.20814795792102814
0.22214388847351074 0.81660944223403931 -0.19019629061222076
0.24140122532844543 0.7688068151473999 -0.20139658451080322
0.26323562860488892 0.77062720060348511 -0.24026046693325043
0.24798870086669922 0.81846129894256592 -0.22537346184253693
-0.66305828094482422 -0.61771947145462036 -0.27099749445915222
-0.63912034034729004 -0.61939370632171631 -0.26219430565834045
-0.66797345876693726 -0.60530716180801392 -0.25905314087867737
-0.68531173467636108 -0.61671078205108643 -0.27958381175994873
-0.66035199165344238 -0.62942796945571899 -0.28274610638618469
-0.63726073503494263 -0.63007462024688721 -0.27515077590942383
-0.64369124174118042 -0.60826373100280762 -0.2482726126909256
-0.69004374742507935 -0.60342347621917725 -0.26927167177200317
-0.68212473392486572 -0.62907034158706665 -0.29047933220863342
0.21851493418216705 0.8874165415763855 -0.19345346093177795
0.20432275533676147 0.88750928640365601 -0.17690110206604004
0.22303971648216248 0.8634224534034729 -0.19692234694957733
0.23158508539199829 0.88743376731872559 -0.21143469214439392
0.21547156572341919 0.91194450855255127 -0.19224947690963745
0.2012685239315033 0.91300821304321289 -0.17518369853496552
0.20891502499580383 0.8628883957862854 -0.18052734434604645
0.23598450422286987 0.86420702934265137 -0.21432296931743622
0.22859635949134827 0.91101944446563721 -0.210968017578125
-0.7493709921836853 -0.62019139528274536 -0.31049692630767822
-0.72811233997344971 -0.61777359247207642 -0.29874292016029358
-0.75473600625991821 -0.60659748315811157 -0.30229923129081726
-0.77036678791046143 -0.62396460771560669 -0.32439666986465454
-0.74436652660369873 -0.63250976800918579 -0.32076820731163025
-0.72389674186706543 -0.63037174940109253 -0.30897253751754761
-0.73287045955657959 -0.60395574569702148 -0.29025852680206299
-0.77660703659057617 -0.61076074838638306 -0.31632468104362488
-0.76446026563644409 -0.63589292764663696 -0.33476871252059937
0.1867717057466507 0.81587982177734375 -0.12224108725786209
0.19958023726940155 0.79722487926483154 -0.11315148323774338
0.20343568921089172 0.80449211597442627 -0.14967928826808929
0.17835046350955963 0.83060359954833984 -0.13389095664024353
0.16429847478866577 0.83037722110748291 -0.090872019529342651
0.17766569554805756 0.81589066982269287 -0.071533337235450745
0.21571542322635651 0.78269952535629272 -0.14784286916255951
0.19425506889820099 0.82327777147293091 -0.15285249054431915
0.15775652229785919 0.83974593877792358 -0.11506059020757675
-0.70504581928253174 -0.57299822568893433 -0.22077696025371552
-0.6881403923034668 -0.58363300561904907 -0.23378868401050568
-0.68580806255340576 -0.58127009868621826 -0.19681514799594879
-0.72746944427490234 -0.55891501903533936 -0.20818902552127838
-0.71895778179168701 -0.56710970401763916 -0.24385297298431396
-0.70635414123535156 -0.57924926280975342 -0.25073438882827759
-0.6660538911819458 -0.58976095914840698 -0.21588714420795441
-0.71219766139984131 -0.57009369134902954 -0.17556282877922058
-0.73515814542770386 -0.55153614282608032 -0.24024386703968048
0.27452385425567627 0.68426638841629028 -0.13301087915897369
0.27232533693313599 0.69259583950042725 -0.097192451357841492
0.30310946702957153 0.63930463790893555 -0.14984770119190216
0.27809542417526245 0.67666184902191162 -0.16735154390335083
0.24483117461204529 0.73019403219223022 -0.11857548356056213
0.23452797532081604 0.74512064456939697 -0.075747154653072357
0.30555287003517151 0.64247113466262817 -0.11927323788404465
0.30339542031288147 0.63602685928344727 -0.18121488392353058
0.25361517071723938 0.7178846001625061 -0.1563083678483963
-0.56132745742797852 -0.61498236656188965 -0.13107883930206299
-0.51160192489624023 -0.62621468305587769 -0.11482007801532745
-0.56936657428741455 -0.61586421728134155 -0.10035853832960129
-0.61230510473251343 -0.60303682088851929 -0.15086330473423004
-0.55342352390289307 -0.61570030450820923 -0.15963079035282135
-0.50935065746307373 -0.62637978792190552 -0.14402183890342712
-0.51267117261886597 -0.62851893901824951 -0.084631390869617462
-0.63021278381347656 -0.60025644302368164 -0.12042075395584106
-0.59768134355545044 -0.60598909854888916 -0.1779026985168457
0.35354286432266235 0.56431388854980469 -0.18963347375392914
0.36008450388908386 0.55561709403991699 -0.1814916729927063
0.35600107908248901 0.56370341777801514 -0.20689587295055389
0.34417226910591125 0.57592391967773438 -0.18038250505924225
0.34931877255439758 0.57158041000366211 -0.1610608696937561
0.36673656105995178 0.55166447162628174 -0.20400452613830566
0.3430953323841095 0.5789036750793457 -0.20331063866615295
-0.42868158221244812 -0.64924120903015137 -0.098777391016483307
-0.42835900187492371 -0.65311682224273682 -0.11392076313495636
-0.41808217763900757 -0.65147197246551514 -0.084500528872013092
-0.44177904725074768 -0.6436694860458374 -0.098814070224761963
-0.44609153270721436 -0.64574426412582397 -0.12274190783500671
-0.41371679306030273 -0.65883302688598633 -0.10146619379520416
-0.43494465947151184 -0.64528995752334595 -0.075736485421657562
0.25721240043640137 0.88713181018829346 -0.2617344856262207
0.25050386786460876 0.88719260692596436 -0.2461540699005127
0.26061654090881348 0.86516952514648438 -0.2630172073841095
0.26452022790908813 0.88757520914077759 -0.2764301598072052
0.25510478019714355 0.90947365760803223 -0.2628079354763031
0.24800831079483032 0.9096570611000061 -0.24693652987480164
0.2543179988861084 0.86505603790283203 -0.24781006574630737
0.26755881309509277 0.8656267523765564 -0.2774692177772522
0.26274469494819641 0.90993821620941162 -0.27757826447486877
-0.73368263244628906 -0.65563690662384033 -0.35562172532081604
-0.71489322185516357 -0.65333473682403564 -0.34360623359680176
-0.7365034818649292 -0.64963960647583008 -0.34413638710975647
-0.75219470262527466 -0.65913760662078857 -0.36977070569992065
-0.73129576444625854 -0.66272890567779541 -0.36595892906188965
-0.71270132064819336 -0.66015416383743286 -0.35394918918609619
-0.71735495328903198 -0.64758121967315674 -0.33212557435035706
-0.75530970096588135 -0.65288257598876953 -0.35834050178527832
-0.74967056512832642 -0.6665036678314209 -0.37996119260787964
0.27559801936149597 0.79988807439804077 -0.2772279679775238
0.27056217193603516 0.79885625839233398 -0.26344797015190125
0.28126570582389832 0.77699458599090576 -0.28396576642990112
0.28140458464622498 0.80076980590820312 -0.29009988903999329
0.27009281516075134 0.82186996936798096 -0.27118000388145447
0.26461935043334961 0.82121509313583374 -0.25690200924873352
0.27673262357711792 0.77551412582397461 -0.27065193653106689
0.28665667772293091 0.77817803621292114 -0.29619637131690979
0.27628400921821594 0.82253491878509521 -0.28468099236488342
-0.65685582160949707 -0.65063595771789551 -0.31770545244216919
-0.6362311840057373 -0.64992815256118774 -0.31107184290885925
-0.65786063671112061 -0.64546650648117065 -0.30645012855529785
-0.67662423849105835 -0.65117591619491577 -0.32501283288002014
-0.65562182664871216 -0.65677791833877563 -0.32736530900001526
-0.63546770811080933 -0.65586394071578979 -0.32046085596084595
-0.63659441471099854 -0.6449819803237915 -0.29981496930122375
-0.67818331718444824 -0.64582270383834839 -0.31368178129196167
-0.67500323057174683 -0.65752160549163818 -0.3349742591381073
0.29731404781341553 0.7013469934463501 -0.30378928780555725
0.29499712586402893 0.69804674386978149 -0.2915080189704895
0.30308231711387634 0.68066895008087158 -0.30902189016342163
0.30102440714836121 0.70437169075012207 -0.31427475810050964
0.29204025864601135 0.72640210390090942 -0.29764586687088013
0.2888641357421875 0.72380715608596802 -0.28500568866729736
0.30170157551765442 0.67651098966598511 -0.29737251996994019
0.30587351322174072 0.68542331457138062 -0.31821826100349426
0.29643452167510986 0.72848266363143921 -0.30882900953292847
-0.56879132986068726 -0.64465105533599854 -0.29124796390533447
-0.54995930194854736 -0.64472591876983643 -0.28516370058059692
-0.56658804416656494 -0.64093130826950073 -0.27916243672370911
-0.59111267328262329 -0.64643073081970215 -0.29787600040435791
-0.57032817602157593 -0.64975219964981079 -0.3005378246307373
-0.5532524585723877 -0.6494286060333252 -0.29433980584144592
-0.54666274785995483 -0.64159643650054932 -0.27288290858268738
-0.58988088369369507 -0.64219880104064941 -0.28614512085914612
-0.59158217906951904 -0.65186125040054321 -0.30712661147117615
0.32799011468887329 0.66559094190597534 -0.32019087672233582
0.32845354080200195 0.66133081912994385 -0.31047293543815613
0.33913877606391907 0.67076992988586426 -0.32331126928329468
0.32874450087547302 0.67131149768829346 -0.32876378297805786
0.31820285320281982 0.66319018602371216 -0.31701076030731201
0.31841495633125305 0.65860462188720703 -0.30662763118743896
0.3391268253326416 0.66647189855575562 -0.31459060311317444
0.34016531705856323 0.67611730098724365 -0.33191806077957153
0.31930410861968994 0.66944867372512817 -0.32519206404685974
-0.53030687570571899 -0.6674039363861084 -0.27459755539894104
-0.53141933679580688 -0.681141197681427 -0.27225017547607422
-0.52626913785934448 -0.66606169939041138 -0.26305961608886719
-0.53111028671264648 -0.65598589181900024 -0.27696853876113892
-0.53509926795959473 -0.67034929990768433 -0.28480261564254761
-0.53584456443786621 -0.68430197238922119 -0.28217741847038269
-0.52750962972640991 -0.67930322885513306 -0.26198732852935791
-0.52688121795654297 -0.65428012609481812 -0.26483222842216492
-0.53621691465377808 -0.65941780805587769 -0.28674116730690002
0.37839794158935547 0.67224866151809692 -0.33505460619926453
0.37452793121337891 0.66737473011016846 -0.32384645938873291
0.39096599817276001 0.66593641042709351 -0.33967697620391846
0.38092491030693054 0.67776691913604736 -0.34479242563247681
0.36491286754608154 0.67554730176925659 -0.33066821098327637
0.36233672499656677 0.67088413238525391 -0.32112970948219299
0.38666039705276489 0.6607171893119812 -0.32743102312088013
0.39354488253593445 0.67173713445663452 -0.34965261816978455
0.36706110835075378 0.68082433938980103 -0.33984863758087158
-0.52134066820144653 -0.72435522079467773 -0.25853437185287476
-0.51246410608291626 -0.73612970113754272 -0.25265604257583618
-0.51789450645446777 -0.71788102388381958 -0.24822407960891724
-0.52797627449035645 -0.71067368984222412 -0.26426169276237488
-0.52563583850860596 -0.72944915294647217 -0.2685554027557373
-0.5170484185218811 -0.74147236347198486 -0.26291453838348389
-0.50875186920166016 -0.72891521453857422 -0.24155008792877197
-0.52443581819534302 -0.70583069324493408 -0.25477561354637146
-0.53210699558258057 -0.71517097949981689 -0.27394479513168335
0.41277807950973511 0.63732790946960449 -0.34885931015014648
0.40935817360877991 0.63218742609024048 -0.33575034141540527
0.416817307472229 0.63042336702346802 -0.34806609153747559
0.41501936316490173 0.64267921447753906 -0.35798192024230957
0.40808895230293274 0.64702379703521729 -0.34724166989326477
0.40417656302452087 0.64165246486663818 -0.33413603901863098
0.41407641768455505 0.62546151876449585 -0.33521720767021179
0.4187091588973999 0.63580971956253052 -0.35628986358642578
0.41049101948738098 0.65267032384872437 -0.35691636800765991
-0.48228433728218079 -0.75111448764801025 -0.23826715350151062
-0.47513332962989807 -0.75305324792861938 -0.23256197571754456
-0.47812190651893616 -0.74448895454406738 -0.22594094276428223
-0.49178767204284668 -0.74906128644943237 -0.24278201162815094
-0.48669204115867615 -0.75610166788101196 -0.24754089117050171
-0.4796527624130249 -0.75764006376266479 -0.24112540483474731
-0.47086507081985474 -0.74713075160980225 -0.22014737129211426
-0.48764798045158386 -0.74194210767745972 -0.23064889013767242
-0.49638399481773376 -0.75430065393447876 -0.25266629457473755
0.43785756826400757 0.64387869834899902 -0.33154428005218506
0.43812289834022522 0.6394389271736145 -0.31823462247848511
0.44904237985610962 0.66086375713348389 -0.32975775003433228
0.43663662672042847 0.6485283374786377 -0.34240046143531799
0.42869070172309875 0.63289624452590942 -0.33771079778671265
0.42788806557655334 0.62830936908721924 -0.32473847270011902
0.45017626881599426 0.65642255544662476 -0.31646573543548584
0.44689178466796875 0.66562789678573608 -0.34119895100593567
0.42872324585914612 0.63789749145507812 -0.34696769714355469
-0.47840636968612671 -0.77709430456161499 -0.20472076535224915
-0.48895978927612305 -0.79382038116455078 -0.19988486170768738
-0.47343161702156067 -0.7741742730140686 -0.18990576267242432
-0.47259640693664551 -0.7648845911026001 -0.21430400013923645
-0.48357364535331726 -0.77864140272140503 -0.21798089146614075
-0.49456325173377991 -0.7945064902305603 -0.21452157199382782
-0.4836861789226532 -0.7917705774307251 -0.18441964685916901
-0.46790513396263123 -0.76091271638870239 -0.20056477189064026
-0.477521151304245 -0.76763099431991577 -0.22510577738285065
0.2596704363822937 0.98039424419403076 -0.2828029990196228
0.25171157717704773 0.98076736927032471 -0.26669743657112122
0.25600102543830872 0.95580464601516724 -0.27348867058753967
0.26787501573562622 0.98092734813690186 -0.2967197597026825
0.26596829295158386 1.0065662860870361 -0.29388412833213806
0.25790867209434509 1.0070769786834717 -0.277936190366745
0.24825587868690491 0.95611196756362915 -0.25734564661979675
0.2641284167766571 0.95636427402496338 -0.28785678744316101
0.27406030893325806 1.006914496421814 -0.30723515152931213
-0.80608749389648438 -0.6800529956817627 -0.42656391859054565
-0.78824174404144287 -0.67088770866394043 -0.40543577075004578
-0.80971884727478027 -0.6730918288230896 -0.41576763987541199
-0.82427847385406494 -0.69224637746810913 -0.44905230402946472
-0.80342274904251099 -0.68799847364425659 -0.43542957305908203
-0.78560590744018555 -0.67873656749725342 -0.4148811399936676
-0.79174637794494629 -0.66412168741226196 -0.39433613419532776
-0.82803678512573242 -0.68519508838653564 -0.43867188692092896
-0.82152813673019409 -0.70006716251373291 -0.45723548531532288
0.30376604199409485 1.0957086086273193 -0.33176138997077942
0.29631355404853821 1.0975000858306885 -0.31700399518013
0.28789141774177551 1.065545916557312 -0.31871217489242554
0.31002768874168396 1.0937944650650024 -0.3429948091506958
0.32276859879493713 1.1221612691879272 -0.34518712759017944
0.3157329261302948 1.124590277671814 -0.33105936646461487
0.28009498119354248 1.0667673349380493 -0.30343857407569885
0.2949526309967041 1.0647200345993042 -0.33073005080223083
0.32827785611152649 1.1187998056411743 -0.35548010468482971
-0.88176709413528442 -0.75200426578521729 -0.51674127578735352
-0.86307823657989502 -0.72822713851928711 -0.49559253454208374
-0.88619017601013184 -0.74567300081253052 -0.50842404365539551
-0.89695852994918823 -0.77879005670547485 -0.53344190120697021
-0.87789225578308105 -0.75748151540756226 -0.52232992649078369
-0.85977554321289062 -0.73475396633148193 -0.5022122859954834
-0.86723071336746216 -0.72150146961212158 -0.48645731806755066
-0.90166175365447998 -0.77291184663772583 -0.52603793144226074
-0.89224851131439209 -0.78323400020599365 -0.53759765625
0.39574095606803894 1.1530915498733521 -0.38819560408592224
0.39060923457145691 1.1558377742767334 -0.37601128220558167
0.3694031834602356 1.1521661281585693 -0.37329918146133423
0.39874789118766785 1.1477222442626953 -0.39597713947296143
0.42262151837348938 1.145054817199707 -0.40388888120651245
0.41830989718437195 1.1473444700241089 -0.39237159490585327
0.36352670192718506 1.1551451683044434 -0.36047863960266113
0.37332057952880859 1.1468818187713623 -0.38183128833770752
0.42462179064750671 1.1400238275527954 -0.41090726852416992
-0.90286707878112793 -0.86952078342437744 -0.53992700576782227
-0.90836399793624878 -0.83858180046081543 -0.54534459114074707
-0.90695232152938843 -0.86530214548110962 -0.53356850147247314
-0.89044821262359619 -0.89933490753173828 -0.5288240909576416
-0.89750689268112183 -0.8710828423500061 -0.54201304912567139
-0.90275835990905762 -0.84107571840286255 -0.54755842685699463
-0.91295188665390015 -0.83376872539520264 -0.5389939546585083
-0.89383482933044434 -0.89573746919631958 -0.5222543478012085
-0.88568413257598877 -0.8999474048614502 -0.53113913536071777
0.49533373117446899 1.0714502334594727 -0.45530325174331665
0.49368095397949219 1.0718504190444946 -0.44609379768371582
0.47358694672584534 1.1033560037612915 -0.4383799135684967
0.49373579025268555 1.068830132484436 -0.45946401357650757
0.51294505596160889 1.0340927839279175 -0.46927529573440552
0.51215344667434692 1.0338464975357056 -0.46065178513526917
0.47104206681251526 1.104414701461792 -0.42840299010276794
0.47323945164680481 1.0997860431671143 -0.44353222846984863
0.51018530130386353 1.0324974060058594 -0.47265496850013733
-0.81664532423019409 -0.9684751033782959 -0.47459772229194641
-0.84648442268371582 -0.95013254880905151 -0.49524062871932983
-0.81742823123931885 -0.96676898002624512 -0.46711355447769165
-0.7832978367805481 -0.98041421175003052 -0.45194360613822937
-0.81493115425109863 -0.96594107151031494 -0.47843357920646667
-0.84361833333969116 -0.94865906238555908 -0.49847811460494995
-0.848166823387146 -0.94780820608139038 -0.4880930483341217
-0.78319227695465088 -0.97928112745285034 -0.4439757764339447
-0.78278601169586182 -0.97695386409759521 -0.45654511451721191
0.53073865175247192 0.90376001596450806 -0.47487008571624756
0.53206473588943481 0.90188783407211304 -0.46579635143280029
0.53082340955734253 0.94877821207046509 -0.48015773296356201
0.52593886852264404 0.90520036220550537 -0.47874882817268372
0.52581197023391724 0.85916370153427124 -0.46223351359367371
0.52762490510940552 0.85682427883148193 -0.45243540406227112
0.53154313564300537 0.94739389419555664 -0.47160625457763672
0.52642214298248291 0.9492485523223877 -0.48335668444633484
0.52086496353149414 0.86150950193405151 -0.46716463565826416
-0.67483556270599365 -0.96765011548995972 -0.37530750036239624
-0.71127545833587646 -0.97997492551803589 -0.40227565169334412
-0.67239171266555786 -0.96773511171340942 -0.3643549382686615
-0.63936281204223633 -0.94902127981185913 -0.34642022848129272
-0.67761659622192383 -0.9631885290145874 -0.3836284875869751
-0.71304643154144287 -0.9755130410194397 -0.40913820266723633
-0.70954668521881104 -0.97976082563400269 -0.39254984259605408
-0.63624852895736694 -0.94927340745925903 -0.33418670296669006
-0.64305436611175537 -0.94485265016555786 -0.35629257559776306
0.49106341600418091 0.74171328544616699 -0.38406533002853394
0.49343127012252808 0.7379230260848999 -0.3720470666885376
0.50496721267700195 0.77722978591918945 -0.41433128714561462
0.48692011833190918 0.74618542194366455 -0.39323940873146057
0.47635138034820557 0.71026456356048584 -0.35644993185997009
0.47853672504425049 0.70608848333358765 -0.34386661648750305
0.50731879472732544 0.77391433715820312 -0.40298417210578918
0.50037705898284912 0.78112584352493286 -0.42205792665481567
0.47278639674186707 0.71510785818099976 -0.36685222387313843
-0.54761236906051636 -0.86932522058486938 -0.24892120063304901
-0.57507383823394775 -0.89816755056381226 -0.28140109777450562
-0.54270261526107788 -0.8690832257270813 -0.23376338183879852
-0.52382844686508179 -0.84094893932342529 -0.22182576358318329
-0.55330657958984375 -0.86739349365234375 -0.26300159096717834
-0.58025497198104858 -0.89532458782196045 -0.29427805542945862
-0.5706983208656311 -0.8982575535774231 -0.26697936654090881
-0.51854491233825684 -0.84022849798202515 -0.2062227874994278
-0.52980345487594604 -0.83996939659118652 -0.23670446872711182
0.3872147798538208 0.71837961673736572 -0.35880881547927856
0.38512846827507019 0.70024329423904419 -0.35663965344429016
0.40032094717025757 0.71379166841506958 -0.3631325364112854
0.3887786865234375 0.7395138144493103 -0.35962924361228943
0.37281879782676697 0.72004234790802002 -0.35340350866317749
0.37105652689933777 0.70247679948806763 -0.35150507092475891
0.39788371324539185 0.69505470991134644 -0.36107605695724487
0.40238860249519348 0.73555278778076172 -0.36413875222206116
0.37398746609687805 0.74060481786727905 -0.35378450155258179
-0.55809694528579712 -0.74934625625610352 -0.29297083616256714
-0.5506134033203125 -0.76239585876464844 -0.28664878010749817
-0.54359179735183716 -0.74155575037002563 -0.28562694787979126
-0.56345909833908081 -0.73391294479370117 -0.29800513386726379
-0.57514029741287231 -0.75731533765792847 -0.30061668157577515
-0.56804275512695312 -0.77111297845840454 -0.29419931769371033
-0.53570950031280518 -0.75404500961303711 -0.27957841753959656
-0.54935675859451294 -0.72667920589447021 -0.29081964492797852
-0.58012080192565918 -0.74124991893768311 -0.305376797914505
0.387096107006073 0.80982881784439087 -0.36149081587791443
0.38879972696304321 0.78597474098205566 -0.36068487167358398
0.40283429622650146 0.8073459267616272 -0.36960998177528381
0.38454499840736389 0.83373719453811646 -0.36209008097648621
0.37120363116264343 0.80984431505203247 -0.35313704609870911
0.37322998046875 0.7862323522567749 -0.35330873727798462
0.40376454591751099 0.7830546498298645 -0.36715269088745117
0.40105673670768738 0.83175593614578247 -0.37191376090049744
0.36838316917419434 0.83354592323303223 -0.35282236337661743
-0.63345515727996826 -0.7758105993270874 -0.33219453692436218
-0.62721419334411621 -0.7927316427230835 -0.32789677381515503
-0.61340194940567017 -0.77084636688232422 -0.32010039687156677
-0.6377454400062561 -0.75805443525314331 -0.33506253361701965
-0.65371721982955933 -0.77975594997406006 -0.34510496258735657
-0.64778858423233032 -0.79784864187240601 -0.34199720621109009
-0.60690754652023315 -0.78662103414535522 -0.31471502780914307
-0.61784785985946655 -0.75358378887176514 -0.32374200224876404
-0.6578676700592041 -0.76157432794570923 -0.34722468256950378
0.37431788444519043 0.90323108434677124 -0.36023470759391785
0.37779536843299866 0.8806268572807312 -0.36149096488952637
0.3926241397857666 0.90384167432785034 -0.37290292978286743
0.37143978476524353 0.92513614892959595 -0.35865548253059387
0.35771185159683228 0.90221142768859863 -0.34992825984954834
0.36126783490180969 0.87989437580108643 -0.35119682550430298
0.39565029740333557 0.88022273778915405 -0.37370443344116211
0.38995397090911865 0.9267122745513916 -0.37137117981910706
0.35483714938163757 0.92395883798599243 -0.34859746694564819
-0.71281421184539795 -0.78728270530700684 -0.38342991471290588
-0.70869898796081543 -0.80837905406951904 -0.38267669081687927
-0.69364744424819946 -0.78514128923416138 -0.3711121678352356
-0.71632850170135498 -0.76825058460235596 -0.38459926843643188
-0.73118746280670166 -0.78980714082717896 -0.39500612020492554
-0.72780525684356689 -0.81140798330307007 -0.39454618096351624
-0.68879717588424683 -0.80540937185287476 -0.36985510587692261
-0.69739300012588501 -0.76630681753158569 -0.3723214864730835
-0.73455405235290527 -0.770710289478302 -0.39640459418296814
0.37074404954910278 0.9868161678314209 -0.35510453581809998
0.36947411298751831 0.96642613410949707 -0.35547387599945068
0.38772433996200562 0.98934304714202881 -0.36613979935646057
0.37332549691200256 1.0085172653198242 -0.35687699913978577
0.3547079861164093 0.98681509494781494 -0.34673398733139038
0.35317757725715637 0.96575260162353516 -0.34647989273071289
0.38739445805549622 0.96918356418609619 -0.36732378602027893
0.38884651660919189 1.0098716020584106 -0.36688566207885742
0.35755237936973572 1.0093427896499634 -0.34900930523872375
-0.78062152862548828 -0.80477190017700195 -0.42509558796882629
-0.77834159135818481 -0.82479339838027954 -0.42459413409233093
-0.76476407051086426 -0.79826635122299194 -0.41507267951965332
-0.78468286991119385 -0.78647047281265259 -0.42862808704376221
-0.79699099063873291 -0.8128049373626709 -0.43743672966957092
-0.79415887594223022 -0.83088582754135132 -0.43635183572769165
-0.76244765520095825 -0.81944447755813599 -0.41478061676025391
-0.76839929819107056 -0.77956324815750122 -0.41772359609603882
-0.80158317089080811 -0.79492145776748657 -0.44184526801109314
0.30576246976852417 0.98519647121429443 -0.32593455910682678
0.29066470265388489 0.98358845710754395 -0.3179587721824646
0.30327865481376648 0.96207785606384277 -0.3216036856174469
0.32213443517684937 0.98666977882385254 -0.33303448557853699
0.30955901741981506 1.0087087154388428 -0.33153682947158813
0.29547211527824402 1.0080726146697998 -0.32554367184638977
0.28756478428840637 0.95977401733398438 -0.3117164671421051
0.32018774747848511 0.96415579319000244 -0.33050435781478882
0.32521378993988037 1.0098565816879272 -0.33700573444366455
-0.795887291431427 -0.73030316829681396 -0.44144770503044128
-0.77857226133346558 -0.72234338521957397 -0.4256376326084137
-0.79863822460174561 -0.71296483278274536 -0.44287949800491333
-0.81300383806228638 -0.73959094285964966 -0.45823591947555542
-0.79283654689788818 -0.74926149845123291 -0.4380536675453186
-0.77572029829025269 -0.74184244871139526 -0.42411327362060547
-0.78107583522796631 -0.70435672998428345 -0.42508754134178162
-0.81611543893814087 -0.72341245412826538 -0.46163132786750793
-0.81000137329101562 -0.75784426927566528 -0.45342913269996643
0.30500313639640808 0.89449560642242432 -0.31702381372451782
0.30796307325363159 0.87225890159606934 -0.31788823008537292
0.32313919067382812 0.89771896600723267 -0.32912614941596985
0.30299055576324463 0.91680771112442017 -0.31720417737960815
0.2882244884967804 0.89136010408401489 -0.30406683683395386
0.29103457927703857 0.86922973394393921 -0.30491292476654053
0.32632482051849365 0.87539911270141602 -0.33007335662841797
0.32076844573020935 0.9198872447013855 -0.32876375317573547
0.28650009632110596 0.91376024484634399 -0.3047296404838562
-0.72459536790847778 -0.70772016048431396 -0.38363370299339294
-0.72211217880249023 -0.72855490446090698 -0.3852696418762207
-0.70590013265609741 -0.7051541805267334 -0.3713553249835968
-0.72690409421920776 -0.68861263990402222 -0.38014259934425354
-0.74295920133590698 -0.71116513013839722 -0.39676347374916077
-0.74048328399658203 -0.73160123825073242 -0.39799442887306213
-0.70329123735427856 -0.72622209787368774 -0.37288850545883179
-0.7083200216293335 -0.68588083982467651 -0.3679949939250946
-0.74524742364883423 -0.69238108396530151 -0.39362487196922302
0.31897139549255371 0.80499839782714844 -0.32457885146141052
0.30287659168243408 0.80326980352401733 -0.31371244788169861
0.32240405678749084 0.78217834234237671 -0.32764679193496704
0.33669573068618774 0.80679470300674438 -0.33478736877441406
0.31525537371635437 0.82758671045303345 -0.3218437135219574
0.29865157604217529 0.82537072896957397 -0.30998969078063965
0.30702146887779236 0.78069466352462769 -0.31792715191841125
0.33946177363395691 0.78366810083389282 -0.33672359585762024
0.33343207836151123 0.82990354299545288 -0.33301001787185669
-0.64815795421600342 -0.69875723123550415 -0.33947664499282837
-0.62850058078765869 -0.6960415244102478 -0.33052113652229309
-0.65129733085632324 -0.68060123920440674 -0.33831119537353516
-0.66764259338378906 -0.70100933313369751 -0.34927710890769958
-0.64469122886657715 -0.71883803606033325 -0.33880484104156494
-0.62498658895492554 -0.71532684564590454 -0.32898434996604919
-0.63160532712936401 -0.67868459224700928 -0.33018633723258972
-0.67056351900100708 -0.68221229314804077 -0.34721824526786804
-0.66445308923721313 -0.72170430421829224 -0.34951862692832947
0.32884404063224792 0.71367150545120239 -0.33668848872184753
0.34285157918930054 0.71694427728652954 -0.34224385023117065
0.32742658257484436 0.73565185070037842 -0.33426299691200256
0.31667736172676086 0.71045130491256714 -0.3304469883441925
0.32963308691978455 0.69491094350814819 -0.33720427751541138
0.34244370460510254 0.69874769449234009 -0.3417951762676239
0.34258341789245605 0.7380179762840271 -0.34093201160430908
0.31399959325790405 0.733040452003479 -0.32693678140640259
0.31896603107452393 0.69237035512924194 -0.33187919855117798
-0.57034963369369507 -0.68334782123565674 -0.30836054682731628
-0.58885908126831055 -0.68817907571792603 -0.31520751118659973
-0.56917107105255127 -0.69980591535568237 -0.30586972832679749
-0.55461573600769043 -0.67868071794509888 -0.30138307809829712
-0.57105815410614014 -0.668934166431427 -0.30888661742210388
-0.59043318033218384 -0.67256981134414673 -0.31566908955574036
-0.58661717176437378 -0.70564925670623779 -0.31275567412376404
-0.55422431230545044 -0.69396531581878662 -0.29891893267631531
-0.55546414852142334 -0.66611897945404053 -0.30210834741592407
0.42633911967277527 0.67955613136291504 -0.36313155293464661
0.43105193972587585 0.66626018285751343 -0.35819050669670105
0.43240991234779358 0.70023751258850098 -0.36343714594841003
0.41997405886650085 0.693489670753479 -0.36563378572463989
0.42125746607780457 0.66285192966461182 -0.36386257410049438
0.42516130208969116 0.65249651670455933 -0.35979804396629333
0.43875306844711304 0.68537682294845581 -0.35817432403564453
0.42434057593345642 0.71517717838287354 -0.36630719900131226
0.41596624255180359 0.67513781785964966 -0.36519545316696167
-0.51419413089752197 -0.77967745065689087 -0.25672423839569092
-0.52951192855834961 -0.79231142997741699 -0.25959354639053345
-0.50130558013916016 -0.78005677461624146 -0.2438683956861496
-0.50194144248962402 -0.76938766241073608 -0.25557616353034973
-0.52792197465896606 -0.7774319052696228 -0.2684776782989502
-0.54459977149963379 -0.78857135772705078 -0.27356427907943726
-0.51482248306274414 -0.79393899440765381 -0.24445971846580505
-0.49179837107658386 -0.76988178491592407 -0.24530841410160065
-0.51390129327774048 -0.76767027378082275 -0.26464036107063293
0.45284983515739441 0.77758693695068359 -0.39323908090591431
0.45894941687583923 0.80728179216384888 -0.40899887681007385
0.43611612915992737 0.79065299034118652 -0.3860815167427063
0.4460797905921936 0.74977600574493408 -0.37849584221839905
0.46781149506568909 0.76433759927749634 -0.39777159690856934
0.47726613283157349 0.79634439945220947 -0.4191545844078064
0.43880355358123779 0.81803375482559204 -0.39617443084716797
0.43268626928329468 0.76432907581329346 -0.37646955251693726
0.4577389657497406 0.73506897687911987 -0.37796780467033386
-0.58941298723220825 -0.84017574787139893 -0.30184614658355713
-0.60465800762176514 -0.82526683807373047 -0.31272080540657043
-0.61309701204299927 -0.85695904493331909 -0.32451492547988892
-0.57435578107833862 -0.852836012840271 -0.28954985737800598
-0.56745654344558716 -0.82319504022598267 -0.28190383315086365
-0.58337271213531494 -0.8129732608795166 -0.2955249547958374
-0.62698274850845337 -0.83700370788574219 -0.33181068301200867
-0.59941673278808594 -0.87460839748382568 -0.31580221652984619
-0.55174052715301514 -0.83121752738952637 -0.26690545678138733
0.46874657273292542 0.90574419498443604 -0.43717274069786072
0.46810844540596008 0.93932259082794189 -0.4382883608341217
0.44078850746154785 0.90506505966186523 -0.41259238123893738
0.46726125478744507 0.87189912796020508 -0.43218764662742615
0.49460071325302124 0.90615195035934448 -0.4592321515083313
0.49469560384750366 0.94436639547348022 -0.46169060468673706
0.43931689858436584 0.93398028612136841 -0.4124588668346405
0.44121584296226501 0.87563204765319824 -0.41018608212471008
0.49130582809448242 0.8679356575012207 -0.45157760381698608
-0.69205886125564575 -0.89739388227462769 -0.38799726963043213
-0.69811087846755981 -0.86459547281265259 -0.38533362746238708
-0.71922904253005981 -0.90549939870834351 -0.4059215784072876
-0.68625181913375854 -0.92761147022247314 -0.38958439230918884
-0.66485887765884399 -0.88627272844314575 -0.36863222718238831
-0.67406827211380005 -0.85695129632949829 -0.36891207098960876
-0.7217562198638916 -0.87054896354675293 -0.4004649817943573
-0.71696782112121582 -0.93777525424957275 -0.41047236323356628
-0.65588688850402832 -0.9131169319152832 -0.36711657047271729
0.45115175843238831 1.0289745330810547 -0.42289218306541443
0.44024303555488586 1.0524197816848755 -0.41392451524734497
0.42871493101119995 1.0110306739807129 -0.40121454000473022
0.45943644642829895 1.0018030405044556 -0.43051698803901672
0.47138383984565735 1.0470137596130371 -0.4425109326839447
0.45624503493309021 1.0734870433807373 -0.43039911985397339
0.42264223098754883 1.0321654081344604 -0.39624553918838501
0.43337273597717285 0.98744654655456543 -0.40614438056945801
0.48313462734222412 1.0159459114074707 -0.45254981517791748
-0.79391014575958252 -0.90722686052322388 -0.45346885919570923
-0.7852742075920105 -0.87707537412643433 -0.4396127462387085
-0.81462764739990234 -0.89963185787200928 -0.46754741668701172
-0.80317491292953491 -0.93488049507141113 -0.46703100204467773
-0.77075570821762085 -0.91069406270980835 -0.43851619958877563
-0.76566964387893677 -0.87697207927703857 -0.42724967002868652
-0.80315792560577393 -0.87475681304931641 -0.4521048367023468
-0.82713437080383301 -0.92286950349807739 -0.48352119326591492
-0.77625703811645508 -0.94163972139358521 -0.44914820790290833
0.39028453826904297 1.0893334150314331 -0.38269081711769104
0.37098246812820435 1.0914627313613892 -0.37293168902397156
0.3836994469165802 1.0606658458709717 -0.37154829502105713
0.40923997759819031 1.0827748775482178 -0.39328032732009888
0.39576366543769836 1.1157495975494385 -0.39246669411659241
0.37400850653648376 1.1167776584625244 -0.38102158904075623
0.36640626192092896 1.0628553628921509 -0.36305955052375793
0.4000231921672821 1.0567922592163086 -0.38113006949424744
0.41757401823997498 1.1083095073699951 -0.4046691358089447
-0.85471159219741821 -0.84901750087738037 -0.49917387962341309
-0.83452171087265015 -0.83573645353317261 -0.47550985217094421
-0.86087429523468018 -0.82689332962036133 -0.50581955909729004
-0.87346935272216797 -0.86059290170669556 -0.52102208137512207
-0.84524500370025635 -0.86982464790344238 -0.49065035581588745
-0.82761776447296143 -0.85385650396347046 -0.46994036436080933
-0.84035861492156982 -0.81612092256546021 -0.48166152834892273
-0.87928533554077148 -0.83525413274765015 -0.5274052619934082
-0.86276471614837646 -0.88471585512161255 -0.51106369495391846
0.32585796713829041 1.0746767520904541 -0.35210001468658447
0.32034733891487122 1.0571358203887939 -0.34609639644622803
0.33662435412406921 1.0827618837356567 -0.35732603073120117
0.32112443447113037 1.0829356908798218 -0.3525272011756897
0.3101980984210968 1.0594457387924194 -0.34327170252799988
0.3336891233921051 1.0595014095306396 -0.35026928782463074
0.33577144145965576 1.1002991199493408 -0.361348956823349
-0.85888892412185669 -0.77105337381362915 -0.5080561637878418
-0.86240190267562866 -0.78509390354156494 -0.51061511039733887
-0.84702765941619873 -0.76140391826629639 -0.49493211507797241
-0.86624521017074585 -0.76709717512130737 -0.51711416244506836
-0.8758084774017334 -0.78737843036651611 -0.52633786201477051
-0.84563618898391724 -0.77740311622619629 -0.49103355407714844
-0.85125339031219482 -0.75011461973190308 -0.50076913833618164
0.53358715772628784 0.63456737995147705 -0.4177173376083374
0.54074549674987793 0.63169664144515991 -0.38598310947418213
0.50814211368560791 0.58365434408187866 -0.38241481781005859
0.5138668417930603 0.65128731727600098 -0.44291803240776062
0.55572086572647095 0.69234883785247803 -0.45461919903755188
0.56245923042297363 0.68920314311981201 -0.42494988441467285
0.51574480533599854 0.58045458793640137 -0.3486713171005249
0.48868829011917114 0.60128128528594971 -0.41061627864837646
0.5359840989112854 0.70855414867401123 -0.47685176134109497
-0.4465600848197937 -0.88376784324645996 -0.21683479845523834
-0.40781691670417786 -0.8350834846496582 -0.18841218948364258
-0.4384288489818573 -0.88495957851409912 -0.17871670424938202
-0.49198538064956665 -0.93097919225692749 -0.25273877382278442
-0.46887260675430298 -0.87162744998931885 -0.26296791434288025
-0.43145522475242615 -0.8244815468788147 -0.23643112182617188
-0.398893803358078 -0.83606505393981934 -0.14836062490940094
-0.48422384262084961 -0.93236237764358521 -0.21648754179477692
-0.51313591003417969 -0.91754680871963501 -0.29689863324165344
0.59630990028381348 0.90012466907501221 -0.51786458492279053
0.59973424673080444 0.89382988214492798 -0.49497106671333313
0.58818662166595459 0.82679462432861328 -0.50787711143493652
0.58010745048522949 0.9157940149307251 -0.53250455856323242
0.59670335054397583 0.9736553430557251 -0.51671028137207031
0.59841859340667725 0.96635091304779053 -0.49587017297744751
0.59311532974243164 0.82173073291778564 -0.48270061612129211
0.57011717557907104 0.84269547462463379 -0.52466690540313721
0.5829850435256958 0.98859906196594238 -0.5298837423324585
-0.65682941675186157 -1.0437415838241577 -0.36182796955108643
-0.59853172302246094 -1.0131838321685791 -0.32740932703018188
-0.64913111925125122 -1.0432333946228027 -0.33279383182525635
-0.71616238355636597 -1.0639547109603882 -0.39502882957458496
-0.6743960976600647 -1.0307662487030029 -0.39830747246742249
-0.61746680736541748 -0.99921935796737671 -0.36680653691291809
-0.59082764387130737 -1.0137609243392944 -0.29565909504890442
-0.70868760347366333 -1.0621644258499146 -0.36880972981452942
-0.73190110921859741 -1.0526764392852783 -0.42825433611869812
0.53786486387252808 1.1673406362533569 -0.45033189654350281
0.53457897901535034 1.1609469652175903 -0.43255341053009033
0.56733477115631104 1.1097025871276855 -0.48083660006523132
0.53448247909545898 1.1741569042205811 -0.46492844820022583
0.50124770402908325 1.2154219150543213 -0.41711422801017761
0.49659150838851929 1.2107001543045044 -0.39915639162063599
0.56559920310974121 1.102251410484314 -0.46264523267745972
0.56021791696548462 1.1203969717025757 -0.4940304160118103
0.50145226716995239 1.2171577215194702 -0.43362972140312195
-0.88285994529724121 -1.0422075986862183 -0.49183541536331177
-0.83099418878555298 -1.063398003578186 -0.45996406674385071
-0.87884581089019775 -1.0372318029403687 -0.47316882014274597
-0.92849493026733398 -1.0098270177841187 -0.52276456356048584
-0.88842582702636719 -1.0389679670333862 -0.5133824348449707
-0.84082281589508057 -1.0572490692138672 -0.48572081327438354
-0.82531112432479858 -1.0592472553253174 -0.43904080986976624
-0.92656821012496948 -1.0043478012084961 -0.50600719451904297
-0.92897331714630127 -1.0091643333435059 -0.53976845741271973
0.37155389785766602 1.2891618013381958 -0.34012734889984131
0.36184009909629822 1.2872302532196045 -0.31664764881134033
0.41595634818077087 1.2774580717086792 -0.36039498448371887
0.38607674837112427 1.2832224369049072 -0.36772900819778442
0.32855117321014404 1.2868047952651978 -0.32361522316932678
0.31741857528686523 1.2856265306472778 -0.29737257957458496
0.40803730487823486 1.2750515937805176 -0.33948570489883423
0.42531701922416687 1.272667407989502 -0.38361704349517822
0.34727275371551514 1.2791105508804321 -0.35529324412345886
-1.0135822296142578 -0.87095052003860474 -0.60616958141326904
-0.99501824378967285 -0.92164808511734009 -0.58176887035369873
-1.0166054964065552 -0.8626551628112793 -0.58932805061340332
-1.0212684869766235 -0.81926494836807251 -0.62227606773376465
-1.0036196708679199 -0.88355082273483276 -0.61740791797637939
-0.98758423328399658 -0.92913234233856201 -0.59347951412200928
-0.99668788909912109 -0.91447299718856812 -0.56591939926147461
-1.0257472991943359 -0.81031239032745361 -0.60411500930786133
-1.0085427761077881 -0.83573663234710693 -0.63326680660247803
0.2275831401348114 1.1971913576126099 -0.28689876198768616
0.21490271389484406 1.1993460655212402 -0.25313511490821838
0.25570127367973328 1.2388043403625488 -0.29779365658760071
0.25252422690391541 1.1834999322891235 -0.32791042327880859
0.20432095229625702 1.1495782136917114 -0.27658656239509583
0.19203378260135651 1.1531009674072266 -0.24123314023017883
0.24306961894035339 1.2397090196609497 -0.26621317863464355
0.27960848808288574 1.2270674705505371 -0.33632287383079529
0.22942864894866943 1.1339924335479736 -0.31919285655021667
-0.97837978601455688 -0.68550848960876465 -0.59510421752929688
-1.0023077726364136 -0.72507482767105103 -0.61654090881347656
-0.98705786466598511 -0.67740976810455322 -0.57193088531494141
-0.949016273021698 -0.65082865953445435 -0.56618642807006836
-0.95829868316650391 -0.70604103803634644 -0.60889971256256104
-0.98439067602157593 -0.74543637037277222 -0.62886953353881836
-1.0096668004989624 -0.71623986959457397 -0.59505558013916016
-0.9589000940322876 -0.64385485649108887 -0.54162693023681641
-0.92706066370010376 -0.67059797048568726 -0.58143675327301025
0.15918390452861786 1.0095561742782593 -0.24571762979030609
