# XYZ point cloud file
0.75094729661941528 -0.18081806600093842 0.67037016153335571
0.75802475214004517 -0.18779079616069794 0.6619492769241333
0.77407431602478027 -0.15300771594047546 0.64638769626617432
0.71423959732055664 -0.24037843942642212 0.69585883617401123
0.73009884357452393 -0.22310984134674072 0.68610972166061401
0.70798152685165405 -0.239640012383461 0.69994580745697021
0.70139694213867188 -0.25642701983451843 0.70403337478637695
0.71821695566177368 -0.24187104403972626 0.69028341770172119
0.73335027694702148 -0.22543996572494507 0.68063545227050781
0.72463333606719971 -0.2209756076335907 0.69001621007919312
0.6937827467918396 -0.25846710801124573 0.70848989486694336
0.70616954565048218 -0.25660106539726257 0.69835036993026733
0.81960934400558472 -0.13699539005756378 0.62427997589111328
0.82677721977233887 -0.13104830682277679 0.61842769384384155
0.80065768957138062 -0.13355495035648346 0.63248968124389648
0.81582540273666382 -0.14202435314655304 0.62416982650756836
0.83816498517990112 -0.14493592083454132 0.61719512939453125
0.84701049327850342 -0.13983254134654999 0.61058950424194336
0.80466687679290771 -0.126307412981987 0.62825667858123779
0.79895889759063721 -0.13916370272636414 0.63142681121826172
0.83275508880615234 -0.14946138858795166 0.61769121885299683
0.71721649169921875 -0.29308617115020752 0.70659732818603516
0.70254230499267578 -0.28317651152610779 0.70966494083404541
0.71469199657440186 -0.30189058184623718 0.70930403470993042
0.73628312349319458 -0.30019325017929077 0.70090490579605103
0.71904134750366211 -0.28957101702690125 0.70174860954284668
0.70618349313735962 -0.28064218163490295 0.70438259840011597
0.69696396589279175 -0.2905375063419342 0.71336036920547485
0.7355695366859436 -0.30962905287742615 0.70309203863143921
0.73657894134521484 -0.29603597521781921 0.69633716344833374
0.87230539321899414 -0.18198585510253906 0.60648727416992188
0.88191705942153931 -0.17811973392963409 0.60040384531021118
0.86529725790023804 -0.16846971213817596 0.60815459489822388
0.86496824026107788 -0.1854269951581955 0.60710906982421875
0.87578141689300537 -0.19584827125072479 0.6065216064453125
0.88494932651519775 -0.19240657985210419 0.60107719898223877
0.87506562471389771 -0.16427065432071686 0.60160642862319946
0.85814738273620605 -0.17223314940929413 0.60896003246307373
0.8685687780380249 -0.19891782104969025 0.60684078931808472
0.79303455352783203 -0.3026883602142334 0.67492884397506714
0.77573394775390625 -0.3048732578754425 0.68445765972137451
0.79431647062301636 -0.31147921085357666 0.6768876314163208
0.80855858325958252 -0.29818505048751831 0.66522675752639771
0.79078716039657593 -0.29839101433753967 0.6707037091255188
0.774025559425354 -0.30036291480064392 0.68014794588088989
0.77663224935531616 -0.31415516138076782 0.68640822172164917
0.81014865636825562 -0.30625823140144348 0.66711628437042236
0.80593055486679077 -0.29428532719612122 0.66115003824234009
0.87101966142654419 -0.23408327996730804 0.61527049541473389
0.87801456451416016 -0.23349690437316895 0.61201357841491699
0.87464791536331177 -0.22215437889099121 0.61109799146652222
0.86506944894790649 -0.2351980060338974 0.61463040113449097
0.86582076549530029 -0.24533040821552277 0.62040466070175171
0.87194573879241943 -0.24612225592136383 0.61793160438537598
0.88245087862014771 -0.22033751010894775 0.60709941387176514
0.86819648742675781 -0.22406299412250519 0.61076807975769043
0.86041146516799927 -0.24559022486209869 0.61940467357635498
0.84367746114730835 -0.27569156885147095 0.63968485593795776
0.83379590511322021 -0.2843259871006012 0.64738667011260986
0.8470643162727356 -0.28058761358261108 0.63991653919219971
0.85211676359176636 -0.26618289947509766 0.63267827033996582
0.83985435962677002 -0.27357402443885803 0.63699334859848022
0.83043080568313599 -0.28154534101486206 0.64408570528030396
0.83639401197433472 -0.29041972756385803 0.64842313528060913
0.85639774799346924 -0.26977819204330444 0.63198965787887573
0.84779226779937744 -0.26479417085647583 0.63063168525695801
0.84618228673934937 -0.24169602990150452 0.59501481056213379
0.85330069065093994 -0.23958183825016022 0.60334056615829468
0.84890371561050415 -0.23149460554122925 0.59104108810424805
0.83751338720321655 -0.24202609062194824 0.58743703365325928
0.84203332662582397 -0.25125914812088013 0.59965646266937256
0.84912818670272827 -0.24917149543762207 0.60794723033905029
0.85600662231445312 -0.2292645126581192 0.59949356317520142
0.84042620658874512 -0.2316921204328537 0.58324897289276123
0.83321654796600342 -0.25192892551422119 0.59222328662872314
0.8227924108505249 -0.27730444073677063 0.61540693044662476
0.81386059522628784 -0.28484818339347839 0.62145262956619263
0.82992148399353027 -0.27516984939575195 0.62388122081756592
0.83033037185668945 -0.26907533407211304 0.60988777875900269
0.81319081783294678 -0.27906277775764465 0.60836690664291382
0.80418264865875244 -0.28688457608222961 0.61433154344558716
0.82092505693435669 -0.28267073631286621 0.6301572322845459
0.83744096755981445 -0.26696047186851501 0.618247389793396
0.82100725173950195 -0.27052021026611328 0.60275155305862427
0.84621888399124146 -0.1963205486536026 0.58577024936676025
0.8526117205619812 -0.19285023212432861 0.59524869918823242
0.84077459573745728 -0.18434974551200867 0.58707797527313232
0.83935153484344482 -0.19834156334400177 0.57684236764907837
0.84918475151062012 -0.20857642590999603 0.58616214990615845
0.85596936941146851 -0.20565079152584076 0.59526777267456055
0.84655952453613281 -0.18031196296215057 0.59670847654342651
0.83491277694702148 -0.18739905953407288 0.57856106758117676
0.84155768156051636 -0.20965065062046051 0.57750552892684937
0.77729076147079468 -0.30130776762962341 0.64413160085678101
0.76261359453201294 -0.30342310667037964 0.65254098176956177
0.78303849697113037 -0.29881188273429871 0.65441638231277466
0.79100239276885986 -0.29718151688575745 0.63590264320373535
0.7700883150100708 -0.30385136604309082 0.63513511419296265
0.75733280181884766 -0.3055940568447113 0.64325404167175293
0.76738923788070679 -0.30091527104377747 0.66324615478515625
0.79742908477783203 -0.29479396343231201 0.64558547735214233
0.78243505954742432 -0.29969972372055054 0.62764555215835571
0.80832183361053467 -0.15754792094230652 0.59908401966094971
0.81077021360397339 -0.15188562870025635 0.61008709669113159
0.79531526565551758 -0.15534590184688568 0.60531306266784668
0.80690169334411621 -0.16394738852977753 0.58805769681930542
0.82123082876205444 -0.16397780179977417 0.59389841556549072
0.82497316598892212 -0.15879742801189423 0.60431140661239624
0.79653584957122803 -0.14936442673206329 0.61660599708557129
0.79541528224945068 -0.16246324777603149 0.59365367889404297
0.81818085908889771 -0.16932183504104614 0.58430284261703491
0.7176814079284668 -0.29572603106498718 0.67180913686752319
0.70818430185317993 -0.28820621967315674 0.67420494556427002
0.71874123811721802 -0.29218199849128723 0.68389242887496948
0.73148924112319946 -0.30075252056121826 0.66702204942703247
0.71805101633071899 -0.29939579963684082 0.65942919254302979
0.71017688512802124 -0.29243075847625732 0.66123193502426147
0.70805418491363525 -0.28428664803504944 0.68643975257873535
0.73382717370986938 -0.29771238565444946 0.67865538597106934
0.73015511035919189 -0.30348429083824158 0.6559717059135437
0.76754575967788696 -0.18423295021057129 0.62541782855987549
0.76699906587600708 -0.17832113802433014 0.63709646463394165
0.75972598791122437 -0.20212584733963013 0.63281381130218506
0.76997238397598267 -0.19141961634159088 0.61324340105056763
0.77499616146087646 -0.16906449198722839 0.61859780550003052
0.77469998598098755 -0.16297784447669983 0.6301535964012146
0.75907087326049805 -0.19647659361362457 0.64460921287536621
0.76237785816192627 -0.20886929333209991 0.62049734592437744
0.77703261375427246 -0.17653010785579681 0.60656243562698364
0.72244459390640259 -0.25303289294242859 0.66017419099807739
0.73644226789474487 -0.23764441907405853 0.65070676803588867
0.72116434574127197 -0.24824389815330505 0.67227482795715332
0.71100360155105591 -0.26667279005050659 0.66816109418869019
0.72606229782104492 -0.25839495658874512 0.64725208282470703
0.7397226095199585 -0.24342791736125946 0.63800066709518433
0.73540788888931274 -0.23257726430892944 0.66271543502807617
0.70967710018157959 -0.26216316223144531 0.68033337593078613
0.71467232704162598 -0.27164149284362793 0.65508455038070679
0.79912847280502319 -0.22219763696193695 0.58566933870315552
0.79327690601348877 -0.23583574593067169 0.59167385101318359
0.81333673000335693 -0.23213796317577362 0.58214229345321655
0.80381327867507935 -0.20972827076911926 0.58029717206954956
0.78597050905227661 -0.21102753281593323 0.59243476390838623
0.77940207719802856 -0.22629939019680023 0.59898126125335693
0.80815654993057251 -0.24416504800319672 0.58763104677200317
0.81723964214324951 -0.22062556445598602 0.57725167274475098
0.79157763719558716 -0.19753201305866241 0.58650380373001099
0.76509237289428711 -0.27408298850059509 0.61306244134902954
0.78347086906433105 -0.27764895558357239 0.60673439502716064
0.77584439516067505 -0.26241233944892883 0.60568994283676147
0.74771958589553833 -0.26935398578643799 0.62267136573791504
0.75483351945877075 -0.28439033031463623 0.61979246139526367
0.77376186847686768 -0.28687772154808044 0.61306637525558472
0.79295986890792847 -0.26732301712036133 0.60014164447784424
0.75973272323608398 -0.25629284977912903 0.61450141668319702
0.73691993951797485 -0.28087210655212402 0.62984293699264526
0.81511282920837402 -0.18878477811813354 0.57008016109466553
0.81190818548202515 -0.19251261651515961 0.57134354114532471
0.82244938611984253 -0.19335556030273438 0.5682646632194519
0.8110155463218689 -0.18079645931720734 0.57211601734161377
0.80355286598205566 -0.18175305426120758 0.57589304447174072
0.8222203254699707 -0.20157888531684875 0.56952482461929321
0.81970709562301636 -0.18426777422428131 0.57075351476669312
0.73984181880950928 -0.30350333452224731 0.63144844770431519
0.74890655279159546 -0.30542275309562683 0.62884634733200073
0.74134558439254761 -0.30006298422813416 0.62865889072418213
0.7302057147026062 -0.3039705753326416 0.63758915662765503
0.73949354887008667 -0.30651065707206726 0.63646399974822998
0.75680404901504517 -0.30125999450683594 0.62349146604537964
0.72695630788803101 -0.2985217273235321 0.63738524913787842
-0.10576446354389191 0.18949520587921143 0.75826501846313477
-0.10809703171253204 0.17742100358009338 0.7537682056427002
-0.085881821811199188 0.19046579301357269 0.75593554973602295
-0.10441874712705612 0.19795233011245728 0.76174736022949219
-0.12618939578533173 0.18985681235790253 0.76074635982513428
-0.13022579252719879 0.17778368294239044 0.75660175085067749
-0.08650130033493042 0.17843879759311676 0.75120288133621216
-0.085625439882278442 0.19861838221549988 0.75964152812957764
-0.12365607917308807 0.19863086938858032 0.76401197910308838
-0.28011620044708252 -0.080602124333381653 0.75441962480545044
-0.26689642667770386 -0.089881859719753265 0.75435131788253784
-0.26841777563095093 -0.070927843451499939 0.75062036514282227
-0.29521918296813965 -0.072068683803081512 0.75458234548568726
-0.28852686285972595 -0.087273240089416504 0.7572094202041626
-0.27572807669639587 -0.095820158720016479 0.75741851329803467
-0.2540423572063446 -0.081026189029216766 0.75023490190505981
-0.28471967577934265 -0.061609268188476562 0.75127214193344116
-0.30314910411834717 -0.079519957304000854 0.75707465410232544
-0.18995359539985657 0.199602410197258 0.76748919486999512
-0.19899903237819672 0.18737365305423737 0.76497834920883179
-0.16846191883087158 0.19481956958770752 0.7654075026512146
-0.18355171382427216 0.20917497575283051 0.76993864774703979
-0.2112758606672287 0.20608554780483246 0.76952385902404785
-0.22181119024753571 0.19392870366573334 0.76766270399093628
-0.17588460445404053 0.18264777958393097 0.76227802038192749
-0.16338033974170685 0.20418868958950043 0.76816689968109131
-0.20354148745536804 0.21572144329547882 0.77163445949554443
-0.3520653247833252 -0.051843680441379547 0.75353258848190308
-0.3312193751335144 -0.057543456554412842 0.7542576789855957
-0.34501668810844421 -0.039108321070671082 0.75244468450546265
-0.37469375133514404 -0.047478031367063522 0.75242292881011963
-0.35811731219291687 -0.061589308083057404 0.75484424829483032
-0.33799886703491211 -0.066571295261383057 0.75600838661193848
-0.32304012775421143 -0.045518014580011368 0.75234919786453247
-0.3688371479511261 -0.034204896539449692 0.7521476149559021
-0.379844069480896 -0.057831242680549622 0.75329393148422241
-0.27070406079292297 0.23671557009220123 0.77597594261169434
-0.28444918990135193 0.2263999730348587 0.77591216564178467
-0.25219041109085083 0.22464875876903534 0.77381515502929688
-0.25907734036445618 0.24519006907939911 0.77699589729309082
-0.28688827157020569 0.25045663118362427 0.77790087461471558
-0.30146759748458862 0.24126608669757843 0.77829909324645996
-0.26505500078201294 0.21342737972736359 0.77320480346679688
-0.24180637300014496 0.23375080525875092 0.77518504858016968
-0.27415713667869568 0.2581007182598114 0.77864515781402588
-0.4517606794834137 -0.044528547674417496 0.74655312299728394
-0.42495754361152649 -0.043620210140943527 0.74902635812759399
-0.45042082667350769 -0.031438611447811127 0.74803847074508667
-0.47868397831916809 -0.047572538256645203 0.74332630634307861
-0.45274576544761658 -0.055619534105062485 0.74641680717468262
-0.42755988240242004 -0.054667789489030838 0.74913150072097778
-0.42191958427429199 -0.030168894678354263 0.75008636713027954
-0.47924792766571045 -0.035022161900997162 0.74503451585769653
-0.47793400287628174 -0.058510433882474899 0.74311113357543945
-0.028593281283974648 0.20202496647834778 0.75062030553817749
-0.024036329239606857 0.19098846614360809 0.74581694602966309
-0.0071837082505226135 0.21144698560237885 0.747428297996521
-0.030893463641405106 0.20941366255283356 0.75528842210769653
-0.047945559024810791 0.19617268443107605 0.7524837851524353
-0.045098677277565002 0.18461713194847107 0.7476658821105957
-0.00099295936524868011 0.20116075873374939 0.7424810528755188
-0.01034870371222496 0.21850256621837616 0.75256681442260742
-0.04946783185005188 0.20381338894367218 0.75676381587982178
-0.23861309885978699 -0.12302225828170776 0.75615084171295166
-0.23383635282516479 -0.13926051557064056 0.75614368915557861
-0.22311481833457947 -0.11709225177764893 0.75219899415969849
-0.24597099423408508 -0.11037994921207428 0.75542396306991577
-0.2483760267496109 -0.12721021473407745 0.76012659072875977
-0.24381402134895325 -0.14278121292591095 0.76042032241821289
-0.21800504624843597 -0.13458620011806488 0.75233179330825806
-0.23114362359046936 -0.10336281359195709 0.7512860894203186
-0.25547471642494202 -0.11511777341365814 0.75908297300338745
0.078298620879650116 0.27004006505012512 0.72276723384857178
0.088502153754234314 0.26363024115562439 0.71532177925109863
0.10766699910163879 0.2969326376914978 0.71154385805130005
0.071150355041027069 0.27507686614990234 0.72988617420196533
0.047206901013851166 0.24570725858211517 0.73333281278610229
0.056255802512168884 0.23774953186511993 0.72704970836639404
0.1188100129365921 0.29224270582199097 0.70284426212310791
0.099065095186233521 0.30097374320030212 0.71940106153488159
0.041579939424991608 0.2516007125377655 0.73971730470657349
-0.23881222307682037 -0.22029812633991241 0.74632507562637329
-0.24814741313457489 -0.25318658351898193 0.74013322591781616
-0.22476731240749359 -0.22067947685718536 0.74154597520828247
-0.23356029391288757 -0.18851976096630096 0.75134128332138062
-0.24913142621517181 -0.2202371209859848 0.75125539302825928
-0.25828993320465088 -0.25161305069923401 0.74524837732315063
-0.23551207780838013 -0.25547048449516296 0.7346605658531189
-0.218453049659729 -0.18703371286392212 0.74713408946990967
-0.24385499954223633 -0.18990294635295868 0.75609093904495239
0.15735669434070587 0.37842816114425659 0.68511730432510376
0.16981758177280426 0.37933585047721863 0.6737324595451355
0.16040965914726257 0.40557348728179932 0.67950928211212158
0.14649136364459991 0.37894126772880554 0.6946721076965332
0.14827296137809753 0.35166987776756287 0.69218873977661133
0.16055622696876526 0.35068485140800476 0.68140947818756104
0.17278504371643066 0.40835988521575928 0.66786521673202515
0.14952057600021362 0.40472462773323059 0.68924957513809204
0.13774965703487396 0.35344037413597107 0.7013237476348877
-0.30379980802536011 -0.33468428254127502 0.71799755096435547
-0.33157771825790405 -0.35538166761398315 0.70907670259475708
-0.29665860533714294 -0.34189522266387939 0.71061205863952637
-0.28053334355354309 -0.31132280826568604 0.72592389583587646
-0.31149542331695557 -0.32937160134315491 0.72391527891159058
-0.33780881762504578 -0.34912261366844177 0.71524780988693237
-0.32653838396072388 -0.36383861303329468 0.70126801729202271
-0.2714085578918457 -0.31708171963691711 0.71908664703369141
-0.28939083218574524 -0.30707690119743347 0.7315448522567749
0.14334945380687714 0.492890864610672 0.66992849111557007
0.15394391119480133 0.50093591213226318 0.65982037782669067
0.13045071065425873 0.52036947011947632 0.66965717077255249
0.13364605605602264 0.48728129267692566 0.67834568023681641
0.1527685821056366 0.46340391039848328 0.67186433076858521
0.16418883204460144 0.46979132294654846 0.66090071201324463
0.140046626329422 0.52992582321166992 0.66058087348937988
0.1214381605386734 0.51317435503005981 0.67724859714508057
0.14250640571117401 0.45945015549659729 0.6810031533241272
-0.43856909871101379 -0.40807482600212097 0.67424005270004272
-0.47716578841209412 -0.42075726389884949 0.66172397136688232
-0.4402259886264801 -0.41894540190696716 0.6660691499710083
-0.40006682276725769 -0.39220708608627319 0.68691086769104004
-0.43897613883018494 -0.39935401082038879 0.68051725625991821
-0.47547098994255066 -0.41141238808631897 0.66796976327896118
-0.48102638125419617 -0.43201065063476562 0.65357571840286255
-0.39946815371513367 -0.4024931788444519 0.67873567342758179
-0.40257677435874939 -0.38424205780029297 0.6932445764541626
0.073484070599079132 0.57528042793273926 0.68095821142196655
0.079499118030071259 0.58814197778701782 0.67491883039474487
0.05071181058883667 0.58418631553649902 0.68759030103683472
0.067121066153049469 0.56469506025314331 0.68657541275024414
0.094970032572746277 0.56212407350540161 0.67533612251281738
0.10222800076007843 0.57412731647491455 0.66834241151809692
0.055500790476799011 0.59760808944702148 0.68248552083969116
0.045364633202552795 0.57304340600967407 0.69271016120910645
0.087646178901195526 0.55238604545593262 0.6814916729927063
-0.57517373561859131 -0.43059468269348145 0.63310480117797852
-0.60020995140075684 -0.42557200789451599 0.62702822685241699
-0.58473414182662964 -0.44192558526992798 0.62454164028167725
-0.54642206430435181 -0.43209937214851379 0.64079195261001587
-0.56827706098556519 -0.42060595750808716 0.64009898900985718
-0.59209138154983521 -0.41579872369766235 0.63438284397125244
-0.61114120483398438 -0.43660137057304382 0.61835533380508423
-0.55429917573928833 -0.44357374310493469 0.63243001699447632
-0.54100924730300903 -0.42210233211517334 0.64740705490112305
-0.018200097605586052 0.59042084217071533 0.70842236280441284
-0.016666162759065628 0.60340029001235962 0.70611840486526489
-0.042863644659519196 0.58392238616943359 0.7163965106010437
-0.020254388451576233 0.57937562465667725 0.71188563108444214
0.004930717870593071 0.59193933010101318 0.70134925842285156
0.007531413808465004 0.60542082786560059 0.69816738367080688
-0.042582083493471146 0.59609556198120117 0.71472948789596558
-0.043646149337291718 0.57346236705780029 0.71950531005859375
0.0017226040363311768 0.58057224750518799 0.70535492897033691
-0.65403729677200317 -0.39688360691070557 0.61765408515930176
-0.66426944732666016 -0.38122749328613281 0.61923098564147949
-0.66669899225234985 -0.40604677796363831 0.61004704236984253
-0.63973021507263184 -0.40877795219421387 0.61897939443588257
-0.64388597011566162 -0.38891074061393738 0.62513107061386108
-0.65389829874038696 -0.37428861856460571 0.62663978338241577
-0.6769525408744812 -0.38929232954978943 0.61210525035858154
-0.65218287706375122 -0.41875460743904114 0.6108241081237793
-0.63000065088272095 -0.40000548958778381 0.62656235694885254
-0.13350528478622437 0.52777326107025146 0.74945634603500366
-0.13930600881576538 0.53616201877593994 0.74729692935943604
-0.16608986258506775 0.50178736448287964 0.7606353759765625
-0.12943859398365021 0.5203937292098999 0.75355136394500732
-0.10090406984090805 0.55183500051498413 0.73736709356307983
-0.10430707782506943 0.56163841485977173 0.73569172620773315
-0.17440636456012726 0.50875115394592285 0.7580726146697998
-0.16022010147571564 0.49562564492225647 0.76522958278656006
-0.098604708909988403 0.5432664155960083 0.74086248874664307
-0.66889941692352295 -0.30435386300086975 0.64676463603973389
-0.66455632448196411 -0.27310919761657715 0.65957349538803101
-0.68171995878219604 -0.30699646472930908 0.6392250657081604
-0.67119377851486206 -0.33433756232261658 0.63440036773681641
-0.65864181518554688 -0.30201685428619385 0.65519177913665771
-0.65438592433929443 -0.27248796820640564 0.66832256317138672
-0.67761349678039551 -0.27364274859428406 0.65176433324813843
-0.68388205766677856 -0.33907493948936462 0.62725996971130371
-0.66082650423049927 -0.33027765154838562 0.64233613014221191
-0.24751740694046021 0.43469193577766418 0.77644693851470947
-0.26238957047462463 0.43824204802513123 0.77556824684143066
-0.26747947931289673 0.41691687703132629 0.77692121267318726
-0.23684936761856079 0.43151521682739258 0.77972865104675293
-0.22398333251476288 0.45430517196655273 0.77431690692901611
-0.23694188892841339 0.45882800221443176 0.772391676902771
-0.28396180272102356 0.41957911849021912 0.77718263864517212
-0.25555956363677979 0.41452276706695557 0.77918374538421631
-0.21475718915462494 0.45027229189872742 0.77850723266601562
-0.6506732702255249 -0.19237926602363586 0.68335139751434326
-0.6456298828125 -0.17133326828479767 0.68713784217834473
-0.6650848388671875 -0.18825343251228333 0.67786639928817749
-0.65508753061294556 -0.21613034605979919 0.67829501628875732
-0.64009827375411987 -0.19559432566165924 0.69013494253158569
-0.63485997915267944 -0.1754116415977478 0.69264411926269531
-0.6604304313659668 -0.16619643568992615 0.68311446905136108
-0.66899627447128296 -0.21322387456893921 0.67150622606277466
-0.64474475383758545 -0.21832297742366791 0.68621498346328735
-0.30637899041175842 0.36814308166503906 0.77820295095443726
-0.32563883066177368 0.36805146932601929 0.77992820739746094
-0.31282177567481995 0.3519575297832489 0.77916651964187622
-0.29204738140106201 0.36809450387954712 0.77904891967773438
-0.29680076241493225 0.38414806127548218 0.77735626697540283
-0.31549859046936035 0.38503322005271912 0.77899551391601562
-0.33225536346435547 0.35079735517501831 0.78076314926147461
-0.29812133312225342 0.35281085968017578 0.7800365686416626
-0.28304511308670044 0.38327834010124207 0.77833443880081177
-0.6207696795463562 -0.12098722159862518 0.7014155387878418
-0.60798609256744385 -0.10724015533924103 0.70774763822555542
-0.63491123914718628 -0.11323727667331696 0.70033234357833862
-0.63112711906433105 -0.13599780201911926 0.69569873809814453
-0.61055684089660645 -0.12734802067279816 0.70442003011703491
-0.59846323728561401 -0.11435304582118988 0.71031707525253296
-0.62110394239425659 -0.098685674369335175 0.70716589689254761
-0.64587032794952393 -0.12909072637557983 0.69395506381988525
-0.62048345804214478 -0.14160887897014618 0.69925141334533691
-0.31477698683738708 0.29993245005607605 0.78065508604049683
-0.33237484097480774 0.29484543204307556 0.78179037570953369
-0.3091718852519989 0.28241214156150818 0.78029835224151611
-0.30008405447006226 0.30418872833251953 0.78136032819747925
-0.31706658005714417 0.31773558259010315 0.78053975105285645
-0.33560499548912048 0.31406018137931824 0.7817949652671814
-0.32569733262062073 0.27589541673660278 0.78128421306610107
-0.29488682746887207 0.2878974974155426 0.78089910745620728
-0.30218186974525452 0.32076296210289001 0.78137260675430298
-0.55307674407958984 -0.070653639733791351 0.72781258821487427
-0.52991342544555664 -0.060792997479438782 0.73389351367950439
-0.56049543619155884 -0.059984400868415833 0.72878354787826538
-0.57407397031784058 -0.082014068961143494 0.72122663259506226
-0.5472075343132019 -0.080055154860019684 0.72870945930480957
-0.5256657600402832 -0.070859551429748535 0.73422038555145264
-0.53494083881378174 -0.049491032958030701 0.73531645536422729
-0.58375740051269531 -0.072003170847892761 0.72165381908416748
-0.56674784421920776 -0.090668581426143646 0.72275400161743164
-0.2688908576965332 0.31350842118263245 0.77861374616622925
-0.27761685848236084 0.31083518266677856 0.78102421760559082
-0.26404783129692078 0.30002978444099426 0.77690255641937256
-0.26116856932640076 0.31592220067977905 0.7753070592880249
-0.27131915092468262 0.32714176177978516 0.77988439798355103
-0.27997866272926331 0.32535460591316223 0.78177636861801147
-0.27263104915618896 0.29652899503707886 0.77983760833740234
-0.25648298859596252 0.30320438742637634 0.77300530672073364
-0.2636370062828064 0.3287244439125061 0.77715605497360229
-0.53482198715209961 -0.099836088716983795 0.72675055265426636
-0.51646482944488525 -0.092240184545516968 0.73000830411911011
-0.53838354349136353 -0.094521306455135345 0.72886377573013306
-0.55155014991760254 -0.1084924191236496 0.72312909364700317
-0.53160130977630615 -0.10438406467437744 0.7237619161605835
-0.51414275169372559 -0.097182773053646088 0.72615432739257812
-0.51906681060791016 -0.086478032171726227 0.73294484615325928
-0.55597895383834839 -0.10374727845191956 0.72440457344055176
-0.54750299453735352 -0.11251929402351379 0.72101336717605591
-0.26395022869110107 0.36733365058898926 0.77905178070068359
-0.27184435725212097 0.36766725778579712 0.78030389547348022
-0.26888218522071838 0.35404843091964722 0.77995330095291138
-0.25693812966346741 0.36695203185081482 0.77704763412475586
-0.25646853446960449 0.38079729676246643 0.77830952405929565
-0.26390045881271362 0.3816036581993103 0.77966773509979248
-0.27710682153701782 0.35380533337593079 0.78123408555984497
-0.2615702748298645 0.35418903827667236 0.77792108058929443
-0.24989229440689087 0.38000351190567017 0.77614051103591919
-0.58987045288085938 -0.13944351673126221 0.70918536186218262
-0.5790676474571228 -0.1282418966293335 0.71413725614547729
-0.59597045183181763 -0.13637275993824005 0.70899385213851929
-0.59906893968582153 -0.15192009508609772 0.70470947027206421
-0.58424925804138184 -0.14193707704544067 0.70853853225708008
-0.57378852367401123 -0.13121391832828522 0.71325653791427612
-0.58479207754135132 -0.12464824318885803 0.71421045064926147
-0.60534971952438354 -0.1493804007768631 0.70444166660308838
-0.59330272674560547 -0.15392239391803741 0.70404678583145142
-0.21798636019229889 0.42464342713356018 0.78071457147598267
-0.22293278574943542 0.42652297019958496 0.78282886743545532
-0.23363809287548065 0.40912923216819763 0.77965426445007324
-0.21384289860725403 0.42301023006439209 0.7771332859992981
-0.19917888939380646 0.44162973761558533 0.77987855672836304
-0.20309677720069885 0.44397625327110291 0.78228402137756348
-0.23957332968711853 0.41065412759780884 0.78147757053375244
-0.22852557897567749 0.4077669084072113 0.77664262056350708
-0.19602642953395844 0.43960416316986084 0.77575570344924927
-0.61965864896774292 -0.19982452690601349 0.69782739877700806
-0.61375224590301514 -0.18187358975410461 0.69952476024627686
-0.62538701295852661 -0.19920840859413147 0.69812613725662231
-0.62480318546295166 -0.21999777853488922 0.69462460279464722
-0.6145816445350647 -0.19996353983879089 0.69580972194671631
-0.60833483934402466 -0.18271604180335999 0.69809836149215698
-0.61977690458297729 -0.18053975701332092 0.69955706596374512
-0.63032490015029907 -0.22019109129905701 0.69516366720199585
-0.61995768547058105 -0.21935334801673889 0.69208163022994995
-0.12334184348583221 0.50322157144546509 0.75352591276168823
-0.1246870681643486 0.50826776027679443 0.75651645660400391
-0.15110811591148376 0.4817369282245636 0.76605802774429321
-0.12240802496671677 0.49858090281486511 0.7487444281578064
-0.095415800809860229 0.52290815114974976 0.74000346660614014
-0.096077173948287964 0.52900886535644531 0.74304991960525513
-0.15319879353046417 0.48570123314857483 0.76891958713531494
-0.14958450198173523 0.47817131876945496 0.7613142728805542
-0.094995155930519104 0.51721841096878052 0.73530054092407227
-0.63618814945220947 -0.29359135031700134 0.66422182321548462
-0.63339561223983765 -0.26773476600646973 0.6774132251739502
-0.64279526472091675 -0.29676827788352966 0.66465979814529419
-0.63691425323486328 -0.31825661659240723 0.65116387605667114
-0.63010835647583008 -0.29019346833229065 0.66171532869338989
-0.62802398204803467 -0.26528471708297729 0.67461889982223511
-0.63937532901763916 -0.26985955238342285 0.67802369594573975
-0.64415717124938965 -0.32243260741233826 0.65139287710189819
-0.63010764122009277 -0.3139808177947998 0.64903265237808228
-0.025470035150647163 0.55355733633041382 0.71126312017440796
-0.024069715291261673 0.56129682064056396 0.7139703631401062
-0.046068295836448669 0.5486290454864502 0.71826016902923584
-0.026666140183806419 0.54633826017379761 0.70705628395080566
-0.0063581280410289764 0.55447518825531006 0.7057228684425354
-0.0041465871036052704 0.56222653388977051 0.70812666416168213
-0.045393608510494232 0.55612671375274658 0.72117125988006592
-0.046662665903568268 0.54159998893737793 0.71385115385055542
-0.0082816313952207565 0.54729247093200684 0.701804518699646
-0.61978340148925781 -0.3690662682056427 0.63329428434371948
-0.62896203994750977 -0.35646948218345642 0.63502234220504761
-0.62731122970581055 -0.37523144483566284 0.63333231210708618
-0.60753440856933594 -0.37857484817504883 0.63441157341003418
-0.61255913972854614 -0.36317029595375061 0.63160061836242676
-0.62149816751480103 -0.35093894600868225 0.63333994150161743
-0.63674432039260864 -0.3621528148651123 0.63502657413482666
-0.61450624465942383 -0.38511332869529724 0.63454753160476685
-0.60087215900421143 -0.37239947915077209 0.63262325525283813
0.049725085496902466 0.54114192724227905 0.69086802005767822
0.05508933961391449 0.54805392026901245 0.69177556037902832
0.031092753633856773 0.54811215400695801 0.69563353061676025
0.044622242450714111 0.53479421138763428 0.68855744600296021
0.067455597221851349 0.53078293800354004 0.68712979555130005
0.073818087577819824 0.53715789318084717 0.68751990795135498
0.03533896803855896 0.55542635917663574 0.69710069894790649
0.027153382077813148 0.54139620065689087 0.69269955158233643
0.061313740909099579 0.52490419149398804 0.68537843227386475
-0.55475836992263794 -0.39624127745628357 0.64589357376098633
-0.57502013444900513 -0.3920835554599762 0.6410292387008667
-0.55864214897155762 -0.40365910530090332 0.64647799730300903
-0.53143119812011719 -0.39762946963310242 0.65232676267623901
-0.55124741792678833 -0.3892458975315094 0.64379996061325073
-0.57028967142105103 -0.38534718751907349 0.63902968168258667
-0.58011054992675781 -0.39925867319107056 0.6414492130279541
-0.53404325246810913 -0.40513902902603149 0.65309995412826538
-0.52916765213012695 -0.39050710201263428 0.65010595321655273
0.10919268429279327 0.4749920666217804 0.68725115060806274
0.11669321358203888 0.47891488671302795 0.68699121475219727
0.097688630223274231 0.4973084032535553 0.68525224924087524
0.10208360850811005 0.47117385268211365 0.68588697910308838
0.11779676377773285 0.45088586211204529 0.6905512809753418
0.12518274784088135 0.45381030440330505 0.69033521413803101
0.10513192415237427 0.50216937065124512 0.68504434823989868
0.090528257191181183 0.49270293116569519 0.68398481607437134
0.11092092096805573 0.4479200541973114 0.688987135887146
-0.44221138954162598 -0.37896278500556946 0.68358170986175537
-0.47439688444137573 -0.38897275924682617 0.67150074243545532
-0.44134619832038879 -0.38526034355163574 0.68509447574615479
-0.4100029468536377 -0.36624747514724731 0.69591444730758667
-0.44294959306716919 -0.37296405434608459 0.68054807186126709
-0.47427704930305481 -0.38234943151473999 0.668800950050354
-0.47460612654685974 -0.3959181010723114 0.67274588346481323
-0.40811002254486084 -0.37176981568336487 0.697684645652771
-0.41154643893241882 -0.36100879311561584 0.69254714250564575
0.12217208743095398 0.38030385971069336 0.70412498712539673
0.12912409007549286 0.38030201196670532 0.70420259237289429
0.12483003735542297 0.40309330821037292 0.69908565282821655
0.11591203510761261 0.38003334403038025 0.70210921764373779
0.11444070935249329 0.35751864314079285 0.71007359027862549
0.12110832333564758 0.35663223266601562 0.71033090353012085
0.13193297386169434 0.40402764081954956 0.69904780387878418
0.1184021383523941 0.40192443132400513 0.69717943668365479
0.10843509435653687 0.35812059044837952 0.70791077613830566
-0.32953304052352905 -0.31852379441261292 0.72532075643539429
-0.35278666019439697 -0.33595237135887146 0.71710014343261719
-0.3246743381023407 -0.32170060276985168 0.72762554883956909
-0.30976513028144836 -0.2986893355846405 0.73252993822097778
-0.33370018005371094 -0.31561094522476196 0.72135114669799805
-0.35605466365814209 -0.33228707313537598 0.71326053142547607
-0.34887209534645081 -0.33988970518112183 0.71926796436309814
-0.30411061644554138 -0.301078200340271 0.73495668172836304
-0.31473886966705322 -0.29654610157012939 0.72844856977462769
0.056769691407680511 0.28582102060317993 0.73493701219558716
0.061076834797859192 0.28269106149673462 0.7363552451133728
0.080888055264949799 0.30976051092147827 0.72588735818862915
0.052755564451217651 0.28868016600608826 0.73165786266326904
0.030985688790678978 0.26395139098167419 0.7432631254196167
0.034292139112949371 0.26027229428291321 0.74517196416854858
0.086198598146438599 0.3072945773601532 0.72682803869247437
0.076026409864425659 0.31194919347763062 0.72308635711669922
0.027816334739327431 0.26736792922019958 0.73950052261352539
-0.27087914943695068 -0.22104889154434204 0.7513776421546936
-0.2804354727268219 -0.24915574491024017 0.74561977386474609
-0.26433917880058289 -0.2206772118806839 0.75425773859024048
-0.26481911540031433 -0.19372346997261047 0.75588017702102661
-0.27699333429336548 -0.22148065268993378 0.74674582481384277
-0.28639182448387146 -0.24871090054512024 0.74121224880218506
-0.27394494414329529 -0.24974064528942108 0.74832773208618164
-0.25836053490638733 -0.19248531758785248 0.75894421339035034
-0.27096039056777954 -0.19494099915027618 0.7510184645652771
-0.035322114825248718 0.22409160435199738 0.7547956109046936
-0.033666934818029404 0.21959416568279266 0.75776225328445435
-0.015892978757619858 0.23274983465671539 0.75329720973968506
-0.037084314972162247 0.22835202515125275 0.75014704465866089
-0.053083211183547974 0.21885110437870026 0.75515031814575195
-0.051675278693437576 0.21423293650150299 0.75836449861526489
-0.013929463922977448 0.22840704023838043 0.75599026679992676
-0.017926312983036041 0.23684875667095184 0.74884325265884399
-0.054613053798675537 0.2232317179441452 0.75033092498779297
-0.26774352788925171 -0.13572487235069275 0.75765693187713623
-0.26346403360366821 -0.15044352412223816 0.75891751050949097
-0.26154586672782898 -0.13316799700260162 0.76130962371826172
-0.27466827630996704 -0.12425956130027771 0.75555014610290527
-0.27378532290458679 -0.13811320066452026 0.75230628252029419
-0.26954254508018494 -0.1526319831609726 0.75370109081268311
-0.2572079598903656 -0.14811800420284271 0.76236528158187866
-0.26853173971176147 -0.12153591215610504 0.75943255424499512
-0.28064769506454468 -0.12679041922092438 0.75004470348358154
-0.23540519177913666 0.26262548565864563 0.77165043354034424
-0.24172107875347137 0.25783786177635193 0.77536177635192871
-0.22180064022541046 0.25196591019630432 0.77000546455383301
-0.23003356158733368 0.26679655909538269 0.76678109169006348
-0.24716293811798096 0.27435848116874695 0.773307204246521
-0.25450783967971802 0.26979249715805054 0.77690726518630981
-0.22701263427734375 0.24705265462398529 0.77377718687057495
-0.21746328473091125 0.25618362426757812 0.76500636339187622
-0.24080920219421387 0.27841198444366455 0.76861423254013062
-0.45445263385772705 -0.077546462416648865 0.73898804187774658
-0.43284568190574646 -0.075684711337089539 0.74162650108337402
-0.45402538776397705 -0.071873635053634644 0.7432369589805603
-0.47591033577919006 -0.080969482660293579 0.73609954118728638
-0.4547959566116333 -0.082236498594284058 0.73367506265640259
-0.43402063846588135 -0.080018267035484314 0.73612260818481445
-0.43145093321800232 -0.070349231362342834 0.74600487947463989
-0.47648569941520691 -0.0750398188829422 0.74012422561645508
-0.47539490461349487 -0.085965283215045929 0.73106294870376587
-0.17280447483062744 0.22858582437038422 0.76463007926940918
-0.17550539970397949 0.22315941751003265 0.76886361837387085
-0.15506602823734283 0.22358708083629608 0.76272386312484741
-0.17063100636005402 0.23338429629802704 0.75891858339309692
-0.19013960659503937 0.23488922417163849 0.76650542020797729
-0.19350847601890564 0.22966758906841278 0.77053630352020264
-0.15716695785522461 0.21800370514392853 0.76711922883987427
-0.15336704254150391 0.22863958775997162 0.75677967071533203
-0.18742960691452026 0.23940874636173248 0.76108372211456299
-0.37160149216651917 -0.079774245619773865 0.74714124202728271
-0.35326763987541199 -0.083760261535644531 0.74826151132583618
-0.36772948503494263 -0.07500043511390686 0.75205767154693604
-0.39109334349632263 -0.076908722519874573 0.74571728706359863
-0.37509948015213013 -0.083774954080581665 0.74081647396087646
-0.35742643475532532 -0.087796792387962341 0.741676926612854
-0.34876084327697754 -0.079088874161243439 0.7533453106880188
-0.38795951008796692 -0.072040528059005737 0.75041615962982178
-0.39385741949081421 -0.080882981419563293 0.73971313238143921
-0.10331456363201141 0.21530954539775848 0.75733423233032227
-0.1033976674079895 0.21003259718418121 0.76141965389251709
-0.086620330810546875 0.21498624980449677 0.75604486465454102
-0.10340273380279541 0.22028215229511261 0.75167924165725708
-0.12017799913883209 0.21694637835025787 0.75897902250289917
-0.1209724172949791 0.21144039928913116 0.76330649852752686
-0.086050868034362793 0.20997633039951324 0.75982755422592163
-0.087333105504512787 0.21972747147083282 0.75071340799331665
-0.11960376054048538 0.22209315001964569 0.75306141376495361
-0.30683848261833191 -0.10004226863384247 0.75073391199111938
-0.29448148608207703 -0.10701143741607666 0.75181221961975098
-0.30112451314926147 -0.096322812139987946 0.75550580024719238
-0.32077991962432861 -0.093954414129257202 0.74991703033447266
-0.31231814622879028 -0.10343869030475616 0.74439406394958496
-0.30019703507423401 -0.11003704369068146 0.74579024314880371
-0.28856503963470459 -0.10372181236743927 0.75627559423446655
-0.31535515189170837 -0.089810818433761597 0.75493264198303223
-0.32593247294425964 -0.097696393728256226 0.74332427978515625
-0.43591120839118958 0.16769009828567505 0.66512036323547363
-0.44068372249603271 0.16210627555847168 0.69498395919799805
-0.44352900981903076 0.19210982322692871 0.66905444860458374
-0.43145850300788879 0.17392213642597198 0.63685649633407593
-0.43617105484008789 0.14655591547489166 0.66141408681869507
-0.43922248482704163 0.14244955778121948 0.69133913516998291
-0.45070800185203552 0.18433493375778198 0.69906371831893921
-0.43446546792984009 0.20273114740848541 0.64019590616226196
-0.43439939618110657 0.15084618330001831 0.63317453861236572
-0.48162853717803955 0.096521183848381042 0.65257126092910767
-0.51346498727798462 0.083199664950370789 0.64851617813110352
-0.48291340470314026 0.096362605690956116 0.68329250812530518
-0.45875832438468933 0.1114029586315155 0.65548288822174072
-0.48118838667869568 0.096511051058769226 0.6233447790145874
-0.51411968469619751 0.078695967793464661 0.61709487438201904
-0.51440930366516113 0.085126370191574097 0.68013966083526611
-0.46026647090911865 0.10969586670398712 0.68577069044113159
-0.45825183391571045 0.11372533440589905 0.62698471546173096
-0.51826292276382446 0.27950072288513184 0.68429863452911377
-0.53025728464126587 0.26833623647689819 0.71285009384155273
-0.54732412099838257 0.3107161819934845 0.6897505521774292
-0.50066959857940674 0.29697275161743164 0.65916746854782104
-0.48717939853668213 0.24872596561908722 0.67872929573059082
-0.49817004799842834 0.23766104876995087 0.70810985565185547
-0.56020641326904297 0.30073884129524231 0.71757179498672485
-0.5283348560333252 0.32447206974029541 0.66663771867752075
-0.47104686498641968 0.26644712686538696 0.65135186910629272
-0.66016513109207153 0.058115962892770767 0.62917739152908325
-0.71403032541275024 0.050489705055952072 0.62013518810272217
-0.66221493482589722 0.062441561371088028 0.66074889898300171
-0.60523957014083862 0.064658463001251221 0.63687050342559814
-0.66128742694854736 0.046428468078374863 0.59810161590576172
-0.71029525995254517 0.040488254278898239 0.59248864650726318
-0.71833902597427368 0.05386241152882576 0.65045779943466187
-0.60623633861541748 0.06915631890296936 0.66916614770889282
-0.60779082775115967 0.053277742117643356 0.60379970073699951
-0.57030099630355835 0.40813884139060974 0.70120924711227417
-0.5856814980506897 0.40126779675483704 0.73003488779067993
-0.55325132608413696 0.4396132230758667 0.70367133617401123
-0.54670578241348267 0.41331666707992554 0.67553901672363281
-0.57574057579040527 0.37544947862625122 0.69829058647155762
-0.59055870771408081 0.36787772178649902 0.72647136449813843
-0.56810086965560913 0.43369030952453613 0.73234748840332031
-0.53176027536392212 0.44252678751945496 0.6788296103477478
-0.55302166938781738 0.38233110308647156 0.67423880100250244
-0.83268141746520996 -0.0017618760466575623 0.5807080864906311
-0.85369592905044556 -0.029721254482865334 0.56673771142959595
-0.84302604198455811 -0.00083016231656074524 0.60972291231155396
-0.80235248804092407 0.02146298810839653 0.5953858494758606
-0.81574147939682007 -0.0068634413182735443 0.55595219135284424
-0.8361702561378479 -0.032877985388040543 0.54430371522903442
-0.86457806825637817 -0.029518114402890205 0.59485930204391479
-0.81131947040557861 0.022979941219091415 0.62449842691421509
-0.78818273544311523 0.015085130929946899 0.57066935300827026
-0.43575805425643921 0.52233189344406128 0.69757586717605591
-0.44662162661552429 0.52078986167907715 0.72746288776397705
-0.38084456324577332 0.54941320419311523 0.69077754020690918
-0.42497497797012329 0.51517695188522339 0.67005687952041626
-0.48459595441818237 0.49617472290992737 0.70226657390594482
-0.49682715535163879 0.49309083819389343 0.73125278949737549
-0.3906833827495575 0.5489654541015625 0.72166210412979126
-0.37155488133430481 0.54054301977157593 0.66047972440719604
-0.47066843509674072 0.49237236380577087 0.677196204662323
-0.85772740840911865 -0.13611355423927307 0.52956485748291016
-0.84765595197677612 -0.17862460017204285 0.51756072044372559
-0.86986374855041504 -0.1397140771150589 0.55653053522109985
-0.86467158794403076 -0.097185134887695312 0.54138880968093872
-0.83719176054000854 -0.12795326113700867 0.50920987129211426
-0.82621675729751587 -0.16844484210014343 0.49516734480857849
-0.85997486114501953 -0.18301594257354736 0.54504579305648804
-0.87631732225418091 -0.099426224827766418 0.56819629669189453
-0.84572434425354004 -0.093043476343154907 0.52201014757156372
-0.21057367324829102 0.64716231822967529 0.66120946407318115
-0.21697570383548737 0.64692121744155884 0.69393754005432129
-0.1590726226568222 0.68111461400985718 0.65012544393539429
-0.2030377984046936 0.6441495418548584 0.62581062316894531
-0.26580154895782471 0.61228978633880615 0.67211377620697021
-0.27355062961578369 0.61217391490936279 0.70447838306427002
-0.16390427947044373 0.68157017230987549 0.68306905031204224
-0.15302227437496185 0.67822515964508057 0.61397737264633179
-0.25753450393676758 0.60655051469802856 0.63772737979888916
-0.83217769861221313 -0.32091942429542542 0.47639322280883789
-0.83248865604400635 -0.36727294325828552 0.46278554201126099
-0.84134459495544434 -0.32552969455718994 0.50615960359573364
-0.83365237712860107 -0.27245163917541504 0.49074411392211914
-0.81853890419006348 -0.31432467699050903 0.44621944427490234
-0.82023435831069946 -0.36040937900543213 0.43150898814201355
-0.84099447727203369 -0.37259441614151001 0.49281364679336548
-0.8442234992980957 -0.27703440189361572 0.51982539892196655
-0.81639248132705688 -0.26406946778297424 0.46287557482719421
-0.035511955618858337 0.76486009359359741 0.61991298198699951
-0.03684939444065094 0.76777565479278564 0.65199160575866699
0.0020794179290533066 0.78012210130691528 0.60442107915878296
-0.034160733222961426 0.75844419002532959 0.5842403769493103
-0.072599366307258606 0.74170541763305664 0.6306266188621521
-0.074803933501243591 0.74399608373641968 0.66327053308486938
0.001450955867767334 0.78346168994903564 0.63568919897079468
0.0021098144352436066 0.77299851179122925 0.56968903541564941
-0.069848902523517609 0.73637104034423828 0.59432870149612427
-0.83709138631820679 -0.48199626803398132 0.4322756826877594
-0.8287121057510376 -0.51171028614044189 0.42541685700416565
-0.84493660926818848 -0.48924833536148071 0.46133384108543396
-0.83740735054016113 -0.44828307628631592 0.44055616855621338
-0.82513540983200073 -0.47183802723884583 0.40173360705375671
-0.81725776195526123 -0.50099879503250122 0.39549463987350464
-0.83618521690368652 -0.51905351877212524 0.45384624600410461
-0.84547632932662964 -0.45516520738601685 0.47014826536178589
-0.82533842325210571 -0.43903380632400513 0.40939673781394958
0.1444016695022583 0.75884860754013062 0.50754779577255249
0.14587768912315369 0.76230090856552124 0.53537988662719727
0.19455443322658539 0.73037487268447876 0.46980190277099609
0.14048247039318085 0.75342708826065063 0.47621974349021912
0.09257931262254715 0.77757889032363892 0.54669350385665894
0.093325220048427582 0.78114581108093262 0.57569992542266846
0.19673311710357666 0.73368096351623535 0.4967687726020813
0.18959538638591766 0.72629427909851074 0.43903949856758118
0.089934945106506348 0.77100038528442383 0.51432996988296509
-0.71753305196762085 -0.57870703935623169 0.41207253932952881
-0.65707993507385254 -0.59004348516464233 0.41400045156478882
-0.7221331000328064 -0.58469206094741821 0.43894651532173157
-0.7691313624382019 -0.56072717905044556 0.41456562280654907
-0.71201896667480469 -0.56949740648269653 0.38158968091011047
-0.65436685085296631 -0.58227008581161499 0.38239958882331848
-0.66036981344223022 -0.59521067142486572 0.44084048271179199
-0.77496320009231567 -0.56739968061447144 0.4417978823184967
-0.76095843315124512 -0.55047899484634399 0.38477936387062073
0.29570478200912476 0.60150182247161865 0.41726982593536377
0.29943174123764038 0.6048426628112793 0.445311039686203
0.31203961372375488 0.55060553550720215 0.41821074485778809
0.29015100002288818 0.59986716508865356 0.38348612189292908
0.27170529961585999 0.64989280700683594 0.42327645421028137
0.27503520250320435 0.65315353870391846 0.45044818520545959
0.31602901220321655 0.55394637584686279 0.44702336192131042
0.30682924389839172 0.54912781715393066 0.38300615549087524
0.26595243811607361 0.64782130718231201 0.39111682772636414
-0.46214458346366882 -0.57075405120849609 0.45959746837615967
-0.39970019459724426 -0.5496065616607666 0.48206502199172974
-0.46230214834213257 -0.57338905334472656 0.48896178603172302
-0.52665525674819946 -0.58590447902679443 0.43852144479751587
-0.46517470479011536 -0.56856280565261841 0.42310062050819397
-0.40359950065612793 -0.54912674427032471 0.44441503286361694
-0.39906781911849976 -0.55142092704772949 0.51231366395950317
-0.52768468856811523 -0.58936399221420288 0.46674865484237671
-0.52836346626281738 -0.58179396390914917 0.40368115901947021
0.32913091778755188 0.401622474193573 0.43271303176879883
0.33297014236450195 0.40377587080001831 0.45940583944320679
