# XYZ point cloud file
-0.81216956246074312 -0.87245115323569011 -0.53847820189969453
-0.8532724034184499 -0.90359269212347049 -0.55983641093845726
-0.87125571796426537 -0.80247617704420493 -0.57921478048888475
-0.76824047990305744 -0.83801952079086639 -0.5124053081072415
-0.75376229671153849 -0.94134250710988654 -0.4895268650418656
-0.80159768143961863 -0.96877909778457494 -0.51323046575375919
-0.90602448068487695 -0.83737866979869791 -0.59898782176786525
-0.83262282578066238 -0.76724154407993472 -0.55340276091008733
-0.70443345510857369 -0.90787661713208267 -0.4624565039223385
0.46474284555939777 1.2107318140178551 -0.45172430060440477
0.43882657524416935 1.2386498055597996 -0.42899918011136062
0.49309569069027376 1.1984647349610436 -0.46398539631151714
0.46077477578192255 1.1913700045784463 -0.46042656134429044
0.41559297683972579 1.2266119643276214 -0.42687981889969651
0.46764601960498375 1.2311947345162992 -0.43702470088131412
0.50485899903286624 1.1595421764008937 -0.48422117195925601
-0.92984735860255407 -0.95881066089835043 -0.58536559077752837
-0.91513240868059897 -0.99136870069257554 -0.56500607990569507
-0.95665560744269507 -0.93340469626040568 -0.60393473631300898
-0.9153487749107001 -0.94922865508721688 -0.58438576154196653
-0.88242052256074233 -0.99678614762145024 -0.54961622838738777
-0.94579529876936697 -0.9679464835816125 -0.58244302748514198
-0.95170936272568152 -0.9019804175984022 -0.61295635018425787
0.15143403243972992 0.86216102813930506 -0.24468080727882965
0.14613705503463342 0.84268963489646087 -0.2462780313335145
0.14595566658768244 0.87609577621441692 -0.20332650680899922
0.15086493509076498 0.89147214570690969 -0.23945039280420982
0.16607528633209057 0.83655045643951287 -0.28989640442163112
0.15894178125491651 0.81597867895252796 -0.29924814048452625
0.14175945175627691 0.85658584399352333 -0.1983799625317465
0.14486585697056037 0.90439426924063737 -0.20207543646232487
0.16719543971464429 0.86686648757369744 -0.28055778110931184
-0.74456807243399381 -0.53330352759911359 -0.38808128362120908
-0.76068841807844545 -0.5361554965210259 -0.35621922801951877
-0.73096560150672629 -0.52320126770535103 -0.38156775610680149
-0.71654685382343597 -0.53761043344208181 -0.41404801740528918
-0.76799866961194174 -0.53994536502965063 -0.39927218635633677
-0.7833654149080298 -0.54183488856288664 -0.37152553206019462
-0.74718592963179997 -0.52793389959703829 -0.34235092258944372
-0.70192070960663799 -0.52418689277370911 -0.41599197702157514
-0.74049743646321131 -0.54664762207770146 -0.42005501349200564
0.27962257121573292 0.66440920518858348 -0.39394867192201449
0.23241124400502244 0.73456878748429211 -0.36890034956529971
0.29670152159795471 0.6935685011792575 -0.38357533693117951
0.32703158922730824 0.59499344710409863 -0.40537829025876332
0.26082348159380597 0.63918300109180237 -0.41141847049822156
0.21862229866690636 0.71038074915787863 -0.38692181195406966
0.24259949365434613 0.76491205999910594 -0.35667341773549466
0.35119350592261767 0.62255221936420502 -0.39799433246690891
0.30210529314280726 0.5705507903581204 -0.42057301171802736
-0.54285245556517658 -0.61276018275153055 -0.38681945057990769
-0.56156838993548097 -0.63920020729183391 -0.37668000915216898
-0.61266523379273519 -0.57915807974044498 -0.41516801494917943
-0.52771739269402052 -0.58533935483029509 -0.40629768686805912
-0.47323299090120424 -0.64624598975988823 -0.34557479105971944
-0.48869790994356166 -0.68003902852656595 -0.33116981949269536
-0.63428636488175183 -0.59841101231653115 -0.41005388923903041
-0.59660835649701771 -0.55691829883252209 -0.43046068762437545
-0.46075909579543206 -0.61282555620480295 -0.36893029195797988
0.41740970446068681 0.47138176620114813 -0.3380914511391121
0.38691413254083057 0.44285632723867208 -0.34306454234999362
0.3979770275289114 0.49490353144406085 -0.37511437769029288
0.44877980743411666 0.50218620297733707 -0.3404045880557427
0.42883113335478174 0.4629094276439214 -0.29679250345351449
0.40080702224886561 0.43177222980314123 -0.29517321653975925
0.36654013018232151 0.46920994210494726 -0.38423993627041947
0.42970496848270029 0.52320760880188788 -0.37425731455647643
0.4583507153564777 0.49610150676598097 -0.3026787933824977
-0.33767469147795037 -0.69716027091386712 -0.18549446957011045
-0.36709605819390301 -0.68963838233223818 -0.24038729611614856
-0.32353063184575159 -0.65678268365716619 -0.20610300294343981
-0.32264074165837675 -0.69979293951095456 -0.13580643664945563
-0.35417059610170543 -0.74026558566497103 -0.17205567957261744
-0.38126589296401819 -0.7321956480467704 -0.2240682812592541
-0.35569350655732895 -0.64922694901530331 -0.26517643994061674
-0.30518735861641733 -0.66068818010459107 -0.14845034099110344
-0.34185542046630862 -0.74188897605809978 -0.12705983750714642
0.027022733262666087 0.50850723845660362 0.70854841734542795
0.016311690765940964 0.49274057071023392 0.72882566250114555
0.0067566936965387965 0.47876215777335807 0.74627161148176957
0.021888416199379531 0.46024918055949054 0.75672922839089551
0.04080740171731212 0.44900566941367515 0.75421987376561028
0.055563379903684762 0.43474883923751106 0.75288628318867779
0.079592435819546226 0.42217127496069123 0.73761402825502054
0.098103475886613056 0.42792750256297646 0.71853929795915139
0.11875942695737723 0.43444532579748812 0.69633489726976117
0.12365771167818604 0.46843263742191232 0.67214422694148701
0.10092852076639719 0.49205378334703365 0.6748943174791624
0.072001823740969098 0.51104190977641795 0.67963285320594014
-0.50362880914663932 -0.3836664254857628 0.65351122915229443
-0.46350239616527117 -0.3848281289833525 0.66460585647853221
-0.42252584925060643 -0.37972073960888542 0.67615130264663659
-0.38878083348425169 -0.35351996117691431 0.70665745103769817
-0.39577918894744107 -0.33897253342254413 0.72350469103205284
-0.40226585343862292 -0.32618245044070254 0.73782320583187633
-0.43298202842596045 -0.32428523775095924 0.7423636402228091
-0.45913224096546518 -0.32795396297008744 0.7352995212842186
-0.4849158747220495 -0.32761928551352754 0.72863236317023872
-0.51547335563558594 -0.33334779674683412 0.70781440496838055
-0.52337872563667731 -0.34651929019881406 0.68917327879518231
-0.53231732302786805 -0.36130675554853736 0.66752221066178508
0.065272415082285373 0.56607732833361979 0.61032258736854539
0.056696569956435322 0.5529806081434423 0.63651560861502321
0.047627728408960887 0.53923605510099615 0.6618898471131851
0.15727832116924106 0.44710137703505187 0.64536383794320051
0.17345245487720651 0.45271795717329438 0.61773289836552037
0.18839325270158974 0.4580484566824955 0.58924325831454749
0.18337326294432071 0.50055262355384311 0.56173840564354793
0.15463393368694173 0.53301713202529055 0.56655561586289127
0.11765806822287417 0.55949456330702607 0.57410548114130999
-0.52304485274473922 -0.43622778696004033 0.54971008204014504
-0.47139930247563305 -0.43931525141975147 0.56448773347038528
-0.41860589454602526 -0.43388034730258479 0.57948412949538142
-0.36956866012994588 -0.40770590926540101 0.61862490187040153
-0.37297108315663452 -0.39523263842906825 0.64286035755615956
-0.37707356709350481 -0.38222335181651645 0.66598048850269831
-0.5496465454653694 -0.38956818684831673 0.61806454981470371
-0.5573233872997313 -0.40186736444860249 0.59136987497421134
-0.56460402018951716 -0.41343412906480276 0.56388927742391126
0.14677469182176656 0.41081014664633242 0.67390735621822362
0.1463676840024207 0.37895230320109596 0.67827018323414068
0.13817963168621578 0.34675271637743205 0.684319090322834
0.13846483049481789 0.30970825839345961 0.66737234723013805
0.15247086443079844 0.30425359162361854 0.64167934467146504
0.16507478603551257 0.29900655150796601 0.61499821950325084
0.19839293391588389 0.33581742497978462 0.57748856838802554
0.20998342782891197 0.37916629248497169 0.56895579048336686
0.21150549423965573 0.42220677310081944 0.56298305111300118
-0.31698749661371706 -0.39739028376805824 0.60667365359087233
-0.27178859236079417 -0.3677257031572379 0.6178857851664814
-0.23269047235764179 -0.33232704975821958 0.62735327648287464
-0.2134421239921582 -0.28767829741112882 0.65828185696092167
-0.22613762427275136 -0.28268378038458464 0.68090535583963696
-0.24026753946813761 -0.27754367161881355 0.70213245948471092
-0.27994738968127431 -0.30179746747024605 0.71480687311997682
-0.30958928417717385 -0.32840132852910048 0.70691353866694318
-0.34413168330436694 -0.35095315169186803 0.69773725036425627
0.070081686949774444 0.39865433406898121 0.75423967609639275
0.069436671192863272 0.37813847547121465 0.75682602816899602
0.063814183149135617 0.35725157452834611 0.76038657988793368
0.066625043030199935 0.33296952404885044 0.75076292412686652
0.084081586692464128 0.32768133805368682 0.73367043425627165
0.10344361707621513 0.32165792347329569 0.71381219066625223
-0.27570589241849497 -0.26654105500982966 0.73760191302365863
-0.29533924889854235 -0.26110287404926213 0.75146535974349704
-0.31305950694235413 -0.25636981379972174 0.76317204246635106
-0.34152379916185471 -0.27205465351012115 0.76816474559084669
-0.36062676569707608 -0.2896279275696847 0.76250974711710651
-0.38285620123439512 -0.30473727665789796 0.75622497575820646
0.03849969810549525 0.31818628628009821 0.76953160002332299
0.01975833121751187 0.30146571326458504 0.77451420633321688
-0.0020624184992183298 0.28729060608162166 0.77926754110736041
-0.021655382470591858 0.26585237030820463 0.77153601663199045
-0.015741207852433832 0.25217345174483846 0.75724602541745822
-0.0093296896914934688 0.23672126741843977 0.74065895615848687
0.034977806589659016 0.23831052071245698 0.71534416995387606
0.069498375107922783 0.26037078980766981 0.70770499375345763
0.099043567770491336 0.28638696320959106 0.69957971349467751
-0.24075106527574569 -0.24061488343041654 0.72613310855919333
-0.232681474862065 -0.20834240756445113 0.72947519514751891
-0.23247659288473396 -0.17662906101182321 0.7313540868577395
-0.2613896841438148 -0.15455327276458475 0.74770905839689683
-0.28275129728401321 -0.16240583031271996 0.76121052016482915
-0.30193850896686569 -0.16941845479909859 0.77265390035355241
-0.31138361945588822 -0.19303896767548562 0.78174374246363865
-0.31135713960500094 -0.21263284801542312 0.7799252045796734
-0.31640226986612852 -0.23279839959674536 0.77699427983679237
0.001623047781467938 0.20687622263741243 0.70103825145264298
0.0056205237317278924 0.19372211475499584 0.67863570486735658
0.0090265671226843515 0.18127638435795143 0.65519510717019624
0.061895700583538715 0.1914533009258893 0.62174300839656205
0.10706432001375252 0.22046570022989384 0.61078508458023961
0.14597976735702256 0.25500796364717199 0.59919935843590566
-0.17988451049006401 -0.24995555198271571 0.64058725592131505
-0.16823181668181897 -0.20617012137431651 0.64449169620946511
-0.16678966494719952 -0.16302461135201951 0.6469273330920513
-0.19028088700098367 -0.1278369607413358 0.67075119455263854
-0.20538757965743593 -0.1336052798190695 0.69268126808768704
-0.22182964513817149 -0.13982903588001036 0.71326620760474557
-0.043961785738597936 0.2095949402811674 0.72671877610513125
-0.085541245826504464 0.20396282966004109 0.73025985739970145
-0.1264179411704385 0.20433490282155689 0.73292680795779308
-0.17391962469990532 0.19661947448565442 0.71554711202801213
-0.18202964725799636 0.18380048764999649 0.69446607476973976
-0.18960663800500974 0.171921988924369 0.67238902084428354
-0.14700087741289661 0.15045718831793281 0.64735906005364496
-0.094236868069532922 0.14860470515543803 0.6436849063145087
-0.040550215966473978 0.15487439452805343 0.63843064790697701
-0.19566955332519037 -0.085766984057400728 0.64840803607330244
-0.22499481038134184 -0.054368257667225167 0.64752562645674838
-0.26253545929994654 -0.029031392942452564 0.64531857205092691
-0.31520455207885667 -0.023394507905143885 0.66309173993382875
-0.32370737680288397 -0.036519541052761742 0.68402943778705572
-0.33282604347006656 -0.050491771346859504 0.70387330990967967
-0.30850344085520692 -0.078648453185294592 0.72592392910694703
-0.27928387179132635 -0.096969793168519974 0.72894714492946155
-0.25620851079865525 -0.11992465165280991 0.73097359687217245
-0.052016407026372141 0.26858727367252366 0.7865797660404219
-0.078494178867575759 0.2646707400922132 0.78904082192091196
-0.10474213496437039 0.26451934498008317 0.79107591694955071
-0.13633508078066597 0.25749686288251417 0.78170212455051624
-0.14510416975326043 0.24312608817422041 0.76827111315662244
-0.15503359899658531 0.22696525133419501 0.75272858231185769
-0.35414725689683446 -0.082671954505732767 0.73808726887012299
-0.36542990531338454 -0.099499486104164758 0.7520329087716815
-0.37549196326354689 -0.11441347481389358 0.76403707119668085
-0.36068385485431836 -0.13335121544197504 0.77735913034269566
-0.34173902862080291 -0.14441718129357778 0.77992124840064525
-0.32683345116835666 -0.15835644969833054 0.7816671084318918
-0.15286245874780871 0.2759462844716124 0.79498159594943796
-0.17291458804822452 0.28711911051578148 0.79688073895756895
-0.1890995648303031 0.30124459930769465 0.79841197973624611
-0.21334479922843169 0.31279319190011962 0.7883227701646589
-0.23052968970821242 0.3061383547402145 0.77517357396327391
-0.24994933548214515 0.29881002959114639 0.75978925528534291
-0.25309580074434307 0.2649120147994895 0.74092271658263686
-0.22947190673485943 0.24193770257978961 0.73927822768329365
-0.19973554129177121 0.22365226236002103 0.73730080972891621
-0.38138788779654897 -0.059004638941901472 0.71756904128554844
-0.42233500846516175 -0.058332159207488112 0.71211868296070358
-0.46398977697753735 -0.06358918050252868 0.70543336562942272
-0.50025895086964145 -0.091146853323395199 0.71546353103770421
-0.49591099701785785 -0.10720935657337061 0.73147998867055408
-0.49210997980495264 -0.12132380628393802 0.74523441947922087
-0.46283414762149822 -0.12487273048110292 0.76215268805598213
-0.43543553669329688 -0.12141568817408196 0.7667862794001683
-0.40844106608624453 -0.12164623797652843 0.77075353306718419
-0.28701070549250851 0.28599804910763826 0.72197239522210377
-0.3030296571666985 0.28116597609511906 0.70005584034023705
-0.3180448193304114 0.27696329660084351 0.67693548633441547
-0.31151344507172907 0.23618761611035857 0.6528911155925512
-0.28080438864836216 0.2044298555603507 0.65236237430933364
-0.24206220935276146 0.17885486074448659 0.65140874309328334
-0.3571395988290032 -0.00028300038710232789 0.63620667835869082
-0.41061443532990505 0.0021860608142320118 0.62891998629661061
-0.46512878830538568 -0.0032976436222893271 0.61954774455970973
-0.51524930204950237 -0.030546133281233331 0.63159060230565078
-0.51200063755254566 -0.044617008159711397 0.65474215783174938
-0.50850322383968993 -0.059227531968800928 0.67680191591263883
-0.27751476138354364 0.3217280425584147 0.7426188416739552
-0.27735403953951682 0.35352608874449193 0.74238990425823093
-0.26917061765820632 0.38592392175903378 0.74126389162176265
-0.26855557434504373 0.42420102338949767 0.71925135631724246
-0.28243380329528145 0.43080656425352365 0.69752113421553719
-0.29527917863461473 0.43746568651671464 0.67453860503122898
-0.32944842517931078 0.40130755040731786 0.65277119172447118
-0.34114180652413745 0.35736208009681192 0.65351893790896254
-0.34230533388936857 0.31404239670816209 0.65354457692910439
-0.56803867831315669 -0.038167218091091262 0.5937536089643829
-0.61264946398155451 -0.066363272955802466 0.57813840452073784
-0.65072513298767221 -0.10013098816908449 0.56205149538211696
-0.6688471042511297 -0.14543874952191013 0.57452891453270283
-0.65641566039025234 -0.15261777117434783 0.60205963658359685
-0.64300209324362478 -0.15981245664328747 0.62858871670267891
-0.60545121217946085 -0.13843162902952474 0.66466169776964201
-0.57653388333028299 -0.11292849670561181 0.67610235160240606
-0.54253666003519585 -0.091380252469179093 0.68720267777692734
-0.20627971050280811 0.33629776761098251 0.79937090212175743
-0.2065340539195219 0.35603415271859867 0.79860954885339619
-0.20144153679222296 0.37634202965913133 0.79710425239162452
-0.20261970289278583 0.40030404178883938 0.7842189545895184
-0.21812613922708809 0.40533883625757111 0.77144691772819929
-0.23564152945430333 0.4112590779076421 0.75645618484611776
-0.6112625148545493 -0.17428345060578526 0.67664175059383802
-0.59440519183943052 -0.18107332091572181 0.69721715971564779
-0.57949972694943142 -0.1869082143767882 0.71489328299615051
-0.55397974844397646 -0.17283884373362948 0.73605321912800914
-0.53555116957366433 -0.15646293196558059 0.7431993383211386
-0.51381798337892048 -0.14267205699522603 0.75022412930695159
-0.17584269323621471 0.41596361861543796 0.79210093478565802
-0.15632076264197209 0.43374847516808773 0.78868817041928674
-0.13342217305098114 0.44905004256098568 0.78469760242963615
-0.11115008971197274 0.47097047791596847 0.76855197572417944
-0.11550698074428838 0.4842082173197445 0.7543308233896231
-0.12041148318281082 0.49939035689873557 0.73767971253876641
-0.1641384770696635 0.49734583794738807 0.72562218913663346
-0.19930009227013595 0.47444730482679698 0.73128454821049504
-0.22940247729012192 0.44753791084591216 0.73577915493859858
-0.64335342491510505 -0.19786824963990843 0.64370206819252762
-0.6510169275959814 -0.22971282592915923 0.63547765244577858
-0.65095729409650671 -0.2613395167187299 0.62950211339772966
-0.62470024850940298 -0.2861282338944065 0.65252243664559328
-0.60655328697146649 -0.28055157533947378 0.67617324686462221
-0.59052949280734135 -0.27550502847262426 0.69646577765414719
-0.58387189363728842 -0.25244394224519517 0.71451071894364682
-0.58375638061744084 -0.23201315264894956 0.71813801938565192
-0.57853337234739055 -0.21132432846440541 0.72314591093959146
-0.1293372557106679 0.53021902947334665 0.69785389066458969
-0.13290392564828496 0.54471162117273864 0.67538319159091964
-0.13611247741924257 0.55883330914285545 0.65188851638175649
-0.19011890931624689 0.54992747762172944 0.63622259765887179
-0.23629125240927895 0.51990978663622445 0.64276959882866036
-0.27600497742665786 0.48416867147010156 0.64763514409109124
-0.70135679518545635 -0.17957190559168382 0.5324861200699047
-0.71213098865255908 -0.22242477413712808 0.52091131995244266
-0.71280298123195918 -0.26520732503549244 0.51267212832061038
-0.68916480797352564 -0.30316913823608027 0.5391591081599425
-0.67481646777628712 -0.29981210281383369 0.56922063983377535
-0.6595833768935131 -0.29600355942987477 0.59842202657512655
-0.08389671073504841 0.52686886349075568 0.71078733952179052
-0.041818264333580137 0.53236888089774104 0.7022425112908206
-0.00068423821650914762 0.53160667107204751 0.69378280894429678
0.023627137976568405 0.58994510363415198 0.59473112979035747
-0.030000646226439505 0.59269069102975314 0.6063116132437143
-0.085013873532435294 0.58699661971291317 0.61763691882100447
-0.68263049343423277 -0.3440861112714671 0.50979658939968808
-0.65294497727123657 -0.37726716455649056 0.51526135631997549
-0.61547579994827517 -0.40454814417615431 0.52426623991364307
-0.57521990698460246 -0.36227612587084385 0.63552331624948311
-0.60412842301192882 -0.34291605121476981 0.629715273450701
-0.62707342163767232 -0.31901992008603003 0.62652771257465756
-0.080807228963685099 0.46879402560700456 0.77507220806492483
-0.053078400938905486 0.4724957480136539 0.76982566891540016
-0.025947549071691084 0.47223242075907834 0.7647766099202058
-0.532104835783896 -0.3151436867990321 0.71794991356923399
-0.55176379570115486 -0.30350677681782695 0.71451862333226779
-0.56756405335896321 -0.28887509480128859 0.71265457618902683
-0.0094384309617291107 0.45523555958289208 0.78358498848372737
-0.007002473236503725 0.45888974041183417 0.77759630319811079
-0.0046028537516993699 0.46233656489950792 0.77028045128396405
-0.10661355452815049 0.45568441617357169 0.78893600773884587
-0.10600865174492036 0.45256661029585726 0.7956738015864262
-0.10510655929082612 0.44925049415377338 0.8011276310955644
-0.079881597902691392 0.45039780502821503 0.80133578591814603
-0.056934149337221157 0.45398213465170401 0.79674502695114446
-0.034705362752884217 0.45293826767150391 0.79294902466439421
-0.51851082909286805 -0.2996374768837114 0.74933594862176345
-0.53579403163988237 -0.29110334151194384 0.74607456761589597
-0.54856357552422519 -0.27903537700302683 0.7450438101233281
-0.56547245577158134 -0.26744241210551756 0.73835598911329581
-0.56938126874229666 -0.26882850132687175 0.73166820505647556
-0.57263688388087008 -0.26986294467344385 0.72369452377744636
-0.50640815541907191 -0.31801510637173552 0.73319492592831903
-0.50460520521762997 -0.31492543298935372 0.74079785556941569
-0.50254789409044121 -0.31159303212101741 0.74712091190933783
-0.18578176076615188 0.39444624113582488 0.80367490451836687
-0.18318100660426581 0.39319958920453602 0.81074207374397522
-0.18004830139690042 0.39199073530473472 0.81635717529043306
-0.16079811223056834 0.40670370241462389 0.81771735743725604
-0.14503255805436438 0.42180744921977686 0.81411490889454274
-0.1251418411272773 0.4339037771919334 0.81027742850486728
-0.56359599212142453 -0.24876870177396793 0.7471490510307417
-0.56497070964025153 -0.23213176233811761 0.75015440061666805
-0.56005662698714376 -0.21507919005931905 0.7551271484920854
-0.55778932352048693 -0.19635608643706573 0.75439860258626146
-0.56089237352223231 -0.1951301869578238 0.74773410349868796
-0.5633843438243884 -0.19374022298291799 0.73975538748005798
-0.19417687159914324 0.32021827637299682 0.80826564770822018
-0.1908472723847848 0.32134174214120614 0.81536216815409901
-0.18706326843443347 0.32250189657010114 0.82082917890075069
-0.18562680551317035 0.34036690662299368 0.82496322677880762
-0.18729245908528971 0.356451338251914 0.82429083700011851
-0.18250868360731376 0.37312721673440091 0.82292183151584819
-0.53928489414177205 -0.18250483519686725 0.7666697567344114
-0.52450164159818646 -0.16867286478081303 0.77239265642398625
-0.50557425733698957 -0.15780530530158432 0.77838742186533683
-0.48659196613293543 -0.14382894138920316 0.77896680444924415
-0.4876600833907439 -0.14078272413476101 0.77306334800230347
-0.48824336971496057 -0.13764536435872404 0.76580062349969102
-0.1267308044444094 0.27352637527529949 0.80199282904312796
-0.12526569854773004 0.27607853940010718 0.80914811584775381
-0.12370163414425138 0.27862666011194342 0.81478313809187974
-0.14033869370431448 0.2896445328834657 0.82098253323244963
-0.15762500525187542 0.29830638437743529 0.82259133127798001
-0.17032648104707715 0.31054728714505098 0.82399196101666639
-0.46126667981125979 -0.1422693844863048 0.78857832728838284
-0.43823965886442934 -0.13833189563884637 0.79243627220787061
-0.41577935322345522 -0.13881765712789509 0.79588969480318617
-0.39097654835654788 -0.1370103970953761 0.79498977305155161
-0.38907629289024348 -0.13417141231130225 0.7896024435095208
-0.38704291000648927 -0.13128353603850695 0.78271205052807202
-0.028631053246423076 0.28151414077712411 0.79277258908938153
-0.029945073371651934 0.28432874975932293 0.80015127485927762
-0.03126676712194832 0.28703126893240555 0.80609777915641079
-0.055591167223641991 0.28465239038553208 0.81369624690534348
-0.077658025625894744 0.28029407276156287 0.81565564363107512
-0.099312196868170513 0.28041342130859137 0.81749288129820874
-0.37507588773956152 -0.14829725247424375 0.8017182156129814
-0.35891327196198386 -0.15683527941048633 0.80393063027212297
-0.34747369071117556 -0.16888709239817898 0.80540995206197374
-0.33212574279648149 -0.18032201023277145 0.80255346078054735
-0.32813043201600889 -0.17884976156878765 0.79739418566047715
-0.32409418283986613 -0.17741960740569715 0.79063247825210592
0.0468473645599983 0.33904361902454816 0.775077876640754
0.04353750927370216 0.3400921428137223 0.78297129117032371
0.04015590998444879 0.34093542217512657 0.78944261462524046
0.021420835736624923 0.32636440901437602 0.79958096615309882
0.0063616930676622004 0.31226100595910783 0.80351804834402274
-0.012523123031512068 0.30103556442828328 0.80756916106744758
-0.33402083833439983 -0.19832687860887699 0.80562160838738683
-0.3326714562761488 -0.21426605600005894 0.80415802134363634
-0.33737747900066822 -0.23082206857131835 0.80156896464313165
-0.33988632331543656 -0.24918043846863397 0.79375712024241407
-0.33654475512815585 -0.25005850826743681 0.78828251042892705
-0.33318781624889715 -0.25100615763342471 0.78139540866801438
0.058222611062822602 0.41560715099704354 0.76354389232480302
0.054202269842310413 0.4142285761815912 0.77126087117023068
0.050002692230482398 0.41247068389083846 0.77756910491423104
0.047353635570418107 0.3934196391633476 0.78527007475700827
0.048157352418351382 0.3767362204927957 0.78753855824440233
0.04288219655878657 0.35946832536485718 0.79125678220156614
-0.3586131555490723 -0.26403366720757104 0.79309182826558078
-0.374004517177425 -0.27891035313682344 0.78762211197464072
-0.39317469919748499 -0.29084607397467183 0.78186365279915804
-0.41230183877075949 -0.30571170952602356 0.77061772302956522
-0.41117534735686156 -0.3087064100929765 0.76504865511636999
-0.40987831048911372 -0.31153071723838877 0.75826565543233992
0.0060719235286760508 0.44323458676688771 0.78633966285721257
0.022569858696272555 0.43509157702082396 0.78400465325755353
0.034245510136780871 0.4233501124348204 0.78342678377032393
-0.43590347506929666 -0.30720836186623196 0.76935621919977026
-0.45733106854088079 -0.31079362890054701 0.76327189215751901
-0.47827206987851217 -0.30975379406178088 0.75823031035281874
-0.021083666609661291 0.43714014391572109 0.79698360038194727
-0.031869141641274669 0.42043644162001614 0.80531834709855721
-0.045843021074889662 0.398996527689785 0.81417374104387741
-0.02291402504502613 0.38256704656517909 0.81210469315960032
0.0054051526892873979 0.3939729259422351 0.80172976332500201
0.027191799234176955 0.40287452733768481 0.79223209558158381
-0.4678016937594745 -0.25718417802869364 0.78303947312208222
-0.48108378154136822 -0.27812979302604518 0.7721816825568999
-0.49145241531005451 -0.29432293509531182 0.76225916486329104
-0.41855593517562301 -0.28970034589188703 0.78136006876143149
-0.42476022309971284 -0.27450880836565644 0.78692855282475871
-0.43295138002317646 -0.25479761300921094 0.792079251792565
-0.026307150236263316 0.35565478043382698 0.81667455990532001
-0.00019013582653202091 0.34977662604220333 0.809548937111082
0.019805061347910043 0.34536025126343739 0.80238474432866513
-0.35988588936525606 -0.24437435187717038 0.80068576005695724
-0.37961908968621616 -0.23971239072964207 0.80189750737977228
-0.40548211556690816 -0.23365154943941335 0.80121678655191708
-0.053817945660241825 0.33486593316529317 0.82294938774171555
-0.04503795444752641 0.31612770852602096 0.81990905468457975
-0.038303251611192558 0.3017999450936813 0.81586759725170377
-0.3539584646260685 -0.18865776963537562 0.80770281164241808
-0.37502814379977312 -0.19671303207091456 0.80735174213323746
-0.402523924003866 -0.2071964032361038 0.80470896283763804
-0.089476592027021143 0.33157317266933201 0.82675025708260441
-0.10295022581183341 0.31059420147139039 0.82550002114141541
-0.11329958654574915 0.29462953275320075 0.82291358206650678
-0.40146154520481986 -0.15348720593651832 0.80164453449137829
-0.41173271288335805 -0.16958990796569809 0.80274433051264027
-0.42524578965887144 -0.19057447289849264 0.80200537373803349
-0.11341581027751509 0.3483060257108494 0.8288247829022386
-0.14215061017985237 0.33799738279980879 0.82914026296310039
-0.1642583034481141 0.33020896361782875 0.82773990152044519
-0.47883884190961867 -0.15942416237122853 0.78865761984930915
-0.47130768684608459 -0.17420270400113266 0.79258706087713859
-0.46159482925387396 -0.19335231056656429 0.79543918365979605
-0.11081965228537936 0.37502586729969273 0.82699316702803527
-0.13808097553216073 0.38139901444367202 0.82636999514684528
-0.15896064388201156 0.38643436589155539 0.82419648669227952
-0.53678583841142902 -0.20186653015087075 0.76875184751817005
-0.51607051763453582 -0.20698449981194342 0.77726493698664489
-0.48911101230962661 -0.21360281513349183 0.78611056712817828
-0.082277589916246896 0.39644657678310108 0.82082072870073097
-0.091271677819827965 0.41666616110639859 0.81629862124539465
-0.098183238997807537 0.43237765004795636 0.8112514739567207
-0.54236488650542525 -0.258993735727577 0.75529295557362985
-0.52023603890144232 -0.25089247827343725 0.76692147627629614
-0.4915946209035354 -0.24036314665270825 0.78001970992619341
0.94484549333705692 -0.30178261261911254 0.48469853515402322
0.96197739611497812 -0.27045781665490215 0.46175119446714114
0.97698788649102764 -0.24005834294836412 0.43821882366135217
0.99084776602513502 -0.20227971893605332 0.43766792176568703
0.9867886623420109 -0.19531433165356271 0.46043232636862708
0.97853565212707283 -0.19053337751261606 0.48345565112251404
0.95608050252505894 -0.21223973040809496 0.52199032365513287
0.94322158834319059 -0.23818089710773035 0.53862207140300677
0.92813314725866458 -0.26548382278507404 0.55617334361725912
0.9179167363975026 -0.30314934183069353 0.55907297109129517
0.92309338379096606 -0.31314568344283183 0.5431618178639479
0.92576974630801678 -0.32333362175367958 0.52571435921371745
0.89175085162721845 -0.3210417169412616 0.59089940010282027
0.871507617132949 -0.34769450344130759 0.60700256718803769
0.85113567805258494 -0.37250431095293673 0.62188331504091487
0.83195220276023796 -0.41436083307194882 0.62387650008237139
0.8320309802984075 -0.43159075780962097 0.60983512860628575
0.83085409467093985 -0.44652766917971998 0.59302284310085951
0.85311750883451698 -0.42913946298874861 0.55925460711286834
0.87853259070196155 -0.39782493438890631 0.54347545568858213
0.90286380809569344 -0.36586015759994478 0.52587052930618028
1.00200061650637 -0.18338894037488451 0.3923605211302939
1.0111246739508069 -0.15772439692167464 0.37206761991088988
1.0163746636579565 -0.13419599198964816 0.35525542907472452
1.0165902689905542 -0.11022828028197193 0.37432168984247188
1.0092404027444171 -0.1098221367071196 0.40741579213365309
0.99557250061075131 -0.11172371104458489 0.44165432171577718
0.98039173226918319 -0.13193192607514817 0.47879320308138129
0.97946810813201213 -0.14896665840017873 0.48506683561076985
0.97462565762526288 -0.16757870642629141 0.4946225085702195
0.81372723575376682 -0.41331774041290226 0.64683633402949336
0.79660109788928857 -0.42828268341059889 0.65708952315215008
0.77916912782424308 -0.43932840319488309 0.66648544642780472
0.75623563509942615 -0.47734974275632092 0.66474185950547326
0.74999972220081101 -0.50579896661873747 0.65112658395577849
0.74141774709086461 -0.53050497759185022 0.63427022081375184
0.75392060602718725 -0.53496906109661968 0.60605833885669269
0.77797240872275553 -0.51370231788271437 0.59673330640479882
0.80245789600715212 -0.48801975591683461 0.58582333927145003
1.0103862621118038 -0.094620143528043821 0.33723671461515142
0.99775522677227968 -0.07795395918409298 0.33679553422830244
0.97846012290268936 -0.062188280695254436 0.34136399387406086
0.96103128123221393 -0.04444830964666522 0.3839933729734672
0.95549471604744729 -0.04537667676219697 0.4212915974895261
0.93897865834914473 -0.04932400690019647 0.46038843430746623
0.9359698868269678 -0.069908176848816381 0.4899793797334383
0.95380318271129028 -0.084503381509264147 0.48251115608501693
0.96759095559002406 -0.099895123628835639 0.47767797232520548
0.73931057391185373 -0.44879169581483036 0.68458104508962658
0.71633343901768742 -0.44756253767681708 0.69336981380069651
0.69194854829755958 -0.4431260570051106 0.70148002421135036
0.66249317400019503 -0.47227712048197279 0.69696816650736526
0.65532366991051116 -0.50448981499088719 0.68081184941542139
0.64353739059582227 -0.53003120117352298 0.65943891065024896
0.65561408127358611 -0.55575488618475122 0.62883022141092582
0.68226529921092804 -0.56008061056130254 0.62484912700237127
0.7067230825691212 -0.55852505133618913 0.61994892210040509
0.91916055222707682 -0.029817070808752358 0.36342608614326194
0.87963074332572166 -0.012676210299504224 0.37920366877071782
0.83438645347043139 0.004634880719228178 0.39656192534622853
0.80130749585531746 0.020393295288889279 0.44736976988653437
0.80498136414726718 0.014178407514677534 0.48206373916723277
0.79851029683583796 0.003831838907711764 0.51674083763441203
0.82781547376153475 -0.021626357800809161 0.53503788682279074
0.86240759970915215 -0.032860694758235699 0.52179451724197046
0.89080903097950703 -0.044247188085807035 0.50993377364194803
0.64082848349670329 -0.42691937422573745 0.7141455621157915
0.61266884887299022 -0.41536043041023263 0.71848972990269666
0.58025614261340863 -0.40101416180705202 0.72173422423867728
0.5260197043300473 -0.41404105410415643 0.71210007526972707
0.50823240688498994 -0.44090558740866043 0.69443678908054762
0.4873648446709436 -0.46110376194194058 0.67031196028447693
0.50898368931603932 -0.49412617999490327 0.63918415754707802
0.55190416340654391 -0.51460953322491743 0.63783601890087982
0.59087384129146125 -0.53225732440294926 0.63537311301644461
0.72936441661987339 0.038370293615034086 0.43126044606111436
0.6730310910243934 0.053647250274821819 0.44697112511718184
0.61787236302900039 0.066802801229342984 0.46099941905111147
0.57637270769242266 0.074902700517139126 0.50896020640025252
0.57728892083155092 0.067082256928847867 0.54549062735249709
0.57151038903093776 0.054603614533270055 0.5805386988953698
0.61679280063583763 0.027920787790487671 0.59845923955664748
0.67554236290718173 0.015728947523736929 0.58268579109727492
0.73312612280882372 0.0028114707298960775 0.566044844287241
0.49510470939293733 -0.36250373144351117 0.7255971484602497
0.44424860711082409 -0.3395705969425083 0.72633861250768095
0.39290426476165718 -0.31631181816401499 0.72622776210133066
0.32688358351882091 -0.3218402097869702 0.70813826926328161
0.30849232429951695 -0.34657495445911346 0.68501571799328786
0.28990707111604785 -0.36598266078613678 0.65633821758042465
0.314297254364371 -0.40011468863980199 0.62818656214853807
0.36231321687646328 -0.42384912812730974 0.63306311630132672
0.41262509498223043 -0.44794633203777945 0.63680337086123862
0.21771991468698329 0.12285257454273601 0.68448414173829941
0.24807527927918832 0.12887837081893075 0.63209069226594705
0.26944049265097009 0.13193126678027209 0.58287978998107071
0.2861398592977723 0.16660908051528922 0.53316363811738521
0.29638317666342417 0.20967625209063787 0.52158296410159921
0.3095441815500255 0.25878026125059034 0.50863891717490661
0.30979401576529436 0.31179653572051474 0.52952850957979458
0.2907733514471974 0.31374274589692397 0.56483256431262774
0.2676273621225837 0.31588703216277192 0.59909674728900697
0.2262510289229096 0.26706629927669845 0.65095921057371786
0.20672827401011554 0.21592406408025724 0.67780282181431928
0.18679769312055902 0.16503480629080283 0.70713225848008698
-0.043935231359408015 -0.19215874768912425 0.74941074269956043
-0.088729309770476994 -0.24154983748045161 0.72895467759126809
-0.133578347242615 -0.29017033875361448 0.70983860905115792
-0.16373175768584391 -0.35205288403700946 0.67215178804429931
-0.14976010555658456 -0.36820631907434181 0.64670641611946889
-0.13900116448332309 -0.3827763124890633 0.61900737817516172
-0.085461598996009996 -0.352296683393585 0.59653070144427978
-0.040767159943864054 -0.31177426001038439 0.60117204255236145
-0.00066367105124914144 -0.27686371010684463 0.60484880851563405
0.03160852982961361 -0.23576041524796401 0.64447120105663136
0.0272198569668607 -0.21263573027244317 0.68677479323303348
0.020113128965081006 -0.18280223143422272 0.73009558615024672
0.33039601963610893 0.36110497488772364 0.48960820370822444
0.3342960180232597 0.41128915841601565 0.48491425219350792
0.33353355419461994 0.46143677162599195 0.48163528441206582
0.31716414659607406 0.51503297490562927 0.50750627417750827
0.29972040771651898 0.51616295197024453 0.53697980056055528
0.27844406628743645 0.51413537662048259 0.56506291135704245
0.26134730422490637 0.46301174948581836 0.59383713776650171
0.26071677771547941 0.41622240920211162 0.60087180815835239
0.25453199937753118 0.36770904429359796 0.61207330316048902
-0.22680392396268897 -0.37803513247531856 0.67827514159105173
-0.27582793784542042 -0.41531456389153809 0.6652605152044444
-0.32619979663729515 -0.44789389444723732 0.6524506248612727
-0.37150791427014968 -0.49372316734368371 0.62246099850697312
-0.36147755603925336 -0.5089054195701681 0.60377272866112563
-0.35074067779118423 -0.52022545298207534 0.58263283239976915
-0.28579426184414458 -0.49793543084465169 0.57294879543539334
-0.23250383771633232 -0.4663522545979068 0.58174481078830698
-0.18182414070234054 -0.43174442756746489 0.58736935732084206
0.31708022985771384 0.56346623993796818 0.47393572363110703
0.29980503529386449 0.61390599591672057 0.47218189537226429
0.27469610869303612 0.66142435889107776 0.47717745339812301
0.22950848569038701 0.69829155963061007 0.52290387693847684
0.21334007830521676 0.68732567830511559 0.5537844711344786
0.1948562443457981 0.67222580628541839 0.5829693338551365
0.20553063648822686 0.62375127832488908 0.59606727805665605
0.22827657553749003 0.58879344870143036 0.58993126391231887
0.24519581595163026 0.54985891542072707 0.58828577664019588
-0.43020954874020628 -0.49816007955399072 0.62253059438217528
-0.48294040921711984 -0.51534411300242711 0.60588595088305763
-0.53520708158918595 -0.52682453186219447 0.5903785298101174
-0.59420602958863422 -0.55401167027683174 0.554805112947099
-0.59835791301665298 -0.57397645624860871 0.52899490530376814
-0.59955681463613697 -0.58988103318202167 0.501805625024629
-0.53220439532844921 -0.59134015430548903 0.4922536192533255
-0.46666710110715326 -0.57531989156176899 0.51479399921869118
-0.40304975800219434 -0.55319123250054691 0.53841107993197479
0.19558119846789979 0.74008561672349604 0.5234725084964269
0.14472496773313737 0.76788717463825962 0.56234183138824068
0.092338637583520358 0.78608424621745721 0.60309858102044411
0.040463349748856708 0.78171709690030766 0.66136153564452171
0.037492988845250888 0.76358516578185109 0.67862438951258341
0.034763722798362817 0.74104467324731593 0.69075120629782827
0.068045526431340722 0.71036713251886885 0.67378449130279816
0.10553658700767235 0.6977252427438051 0.64927474579291933
0.14276911959704097 0.67879578268365381 0.62644270910386068
-0.6354947699573843 -0.53145501611781321 0.56956168621726033
-0.68060535946267742 -0.5254898492492317 0.56561491877183645
-0.71943056310367781 -0.51559075119666686 0.56553160551855375
-0.7741537994998221 -0.51909340010970462 0.55020827100853786
-0.79500749494183098 -0.53347209530607553 0.52734971373346284
-0.81051790486990216 -0.54426931891038532 0.50174996303459096
-0.77928188571812729 -0.57127974237803925 0.46836755218566128
-0.72648270841149232 -0.5878182112526007 0.46487770848900245
-0.6648093011335714 -0.59772115911432266 0.4663290669986152
0.00098081232859493356 0.78791382160736945 0.66449881589158077
-0.03721781157844066 0.77224477338740749 0.68167349005111233
-0.075401925370231548 0.74837046496651483 0.69380306400752989
-0.11426589440352235 0.71061737283021054 0.72876260208312993
-0.10853110821794823 0.69868446260361128 0.74809564554370955
-0.10130121779177312 0.6837983388927994 0.76061751004632261
-0.05630909638427526 0.69068466344113266 0.75064868636384019
-0.02526922055703211 0.70662396528833282 0.7350706479013156
0.0032175350554609072 0.71510867460882011 0.7175805532256645
-0.76943079403915737 -0.48873790599530831 0.5756280390874946
-0.78085528128096204 -0.47094843708242567 0.58493405231559814
-0.78649225674337642 -0.44754958693426239 0.59635523007289248
-0.81037203993416496 -0.42201435975168033 0.59284042161573147
-0.82875985689220488 -0.42475795330190547 0.56921663175492188
-0.84214717604969958 -0.42495226081007254 0.54103294141996128
-0.85112911386081203 -0.46167904527700671 0.49980967414274668
-0.85008886120927518 -0.49542071871595195 0.49025822417068665
-0.84090320989530176 -0.52456964590356536 0.48197649369845086
-0.16663808193748914 0.68455128873011373 0.71483396450463443
-0.22146295862954707 0.64859845075630718 0.726029836799994
-0.27981823047303844 0.61242389032289546 0.73676933134509826
-0.33991515412336698 0.56742854713023783 0.77318519585458012
-0.33450317688961501 0.55444172400036318 0.7948602493346979
-0.32382333091354182 0.54053453353870917 0.80936743729843141
-0.25263948106274831 0.56265398616282225 0.80438318191202418
-0.19581296848403351 0.5998835490966048 0.79239203300516392
-0.1415723270178384 0.63578274296433157 0.77914461831337856
-0.79019536545369506 -0.37582050803633404 0.62337857910425476
-0.79142079100049911 -0.32935349447455542 0.63780297790016993
-0.79318122269800662 -0.2810021285134694 0.65198761835648633
-0.81964099683522729 -0.23386813463251999 0.64939396067052235
-0.83870416664281222 -0.23324084747209409 0.62531121320005334
-0.85188207645683989 -0.23251970340403796 0.5960723624622235
-0.85147251505301769 -0.28045406821636942 0.551219162487528
-0.84830729489702505 -0.33008112688602687 0.53726898240455112
-0.84758952763737139 -0.37823084573074939 0.52356908308004346
-0.3992984955283676 0.54682504149119593 0.75414217224863767
-0.45561227848421249 0.51786741393265878 0.75997985432374637
-0.50583327351299923 0.48962086365193758 0.76376946102546084
-0.54146430349364949 0.45111288033306574 0.7925606099283411
-0.52585826619838472 0.44091106975480232 0.81484201800069878
-0.50182686698245083 0.43111516193634419 0.82992512848892264
-0.44076374817606156 0.44626468146165726 0.83314114052337285
-0.40305817989413134 0.47056818873626416 0.82895608602539994
-0.35859718319247491 0.49710497978087365 0.82283542821741928
-0.80115948595932795 -0.19419984968675616 0.67709725572491974
-0.80584507753107626 -0.15883536259198594 0.68787218625684399
-0.80799881783737559 -0.12775739409608544 0.69810665419663431
-0.83466757532019253 -0.089500598975657431 0.69459706391563292
-0.85851310142750947 -0.079611625678677828 0.67231604164723646
-0.87521999792963001 -0.071274509296843397 0.6442909037348632
-0.88380192645039257 -0.10183678859014579 0.60065974684692724
-0.87741713107164798 -0.14189332215499406 0.58875276600202264
-0.86751845377650427 -0.18518267031758953 0.57698911614232107
-0.57657457390621736 0.42970887022490417 0.76475329329262087
-0.59376759246890876 0.39724131800222251 0.76234562072639744
-0.5982122626565568 0.36387874685858562 0.75868540588902822
-0.58107272265798027 0.32505086766801167 0.78206700819287334
-0.56240783946944484 0.32180848120665295 0.80565552821717912
-0.53564693661600682 0.32041049355624496 0.82257175348920075
-0.50921374538610553 0.34773080514736215 0.83325554267981028
-0.50561653011626362 0.37361613505608693 0.8352708701038265
-0.49268901556536959 0.39857717907414347 0.83610868462222521
-0.795723432039533 -0.075253156632871271 0.71889852540119592
-0.77848729588908994 -0.053049355002373857 0.7296919955584833
-0.75310241490377605 -0.033576304063368367 0.74041939774601095
-0.74054320236409277 -1.2053918524650153e-05 0.74167903442631777
-0.75786668462830176 0.016017296862073413 0.72387089075042699
-0.76989454855538975 0.029549447829776095 0.69959400724411935
-0.81776385043146493 0.020132255497986459 0.65718827112702516
-0.84988941320474476 -0.0038025809796553081 0.64243269050819385
-0.87172994051277819 -0.032427476749275354 0.62756310425593598
-0.56697295483752896 0.29681168155454662 0.74964772943594582
-0.53653694579339672 0.26445183090978436 0.74488297971739237
-0.50385219310989349 0.23388840593579055 0.74008853222355286
-0.46801249643753773 0.20232048787983789 0.76286425887809761
-0.45430466101006495 0.20147694546455083 0.7862481328864066
-0.43581888908561195 0.20358551461821278 0.80355156982176013
-0.43844056630878425 0.23592175630043119 0.81800706911103549
-0.46363890565521998 0.26410655373068659 0.82268521498586011
-0.48648041724447416 0.29265435280023905 0.82680744841344311
-0.67563701413753252 -0.0029220706518220257 0.76067776493430395
-0.62686647062047052 0.0091519872400168331 0.76950071566051248
-0.57656657098559383 0.020280219120474521 0.77683585461350013
-0.53677248782290343 0.046007422496774288 0.77464420551777868
-0.54547346065343105 0.059131742729709245 0.75858562505653437
-0.55302185773281998 0.069558470995849386 0.73586462446641421
-0.60950082245081338 0.068767258329849368 0.70191804504416533
-0.66640079214124137 0.06136365832729055 0.69350826145382327
-0.72341921168202272 0.052026990302850122 0.68317693874007657
-0.45461433246697835 0.18119108129617825 0.73081730811245893
-0.44352562591836409 0.15948397914218423 0.7266021814943544
-0.44111425634218482 0.14042873029219302 0.72288100722409365
-0.43985886557739601 0.11911406504249453 0.74613012060210981
-0.42585687075861062 0.11340219910861535 0.76799509225314844
-0.40498346694828635 0.10664205264474566 0.78417427216936075
-0.37484199088873066 0.13259032385890424 0.79669382851430637
-0.38374745776097541 0.15887548150760633 0.80153719226963593
-0.39685502430898373 0.18374967472352363 0.8071115592412792
-0.48685907471235734 0.043369866039190248 0.78520115895353237
-0.44905764534611148 0.057047644613906344 0.78702067359321859
-0.41293742827373214 0.073213696706799142 0.78893278324181493
-0.46129403162327509 0.10894412796359243 0.71755851897089462
-0.48412236562037592 0.096128557632809891 0.71538016251562619
-0.51610259690386628 0.085195875130033183 0.71253907523342841
-0.39372271618367999 0.21758446380208166 0.81203900055954614
-0.37286879331964123 0.22841914388564635 0.80495495831656294
-0.35274664640874343 0.24009342997197838 0.79525194158831969
-0.34583993090693166 0.271163455057784 0.78831929326963257
-0.35468641171646648 0.29190978859834288 0.7893293083662225
-0.36007107120787968 0.31288474721527115 0.789791092244988
-0.39340044664734886 0.32977711073785942 0.80177602418191918
-0.42925356535768616 0.32606492920344976 0.8154802559018568
-0.46665810428638077 0.32286999487325824 0.82648950129586263
-0.69433726421813524 -0.032839936011152086 0.74913793062914125
-0.66865985714771325 -0.047788148242027879 0.74073162647196678
-0.64409674732853317 -0.061536390351841164 0.72974506734627442
-0.59921823179184452 -0.060206658703914687 0.72818337603856897
-0.57234997884397121 -0.047597150355933968 0.73578659011376413
-0.54311354625494324 -0.036462079905977884 0.74266040625886709
-0.51515779177085308 -0.013139882339478593 0.75869171660700041
-0.51837057452436486 0.0015011349629681925 0.77037221629380559
-0.52266344120320529 0.01644334254057455 0.77950770155176063
-0.35934814277342053 0.35282290119559762 0.78961310705290977
-0.35286299977192598 0.37147791664571067 0.78907055096984102
-0.34215915916851808 0.38974656980226463 0.78817589792134557
-0.35942689044319159 0.41004094565030041 0.8001763099336725
-0.3963760501945674 0.41279348357290174 0.81586865264006869
-0.4346488515626849 0.41683546269841398 0.82922382596444888
-0.77231988576957644 -0.11082746809729116 0.71053421960100249
-0.73824329964896584 -0.12115585771278498 0.70559539488114353
-0.70587708016942452 -0.13081443305663248 0.69772860362282207
-0.66930214753411987 -0.12078903077463429 0.69801007585114694
-0.65745603449076384 -0.1038652152256897 0.70517119609324941
-0.64206523379354807 -0.088355598808609229 0.71262067094990189
-0.30768804930690957 0.42659539960966208 0.78518943360712679
-0.28385411014875084 0.44639260002593339 0.78250417314585197
-0.25566832709950121 0.46823650358407787 0.77828090642357961
-0.24300397745241609 0.49969165672571336 0.78258230678786878
-0.26538394196666343 0.50735079130886906 0.7964588957205152
-0.28791017320493589 0.51640883340234733 0.8087658026652691
-0.76984659836880975 -0.23585447339555612 0.6700011245332036
-0.74262777786926459 -0.23734767640592547 0.66791147068640755
-0.71655167298407962 -0.23900999540249107 0.66343423879961949
-0.6906893625304269 -0.21032391627516925 0.67033616900982551
-0.68771774645992712 -0.18368429731549968 0.67803535601619602
-0.68378643963981423 -0.16025099293409142 0.68475879683212049
-0.18638053198805443 0.52146297339888414 0.76299675897848895
-0.14763680325878642 0.55086006230363949 0.75229099212465012
-0.10925839188222707 0.57833606400431603 0.74076247448451804
-0.077013439532487293 0.61612124402638313 0.73843036688254116
