# XYZ point cloud file
-0.19403086710406808 0.21465893145880571 0.54856350813184362
-0.18631280513380757 0.22168920670612782 0.56277115559649959
-0.20966629349184668 0.23449812050589686 0.54522346421354206
-0.20106191986316746 0.20802965985751898 0.53365697090588704
-0.17331046225042157 0.19784835877528356 0.55182371717125611
-0.16691041662376319 0.20620740409748226 0.56556410491358566
-0.20097850852704804 0.23998768770988588 0.55990210241767246
-0.21761007229634602 0.22933607724601551 0.52982065338937612
-0.17910613039182641 0.18994536195819373 0.53740498717617124
-0.31486174172919407 0.06318655199083667 0.53776997210107136
-0.34616661671398929 0.06231698949605164 0.52921790100869581
-0.31940703981208962 0.055138323799920126 0.55193670514396498
-0.28456364104093146 0.059449445725323284 0.54569661793576529
-0.31042616325112748 0.070668620742124405 0.52294543265580351
-0.34365775013306105 0.069969057906353438 0.51371607207527681
-0.34863446549789956 0.054148100679876097 0.54406651908528314
-0.29110585070511014 0.051866052834774058 0.55928802547117906
-0.27827404267958072 0.06643830722877378 0.53143709886560619
-0.21911745167287058 0.30491727502871441 0.53627783362297865
-0.21019331496683569 0.30499073694635404 0.55177740566844502
-0.20959517035630335 0.32904514323221223 0.53366104183599417
-0.2272210338383551 0.30488642053297071 0.52001921002021989
-0.22247874481857352 0.28046553168816402 0.53902736122633232
-0.21317225446170426 0.28241526801811573 0.55437078802891704
-0.201462763763568 0.32727962753610185 0.54924305089807868
-0.21692248036280745 0.33075679533030289 0.51732879295128831
-0.23097449384029473 0.27865936126967361 0.52292565425723536
-0.43324747494351151 0.03174731996577055 0.50021145868883876
-0.45655573838774771 0.013638714970127176 0.49080243679155122
-0.42987789255783826 0.025484319843871533 0.51745542641216646
-0.40647603770585466 0.046328216814970812 0.51015045744934406
-0.43612016401823767 0.037695685109784292 0.48235392508529151
-0.46090156623586209 0.018373078138369379 0.47218169788572195
-0.45159144769736376 0.0086658180456875913 0.50883166524947154
-0.40491401634651591 0.039064760940999803 0.52657275223953615
-0.40768739193477571 0.053203863653578133 0.49309380695016602
-0.17629098936267809 0.30564102232477075 0.59025115351778701
-0.1656683507323187 0.30598229934137899 0.59989195357863345
-0.17002878149950321 0.32162655440255705 0.58803381999616089
-0.18824274720979056 0.30535111867752501 0.57898143377830869
-0.17823738476194642 0.28951640438243376 0.59239842793697894
-0.16733451413156622 0.29179824342404553 0.60192160895030755
-0.1601200686562371 0.32007217803702864 0.59777313002310684
-0.18117021816111775 0.32348206511562905 0.57665218420464959
-0.19050736681148547 0.28702757247073896 0.58126899161288281
-0.41534665899281847 0.0041521615466426631 0.5624195240047366
-0.43122796745053471 -0.0081582604264828149 0.55630770315763134
-0.41061903634610286 -0.0021837931298865146 0.57408497860875396
-0.39705663508898692 0.014112177702115376 0.56893823695066015
-0.42065704049430491 0.011384044094244414 0.5488754311558488
-0.43857052639577415 -0.002473277363694501 0.54193453433164729
-0.42469291048724178 -0.013118412475643174 0.56868999141106813
-0.39440561081472175 0.0066493610971801453 0.57986539417173777
-0.40003496896225682 0.022602866403769663 0.55624815116327886
-0.12767642207893407 0.36288577810414741 0.58137822409036155
-0.12238120797189628 0.35680952401899274 0.59147504158996567
-0.10761239432413511 0.37258720276505358 0.57918052824833999
-0.13358799090023132 0.36986913268223592 0.56958072670081827
-0.14526214509758645 0.3508079552981716 0.58357971534605146
-0.13806193871084493 0.34598603081810508 0.59353280544407383
-0.10447788268537167 0.3655366724902912 0.58945781466636671
-0.11108056349206533 0.38066678702524653 0.56717547425558457
-0.15333107387481468 0.35636851980624484 0.57195001603118689
-0.45911943269440703 -0.054743691116791379 0.544131970257827
-0.46080192151712895 -0.07146553159808372 0.54298755430650225
-0.44963085211659398 -0.054607962148295011 0.55801929947882722
-0.45349724413524861 -0.038159560591270507 0.54686848400411714
-0.46980373973249245 -0.05484331580980497 0.52798147145274266
-0.47163934716192435 -0.073658060072991194 0.52662787862109406
-0.45118194708403536 -0.069491099830509995 0.557044097492992
-0.44454696316892617 -0.039829321139340672 0.56040116284059271
-0.463567231110807 -0.036202802616573368 0.53114335099150778
-0.14750746937227011 0.38998688370948559 0.52587986419310029
-0.14379652823379935 0.38371035900689426 0.54157575326702145
-0.11840594538846483 0.40387263839164983 0.52310294756423548
-0.15066064893976711 0.39600608636918844 0.50950653598957485
-0.17312213961794468 0.37241944443794744 0.5285279126371033
-0.16764645251600321 0.36740990048734978 0.5441822697528117
-0.11666635922561205 0.39664264879935951 0.53886534389703933
-0.11972430145591006 0.41079912064409907 0.50669707972772393
-0.17792391876425376 0.37722419709664168 0.51216467643061447
-0.49737584209101471 -0.055067114462494252 0.47152535163873088
-0.49994329533806003 -0.079859330080987639 0.46957565308867855
-0.48941542315825559 -0.054996688458690358 0.49124814794022265
-0.48916474708501351 -0.030575199540987179 0.47596833194141219
-0.50459729800337239 -0.055135303677528225 0.45126056884213961
-0.50748452124710353 -0.081704562460242852 0.44914034622398114
-0.49169245703691172 -0.077930150957923161 0.48947898018488334
-0.48186573616619061 -0.032319356246441229 0.49528463214036678
-0.49572412776853275 -0.028909832172820758 0.45609738133384781
-0.021177169362091436 0.41730259065044567 0.51381735015278851
-0.025932955071286595 0.40957871714675714 0.5300666748679066
0.010352192593213874 0.41209959566326176 0.51110220107676241
-0.016447241363023352 0.42459396976908087 0.49702178926882834
-0.054036618535286428 0.41778949284755634 0.51693757485927871
-0.056609146475049832 0.40982477045413918 0.53297816937767883
0.0035222804484869655 0.40497167120697469 0.52758365135364138
0.017009467641403618 0.41877208247193654 0.49409506798561087
-0.051340372246265205 0.42536030150994553 0.50032326421050533
-0.47278673177415714 -0.14656101077068517 0.48158145335351588
-0.45347129553125382 -0.16347147958152736 0.49065461533852761
-0.46604417905361606 -0.13946686031393235 0.50030271941609628
-0.487410989551886 -0.12647481209168202 0.47468296998314352
-0.47896830685037023 -0.15335469220042053 0.46235891345638325
-0.45853841301163628 -0.17159300622116561 0.47225534119066448
-0.44792419645509796 -0.15499815701062694 0.50854765607666508
-0.47978316032253915 -0.1209706842901519 0.49407014783764736
-0.49441833975593058 -0.1317440732217339 0.45478735386898517
-0.040165901336143492 0.3828279480809465 0.57272841663579277
-0.044201045549217506 0.37475211453503621 0.58380432453378317
-0.018189711962866697 0.37974947229158995 0.57110391602778499
-0.035573467408302376 0.39196714205064503 0.55983934034818306
-0.063018691043505395 0.38275245471955199 0.57475561344469839
-0.06463692359129139 0.37468080968239287 0.58553667269793053
-0.024544555631360526 0.37203324202350518 0.5824530981929682
-0.011000450491356487 0.38843952413117816 0.55791343317763764
-0.061135786949527676 0.39193093278582763 0.56218984501421754
-0.44096354472769034 -0.1157718410298324 0.5506308329750399
-0.4271168695580092 -0.12677037676470451 0.55639772062434389
-0.43313618380429653 -0.10866892702826936 0.56386810866551407
-0.45155344097337063 -0.10256578601566019 0.54628057190080792
-0.44975218612615542 -0.12377252736200295 0.53524069441014477
-0.43442987956799234 -0.13629107237816326 0.54180195370416917
-0.42059163847866787 -0.11832269418849525 0.56895755952000193
-0.44277736109427251 -0.097041296499230795 0.56001187796288865
-0.46142525736909878 -0.10878355233555359 0.53030334390586831
-0.05069261058558381 0.36405782971020967 0.6037244988159145
-0.049376995431034347 0.36564824031413301 0.59907225821346011
-0.067832110977433718 0.36405870135501395 0.60509713910126706
-0.051799658029087037 0.36240611575866288 0.60748379658274643
-0.034251930711216551 0.3617110941276776 0.60277681286098939
-0.032393573318906896 0.3632921658441372 0.59804550008355695
-0.067043053194726393 0.36565107188332469 0.60047128784004655
-0.068358997911043065 0.36230736130083541 0.60888311049965571
-0.03600387275759407 0.35999073200841797 0.60664019128174496
-0.42316416558988351 -0.098332598988728787 0.58665958705398324
-0.43163190061013462 -0.088946659111769147 0.58349715899093402
-0.424528842114126 -0.10015485636815077 0.58158133933881739
-0.41223455374651924 -0.10600137356905698 0.59088941353435909
-0.42158799800840091 -0.096584645190892188 0.59078818649124798
-0.42968157709847293 -0.087498032081781307 0.58784148734392583
-0.43318890700899421 -0.090403390993742894 0.57827764230740653
-0.41340148422506551 -0.10820397051687675 0.58591853305146668
-0.41085165266665724 -0.10381129502482969 0.59496171699342748
-0.11669536205910611 0.34922421797818537 0.61058486027575509
-0.11709918032468608 0.35021825898473868 0.60587643537972502
-0.12992196546742885 0.34013413988794727 0.61268636959510081
-0.11607197562586796 0.34817753420401054 0.61439973527202085
-0.1015000774329558 0.35650696846638064 0.60860317822258314
-0.10155967274469316 0.35779523009106917 0.60394555529849969
-0.13069775145914067 0.34085197714492976 0.60789123912791132
-0.12879212593120085 0.33934495558134598 0.61658341785434823
-0.10121956636819271 0.35505416244306831 0.61242747229376804
-0.43828512652339485 -0.053864407251325908 0.58204250245568545
-0.43405713382101097 -0.041501036261122559 0.58417692815146738
-0.43958548444025763 -0.054164701729620873 0.57664544371818904
-0.43936374211991325 -0.066272103893789874 0.58114656915618201
-0.43669188974558565 -0.05354195478422176 0.58649324671892822
-0.43252407224496514 -0.041608583810426369 0.58873933336455275
-0.43520364559883951 -0.041421138266822768 0.57872944080834487
-0.44087361542885567 -0.06696727698051963 0.57576687796421799
-0.43743050039486153 -0.06550411255152698 0.58565050612090674
-0.15288756631510889 0.30708891437217889 0.61891283661761209
-0.15434754754184654 0.3067479971291816 0.61406817723359153
-0.15394337569408242 0.29548202479993052 0.62077644779152585
-0.15123256400288643 0.30731556715806052 0.62274769918516648
-0.14838755438541834 0.31863136349879545 0.61691464734601709
-0.14968700726882972 0.31868313690363448 0.61204106330355601
-0.15560650660417027 0.29475737561160753 0.61596459039498364
-0.15197360643238456 0.29609437693667201 0.62456466985903325
-0.1467697453833974 0.31844721603351878 0.62083365870840934
-0.40579958881048794 -0.010133867994212984 0.59569244406723498
-0.39218592949607078 -0.0028845025678164403 0.60053588815496461
-0.40607015580573541 -0.009117197982118793 0.59048016628553301
-0.4175046727607381 -0.019193421427788179 0.59121916289456466
-0.4052150161502634 -0.011092284321642231 0.59999166072027355
-0.39188520064477705 -0.0042052526333829152 0.60474248838012157
-0.39213886898878103 -0.001586094525795223 0.59544490475653122
-0.41813809334304597 -0.018459374663363538 0.58586182630274775
-0.41645131096051036 -0.019908522953016788 0.59571986845634706
-0.13702189901851564 0.26392315313527298 0.62491102175675328
-0.13830291909412679 0.26232176790181538 0.62025565422495321
-0.12563312644379615 0.25590974304055714 0.62589348609264783
-0.13566289779709995 0.26526165988957023 0.6285336729260772
-0.14580129065819439 0.2734935117079399 0.62377897544451966
-0.14738376200035694 0.27214820308933391 0.61906518046160997
-0.12662352917328862 0.25402593244207133 0.62128711598741571
-0.12454302470441056 0.25760736625645086 0.62949307753674855
-0.14396272207904981 0.2746198743006783 0.62746189913334505
-0.34446075623817246 0.006215991369022289 0.61473066300355661
-0.32852799923893922 0.0047401337285218198 0.61912249991638668
-0.3433000127668408 0.0075994575647543167 0.61001985984932816
-0.36091050855126028 0.0054083938886803351 0.61018557965244691
-0.34527582307856758 0.0049281880803346279 0.61850621111703541
-0.32988592644256293 0.0034437254259816336 0.62277161586322149
-0.32692540640529211 0.0060421596928787596 0.61451564989830576
-0.36016532098617465 0.0068874166600672443 0.60534553381657885
-0.3612470302070499 0.0039400437631501237 0.61414349034213866
-0.081612430478219145 0.2443125324309256 0.62820337824422556
-0.081357399672290331 0.24194841535469463 0.62373804869466831
-0.06538436285322119 0.24497459289546325 0.62832591251518266
-0.081800607467447717 0.24633425460406955 0.63172025291708178
-0.097389177474486194 0.24592496356322013 0.62761857273650468
-0.097609888839704007 0.24365796639114728 0.62311073363852532
-0.064669493080291865 0.24249575280784841 0.62387464339689658
-0.066050148538467829 0.24718461573501077 0.6318448534761798
-0.097035641678903634 0.2479519340851763 0.63116582975528546
-0.29093912305677472 -0.012063984013046133 0.63106601954798369
-0.28329914163155562 -0.021131115892194595 0.63412208272833603
-0.28827138320354967 -0.011420051351207772 0.62675391736984909
-0.3012324449884532 -0.0045755888813305279 0.62740298510770043
-0.29324860032957012 -0.012706152042882115 0.63437342086006832
-0.2860531509679009 -0.021577244871002633 0.63731889252729024
-0.28030628316962058 -0.020748413514422255 0.62989744875949605
-0.29887386838913743 -0.0036466361550097776 0.62299265309832219
-0.30330322305539203 -0.0055598529420594622 0.63083040420850323
-0.019290494211422624 0.25914264444758112 0.62411943111572954
-0.017422991838515617 0.25704944544864455 0.61950709600540921
-0.0066205639645403394 0.26749544535176306 0.62140257479736838
-0.020937015683291409 0.26088810872030949 0.62780538015068021
-0.033680283709961227 0.25252495385474766 0.62630111536392408
-0.032172365620001815 0.25017592888378504 0.62177263787734449
-0.0043564597327283121 0.26565994402802862 0.61669652506306905
-0.0087691089843085577 0.26902485051432645 0.62519572975700211
-0.035012187519356378 0.25461349511957437 0.62990717905349669
-0.27753754081652288 -0.054316344635571362 0.63777560281778167
-0.2816971887746812 -0.066125138579944648 0.63689974219333756
-0.27459639066225844 -0.054964195159772994 0.63361371128241295
-0.27648469416816041 -0.042623455357354893 0.63759045210848886
-0.28012031759263384 -0.053852382182040817 0.64099139329851873
-0.2842452096320045 -0.065244900760169089 0.64012707873197328
-0.27891371782293495 -0.06716797010822978 0.63274713365039115
-0.27335846221446347 -0.042879543024315368 0.63343414661906472
-0.27936192417038719 -0.042557571265127006 0.64075386294654957
0.016958804160241876 0.30021651614231387 0.61174964122046782
0.019903808973271202 0.29940226788817381 0.6069769918673884
0.018838454434479554 0.31213722789746506 0.60874783941197308
0.01426511677908724 0.3007086821158369 0.61555302604279893
0.011874816695220985 0.28843180789617628 0.61501718182433851
0.014674559731563022 0.28723263401678689 0.61023282083156238
0.021978128514619145 0.31172328634323643 0.60396974076998977
0.015796703916678569 0.31219254422931214 0.61259526900378591
0.0092306923201316664 0.28936600760574388 0.6188566974368428
-0.31113244309934696 -0.098285164905533823 0.62814706795536779
-0.32514017920993288 -0.10632754124385085 0.62355535977676324
-0.30928433034929859 -0.10024446903854603 0.62409640658088361
-0.29884225389451863 -0.088559444294969786 0.63200452163776333
-0.31268335377538947 -0.096548765833436245 0.63137734826125325
-0.32634544466220922 -0.10418312247162864 0.62680997516515746
-0.32365732883550868 -0.10857133220413326 0.61951325649440891
-0.29660458898526582 -0.090253936906703108 0.62791739437978655
-0.30089877898532974 -0.087076515158985984 0.63522461125023078
0.0047726364923654993 0.34338520413527795 0.60297530811966682
0.0076463908687814629 0.3441569967803414 0.59821571863992151
-0.005977711642359081 0.35115948001919023 0.60234464247733921
0.0021040880270541303 0.34243644446568472 0.60676527281452242
0.012660586962099003 0.33412673743461085 0.60426329394228329
0.015775354358258158 0.33450770379541717 0.59949674695906885
-0.003338439834306272 0.3523275073655967 0.59755593400219498
-0.0084747264899600466 0.34977822050787233 0.60622421431632934
0.0096094123281455883 0.33349231478201347 0.60809186183499875
-0.37075189697840283 -0.11685085538364678 0.6070163503475462
-0.38553154380793864 -0.11544470471987323 0.60131683338994801
-0.37067309410693922 -0.11940767759046333 0.60263351104854335
-0.35549757964405398 -0.11580311954179667 0.61278838096973132
-0.37064637113018983 -0.11446524693228194 0.61054033695746024
-0.38484927899058108 -0.11294684772068994 0.60509843114336748
-0.38597574347322394 -0.11801654877336742 0.59669832428067493
-0.35489398937341082 -0.11834982789332582 0.60858669391798115
-0.35592633721117795 -0.11334250887715275 0.61616504628904589
-0.018719843856202463 0.33184076806014762 0.61871126154751466
-0.018790094421023872 0.32517805164169011 0.6211306028558008
-0.010360550284577486 0.33623468370625265 0.61497898731639777
-0.02814933215066491 0.33347854013679595 0.62014942756542835
-0.03574186756440427 0.32277723774935974 0.62528838281755839
-0.0052481611046540731 0.32867885404901126 0.6164275833409385
-0.019730811119381526 0.34154375170892859 0.61492144607585397
-0.36742646393789091 -0.096193349571959103 0.62008205770561797
-0.36882471141111495 -0.10349702985094356 0.61738812733718607
-0.35919484364077625 -0.092167518841670015 0.62425119177633248
-0.37404646469606978 -0.091937105552383158 0.61854427782007515
-0.37995358158983511 -0.10147203996628532 0.61331155044786956
-0.35695993679068366 -0.10183177509237329 0.62214436132582829
-0.36451501885155985 -0.081359304000388488 0.62454215504821564
-0.0096049320913400849 0.30208202274109264 0.62529048424693079
0.00016924388746189858 0.30161941898816874 0.62260339385988483
-0.013563403877375734 0.30815866011155518 0.62491991942841885
-0.016784228558288615 0.29651073553033502 0.62829279541176264
-0.0048354721632385272 0.29268022606874511 0.62558944839757236
0.00019661897162813469 0.31075964842989506 0.62039325794310696
-0.029628703289806976 0.30297523891079242 0.62966954326815328
-0.32575739113420088 -0.083516590877526345 0.63537927505826552
-0.33535020442305424 -0.084916901966735459 0.63302786798401289
-0.32040434499439452 -0.088730014047487579 0.63512899067828188
-0.32226326648011389 -0.076211699223955737 0.63753936954931756
-0.33675798314770766 -0.072941246024713829 0.6347431537915712
-0.33189339263253109 -0.094180125605764137 0.63134151439139896
-0.31160492217084934 -0.080660673746718051 0.63828735360176703
-0.034818852529773681 0.273621907940377 0.63428458744537297
-0.044821762424488792 0.27282924167858164 0.63590543551649026
-0.029170197345779088 0.26851195551329637 0.63310525437738141
-0.031228443982528581 0.28022264623135462 0.63350566257135721
-0.046379523925056593 0.2840466820538266 0.63557050495905287
-0.041083908123266948 0.2640823507049726 0.63483062116408306
-0.020050782488459248 0.27552943808425101 0.63110354670989499
-0.30249028103508863 -0.052938793573034292 0.64249944506054357
-0.2933191559162156 -0.053147192694426859 0.64336838243000227
-0.30651509293215068 -0.047008718622010018 0.64189538939523494
-0.30893456112386308 -0.058694122916154737 0.64162093143056043
-0.2975561297006995 -0.06220769785644522 0.64255107467565531
-0.29379582700146673 -0.044116653831577674 0.64298277362407386
-0.32130946690415729 -0.05262786014205223 0.63950889972114389
-0.078912457807205572 0.26302920494360721 0.63708065909766076
-0.086077349093872713 0.26706186498524459 0.63713499721128763
-0.080344214004770625 0.25621851020475633 0.63629557531871206
-0.0700585756640527 0.26675875449729353 0.63745984982324611
-0.075798586993608461 0.27698489806224635 0.6375150287998379
-0.092348726938644959 0.25819583680125441 0.63589842964971333
-0.067563304788369791 0.25771408036378007 0.63642356262944988
-0.31203244976922828 -0.02321527172545907 0.63767166414918153
-0.30438445347240467 -0.018640461463095531 0.63770829307756649
-0.32081654874704846 -0.021718314420996268 0.63577171717193459
-0.311974331902999 -0.030001594286260501 0.63908536066766375
-0.29951781063468647 -0.026264020322026238 0.63999487534001698
-0.3132085065814384 -0.013443053603835086 0.63484985825573925
-0.32768440389872155 -0.032800196559109381 0.63637053244772035
-0.11756037664661967 0.27651211811796333 0.63480541845802152
-0.11807914304486722 0.28353138794633809 0.63473945294835177
-0.12526504263138608 0.27189535480187971 0.63360862417821417
-0.10819145427677451 0.27476515757996772 0.63580309674534019
-0.10153691300849271 0.28596816169669748 0.63605691954325683
-0.13095439145853521 0.27988600909851319 0.63283179060718286
-0.11560690880995492 0.26630352588303735 0.63446693560420364
-0.34936353659850417 -0.010660516370366465 0.62629552845023051
-0.34778627403034013 -0.0040338680930053841 0.62452469376185527
-0.35832844996328117 -0.014404875881981213 0.62484673194544105
-0.34218601482444383 -0.014539931307483199 0.62929278074213502
-0.33569186141430118 -0.00588256917085608 0.62806380877072499
-0.36070838425324891 -0.0056439969389757115 0.62119314766177081
-0.35252932564952777 -0.024446585364530777 0.62873952885047846
-0.12877582449337963 0.30685874478265118 0.63065825601909686
-0.1219786998534266 0.31243775881529479 0.63050448559612748
-0.1383524297252724 0.3071592350554424 0.62884517849209554
-0.1245416470273657 0.30091488237662406 0.63240902905179408
-0.10892932640219843 0.30616746775782877 0.63321704536042733
-0.13379441947589418 0.31599515893171909 0.62747049707465963
-0.13778675684927094 0.29815907865849745 0.6304201984041683
-0.3926971934117236 -0.022345341844694371 0.61296301590353386
-0.3981563057377186 -0.017562731538159099 0.6090840011431089
-0.39591911139195091 -0.029133148228070244 0.61259907749654618
-0.38317459230829148 -0.021080325204787743 0.61725145255098091
-0.38683419938262043 -0.012623835265968443 0.61324549374614135
-0.40654153436955204 -0.025096753220625739 0.60603779066281427
-0.38134595261485427 -0.032278906024787481 0.61979001659564659
-0.10357951434717674 0.3360743089169631 0.62443997554893893
-0.093302429833601597 0.33712354127295679 0.62464995974256821
-0.10903583679316448 0.34116716794084145 0.62165949115477004
-0.10754371215199895 0.32917546369860912 0.6269424289791401
-0.092188846944793734 0.32556755362762296 0.62904531371045169
-0.096535577019746244 0.34599288994462335 0.62024466384978894
-0.11859126775278339 0.33363483329694171 0.62375716846749496
-0.41518110301565281 -0.052733112459209301 0.60308138269608402
-0.4243072785787263 -0.052920423939621541 0.59754512866141229
-0.41109802653808242 -0.058766584825587644 0.60517414249079038
-0.40878185998294758 -0.046537510154911498 0.60687548125149915
-0.42008300056776487 -0.043427428567501661 0.59998327098030246
-0.4237313916468643 -0.062398687152723648 0.5973649470129313
-0.39630596659027267 -0.052472703185921669 0.61330419099588995
-0.057385372987847322 0.34607913056810008 0.61921184363615978
-0.050273143414154668 0.34163186910226478 0.62046847944748162
-0.05530422721232596 0.3528119977139027 0.61560820935607086
-0.066830310124175243 0.3428285563241778 0.62163600147740461
-0.061489785895771538 0.33223215178530702 0.62555866547311734
-0.043001570202918046 0.35013983029857892 0.61529078401764781
-0.068668743146720168 0.35200734164716602 0.61709700594402328
-0.40397387191420819 -0.083448988313301317 0.60594431699610152
-0.41129210787768977 -0.088666270490746532 0.60090560180949559
-0.39494913678797783 -0.084644514312187946 0.61042318246218019
-0.40463728443994573 -0.076348876713465241 0.60680277440514141
-0.41694971843230905 -0.080922634949030264 0.59910328386490153
-0.40192886128939903 -0.093789133601241775 0.60473386422544784
-0.3888703932598116 -0.072886073300051424 0.61519150173449544
0.57002097003689967 -0.19214256697249321 0.55006064858985182
0.58331846999244541 -0.17604216058586356 0.53551324160750746
0.5650181989969818 -0.18528160661814572 0.56108942936267525
0.55516889383779411 -0.20895378352162625 0.56467852891760006
0.57276371022461636 -0.19972701047980318 0.53849356809097282
0.58643294038963889 -0.18323596700446482 0.52292645864611076
0.57760478341319355 -0.16980379202599438 0.54785685101019665
0.55082292044304515 -0.20149006091877758 0.57465028364703619
0.55761763270158826 -0.21684185748063875 0.55384978903974047
0.50249237766172217 -0.26014513668761585 0.60353047531061266
0.50051475678353075 -0.25033710182776242 0.61181038045693215
0.48390677118907527 -0.27618521686161801 0.61411042110434644
0.50362565531110082 -0.26926551411141886 0.59354312349949001
0.52102849694071918 -0.24332750478815404 0.59173503693736185
0.51814305918289338 -0.23444388908288891 0.60036855973492453
0.48299247365838988 -0.26525506533887155 0.62214888401380652
0.4842288389536113 -0.2860712109280949 0.60416312330273758
0.5227476861194198 -0.25190619263134889 0.58164213435629564
0.61286629990441155 -0.13479077677878948 0.49808776329483562
0.61799769791153336 -0.12295573252164316 0.48923417064770069
0.60406098728699309 -0.13100539121488658 0.51575867114429041
0.60502966044436712 -0.1473607532604628 0.50902374921082216
0.61824019000092645 -0.13968331634681089 0.48068847207248999
0.62427111591758866 -0.12700643102626008 0.47002806453820778
0.60791972909256253 -0.11994043108478566 0.5087873830816837
0.59741975312874906 -0.14269295638337107 0.52476518906865655
0.60948326693107713 -0.15316835271404264 0.49344634285866362
0.43377604648374618 -0.31558309913237892 0.63830681582282733
0.43701875891448977 -0.29987750831666066 0.64568117661726454
0.41882857257113681 -0.32430131401029777 0.64416131011895339
0.43001027218365445 -0.32952252729830595 0.62870967562168045
0.4493739052773903 -0.30434094537205675 0.63144671774971695
0.45115990076056695 -0.29040968339491841 0.63903995425717941
0.42332070497670643 -0.30683212536050319 0.65139737309356749
0.41361386154462132 -0.33977219053363134 0.63458425407704755
0.44716326774530774 -0.31670361283670445 0.62170781424809063
0.61239268424935678 -0.088697821754597672 0.47849481544144268
0.60279854506363229 -0.07701141767224734 0.47980791745452633
0.59885397119157258 -0.086364622148030049 0.5020333609477069
0.61806495785184024 -0.10015054940802212 0.47940250674076923
0.61989672818903185 -0.091931971972371518 0.45553157520934773
0.60992127708156985 -0.080170858417135726 0.45627997749457672
0.58881428223555243 -0.074793663517976727 0.50393141557258714
0.6054752155367602 -0.097807800960282465 0.50197428250480691
0.62550833727234278 -0.10340463525242005 0.45733619963775318
0.37434115060327161 -0.3312398791763787 0.65691692331584162
0.3798359246532641 -0.30993259142327528 0.66469288453173003
0.35829359384825599 -0.32714166601823974 0.65944592093247001
0.36715311481466989 -0.34920779256959905 0.64580364140162061
0.38949616288042199 -0.33226632948037288 0.6534493009528114
0.39503933030338023 -0.31188116284994016 0.66088335383689734
0.36383923570979176 -0.30538306419404249 0.66765544904809337
0.35078061884295308 -0.3450581407221584 0.64744135865792496
0.38260509026731054 -0.349849541835834 0.64311248101468954
0.54953043719568506 -0.039175431767476052 0.49354601556009825
0.52315352418071936 -0.025404490781234527 0.49990392966022235
0.53881779396461815 -0.039854589088580333 0.51715652594874006
0.57149092595348461 -0.052342934277939443 0.48774887149491641
0.55260135925560561 -0.039939073580873272 0.47001705193622034
0.524684429712443 -0.024958037369973332 0.47660145881967919
0.51427745899039112 -0.027550593083528769 0.52299271195113561
0.55902541799446648 -0.051636849462043513 0.51182615513627405
0.57624984658848455 -0.054266244465022984 0.46401552884688835
0.30054841758934736 -0.29843370267861741 0.66022143363813213
0.30968378223475446 -0.2786417212495888 0.66984446378253681
0.27665881173532114 -0.28407502973117177 0.65776081850922774
0.28959556354193788 -0.31387234575002271 0.64582194078424771
0.32182727802413152 -0.31053514692758949 0.66122725494760282
0.32920502222654358 -0.28962939495557366 0.67036419519522183
0.2875976137097071 -0.26548586660470569 0.66794626421878733
0.26425385331159229 -0.29844880722782835 0.64267809444350477
0.31240481326637937 -0.32706974665624389 0.6475428913829131
0.4184491604855064 0.018936308883926688 0.5177160375333858
0.38033737548992608 0.032626175634172361 0.52228895155828836
0.41187962298101433 0.014127378020524016 0.54043321322754456
0.45651991853007007 0.0040913241584794244 0.51233178386079636
0.4192532855688389 0.021297027863216869 0.49408922034178626
0.38195932038897679 0.034990568934147939 0.49831279890902358
0.37354741682543585 0.027656742929720583 0.54521949148995064
0.4498223908418631 -0.00022448721930643303 0.53493537170235339
0.45686429696734748 0.0061793037304561788 0.48899980961779654
0.18753301155076621 -0.23030067444138738 0.64088538245479176
0.20082259475101111 -0.21352203004967904 0.65355552967724284
0.15652921669053937 -0.21131801717438267 0.63316139101066415
0.17418439753053119 -0.24354339389585772 0.62363409157910743
0.21930557293997113 -0.24941226227575336 0.64790525689781697
0.23245455595562067 -0.23239000432761223 0.65962456029608274
0.16948022804617896 -0.19462989129113045 0.64681454806198913
0.14394250154237234 -0.22472669592743574 0.61519956666185061
0.20561722735275348 -0.26265463817125706 0.63139648903181356
0.14759508595759541 0.16340638041055311 0.52796123580863719
0.163953898367382 0.15817413821562357 0.50199335118574073
0.16245847433377841 0.19359273592853465 0.51252664873233222
0.12788029435743734 0.16953710951843101 0.55280865264031365
0.1353949396435728 0.13625256927293672 0.54225468525683229
0.15288874581416931 0.13179451969279346 0.51349833769464681
0.17785934399839176 0.18813703320788683 0.48910334443640735
0.1444081347021651 0.19991921417087205 0.53460334588363567
0.11262101916549211 0.140676337707688 0.57145184789967685
-0.10000733962604644 -0.1255070241276415 0.58259802482554057
-0.13287771362227041 -0.15192720021437917 0.5744491584761009
-0.093082443049325725 -0.14094403542415013 0.56158231308948936
-0.069689595068510996 -0.10235992909983346 0.58997383387600022
-0.10987720781783636 -0.10889227384913389 0.60169024532272741
-0.14296712217463242 -0.13742673853032772 0.59078634790216011
-0.12539317983970127 -0.16570284542036035 0.55605114161780989
-0.063991500294211245 -0.1198930490373655 0.56628111517516755
-0.077729319668644409 -0.081612778251991869 0.61280985246259057
0.19594569495629671 0.28965519449584792 0.47907210164063907
0.20939584790726221 0.28421628630615475 0.46077653922946682
0.20011331992360556 0.32172871915289986 0.47232975430577495
0.17987406825412849 0.29421949031656941 0.49649113701345926
0.18819475301824001 0.25749686957217388 0.48740060865821688
0.2021276314612809 0.25200626198859399 0.46789478018021313
0.21331573602528822 0.31661892485859633 0.45467323206823385
0.18426140164920038 0.32540431812850906 0.4890534707919354
0.17167513142349361 0.26271963116023445 0.50602886953902237
-0.23852520817474271 -0.22368909080522395 0.55212889420975264
-0.27517490341193096 -0.242285135726199 0.54352248913740608
-0.23031084298336646 -0.23401162987228794 0.53936553697117928
-0.20259518593378095 -0.20248690978918882 0.55936424327194534
-0.24701778254630646 -0.21161834211917432 0.56309810283830342
-0.2828951496811361 -0.23044605447163097 0.55371692394073435
-0.26707442295336475 -0.25208926726768216 0.53148927406815882
-0.19455911304785556 -0.21371761420000962 0.54523658372113037
-0.21164634418241865 -0.18984065499600539 0.57173122306721258
0.18925255739067481 0.41543787081382677 0.45514078462602359
0.20324764472995166 0.41438611577459816 0.43598729921534918
0.17605702919843738 0.4445205252160665 0.45388671407642556
0.17290591858824433 0.41411586806845002 0.47345653058826143
0.19718639106401153 0.38495006304210916 0.45988719763286412
0.21080094489444395 0.38202481115221587 0.441587708343397
0.19011059947849165 0.44565359289156764 0.43416415796185925
0.15992698477080391 0.4408751871963561 0.47277665954297943
0.18103626580320351 0.38569036900233816 0.47727642363782119
-0.38913267100867138 -0.28237698229094721 0.50082707139639859
-0.427659430347967 -0.2886540434863476 0.48443072062443926
-0.38456795572741465 -0.29360214895183884 0.48672190587054309
-0.35064811424050241 -0.27200247955318368 0.51746758925510494
-0.39202813466656256 -0.26873582190153866 0.51355931276127653
-0.42805997971033272 -0.27424725130981603 0.49876807751949737
-0.42528007119662592 -0.30067011974005436 0.46897151062155673
-0.34433571192361712 -0.28237069070729892 0.50462723553467792
-0.35562114678093837 -0.25925884884391237 0.52867861508010072
0.10120302066835779 0.51758456924921237 0.48527568911755115
0.11085561419315226 0.5254703014521297 0.46928418571709862
0.070084627325061905 0.53365900450851078 0.50293617062320517
0.090820964456532066 0.50665361940037368 0.49939519690160472
0.13103743535205464 0.49649587264421668 0.46938503561019429
0.14292117524075648 0.50231088378769773 0.45130204457593537
0.077179254822219212 0.54307406033375083 0.48908657988555138
0.062748353909071936 0.52103649108277561 0.51434008366279182
0.11791636520806983 0.48783616674940489 0.48611464778966995
-0.5381673120038285 -0.27665500443533353 0.45412744865003785
-0.5677384111390551 -0.26444809790226598 0.45117600431240346
-0.54374150647430775 -0.28777119546161012 0.43708793478676677
-0.50346876654806327 -0.28558711450516217 0.46032914687727589
-0.52935633342542432 -0.26349529795193105 0.47007380917750208
-0.55632835821074145 -0.25285617027569479 0.46681038184594126
-0.57550074126517536 -0.27415665690000651 0.43421607059362166
-0.5063861570918986 -0.29764846183304666 0.4433466041120343
-0.49778091595248852 -0.27133576762570055 0.47635271307842786
-0.0093500728586973746 0.54110760456999385 0.54271937890083832
-0.0088547022868088118 0.54986967463127001 0.53056286445916023
-0.034741584970339925 0.53129615204484038 0.55087828873792632
-0.0092070657745207327 0.52927814831090392 0.55115898682050091
0.014798076138515491 0.54551692566401955 0.53259241165391069
0.017100701675227925 0.55528711826707755 0.52078317416879805
-0.035528039767308749 0.53884268056920015 0.53793258232760355
-0.033084738711128457 0.52091275660774872 0.55988728482211414
0.012926770745086066 0.53252087168602114 0.54099725494946893
-0.60786718295517694 -0.21823943976847995 0.4568994582535213
-0.60829405650561597 -0.19825872576070669 0.4619171812759576
-0.61656928289486368 -0.22241278440032344 0.43889769493783137
-0.60253412239710435 -0.23518128250866402 0.45307594313006594
-0.59521131247067971 -0.21265076155684171 0.47264432858730787
-0.59673519865415403 -0.19447997335761827 0.47805840678882727
-0.61600846463386483 -0.20082741317049618 0.44323968296682947
-0.61183823777762514 -0.24123402319162521 0.43568520966957747
-0.58922082251841068 -0.22755133259987906 0.46852620202972672
-0.14024881844636089 0.48093205247435666 0.57112716298516952
-0.14125534203660825 0.48729228665772284 0.55626685349639882
-0.18264465254651574 0.46160638532157516 0.57666181788557436
-0.13685859290563099 0.47255569860823671 0.58180025202418129
-0.099971635345469712 0.49993765627910092 0.56479066402764233
-0.10135233625730367 0.50617718091009867 0.55035111853411045
-0.18338396274556448 0.46830476032259954 0.56150726563537445
-0.17880150113240609 0.45314462952116941 0.58763217697035264
-0.096860652878143327 0.49140983131215077 0.57507337831124783
-0.60187955543045513 -0.11198871603752253 0.479049428893216
-0.60089471371025105 -0.078065412948329527 0.48441310071347377
-0.60785928307873849 -0.11312603825774922 0.45923049590310705
-0.60383151277960068 -0.14468163919624985 0.47336935921021894
-0.59206991074524151 -0.1107300273282972 0.4959687903085287
-0.59082936735151204 -0.077189358991389526 0.50143486180707875
-0.60698532839679553 -0.079274563108111956 0.46449332858781767
-0.61001090311214756 -0.14578934246028577 0.45374430685184286
-0.59390028922200788 -0.14301645430439081 0.49013550573298237
-0.30124379299382092 0.41342610151042636 0.58607128285490451
-0.3051888173903558 0.42041244527750132 0.57018314974056439
-0.33304655409106648 0.39951491013393464 0.58706936941373078
-0.29218670086219684 0.40522069030315483 0.59784555618030777
-0.26482561939440596 0.42768568015985181 0.58416173377602143
-0.2670063958302763 0.43481768304073531 0.56852361324309197
-0.33897463896538127 0.4060927502278906 0.57093399371308584
-0.32150749408008655 0.39186535767979708 0.59912596704360388
-0.2581344102423857 0.41918552376042095 0.59565798853952368
-0.60705066105020045 0.012866352954613379 0.49726962773876604
-0.60814546275544024 0.037622606901934676 0.50162896097604459
-0.61469797735635856 0.014087296612871912 0.4770331652183819
-0.60416901208386897 -0.014642339687007112 0.49333764632718369
-0.59475768169532628 0.010187091558668489 0.51458663016455763
-0.59521828747650241 0.033134898286442484 0.5188903258481844
-0.61625057781025283 0.040379586041142883 0.48139754547143432
-0.6112081507285233 -0.014737906202416943 0.47320435080813616
-0.59271613365260589 -0.015685474118548464 0.51057810303099038
-0.39031387800224626 0.35023737642904873 0.58701683663515503
-0.40027514185583507 0.35399753409621126 0.57023348868513346
-0.3948126711599127 0.33058458549613573 0.58690472757780021
-0.37408833556350968 0.34601990277163486 0.59988279263677191
-0.37830544523900106 0.36838402534927006 0.58727739375976129
-0.38741805314207517 0.37329146491943077 0.57067945203166948
-0.40513605245507894 0.3331636523210243 0.56999526582776217
-0.37834015501835405 0.32781496281106187 0.59995148832472112
-0.36298744445140618 0.36277836144213021 0.59989737650610464
-0.58290944521979693 0.095485840470404815 0.52222297968906262
-0.56270582026498206 0.10878878916252221 0.53142663595808004
-0.59000822836258682 0.1021515534039393 0.50325656858029555
-0.5971252531674085 0.079032548921556728 0.5139735118993044
-0.5712180462169052 0.086483292984174814 0.53789503670250538
-0.55237338575333472 0.098976584547582236 0.54626581739915958
-0.56882626711346396 0.11614808503098986 0.51314662479184336
-0.60497546002468705 0.084653871227751587 0.49438775573456128
-0.58445432904302475 0.071239538357401405 0.53040013414544995
-0.36364323806989401 0.26493294110247972 0.58969073467279187
-0.37241262088738858 0.26495554319052372 0.5729471281604922
-0.34573687568726574 0.24303728816807513 0.59099215569747143
-0.35011352604173424 0.26556585839275321 0.60263400540566503
-0.37998945618000346 0.28741081196402885 0.58830163300522387
-0.389604018588455 0.28804626683954532 0.57140955420989881
-0.35362754327354956 0.24271267029104637 0.57446393286926178
-0.33365645128449434 0.24426030426683404 0.60372420854848019
-0.36502654137786461 0.28715498980019394 0.60138680670556333
-0.4678720912337046 0.12891051542920445 0.56121411421358414
-0.43158074352373588 0.13169659083902907 0.57000144736263803
-0.47107095795179377 0.13578911176361877 0.54451578394970002
-0.50378506735724349 0.12499547053785856 0.55141452944839253
-0.46241943417011105 0.11958513731762854 0.57403318985274843
-0.42737887627450566 0.12314054927488557 0.58237754130949781
-0.43422849864711871 0.13786168702559279 0.55364746476060467
-0.507825681338539 0.13241640930504411 0.53430187175175192
-0.49674990388592233 0.11507763480397032 0.56478105102515963
-0.3124165345213144 0.18850666952867237 0.59094610976584094
-0.31938015997949976 0.18900932200725234 0.57521047689747928
-0.31160232448899877 0.17428276141196258 0.58988340091957903
-0.30170733676333528 0.18885299941004791 0.60308994008813954
-0.31843290847990247 0.20452145697978188 0.59167966159391472
-0.32534317715035505 0.20437251051209063 0.57571435220846612
-0.31889338022033048 0.17595848132817241 0.57421266235873492
-0.29974388771530303 0.17226343781364595 0.60230126823167363
-0.30798776805903327 0.20586795751067274 0.60390624497892875
-0.34668590261125798 0.1447379251206497 0.58499458886572286
-0.32877776694566929 0.15239684541023232 0.58707964460200068
-0.35058406597898889 0.14905754261028109 0.56943911216645393
-0.36963319969277059 0.13887876703194341 0.58189323219232314
-0.34161701687768831 0.13803790398225974 0.59671959596669744
-0.3200539361307676 0.14645984298114945 0.599259795580386
-0.33442135912368537 0.15612497133830266 0.57151001378981592
-0.37251947877515679 0.14373456619899611 0.56614440138672972
-0.36607612404206663 0.1316261374393001 0.59363090138496211
-0.29472778875679673 0.27020629676280056 0.60631350279043417
-0.27559725221404291 0.27228326098492961 0.60027653522478053
-0.30176087087753095 0.28742177180140421 0.60493613662929357
-0.31434436047689174 0.26831896602395156 0.61046663292092695
-0.28573240153681495 0.2528198198793023 0.60751186696914694
-0.2692743354852869 0.25658611905924733 0.60166825926224576
-0.27975640349192132 0.28781262431609123 0.59874498005104937
-0.32441328610450593 0.2872109283353329 0.60922751141521592
-0.302523419515973 0.24931148614494142 0.61149988559314683
-0.43797928008803033 0.086368411914016952 0.57829519844358113
-0.46280371514146684 0.08006353224048196 0.5709773097781331
-0.42946281389659213 0.075547392722179474 0.57276454166321211
-0.4117665915619711 0.09171984199481481 0.58515550739462563
-0.44682685505510233 0.097600475465233399 0.5820479605268164
-0.47541974618578703 0.091849750473666253 0.57407507101649824
-0.45055272671136226 0.068833358663144883 0.56607962828818492
-0.40691215531779756 0.081182644143698024 0.57914268970337168
-0.41699101362867386 0.10249471211124087 0.58940123366531805
-0.30005964461580631 0.33273398094510431 0.60185775788904539
-0.2737591326722022 0.3288976720214245 0.59505845782148692
-0.29087417207462751 0.34560836368387843 0.60107542247266676
-0.32718816944825302 0.33703739930724264 0.60679096050308878
-0.3049979416342164 0.31888667682461341 0.60265884896034849
-0.27914842883055002 0.3162681639117349 0.59608684731964812
-0.26496164516764709 0.34076451478821923 0.5940884981887099
-0.31753396490815222 0.35106346554746271 0.60625420213650616
-0.33168649304100339 0.32183480648633389 0.60733600482866223
-0.51611947883432174 0.053073937685179588 0.55107044915572012
-0.5262418195273163 0.040934823238229105 0.54566946553727758
-0.49642895894678585 0.042195449478208129 0.54812717655291809
-0.50242075054565005 0.063584697980035826 0.55709454764533661
-0.53650197537016031 0.064545241109390555 0.55199918856353314
-0.54760844119002516 0.051529215068391164 0.54597665209060509
-0.50567035321855702 0.030816211464730833 0.54328689159050669
-0.48437360962100734 0.052224985421994156 0.55354133387693205
-0.52103619686950076 0.075598433563488998 0.55872158789740944
-0.23871597220958457 0.38105582900498003 0.59717702894207814
-0.21331057992970781 0.39378150809300932 0.59459070344355625
-0.25961143456405472 0.38851496539709496 0.6027172949038857
-0.26013676059126906 0.36928676744308392 0.59894460768312963
-0.21795499917741537 0.37445907664472927 0.59024629695317066
-0.1953100773563915 0.38673717909098654 0.58779914254514498
-0.23126198239539233 0.40167801595451086 0.60014571535768146
-0.28355726497313627 0.37627675612665218 0.60443380642325717
-0.23708580479365962 0.36311996816376219 0.59189600355852257
-0.53950330186524265 -0.0064712376261730382 0.53291344068798108
-0.55962871317881124 0.00016778040655603815 0.53214148663803285
-0.54092317996121053 -0.027081933744210342 0.52897277759587114
-0.52015329193849369 -0.013163214796812856 0.53183367689421956
-0.53724792508034946 0.011432256638607773 0.53676785260860749
-0.55835321278017125 0.019575742305394085 0.53621403341045903
-0.55981940422172027 -0.022144285010402526 0.52810119562576585
-0.52271247587400271 -0.032203029190618113 0.52813029154131141
-0.51698227246763562 0.0034151868981480774 0.53533383736340434
-0.11597793612951465 0.44268541437183923 0.57987524315501071
-0.08223387400054305 0.45914770695898138 0.57316041888508207
-0.12408518659952936 0.45279369444367173 0.58540451040660635
-0.15070110998462302 0.42511291013322972 0.58590565861445276
-0.1080384285913521 0.43311382914749585 0.57323899129963218
-0.07738041524732106 0.44840910400953604 0.56671754883518111
-0.087464941347527858 0.47033139692203907 0.57849578178516559
-0.16205959171352927 0.43428998977900996 0.59148285152740732
-0.13931748590893442 0.41660329279364061 0.57922876806728885
-0.5482788639740851 -0.10692334984155277 0.51380567263197541
-0.56419489062209494 -0.10817107405346768 0.51303694993105642
-0.55070513553301437 -0.1345657857858901 0.5082808028305994
-0.53282910911002956 -0.10565878140669466 0.5129154703707719
-0.54525286464662204 -0.078243853513855294 0.51938481468367281
-0.56188708171865986 -0.077328166322316622 0.51859980593669464
-0.56628055153181833 -0.13785850974303343 0.50730319816194447
-0.53560366396663306 -0.13111515475277269 0.50755155690640852
-0.52912863715465241 -0.079293534547396377 0.51855266128586974
-0.0070060846697136241 0.48608087564448832 0.55186647276966017
0.011302984234224669 0.48643769950397553 0.54466291178182591
-0.0077712207751929451 0.50081106790121876 0.554993031416806
-0.02745759950458726 0.48159958128798419 0.55900167250646593
-0.006657857557429217 0.47210082335105658 0.54798252360515642
0.011076760272770544 0.47185053963745038 0.54230691111811458
0.011335389250242162 0.50194440608202484 0.54634917028664454
-0.029092460774720996 0.49521384986786887 0.56319362673476814
-0.026354299097094473 0.46854930471593598 0.55389649680866271
-0.54591704742243008 -0.19157615404056927 0.49627279212250863
-0.56302508147145458 -0.19895368514369374 0.49215246189358208
-0.53815547409039699 -0.20250162870927282 0.49506050524739054
-0.52969559596699345 -0.18424673573604217 0.4988519246507368
-0.55023503974692201 -0.1774373403062284 0.49911873273653062
-0.56656695604198393 -0.18380178673824046 0.49643681993355249
-0.55577746839452447 -0.21074242318230305 0.48939478714508056
-0.52154361304289221 -0.19456155257120455 0.4992804935423768
-0.53461385255231375 -0.17093155660822343 0.50015531249662726
0.068906408866671598 0.4653948411086985 0.52308846440532575
0.087988100148854664 0.45157942388509759 0.51740350497919352
0.074264554909625607 0.47962045325869274 0.51818911466885254
0.048944375647637754 0.47589287942783876 0.52996081781029125
0.064451308506783322 0.45187601705944902 0.52656357457958247
0.081454972977340639 0.43903700518879113 0.52276544352582555
0.095769988811315154 0.46455734420494021 0.51023634371727411
0.051991257345635623 0.49112358546789636 0.52749731250208975
0.046402178886293895 0.46157268807131174 0.53139794320135281
-0.48987651963537143 -0.22639341351952724 0.50424640797158926
-0.50427599500189835 -0.23758850102305618 0.49524849575516583
-0.46616192222846309 -0.23090379711818004 0.51147340405644459
-0.47598259762473005 -0.21625845722480941 0.51168962108263571
-0.51013777784363401 -0.219662003796815 0.49896890080957657
-0.52641094011861445 -0.22978218604478939 0.49074077982501929
-0.47840106760862033 -0.24314337691382679 0.50208972843522814
-0.4540586820353299 -0.21987639487609961 0.51924010773798557
-0.49468436753805006 -0.21038241042603734 0.50573341867025612
0.12877083606581385 0.39210007322259915 0.51303412969297524
0.13542385304815577 0.36812821654121769 0.51579329687492748
0.14170848839431363 0.40193088776454811 0.50264990822586431
0.11858366321108849 0.41449554324058424 0.51219322071306894
0.11730760838362517 0.38195507194194644 0.52159486584893033
0.12303122355824683 0.35893738498285382 0.5245909336449911
0.14918025143024979 0.37685065994192418 0.50540066141937356
0.13028797635667566 0.42526059641267189 0.50222431658337274
0.10841447850451011 0.40362814031087402 0.52015214241373553
-0.3799842222994021 -0.22474889484307062 0.54235144219423592
-0.38720825649065116 -0.23904630233980595 0.53426015269508009
-0.34879641308943854 -0.21611661956460537 0.55390089308991686
-0.37207340366336428 -0.21153744227121393 0.54931582343411955
-0.41051618305884319 -0.23029711725026375 0.53097059927981005
-0.41911677669603253 -0.24416961374872032 0.52210583222395124
-0.35456039556214225 -0.2304821763530899 0.54670731859476651
-0.34223137644654594 -0.20271183026411488 0.56021587384317106
-0.4014218470847572 -0.21763395757430096 0.53844440751061251
0.13302388655780983 0.29357770818293644 0.53330663572105941
0.1239892568725848 0.26881112534647689 0.54262103119386551
