# XYZ point cloud file
29.685664478824755 12.650374241505231 39.226896699918825
33.508457628528255 10.974630101063461 39.473765140169377
33.718222622282497 10.953012313001924 39.42275301076878
31.48126824131306 13.114548822720327 38.877907451084972
30.566341322987967 12.901621683560565 39.058915912295497
32.871770215707031 11.783696239772485 39.45509402961774
22.38338011634206 9.7549467003428827 38.786788025654928
21.928546094925597 9.1902767391134716 38.568898284572114
21.400215791392846 10.08765130146357 37.98263962715972
33.285053115512127 10.984070124711154 39.526259771939706
32.386109459389061 11.717999783350699 39.55756866302891
32.736876608385344 12.563216494127058 39.139222160434976
24.176591032569679 10.480236274283421 39.410751769521191
30.624997141709631 12.124550558591517 39.564168615534811
29.969771660675857 11.919240279335495 39.686664229391944
32.018711167000717 12.448903495584247 39.288437223759757
31.904187849939568 11.629682748470616 39.656131096755708
27.373950041053277 11.705812143626357 39.629337416894892
26.750957110909582 11.342663167290764 39.723126849226126
28.85208104370097 12.364470056471522 39.379400001287699
29.355192635651569 11.689030622303644 39.796478184721337
33.354088682986394 11.825814183071094 39.350201380940099
32.810510381738737 10.966045994121572 39.632623575786354
33.051267752253963 10.981194782963271 39.579471210881806
25.239200348593034 11.429021383793614 39.29526256249963
24.646152839438912 10.959055583411425 39.367760730056709
31.433032807590905 11.520033039499051 39.749344093201408
31.311311875896337 12.301967301917093 39.430778150628441
23.633409632392919 9.5239930802909498 39.40614499263495
23.296825480600127 9.2709396380485476 39.273385143806529
28.79022237032726 11.437278441344073 39.892009048402642
28.077745033379649 12.048078084217334 39.514202297447873
32.566292081270085 10.938844739359192 39.684941728872658
30.979516794809832 11.39064967738123 39.835847958360418
30.55025066933765 11.243419252382623 39.91438181259138
32.322174026375841 10.899987665621095 39.735662770202133
24.861312363074266 9.3848904042559731 39.776831627118966
26.597333827412335 9.5303317366145368 40.071301244135462
23.83736179912222 9.9995457402895997 39.423608868555284
32.081716287709163 10.850041382576714 39.784047006764354
26.217850939163629 10.963926870295349 39.794202945404642
25.782406627611344 10.575125872093974 39.841528949541384
27.841212647201626 10.884091197659018 40.034879218415703
28.283096645876135 11.167654633880442 39.971864368327914
31.848425000790272 10.789734168472357 39.829388944690159
31.62570301976497 10.71994559075331 39.871027201075272
25.450972530166155 10.181929805785872 39.864415069250455
25.228382917015274 9.7900724701709443 39.862527310370723
31.416796356447655 10.641693057128844 39.908354967561408
28.477510946653204 9.7049699370722031 40.152148942295462
31.224751884317065 10.556117845647277 39.940827820851965
30.151496696433931 11.080488858913871 39.983799879044952
29.193716879109438 10.522189971970622 40.127990428639656
28.96947921108066 10.32197159611481 40.152361526898055
27.471013634866047 10.590723105295289 40.080134789879146
31.052370791261509 10.464467807474565 39.967972058553613
29.789067023581339 10.904234240275544 40.043090458195273
29.4682482878511 10.717225643845676 40.091388601753494
28.798802693919832 10.119489788888036 40.164147030710453
27.177897271728817 10.291828184024599 40.106971289801528
30.902166992793688 10.368079512367869 39.989391822471099
30.472192953378332 9.9060510987311758 40.01809734143729
26.838825274171381 9.6949093760195826 40.104095609459982
26.966137518947569 9.9917649554395922 40.114997453170815
30.676693303489635 10.166758395394387 40.013897376044248
30.77632902014858 10.268358244483998 40.004775134904634
28.684177122664657 9.9176974193339476 40.163174894592927
30.604713347721002 10.064761544652402 40.016625390764609
30.561436500852246 9.9638547756323721 40.012919886455876
69.721927162116771 14.379956167770567 30.188031917908447
69.085438683192905 11.618081402349825 30.397073457165781
69.100776771926434 14.24352543643902 31.256256622383248
69.466780021089079 11.710532551490322 29.620378393061202
68.580321014724561 11.513899763364805 31.171695514552091
67.232217708656563 13.919107738081268 33.273812579011
66.43644843087111 11.153113748021822 33.327548415842863
65.560843730294707 11.024937456394845 33.941367517101789
66.05661194197026 13.743587355105209 34.145612349641176
63.446905309788953 13.399390736349794 35.449025241578497
60.787858509658186 10.440060936548297 35.704485872279989
61.729995072851679 10.541348318003525 35.553394313209807
62.113091646051927 13.243941503182096 35.830549685420969
59.890866577965916 10.351025104509963 35.74545596415205
59.057267994768871 10.27605171624856 35.675477777545197
58.599423341401042 12.912998957159799 35.743143468518703
58.30404357754378 10.216668504658355 35.495970020598861
57.741016726517167 12.861969204970906 35.30708406195717
57.098093793827587 10.149164968424234 34.825142055118398
57.646525091137526 10.174084151766877 35.210587295495223
57.099634592773185 12.844852753641494 34.689070811533497
56.180814973968744 10.230729771283846 32.466590785419591
56.677095139702814 12.996945034789212 32.01005477501981
56.293998566502573 10.294351849610644 31.732899402808648
56.543802267496346 10.373190798944863 30.969940304652397
57.430261273860864 10.569823587070381 29.418623183161507
57.67599866305946 13.245384284353301 29.888372819752689
58.768376317424718 10.804698010596116 27.938319330100391
59.54455772632933 13.569801982711056 27.870816863124933
58.048868570322682 10.683614158865296 28.66184791664616
58.516667633140528 13.400993386550448 28.846433289657021
61.377368508967471 11.186617759256503 26.109359040280104
60.720163493015654 13.745322365687116 26.999017092494753
61.998306414152033 13.9208092287578 26.264538069232252
62.338141563912771 11.311503103833047 25.654978006393122
63.312489768615215 11.430898825447571 25.29505652075207
64.280587215733732 11.542375032431659 25.036924384503788
64.66368378893398 14.244968217610229 25.314079756714953
65.948488768040818 14.381183092712989 25.134625392793794
66.953314293816547 11.807671634186626 24.914840920168402
68.177352093584886 14.575910763632528 25.401485973617227
67.134909129280118 14.492928675986828 25.164139095535724
68.364057197447892 11.909639198668311 25.379731402218368
69.035758708468734 14.626940515821417 25.837545380178767
69.677140842212737 14.644056967150831 26.455558630602429
69.340667487429528 11.941304915374468 26.242839745549521
68.912488494757838 11.934558382010952 25.7651766425952
69.804023535092938 11.900103220437334 27.434241470358458
70.219523419337406 14.575246954605058 28.13636870303457
69.829767314616674 11.852993579151342 28.123727912294008
88.304295791425488 31.317714931416035 2.4572722837658141
86.352877532019392 18.141849847981433 0.91800755454493377
88.225836148007375 31.32334954501664 2.2741961982081982
86.292734354581086 18.171416215917731 0.87397440869869847
86.217583021915459 18.203626752705325 0.84495471277814538
88.027706091668819 31.311228425116092 2.178316798867133
87.895284994707708 31.29913045175666 2.1698161503390683
78.854099917929375 27.650482212529617 41.480727835921364
78.855552192046915 27.60465263875335 41.481613320905588
88.292743120710497 31.30845148213745 2.5706745846933163
88.284442552161636 31.366716303646676 2.5804463635483597
78.83669515406126 27.694236899610843 41.46862673963205
88.242903432949731 31.418310030801337 2.5969377773797344
78.803843300574897 27.734627513500378 41.44566136919137
88.170208403608882 31.460646862772606 2.6193221264342288
88.070007460707842 31.491603741468701 2.6464758584857648
78.624383321165169 27.824432915152421 41.31982292567713
87.947321755861566 31.509629392251298 2.677038277700591
78.434035919753143 27.850774740974522 41.186147162339012
20.110361317690788 10.863490494620116 14.988179413086517
20.089235323598352 10.897158516176189 14.972358507647334
20.028669621580882 10.898359534648057 14.986406549336296
19.978352831187578 10.907871056184804 14.999227173139685
19.92668195229157 10.947379051547351 15.016409297597454
19.943210277404475 10.924762026226702 15.009565414571304
19.971939940398535 10.811492305539232 15.059176214874959
19.865169870812181 10.821807531270204 15.08504837130789
19.681200458809979 10.767709284059938 15.231276608644462
19.686375177376394 10.659728453549494 15.511365697350829
19.81960051845957 10.684703022111021 15.328652112039398
19.82539357671773 10.65553990733337 15.478927409283077
19.971494623557522 10.739663506682113 15.16093352430252
19.812931561316312 10.742807797007281 15.197711771681947
19.782880090873739 10.847230792386608 15.107348307519418
19.646842950001616 10.701393401402035 15.370514132034444
19.733125603519134 10.88527351201915 15.123893175872942
19.463487382498403 10.708710320174424 15.569082022099805
19.563689108068441 10.677753199674324 15.541928077950626
19.462749505071905 10.890025071953019 15.375344976431633
19.349255702326985 10.802641740842946 15.607957335414227
19.390794546990129 10.751047491623018 15.591465914023027
19.433190826403635 10.804083515124796 15.433366348616639
19.513695254195071 10.742529112787691 15.406596196239974
19.54592437617098 10.871142574079952 15.276259988625828
19.589196049769225 10.8119304308912 15.258342479887579
85.910279918714423 18.311304546441029 0.85827930703960043
79.940024360219539 26.062388872245982 3.2738650536818845
79.164673864490297 26.585577520048226 3.5222860369363467
76.966719689820707 27.379155711980225 4.1333824086074475
78.166478372042377 27.027639866057804 3.810842310720405
75.590964371277281 27.632633091293293 4.4830329136461078
72.431892523650816 27.826065058034636 5.2334335823933049
70.715898431823092 27.761896945744532 5.6181920182988296
68.957138896303917 27.591533062878554 5.9984134166716512
67.193092913086474 27.318602970518114 6.3659951777855337
65.46136335031143 26.948925501313628 6.7131019649002326
21.978476207732303 23.95815554435007 16.278477622381295
63.798852145374234 26.490378334342182 7.0323371920365929
12.267612545154464 20.188926502299665 55.734050087740961
10.320224908368182 6.9551368447168667 54.376501592955329
10.085976591022511 7.0160511156211811 54.293343094591535
10.227387557667953 6.9663555850382091 54.363349355547946
11.937061937135134 20.164707552768846 55.629668768889566
11.858604882847942 20.170342512438637 55.446591326416325
12.44300680498522 20.326523030205617 55.6751931144438
78.756513362288416 27.770466853667962 41.412509128023849
78.696100713396504 27.800697718883264 41.370147403826898
12.491723556416249 20.434447022824273 55.538930558178201
12.550256755420122 20.506703197688935 55.333442739028506
78.514859048454298 27.844794975816122 41.242922363440691
60.449738558290704 11.058785894040337 26.64895118061181
65.222723778927232 11.643662413886888 24.885832825433603
66.119715710619488 11.732698245925224 24.844862733561541
56.669914801155905 10.142418435060717 34.347478952164082
56.370706550003533 10.153981882649056 33.787324554080485
56.206558753492487 10.183620129997852 33.156077227355141
69.639875738581878 11.92974146778613 26.802994143633111
69.716583722082831 11.78937150082454 28.857419294904957
59.574133857714315 10.930609602413362 27.262770281870736
67.706538711041617 11.867054845776828 25.094348677114738
62.698092519970203 10.652824524987615 35.295262176961522
56.925143605392513 10.465641948085363 30.193245240547817
63.672440724672647 10.772220246602139 34.935340691320476
67.961713718262729 11.400109191569889 31.928470781067439
64.633213779617932 10.897105591178679 34.480959657433495
67.242205971160701 11.27902533983907 32.651999367613207
87.687341098857672 31.508321836160157 2.6244625508920212
88.139762490204561 31.319438653623273 2.2137016579710398
87.949591606961434 31.317181482887207 2.1718186624403568
87.74914347007558 31.283751835298162 2.188625093653199
87.933063025849975 31.339798368713851 2.1786625853202786
87.754470806229961 31.342635786657986 2.2079759240337982
87.787036651457186 31.367402507692972 2.2158698816965536
87.897918432958107 31.356689951920103 2.1890013770648782
88.057161886876059 31.403111622424206 2.2302558619524717
88.106916151384212 31.365068719427022 2.2137110199271941
87.74520618993671 31.441336024771125 2.3206235665532606
87.847602059757094 31.366201361380298 2.2018218900829343
88.102415248417628 31.46048640180183 2.3389849334232018
88.19442163005121 31.416266116782118 2.3119187263139338
88.281614519549606 31.32276538670795 2.3567662002920553
88.237692752284289 31.357053278006624 2.2940012500470779
88.279325037315488 31.396207288215102 2.4300604641865871
87.974872936755332 31.428534627170094 2.2525555732893885
88.198821688838819 31.457762048582957 2.4568304174621076
87.731078904838483 31.476203794860595 2.4082718388419568
87.711462753669764 31.498912621890554 2.5112732122140802
87.868102455727609 31.438849727802463 2.2784278071584314
87.970685873330723 31.485388826411871 2.3725495009597903
87.808302048071539 31.513817873489479 2.7094768569798404
87.812121184733172 31.488532753266639 2.4093280721254509
87.892913478191019 31.515587281948868 2.5347750613967222
88.06566914618503 31.498897105178145 2.4929135044698452
87.65992352025151 31.503959818094614 2.742164127309616
78.350262198732025 27.850212310431921 41.127279367086587
19.340953791448015 10.860905937210834 15.617729337598181
19.386158412581008 10.873917571104634 15.497117880394333
21.179817342809187 23.833353226067967 16.94807512421178
21.225021963942179 23.846364859961767 16.827463667007933
19.566886471852897 10.908420744999939 15.258516791667825
19.693347466975453 10.928182155104709 15.152491591006948
21.405750023214068 23.88086803385707 16.588862578281425
19.987074904472227 10.967819704513234 14.993308056887479
19.835791191180125 10.948318380005954 15.062585934909263
21.674654742541296 23.920765668863087 16.392931721522864
21.983803543886651 24.017039495709888 16.297828452761895
21.982468740533847 24.070460007900635 16.342575839196403
87.753136002877142 31.396056298848734 2.2527233104683049
21.960411642495188 24.1506075039125 16.498124367570053
74.018614923284517 23.828060424489649 4.3297131673950258
73.710712578492206 24.22982078643939 4.4545637445275847
74.010342833068222 23.642259118267148 4.9088080136866186
73.9624398828783 23.7872180914522 4.9393675153489038
74.166297410568063 23.303771084291615 5.3946273460437038
74.016972542562485 23.94408528544772 5.5153379147457162
74.102381933364342 23.786844684221165 5.4745207011491548
74.430312187759483 23.826962706778271 5.9040707592436217
74.48475258921043 23.662210478954439 5.8693393257632014
74.152799720267069 23.634278705795836 5.4423572924643473
75.002903250645744 23.332740193563211 6.1083742854965273
73.772437011672736 24.217366563691719 5.6083092278153099
73.64894480515207 24.196274094872187 5.0664856160054139
73.881286153037564 23.9366184016056 4.9781501992843538
73.287880958587806 24.441784841956082 5.182422834887225
74.927162104159066 23.905239499595634 6.203055920792055
74.986910930266276 23.72443117645108 6.1649390399328752
75.647761513561903 23.384484974519367 6.2494708261058456
75.63008810593098 23.817323748043169 6.3119780469876012
73.097342497201055 24.53627207223515 5.2388679966968876
75.452207028770943 24.223051371474618 6.4075545491703316
75.564061481462559 24.017126267070665 6.3540994156983537
74.825937583519234 24.091587709013197 6.2514300626791997
77.205382101786967 23.547633632194859 6.0595862348773668
76.396424342414207 23.457531186708682 6.2328868262499331
74.536137485894585 24.415458241445627 6.3616112645730993
74.074012017786899 24.291871085943136 6.0485456564272599
74.338075611030206 23.996762090918402 5.9481493101271781
73.168944259945135 24.563753483495365 4.623872374055324
72.418647488779413 24.81424490514263 4.8297213139327919
76.376912410834848 23.935490953073 6.3019091933768792
77.183971019603831 24.072064266318069 6.1353199498555036
72.836182272016188 24.641825291873275 5.3129990172255912
73.392426681688164 24.475760457900279 5.7303301699035458
76.304001160586495 24.156121589892393 6.3484218494639286
77.103971256619545 24.314146663171481 6.1863548617248938
72.917023710329829 24.686298276450238 5.8677586907433152
78.004365452907251 24.219107345015402 5.8218908778448615
79.522800521968264 23.864823129309215 4.7416337008075153
73.150276373150746 24.798257990889716 6.3287176769581848
73.447088756405435 24.678291763004978 6.2444662293966875
73.191887182331271 24.575205610497203 5.7897378322840787
73.848117388222022 24.839539725466825 6.5766255782198719
74.085778477889264 24.721685042055483 6.5062208595532915
73.663646581339208 24.570903513210979 6.1803133379425201
79.496445732214568 24.51030647548928 4.8348491297217073
78.790417125360449 24.368073635996502 5.3798371311841766
76.580431740643832 24.997272928166382 6.3986430870837605
76.968444777792854 24.56364623380081 6.2511220287425751
76.180484361888119 24.383512591690081 6.4074497865507514
75.826856556700122 24.778714812221729 6.5418981154234572
72.333413803794897 24.791312946311407 5.4484567224445311
71.670722874013336 24.915594824564423 5.6171756420067709
77.917486111383056 24.482017914486711 5.8773159273187456
75.277306339684557 25.152387245592909 6.7183577798357472
75.131958493051087 24.580944836332833 6.5293114633882841
74.634293519979508 24.919342329804788 6.6891115339064964
80.081416699082709 24.637539846499703 4.2185999958306244
80.108847142854117 23.965657637821138 4.1215727632375749
77.348899859622549 25.223918262244041 6.1078694678558243
77.770297359619462 24.752983897988518 5.9476559508144646
74.371657926730833 25.049576683604499 6.7669140194736759
74.011700717924782 25.195066816137199 6.8690896490657636
78.697259985475057 24.649978401350747 5.4392666685096351
78.539436181349771 24.940520709534205 5.5146887804988012
74.987295837533011 25.296198601492073 6.8042700717302562
72.895264733294653 25.157653553566796 6.8380467853898903
73.52237268591314 24.971197216685027 6.6690892274398941
72.578855775524161 24.96815603434117 6.4826716339658059
79.978923472752797 24.947686901747183 4.2839841551022548
79.397980240742783 24.808267851642992 4.8976641672891184
71.494899721921286 24.969582528897849 5.062486601296543
70.4408977359913 25.022502955085823 5.3112836222106239
80.511334964996422 24.742379416593646 3.5669037032668225
80.761216297527511 24.818732043298112 2.9176341871399014
71.690405782006479 24.974433816846403 6.1878972177248954
71.39799510208141 25.010087896453975 6.2597530614349264
79.231168492706971 25.115358985103882 4.9773818702818691
78.087600483877424 25.445479146824987 5.6864758160469915
72.387871785354349 24.843629817937199 6.0103246307612679
80.4760139997138 25.469226337955462 3.0708720803987202
71.392891332596577 24.949471026051651 5.6854488359735686
71.509914770429404 25.147909623761151 6.7520226397473255
70.319744621113642 25.003352855680504 5.9387649889763914
71.825682794910833 25.109407258348025 6.6744270155300534
75.659248094292721 25.565071462698441 6.6865237075825927
76.694046019517174 25.669199098622414 6.3181427750464447
75.977452903862655 25.40727768403606 6.5922589941975307
80.22843728119949 25.387623223876282 3.7189041368668434
80.406331949193714 25.060133531907404 3.6338906197891792
79.805294779409337 25.267337958731126 4.366961001564782
76.34846110766459 25.840568793600774 6.420518338804257
70.965331754171785 25.045889653940616 6.3637844500527283
70.981800928088745 24.983488011822814 5.7842931806123214
70.26853485820061 25.066796112319679 6.5263618724260919
72.40530001830362 25.572412493818575 7.2883485316397341
73.318711481511997 25.401109778095481 7.0557969395260223
75.223113920181817 25.741346585957803 6.8103219002400746
74.589812656279179 25.456854444725003 6.9170973891879477
72.068688030896382 25.312671466410656 7.0484905744620541
71.722146726219904 25.354926153946352 7.133648314861297
71.209388094607192 25.397354772770647 7.2569380393187481
79.719142907057858 25.956797015811638 3.9125370104510644
69.464677182257361 24.974089186007802 6.130853434258686
76.50700341683617 26.311952430922794 6.1658758343746101
77.014881263271803 26.106680041432192 6.0217129294340417
73.82458860504434 25.684376995364502 7.1232667267949914
72.81595273659569 25.873536328154245 7.3800618829342044
74.383488443012581 25.990991192724103 7.0365367877319098
77.619775040576783 26.347939575585436 5.5132856595336932
77.385430438086019 25.922929535455985 5.9119417925928577
69.164162209481447 24.950437633072404 6.1965580642387792
69.305924339158253 24.97053061430109 5.5644790245186151
78.753596217783382 25.649078444323607 5.1589537085606878
78.01143779381411 26.153724292080106 5.3972605545260652
72.393087569983635 25.925097634431406 7.4839751923355182
69.368595128367133 25.035997630258215 6.7285308690547794
70.290245169585376 25.209148151981662 7.0399254901282369
70.383605469024687 25.422132547981526 7.4496107266433134
71.042692842363834 25.186570266901136 6.8643633374297366
69.052312009645192 25.01110424990889 6.7976829375524694
79.308189394892196 25.822885079905596 4.5559590228458884
78.535675718320078 26.348168429763895 4.804012502511906
78.927677699825381 26.494963457968609 4.1666753630953117
75.87480615448564 26.032010713343841 6.554967175281929
77.082975261846457 26.564905399976467 5.6656586780419556
72.022352892058052 25.619106156931188 7.3824524889784335
71.45572934551727 25.665992548147074 7.5186937992638567
73.276791241453822 26.198542479770722 7.3182982255097162
68.530963534058486 24.954859366587115 6.9096161049246447
75.529256866880431 26.602663712099577 6.4293037041584924
71.767398914036917 25.976872202588826 7.634418458790404
69.31842129458326 25.175888376817181 7.2582428991717896
78.510005896730661 26.702081417077089 4.2904060567934135
78.127994712575713 26.550327325945034 4.9247828894563632
77.56924082921239 26.776165626484289 5.0833875411123017
74.962935475734852 26.303132737224402 6.8006461980113855
73.761019135385453 26.528542242599897 7.1066502086324661
73.257118961477204 26.589984334767589 7.230476748798357
68.976875757493687 25.149007195275253 7.3329184049283374
76.4935382516137 27.096001703055876 5.3732070288282205
72.812809107912031 26.255116928773869 7.4323154136129972
68.668806635244209 24.896996541339163 6.3029105174036726
67.806187874429099 24.845614594663271 7.0610311553762131
69.364615061729126 25.653037645678015 7.9963720871801796
70.543193339810543 25.693373109113978 7.7316078631771381
69.317068936611122 25.385631319105727 7.6892050588469596
71.020653387384669 26.345098825075972 7.8553534499200657
72.126286881642812 26.311924648362883 7.5973856685854999
70.759739250253716 26.0071063774351 7.8695268198185211
76.049536163519079 26.872173888800077 5.9440911928136284
77.937543573171013 26.933458078147765 4.452901590425304
67.08691535284737 24.606206068498729 6.6263177768987944
67.980165078028904 24.793199000150409 6.4467767885258151
68.143047100295817 24.816096881497494 5.8102344145665725
72.900747373500607 26.976391726063568 7.0824119661700227
73.700199624103846 26.910238057141427 6.8901881692000835
72.511531625802007 26.65168023129813 7.4097489599403259
74.240505619581185 26.844356989396815 6.757415412094737
69.458302371451822 25.962565955570888 8.1618908395006731
67.006647482796893 24.566422651469672 6.0370569921490542
75.075676305264054 27.361908894287776 5.7341899388730031
74.687381194434877 27.127633854934327 6.2908913082577893
68.942234197132905 25.356130093440257 7.7711589103309811
68.950406113244682 25.620437499699101 8.0869347156438884
67.631218097333175 24.970299562848034 7.6173014835820245
68.413884218323219 25.08826916922412 7.4537922365370539
74.116301918762474 27.197267244801505 6.4312261815451066
73.271307844302214 27.267188319103219 6.6344001021986934
75.382820591972006 27.533567869135005 5.1196659432496023
76.835457465748249 27.261137526289438 4.7498292600770462
66.616002365358995 24.757775101330552 7.8213574513181001
67.318459111248984 25.403709974171189 8.4318204699815169
68.267639197145343 25.546777847010876 8.2335242613693129
68.324375436053586 25.289472681262154 7.9038126814394341
74.481239685035263 27.434390569960513 5.8802645926675652
71.310769353157539 26.687707451585862 7.6899121352983348
69.592676361701564 26.296227501334645 8.1761443212286942
66.866061095982388 24.648810040795702 7.249994534706091
66.823125978892165 24.538989570630655 6.6777188785242974
66.334600220587049 24.398705751007295 6.7707772796929468
71.613231720731903 27.015021732107314 7.3828165181167504
65.747145650674085 24.199697956427286 6.8785862748234958
65.949858576021654 24.23318272439359 6.2343416744497411
69.090815755935381 26.256729077150062 8.2858711464665369
69.000912317662696 25.926567679410027 8.2618946400213478
69.214897135992956 26.591735185354487 8.1574697026722749
66.351271200795935 24.926768535619225 8.3072009723418816
67.465429883311117 25.160005578572907 8.0832576970876833
73.87268428245693 27.682392209424613 5.4859923707128395
74.068542142948303 27.782668332194362 4.8523396556627585
74.773804614025295 27.607825876491859 5.2693230881978188
67.19884547755737 25.68724732108462 8.6427324321843706
68.263575269260826 26.167483138547396 8.4634790740055781
68.246973056173701 25.84522938332006 8.4237647967570588
69.950359468970319 26.958111785682306 7.7563759799952763
66.31619517913613 24.681381169577683 7.8797769033401117
66.02224816576603 24.842929886586631 8.3713132997132202
66.58843226626982 24.578066362492386 7.3040922468899936
68.316479183618895 26.494810033045347 8.350359338130211
69.759938993203576 26.6346327706785 8.038301811103846
66.087252625645249 25.145970153785285 8.6792900664507133
67.11353921366765 25.994140401581522 8.703736700164864
70.152877596006078 27.247868416403215 7.3467505826278803
71.910467479349222 27.308019355886792 6.9519129949542684
65.760968055276066 24.521942446023893 7.9855409790421392
72.421442311080853 27.725935146821548 5.8245978016200635
73.601692150728951 27.507171100220305 6.0917467254771509
65.45598560103295 24.220969869899594 7.5155010642233453
65.093298567697332 24.295761362992337 8.1080709985942168
66.074270389098416 24.430420973566164 7.4020340312062913
69.535172327400602 27.199251866642221 7.4818055969034676
65.022093782648568 23.831958614470643 6.3928637929605188
67.067500755615612 26.306553676988457 8.6112872941959964
70.355721860146986 27.487060760814003 6.833231445554949
72.185190768348903 27.549672423095863 6.4222465423750812
65.050312313516613 24.859964883004601 8.8784031612543828
65.723665183144561 25.053323961869026 8.7501374775335705
65.412906815768878 24.667952258482281 8.4873855518878756
64.656032469279268 23.886089430690674 7.653679690748505
69.365938428583377 26.912115740697601 7.8841538511783815
68.402617441499103 26.808188918183067 8.0909781643446834
68.516978998097628 27.089405087695987 7.7004109464781143
69.712754173173892 27.436456409860412 6.9738098970893923
65.621801795922181 25.681861171719497 9.003572390159384
64.461800768551427 23.79102128537837 7.6853719789231807
64.987078155745138 23.881514309515993 7.009875274283706
64.802528987438734 23.791186594631881 7.0399878563828562
64.266731266861157 23.381510337354342 6.505211632182446
70.547100965761985 27.661787641193449 6.2456631504199382
65.181274603366916 25.569610712653844 9.0894121339277572
65.839290102224396 25.402639996500717 8.9159999812463901
65.437802516584071 25.300335795346083 8.9942324008809909
64.694255006918979 25.086819861580807 9.1358693446251955
69.888365278982604 27.609942493783407 6.3896891461983625
64.365436255151764 25.33533510387349 9.2448195198271463
67.063404480342001 26.606331791975741 8.3707573133744226
65.326270369778712 26.242682280483486 8.7199172771767586
65.447414448140904 25.96740694292842 8.9369209367833395
64.229453254559715 23.934133535052787 8.2572858688559041
67.179534779877187 27.100036000254597 7.5091649194006171
68.652917780287154 27.322116488184818 7.201355910900582
64.059813578065729 23.571747943493595 7.7479221577583619
64.420586336419746 23.582845700596256 7.0994188786343795
63.652364467013584 23.308325808667647 7.8057622530301893
64.968987112446001 25.845498474624399 9.0301456891034562
63.192967555768249 24.147099489387116 9.2079617998934538
63.732131091847428 24.022856232538338 8.7856146820413272
64.240597630321062 24.585663374339951 9.0270010472947835
64.680167615411605 24.419728598551842 8.6218571756743199
64.082954270333431 25.591067041900679 9.1989244407526218
67.293013907752211 27.265271522506715 6.9381748646812866
68.802535984746399 27.49279878051928 6.622815874216835
64.019707178273464 23.831472532413571 8.2915097016998338
63.562254209894206 22.9370553128783 7.2089933434465792
64.033453614479427 23.332558215674688 7.154374899916494
62.93859499400596 24.022595844372411 9.2494672382824685
63.017489200695444 25.230127481274113 9.3944574392412594
67.101486605188072 26.876050465175496 7.9961258641111304
65.265409544083809 26.49168837224704 8.3651731354315935
64.723201952111069 26.353527643779625 8.4708258468125557
63.501942626222245 23.910189010885361 8.8231739741593653
63.02554134180027 23.650324505142279 8.8973031320587648
62.542665764734018 23.338138334526349 8.965850558513381
63.585610237342451 23.594684621506545 8.3590562957815902
63.719043218090889 26.065174824787789 8.6621061007541229
64.813283746922906 26.111966839600537 8.8198760162997871
62.643295022550546 24.299642288185375 9.4997820442807583
62.362407148875363 24.162161317045125 9.5456140247330161
62.115060339545501 24.471621435106659 9.6441158609945212
63.384376345956809 25.002990358890088 9.4248627792564417
63.800132895404928 24.783925314035585 9.2999577296320126
63.863234118729906 25.839152354854519 9.0008491906773358
62.720793858533149 25.452137007408709 9.210508662872698
63.719100162563215 22.902901702126908 6.566129999742552
65.268368911385195 26.699955030633717 7.8933048848536602
61.806863625054397 24.320773393824254 9.6944036798854007
61.781082157384986 23.84506283714947 9.6360694467038357
63.156442637080964 22.892069378519491 7.863246002384944
62.412147385059633 23.735432321121646 9.3313837150341001
61.878544577924075 23.390450363585565 9.4071322274162448
64.703987937072299 26.556143588064 8.003278133437739
64.756750409785056 26.708039276707513 7.4444069745073209
65.334975960165195 26.855378470017207 7.3317360184562368
63.658758982193312 26.255997895097337 8.2023818814000258
61.638965688262061 24.653041478508271 9.6325742944821791
63.288707931627663 22.603697292500421 7.2266887562415691
63.155863175779302 22.352068959363841 7.2231633254447836
63.404798235084229 22.418510826158979 6.5727723037220134
61.304253515718322 24.489215080142841 9.687188549709921
63.145617192037179 23.310222755803196 8.4215162750331025
62.610086630863862 22.860718469780249 8.4835909299528538
63.685887896194728 26.400532299590356 7.6483935571629562
62.86854114252489 22.541218001529476 7.8818701293775772
60.949222264972306 25.00209352455412 9.1535703574896754
62.511530538820864 25.656115584333239 8.8837076199117746
62.299191368939738 22.481844145949644 8.5037022934775859
63.338526198950973 21.950988102775064 6.5248270801762516
62.148204949464301 22.195858331249525 8.4996961773731705
60.569886167107462 24.816424768965568 9.2154656698081965
61.242676648971383 24.833358454746055 9.4658286586188964
60.141007789515406 24.252531512336589 9.6399660836771179
60.883780453360409 24.657696148497635 9.5243891129808063
61.169017301502613 23.972843532446895 9.7936538909191775
61.229076809032669 22.845313650890482 9.4824139188632675
60.852037001676905 22.385833478028097 9.5068042914062438
61.954940173070526 22.844825814808814 9.0339755800530739
61.613744379088928 22.429026186026327 9.0560471241177201
59.78480659961658 24.388183252816095 9.3376257527764537
60.522500838603541 23.554861445084413 9.8854312824893356
61.191853407586684 23.464118550430452 9.7197145240665659
60.611524689312596 24.11134969181585 9.7949788028714959
63.081884831356938 21.951429479697822 7.1860175607040579
63.523382801317005 21.522193954452337 6.4245361513527133
62.240998780626434 25.95273403077978 7.3168954744300185
62.398165419568819 25.964300340988995 7.8847150038335263
60.821005233022078 25.347453975817103 7.5607124952915203
62.401864309704735 25.830209991387658 8.4330459443647818
60.775661148177527 25.149439226768052 8.7139453684071331
62.728724713471721 22.276385352742302 7.8781598333427363
62.650864146663544 21.854722052839701 7.8390648568685171
60.668929375483835 22.039003954522016 9.5019455788982974
59.569134957176217 24.687435773747083 7.7585916128062307
60.380810674754279 24.956177613852592 8.7783722253949055
60.732076767356631 25.266833815029251 8.1725041606672146
60.327543907651688 25.06883280264308 8.2385108294568941
59.563621429887931 24.510422044159611 8.9055287764729343
59.054779503698349 22.940086387747577 9.9937122139298609
59.909384843905706 23.657405560422802 9.8946522109679336
63.276600207354612 21.439473850478322 7.0722352891491962
63.153012648039187 21.646421309518914 7.1285185311307107
60.474683205013207 22.862155013022452 9.8028437781748501
60.058339078449322 22.354776436574582 9.8297766947343543
59.856144618149543 21.971792178152413 9.8244112746530092
59.490312537333836 24.612144039295835 8.3687858829378925
58.471793269673803 22.996648743849359 9.8530573034335323
59.38813800774453 23.765790277913538 9.7468410204290024
62.064126483831984 21.740515726734333 8.4574783533334958
62.855796180399253 21.315901217079052 7.719312051903553
62.72572519986003 21.533708615171264 7.7785483862037506
59.735600565303059 22.894369897753215 9.9766432271988883
61.448042680722565 22.115167825632007 9.0516505548720296
58.641702533661835 24.063504919809532 8.4892517292711673
58.735327888397627 23.97491809005643 9.0231106016796883
61.444490733570696 21.235009374225953 8.9335987379840684
61.355771255989211 21.615447836321188 9.0053179184455363
63.63680748551667 21.111022602376636 6.9452932677273171
62.285426361870869 21.158657417870511 8.3281606593000799
62.144968342337144 21.39386234227031 8.392127971670142
58.31771132921854 21.879103102959874 10.019412439556831
58.558653654841585 22.33547901749435 10.025805779342393
59.278776402429578 22.337660130454363 10.006194744186008
57.727179242456302 23.128719435465385 9.1399680511427714
58.989054432224442 23.873718744437944 9.4505882424578296
58.020517077678754 23.060768230874061 9.5628542379016075
63.234904888346627 20.970213898624209 7.5857087705922899
57.939823334372988 22.348360314037492 9.8874696444612038
63.950720143614966 21.15217818491206 6.2765899565706835
57.608826415133088 23.196552683040718 8.6089756343307222
57.672338996462422 23.260326220612672 8.0007358943077751
58.512070681626746 23.986748929474487 7.9063154011537087
60.566963759860499 21.486786814960478 9.450745734698403
60.665002825660878 21.066382131142312 9.3714923875776641
59.851807814490435 20.89778092800384 9.6803594111037654
59.743549795748237 21.362010436706591 9.7678742291423664
61.598639656849741 20.976882155076115 8.8633968486856425
57.458246683390342 22.37555501158905 9.5992268123323861
59.056920910913249 21.917438950835972 10.00030811197384
58.933379533774691 21.248369340313602 9.9382738944874358
57.681472520768295 21.859012951238881 9.8806147098676931
59.052164514525963 20.739003846967613 9.842249915301883
62.047928048357008 20.567202587826678 8.7050613263662768
60.835347313131173 20.781137863111894 9.2939151749281308
64.600565233161703 20.858243199360643 6.0879043905447841
57.067840056153024 22.523650035181273 8.0398400502702234
58.18353811207718 21.152468089922106 9.9520415163507909
56.85768148496701 21.877109964607662 9.1702860529837871
57.141912447575024 22.415482468708682 9.1778283576967574
63.658372667231397 20.739742789258809 7.4574953754625941
64.010095092415497 20.604418304742001 7.3585806068324784
64.039161017343631 20.892042545197388 6.8234725933512372
64.373344907408722 20.763464471756084 6.7294899773385186
59.258554760825717 20.393400025400126 9.7482569140116837
58.312544678995074 20.599278572322639 9.8477555706562629
64.53779606114071 20.712008727783662 6.6848372685461328
57.185180590894724 21.858335103096238 9.5919814245975985
57.033120223762353 21.034825555012134 9.5156284812313352
56.718001768149477 21.914245539920262 8.6400374851313266
57.009206964117219 22.46582264482425 8.6477641066280473
63.152105243471233 20.536480178720247 8.0454324047399659
62.6948165554561 20.785359615457949 8.1838859494752327
63.531922521885576 20.390346768285347 7.9386165999141944
65.122083989342272 20.574757962159957 6.5323422738497694
57.537607672891909 21.079881073102769 9.8083760304339442
60.588152624666556 20.082891343574566 9.4014867591080709
60.039909401485986 20.582801643444231 9.5946953045052794
57.675933828028697 20.48672533378037 9.6965559180801453
63.718826371465319 20.331864992445499 7.88786731033729
65.779573744717908 20.483215829635583 6.3692373540769704
65.442522906124992 20.65413237526905 5.8673041798263785
56.555841279807147 21.036032866986982 8.5586124824661134
56.610786681703232 21.082225632875481 7.9499626332440361
56.71145796785909 21.792421314437508 8.0227943674264353
61.331834994875841 20.32842067154121 9.1189460457144627
61.886413744242446 20.026591641544499 8.9510360087431859
62.347033801090006 19.84936809859699 8.8214958752428885
62.549786909222895 20.294067161044232 8.5531134262083448
62.966618564637727 20.133691746462731 8.4358879739149923
64.183173941889322 20.550261540082879 7.3115850589244751
64.798124125141342 20.405808856717044 7.1510875317743743
56.851585238377353 20.367340063009394 8.9677879883558766
59.189994808122186 19.628230757913247 9.5154425257530946
58.536692024820113 20.223939734225965 9.7456756754171074
57.179326558130413 20.407885023210895 9.3974390216251216
62.573704258924977 19.778444474023509 8.7599490492192231
65.49011855432515 20.309463287675825 6.979423048701376
66.437227045811326 20.549389088253189 5.6251035991989955
64.382893455064192 20.175873907798014 7.7145505251949897
56.699400658855566 21.019920826758593 9.0908108105063761
58.616776324499405 19.445523076495522 9.3402345442490606
59.919737753788418 19.231069396105795 9.2944980389628959
59.860102002691917 19.844884157386392 9.5362631805312077
61.090123839556185 19.264460716181716 9.1758705059421448
61.200544139296582 19.749599183386387 9.216072919086967
61.709179440820783 19.553900957495138 9.0730293522778993
63.171738437610834 20.069510067856402 8.3801925364661258
66.243364108989596 20.449001332061698 6.2582838637331353
58.173758083198585 19.307378190860391 9.0208222055079652
57.916274177890031 20.084269161650749 9.5871012479441866
57.179664796485454 19.784706681006199 7.6443053991645025
56.767971675282134 20.408198477308396 7.8228970167673042
56.982663369823065 19.913811188661761 8.3091983533170239
56.711759095843178 20.367446835748257 8.4325722192241965
61.364756638807236 19.178528752260888 9.1013005084258758
63.900524244889162 19.898316169141289 8.1899845954179487
64.720618547849412 19.784135263125563 7.986542093618783
65.978247024247807 20.273453395037606 6.8626471134667337
65.130158403318035 20.071832510857512 7.5291748924902873
65.657272697497376 20.032946458816127 7.4030722851512296
66.49625503838962 20.439333660129478 6.1989981641537089
67.538167388647082 20.548912309997341 5.3726276246531555
60.532034779784588 19.479186468662142 9.3328219747681338
62.848780216221037 19.266685148372797 8.7729653788536801
61.95947756227681 19.475583454654746 9.0050668837053003
65.944693371211372 20.021958496194394 7.3356916762696764
57.433355251582121 19.982506271178867 9.2817503230151068
59.000791126751231 18.857267493533303 8.7704212529133549
57.11600353097851 19.92456406982215 8.8473677632216923
60.525847178546549 18.997869530986364 9.1240420399195319
60.824107677953577 18.904543946537999 9.0430564262859257
63.379050315048822 19.589266104213927 8.5497593914093208
64.285297345740517 19.463090091878307 8.3249447829402818
65.299107203691136 19.741459466997341 7.8481491251272812
66.244405418443179 20.263277735950751 6.8002509902617252
57.886687848232846 19.221825505545958 8.5757682172009666
60.049136948322257 18.769619860248998 8.9205572139636153
59.399241645751424 19.019667881147434 9.1033273193280237
65.614536575383312 19.729400255103407 7.7742023145325341
67.256844513464415 20.444045318991236 6.0252548246652609
68.04513634824994 20.497251972107357 5.8517094818919482
60.025727877449889 18.487209777566893 8.4854583235694001
63.438538747921847 18.796443707710637 8.5742454620330335
63.849492128306387 19.127355437875664 8.524716475007466
64.924556433947885 19.415931171444207 8.1720135831571028
66.80913171223682 20.027313901989281 7.1382259408753619
68.540990843576694 20.554212752688791 5.7457179786022099
68.693868800679383 20.652723452974264 5.1216808048322502
69.850285355369934 20.855968700771115 4.8839986877195063
57.837091241643044 19.225038796186265 7.417994202243416
57.772249189932595 19.193837069511158 8.0309376002701054
58.726236200616242 18.741121985960305 7.1487873625118805
58.747541764380898 18.753306223107192 8.3151270885691915
59.462548857337431 18.478207557296429 8.1140457510872377
59.68770329340763 18.59297723816189 8.5772408987638666
60.368947996056228 18.669552072094113 8.8337201853236103
68.396439464485155 20.384185621825054 6.323184828998766
67.874565762654811 20.324235477308083 6.4347380157466585
67.70505822883257 20.087785158959846 6.9409843841746159
67.044907325544926 20.268237145092115 6.6173904228875831
61.883824858610438 18.655613772120947 8.7664777999961618
62.340524938643476 18.949319627512683 8.8466321102465137
63.076308706127278 18.489584982201492 8.4706557859284963
66.321476181793798 19.409100208926624 7.8508205430550033
65.273122135522442 19.402604985906549 8.0902985306258692
59.828152009137028 18.343271363743074 6.8424220587099231
58.654217316603535 18.713826477146871 7.7639037244531162
64.21306872431893 18.739305265893336 8.3889530863749577
64.555391774486822 19.075280744086477 8.3558427759723273
59.747237554809303 18.319186849427702 7.460011547534303
59.386760274919304 18.431980341890121 7.5578907035132854
61.50522546209352 18.402637684321956 8.5371598687037249
68.164948422991017 19.87268966852681 7.2088230840219136
66.097931842229457 19.067737641313926 8.0011673231815728
66.563223104487619 19.735277336009368 7.5574915268103515
67.546467398877411 19.801642439384565 7.3410266721870716
69.637398899386938 20.743603453983592 5.5199228865090806
68.844334424187451 20.597819003193358 5.6820597356486484
62.783862037341855 18.224613788082614 8.2199657479661781
63.685808087852557 18.158076761169713 8.0041915184242605
63.917479240497428 18.427530767029104 8.2694209110184609
65.905585219744637 18.731028630940234 7.9997936110502303
64.940291622228244 19.060565085134883 8.2656097773894377
68.543311304728604 19.927080527494923 7.1294217053332876
68.268616790213756 20.152523300046418 6.8205207709360227
68.613377145949329 20.202083742046664 6.7481710606074632
70.407425257698733 20.931497257739309 5.3687548702949961
61.028018020233276 18.018329898868878 7.1257371876539857
59.814398331880781 18.368114312302595 8.0185093549290833
61.064516542254296 18.074459279485904 7.6922375275025026
64.177600282696886 18.139273984677221 7.8888994404116453
67.408009887620636 19.482436695917254 7.6116161110178604
68.715699522883142 20.430080121589164 6.2561864598074219
69.55038083170281 20.583514508066607 6.0855412878006412
62.471250467659019 17.878600018859053 7.3432659629246952
61.226726554251712 18.205092345400743 8.1720062497261345
64.635395563423884 18.723159506763245 8.2899460994418721
70.841503371029233 21.059649368621891 5.2865412330045451
64.051313825736983 17.926728401061116 7.4868224159055501
69.514724116031061 20.367773034644173 6.5638965492195229
70.953347038264042 21.149144825576943 4.6706944368374597
71.951476866405642 21.518542910744685 4.4917416587024768
61.11935219756591 18.039965753487724 6.505428084835204
62.572317961839168 17.837669963396323 6.1449877299214783
62.578192484206411 18.016928940086171 7.8367452598941307
63.531507776069638 17.946601598781694 7.6086817661083774
64.376140225769262 18.409995534485073 8.1618959780337175
68.5095722019623 19.621052064242157 7.3777820536658369
68.514126798702449 19.301784713889781 7.4788167777516019
68.052431468024878 19.235414430269145 7.5757058789980825
68.09146450082514 19.5609477767828 7.4655240872241917
70.360815345929183 20.781268042744095 5.9264404959300645
70.817672713186795 20.916145420457593 5.839912533097726
70.389892081574345 20.581321849638783 6.39208754460563
68.050116014179537 18.915008407630342 7.5329656274301211
67.222042311748751 18.819884464936301 7.7099707559904846
67.297732864420723 19.148719279095641 7.7370266814422584
65.755616055819843 18.418541991821037 7.8467790230050802
67.185335343878506 18.515042406303451 7.5320210551517706
69.602683776091681 19.821992259622839 7.1543025121882948
62.469254022756303 17.817666658833442 6.768206581798685
63.48589580468213 17.742668048213837 6.5249934225634068
64.156083171764294 17.740695613425142 5.7687828583547542
68.556700441063953 18.987831501507046 7.4266563018303975
71.813569251118608 21.416783494558722 5.1119078539763567
71.138006822318573 21.157496027389833 5.2317764348122022
63.463556667553895 17.805396830716784 7.1058746736943217
64.040231598663411 17.721474559803742 6.3950391630584562
68.08465815701885 18.618350989610189 7.3397860510322914
71.129735169974822 21.019126771031118 5.7822739805672274
65.63194784565016 17.794793030371252 6.6072975594981997
64.004619876429956 17.784710759156582 6.9790319347235599
70.883240361766497 20.726972177022663 6.2986482398218229
70.492965432355689 20.343279272866994 6.7386342916288857
71.034396718477382 20.503124770017259 6.6360881101541764
69.532507448052684 20.108918361522889 6.9271869690054935
68.154043611331588 18.362682246950445 7.0073953974277678
67.189752329410226 18.251910382225148 7.2135177402671502
65.614705361033472 17.93641467562226 7.1296932087003633
65.656738509604622 18.148438013822556 7.5510163824429357
67.235031801788267 18.045780062385369 6.7729723390790593
68.634830213443649 18.697440079648171 7.2243296577444402
69.721186720569449 19.523671257067384 7.2320412254195379
71.40422772975964 20.625169652774673 6.5677795606758753
70.664044678042572 20.080973686573788 6.9459409373552461
71.840748785180182 21.292020043162093 5.6561150145145707
71.220229923182103 20.838179271598136 6.2364055667383802
72.419717610834226 21.703833584519177 5.0117031397436644
68.743965607465839 18.447485335784407 6.8835972523615787
71.262353074981874 20.257611249240092 6.8326223758490627
71.671036579444447 20.392477446606996 6.7571376805531198
72.719661424532234 21.871883078517438 4.9656305270995649
72.797999937242508 21.946889567845574 4.355508679310061
67.318542347623378 17.908631213019273 6.2359875271012779
65.707471945108182 17.731804194688962 6.0141875203000037
65.836886504216821 17.751108884918985 5.384832937399306
70.07319673656562 18.961846445128231 6.9302649917351307
72.005146925672221 20.153625443021944 6.7934756223465609
71.55386254740398 20.004700571340067 6.8768287447466783
72.676947714201063 21.459113510057954 5.9862829233566579
71.98803389939745 21.132869750718761 6.1001700584362943
68.254250703286885 18.162861843210454 6.5551089508361002
68.877770105113285 18.252494778707543 6.4242602343184529
71.167076123110775 19.545076181139386 6.9034342385607204
70.893186027076624 19.80964974231577 7.0019596611215604
69.881123736758198 19.231292089494922 7.155886549766997
69.34502432382709 18.090928106064606 4.6264182718453917
67.578911328617721 17.868688504550938 5.0013197300254468
67.435433122475601 17.848434571915568 5.6337704763986647
72.478704727117744 21.594133063204588 5.5506520668846093
72.387152391032657 19.922496013644775 6.6746793472142087
73.002913408908881 21.306619665698449 6.2932807777219022
72.246862070744584 20.948580747513471 6.4182665073557938
73.373844157882019 22.336286305213591 4.8783647121788842
72.943530123706751 22.012527352425714 4.933298487427189
68.379446181742708 18.030501505892701 6.0092137652308075
69.187292212177454 18.068880453629504 5.2618947546668089
68.522356090028637 17.973293713245791 5.4014349782068471
71.89198783553573 19.759090940593516 6.7661372738466223
