# XYZ point cloud file
51.851187253683349 8.2924304009250438 21.133145222941611
19.135821990120732 4.1265679766975234 7.8684014910143762
18.718446137066941 2.7875522446060406 7.8683511226046381
45.648807854381751 15.654386104232008 18.382203216272519
33.37087840152514 18.407794820533539 13.425068449552873
26.626177308038894 18.40813291137745 13.426264851518955
24.432579695808776 17.86762444873613 13.426603734048726
17.846208833809964 7.3528161115023334 9.4306025707909029
21.240779949929923 11.183738558447331 9.4303563587600596
18.465528271634341 1.4079961879978087 7.8682678163181912
31.128151912354696 18.68020235815429 13.425491571099185
29.999126262839894 20.575575914854852 15.802116160128602
32.478579952016901 20.425485669782113 15.801662412049943
47.492895775391752 15.50220856572661 21.134588123595861
45.497458790846203 17.497689662101621 21.135127464534076
22.320130160667539 17.066671222692328 13.426904025771387
37.293343399384469 19.238597135842049 15.800698103772088
34.921864511104324 19.977648579712984 15.801187417233884
50.768700531254275 12.559693600498361 24.015721395318604
53.870657785178601 4.3798040714616544 24.014411213464069
54.091913565558265 5.9430631128210623 26.983741588112498
54.631833566269158 2.996098627411024 26.983372027524236
27.519653204637386 20.425734245323959 15.802542046243953
41.449094452301971 18.944724728449955 18.38325384999057
43.648476099085826 17.426564056229353 18.382722679296165
17.049314522117108 5.8348042031753771 9.4306028913370739
16.441223438849612 4.2318155005238003 9.4305618272605756
33.98905267507152 21.774135185961178 18.38483997569249
49.104084904500887 14.971382338263828 24.016240723468663
22.29532127348288 14.682439687939217 11.292165202057495
20.319634114100811 16.016952593558948 13.427161347523421
17.591462245051002 10.997926909930111 11.292657256999782
16.357014982520464 9.4225854288776247 11.292729864148001
25.076320327399685 19.978142106156291 15.802933859108073
53.169492336132876 7.2250084753130217 24.01479992156526
39.082740193728256 20.186733620551514 18.383788982087079
31.336004876915865 22.096381605727061 18.385340510075977
16.030802315536281 2.5672254305369737 9.4304799774980506
20.582423343559128 13.647169531826387 11.29237285219472
19.006811708124882 12.41299963955219 11.292537671652301
47.160882944444865 17.164854626209866 24.016789193513084
51.971129165258773 11.535587880642474 26.984637349125183
53.20067652328661 8.8034635549514011 26.984165422784699
52.130456508055104 9.9649562835196335 24.015238781944863
36.583912652714801 21.134476546159313 18.384320273205748
17.955129766952691 0.0080304069436247794 8.0969425367251961
15.824032733594915 0.86530670253002828 9.4303585361148254
54.949892569439591 1.5144429671284478 29.996340133544031
54.945774894005133 0.0054876979608211585 28.426569863396264
15.321468017643042 7.7099495045314379 11.292754435051856
14.499924826792579 5.8849914137768646 11.292730610734912
54.586253089149714 4.5104734070320696 29.996682984121048
28.663449384127684 22.09651557260409 18.385814578622785
26.010362172039702 21.774535132848087 18.386255267619038
40.86096666589949 20.698112364378744 21.136247220062984
44.967429938315568 19.108126704595971 24.017358807882491
42.555711271332761 20.772858478001325 24.017941260072938
43.276015330695628 19.238116590887081 21.135683198351028
52.793971532099626 10.262777091650785 29.99753531989959
22.704753490633408 19.239328416384417 15.803285886003987
18.460261023183399 14.733777550127883 13.427371947537381
48.573471184067074 16.458101072201746 26.98569735319024
12.93737697138303 7.6857521013155772 13.42769679092731
51.391461110693321 12.935168915608905 29.998032376819459
50.421190607416989 14.099597415411369 26.985150487411314
38.287521322840441 21.856382259722729 21.136811306002976
54.946397463956991 0.0053813868105905271 31.565831362927998
54.553613113097995 0.0052956340156229409 34.680407349091567
54.63302869076589 2.9958945458302511 33.009696151454008
16.769126777145981 13.235856870975725 13.427532754353914
49.677028934848451 15.419034449638842 29.998567247034845
12.136125031040073 5.5735735476908586 13.427642682929935
13.904363504854633 3.9743234167830823 11.292658738962679
20.916493659450452 20.187644237869669 18.387011383312679
20.439539518005997 18.220068535355658 15.803592993036951
35.59321455307412 22.696039901551529 21.137367229351941
32.817328636686213 23.204839917609156 21.137906884579902
13.987402922470064 9.6859614057838872 13.427696368970663
14.601704206466962 13.647316614173716 15.804203669409382
15.27089226044604 11.545032382516547 13.427641422873108
23.415429634426822 21.135136641169453 18.386656151216503
39.960893343655307 22.134774936143835 24.018528057003966
53.864104800465313 7.440828766614441 29.997083325157522
13.543470838615374 2.0058077106314496 11.292539867437009
16.358257766526688 15.403525774181929 15.804055255043398
18.313707499848103 16.935222212846156 15.803850702085249
11.59533177113472 3.3802252979892904 13.427534833815191
11.322883303045767 1.1376915605810343 13.427374816266743
14.349895428714873 15.655955021159366 18.387755142124139
30.000347507819484 23.375362923277393 21.138422401370306
47.675669083786289 17.678153247128975 29.999132132025053
45.416571098589657 19.679581444235993 29.999718793494537
46.454910161233393 18.576708811027807 26.986269972960628
19.139418580160473 20.699201197882502 21.140100274850131
38.80010273428875 23.2043419265569 26.98805771128448
37.220820158277242 23.174017025739921 24.019110640911489
12.577546771438154 13.655782401170766 18.38788369260606
41.532334927537612 21.974603859895865 26.987458820035577
44.096398190957878 20.424524559272506 26.986859996936591
27.183344632700123 23.205122331667255 21.138906263121047
25.626453214418799 23.875870068502891 24.021232448124426
53.87303060692161 4.3793988842083413 35.979183880009444
54.093108690054997 5.9428590312402907 33.010065712042262
34.375441255480787 23.87543150900126 24.019680517749979
31.466256805543608 24.228788363816257 24.020229375819188
50.422385731913728 14.099393333830598 33.011474611341086
48.574666308563813 16.457896990620981 33.012021477120015
18.549990980893117 18.945872589134986 18.387315784246077
16.350434478773643 17.427932421973164 18.387564914735822
11.059234981938328 11.456581205682085 18.387948691300053
13.06966330107492 11.692203345618568 15.804293780536245
11.784474621861666 9.5666959039464956 15.804324274582655
24.407401394619257 22.696600611501189 21.139351413479524
21.712994963633211 21.857213089069582 21.139751361558922
22.780994562244796 23.174740849190961 24.021672034736593
53.201871647783335 8.8032594733706304 33.010489546714467
9.5778494871349729 2.487437372442816 15.804057980457561
10.025744426314764 4.930509892992613 15.804205508634368
28.535680699302304 24.228935264462436 24.020749213090944
46.456105285730125 18.576504729447038 33.012594096890396
14.502553824032706 17.4992433400826 21.140625464330792
53.202683824679617 2.8219684576437052 38.861147706948174
10.764878533090055 7.3017889330086714 15.804294706975963
40.260199949587395 22.796812819103401 30.000923035863462
37.438122466628435 23.867156615036407 30.001523055165585
51.972324289755505 11.535383799061703 33.010961473054948
12.506882589735444 15.5039623055231 21.140794082078028
52.694142108377257 5.5976662573914897 38.861495790017813
32.992390076756443 24.636001475415 26.989220888861453
35.939551828795011 24.095807355070718 26.988647936147906
50.771073352997291 12.559288413245049 35.980494061863965
27.010774468914814 24.636301315161901 26.990281931682237
24.063547926760606 24.096402662131169 26.99075454906087
42.932673786056625 21.394135149748685 30.000318677428602
52.13282932979812 9.9645510962663177 35.980011448490231
53.171865157875892 7.2246032880597078 35.979572588110628
8.894397143281882 0.0081964432120962272 16.609829169159319
30.001591851144845 24.817047152100578 26.989768214828498
17.445825795599873 20.774117158297663 24.022395351653117
15.033913300793497 19.10962717848814 24.022668534386387
16.724198020144122 19.239447550732077 21.140393065547979
49.106457726243903 14.970977151010517 35.981013390014041
47.163255766187874 17.164449438956552 35.981561860058449
10.766284983643642 13.282700376925741 21.140896460112131
51.107090861549153 0.0051735061310829167 43.391419958444871
9.3061442817137987 10.867848577941441 21.140931105276938
9.8170996100844903 9.090420375943884 18.387949190496588
20.040800383178592 22.135773468316948 24.022061562499932
10.896775721444877 14.973297551588525 24.023018088275759
12.840234032244453 17.166575013369133 24.022877127028103
41.533530052034358 21.974399778315096 33.013782943965353
42.55808409307577 20.772453290748011 35.982713926618317
44.097593315454617 20.424320477691737 33.013184120866356
8.8692528872662351 6.5918040069342076 18.387885183088983
31.511337445410476 24.953495621348559 30.002675271455146
35.940746953291743 24.095603273489949 33.014972060077682
34.507588410463974 24.58956324079837 30.002109987058759
22.566145809883633 23.867902100873195 30.004161105668501
25.496762059260369 24.590014925438382 30.003708363356413
51.854703171962946 8.2918300164778014 38.861894992433307
50.696611105916091 10.865173594640254 38.862339492437869
38.801297858785489 23.204137844976131 33.014381835214252
15.906273173393629 20.425937642376574 26.991860473685321
13.547548917039496 18.578358354481225 26.992107211875361
8.2295174926156296 3.9971674951734566 18.38775760227746
7.3079989872016267 5.60054153149171 21.140796171846237
6.7991321637863482 2.8248947312629591 21.140628560759033
49.262624910496214 0.0051799811106110205 45.931465194878328
50.423928155964234 2.4844283731719576 44.197653675720971
51.772435946255797 3.9941982287359519 41.614234551623497
47.496411693671348 15.501608181279369 38.863337893087561
45.500974709125785 17.497089277654382 38.863877234025779
44.969802760058577 19.107721517342661 35.98213147442786
21.202891328502211 23.20522401991763 26.991179174790666
18.470517867048343 21.975759876905968 26.991549617076128
9.231879286599332 12.561775711885273 24.023089362247482
7.8698221391742411 9.96717493116887 24.023089909703536
8.1477516280063096 8.2946211179379645 21.140897512566077
37.223192980020251 23.173611838486615 35.983883307456864
49.236751598624792 13.280171764133977 38.86282280855005
49.976320551956661 4.927545782473139 44.197960051708591
28.493057290169599 24.953646918325354 30.003210666020724
43.279531248975225 19.237516206439839 38.864432967842731
51.133002675644676 6.5888988612349753 41.614589036471969
50.185447851518838 9.0876102408166073 41.614989257761536
40.864482584179079 20.697511979931498 38.864996989554683
6.2278764374174909 0.0081381572195127205 22.280068210715935
5.4478777525233539 0.0080743151195856733 25.320843685192962
32.993585201253183 24.635797393834231 33.015545012791222
30.002786975641577 24.816843070519809 33.01609233875827
21.204086452998958 23.205019938336861 33.017503298720442
19.743941805281139 22.797841235179035 30.004562291516208
49.237461608514842 7.2988989096741914 44.198311422349093
48.218127345245264 9.5639080858356191 44.198702663549341
38.29103724112003 21.85578187527549 38.865561075494682
39.963266165398323 22.134369748890528 35.983300723549334
47.11438293832007 0.0052101910426132214 48.220269439318017
11.428740261737845 16.459963021790081 26.992286233629745
14.587210575369109 19.681126823989977 30.005187428357942
31.46862962728661 24.228383176562943 35.985002042364556
27.011969593411543 24.636097233581133 33.016606055612016
17.071306563115421 21.39543149948279 30.004906069836693
46.933186168299876 11.689544360106794 44.199128069382013
47.425530391550623 13.653248984716067 41.615902984153124
48.943587049968357 11.453895585540852 41.615429379708075
9.5807443173109785 14.101644619692269 26.992394928574821
10.326256664522665 15.421006981204153 30.005547443882502
48.406548877602773 3.3772576575883626 46.574343651789221
47.866012921967183 5.570660110953213 46.574643311390673
24.064743051257352 24.0961985805504 33.01707867299065
6.1289681516208763 4.3821972135615495 24.022879824681979
6.8304663232910787 7.2273313062574349 24.023019722718754
34.377814077223796 23.875026321747946 35.984453184295347
41.453702196749411 18.943937901827965 41.617453798445155
39.087347938175704 20.185946793929531 41.617988930541671
5.3688089648198112 2.9985680292911576 26.992110499203182
15.907468297890361 20.425733560795805 33.01818459761509
43.653083843533274 17.425777229607366 41.616922627750753
45.653415598829184 15.653599277610024 41.616403164727117
44.696247950794778 0.0052636592331016807 50.221738874183799
8.0305091213667765 11.537790486971025 26.992431711467237
46.015214842571218 9.6832335425760192 46.575353686424535
47.065006929047456 7.6829189807742058 46.574981634287255
22.783367383987812 23.174335661937647 35.986444701281954
20.043173204921597 22.135368281063634 35.986834229045314
18.471712991545079 21.975555795325199 33.0178737410059
12.32787860294812 17.679925121693678 30.005402264005973
28.538053521045303 24.228530077209122 35.985521879636323
27.18686055097972 23.204521947220016 38.867656032612743
25.628826036161804 23.875464881249577 35.986005114669794
46.45825358914864 2.0028908575801059 48.709082314413465
7.2087132124727962 10.265062138570084 30.005621414734939
6.1382523152582102 7.4432211148474501 30.005549127118929
6.800640780672941 8.8057894441234126 26.992396046087254
5.9090740148081515 5.9454783683913277 26.992288452261256
17.448198617342889 20.773711971044349 35.987168018198489
35.596730471353716 22.695439517104283 38.866116998843637
33.99366041951896 21.773348359339188 41.619039924147074
32.820844554965809 23.204239533161918 38.866656654071605
36.588520397162242 21.133689719537323 41.618520221660333
8.6115333696457945 12.937313340049961 30.005620850934008
46.097586325731612 3.9714427332820521 48.70932917911577
45.502251299945449 5.8821704261979582 48.709612296829391
5.4157599588612317 4.5129381705979563 30.005405042198788
45.401373879335168 13.644811210073147 44.199581436748076
8.0317042458635122 11.537586405390252 33.018755835397016
39.564072961508323 18.218148369445167 44.201041742580117
37.298975778107703 19.237635340852087 44.201538240199
43.233903401624531 13.23340786538834 46.576176865184223
43.645026730025911 15.401196460844902 44.200056154713252
41.689753452399948 16.93308893186471 44.200545301391941
13.548744041536235 18.578154272900452 33.018431335805133
12.842606853987466 17.166169826115819 35.987649793573482
11.429935386234586 16.459758940209309 33.018610357559524
30.003863426099066 23.374762538830147 38.86717217086202
34.927496889827566 19.976686784723029 44.202027553660798
43.970985584124378 2.5644318846343506 50.571246522416516
39.683721824010306 16.014859523375407 46.577065006858575
28.668057128575125 22.095728745982107 41.620014527077373
26.01496991648715 21.773748306226096 41.620455216073623
6.8018359051696784 8.8055853625426419 33.018720170017033
15.036286122536509 19.109221991234826 35.987441200931755
44.731940075964545 11.542433183193143 46.575754043175635
44.680919659123354 7.7072108691473256 48.709927540832908
10.89914854318789 14.972892364335211 35.987790754821134
9.5819394418077142 14.101440538111499 33.018719052504593
9.2342521083423446 12.561370524631959 35.987862028792861
24.410917312898842 22.69600022705395 38.86810118297123
5.0557150181455217 0.0078822512221838892 31.574681171057389
5.3700040893165504 2.9983639477103865 33.018434623132961
5.4497356435704116 0.0077570583460708775 34.68911759061784
31.340612621363306 22.095594779105078 41.619540458530579
42.046360144819744 0.005339542303968603 51.904306590540742
42.411305437693713 10.995415830968476 48.710635616623534
40.996120754402263 12.410630446445094 48.711018122706179
43.645573073635823 9.4199506009326264 48.710270313282123
42.952853861406027 5.8321127478851142 50.571730704274302
42.156138219098096 7.350204538912096 50.57201306461431
7.8721949609172537 9.9667697439155578 35.987862576248915
21.7165108819128 21.856612704622343 38.868501131050621
19.142934498440059 20.698600813435256 38.868850044341841
35.570987945248788 17.865943706226119 46.577966497196272
37.68334420481024 17.064778703835714 46.577517376025895
12.510398508015031 15.503361921075857 38.86954385156973
41.542941676879593 14.731498078470189 46.576615988032898
33.377453282800566 18.406672082134541 46.57840582167762
32.484212330740142 20.42452387479215 44.202502548476858
6.8328391450340931 7.226926119004121 35.987792389264115
20.921101403897886 20.186857411247686 41.62121133176727
18.554598725340565 18.945085762512999 41.621515732700672
41.283367427333069 2.7849224026937458 52.133417757612477
40.866149399077017 4.1239799703752347 52.133616169611798
43.56075828860687 4.2290630911686176 50.571473942066874
23.420037378874262 21.134349814547463 41.620856099671101
5.910269139304889 5.945274286810557 33.018612576191032
16.727713938423712 19.238847166284835 38.869142835039682
14.506069742312295 17.498642955635358 38.869375233822495
25.081952706122934 19.977180311166336 44.203773995534988
22.710385869356649 19.238366621394455 44.204126022430913
40.290552576835566 5.4029873038931928 52.133837095723393
40.045326199371999 10.044526413337758 50.572637797024299
38.762013196626803 11.181467282035491 50.572971058566026
41.536124655340871 1.4053409981691676 52.133244752662208
16.355042223221087 17.427145595351178 41.621764863190421
28.875512291556657 18.679192867136756 46.579229691698117
27.52528558336062 20.424772450333997 44.203382182670879
31.134726793630122 18.679079619755292 46.57882894322394
30.004758641563136 20.574614119864897 44.202956296555527
41.182227159906653 8.7612011760272885 50.572316906003095
8.151267546285899 8.2940207334907221 38.869647282057784
35.882764875684416 15.501856972541326 48.712212319055368
39.420654742243016 13.644958292420474 48.711412253962749
37.350998095570894 12.155445341204105 50.573311831638534
38.723521236353356 1.6029588268279529 53.372659756444094
38.467445177891939 2.6420771164308698 53.372801719105823
7.3115149054812161 5.5999411470444684 38.869545941337933
6.1313409733638853 4.3817920263082346 35.987652491227351
20.445171896729242 18.219106740365703 44.204433129463879
33.971937465493106 16.097350920140855 48.712606585150397
32.003251233336478 16.45819620605484 48.712989313994925
10.769800901923231 13.282099992478498 38.869646229603831
9.3096601999933934 10.8672481934942 38.869680874768648
24.43915457708421 17.866501710337136 46.579941106173479
37.70787736950524 14.680400166959073 48.711812263766319
35.943602338717312 0.72650643731179709 54.271135645148377
6.8026480820659394 2.8242943468157184 38.86937833025074
7.3870088909736662 0.0074581913444697889 40.648220838405521
18.319339878571348 16.934260417856194 44.204690838512178
30.005420596685369 16.579132505089881 48.713354923530446
35.832859780889741 12.952255991289201 50.573655146284096
39.564970230792795 6.6032928615119388 52.134077314319214
37.708208057943381 8.6991920861038299 52.134601386633705
36.604105019689207 9.564221650510941 52.134877597908954
14.354503173162311 15.655168194537382 41.621955090578737
12.582154515885598 13.654995574548781 41.622083641060655
26.632752189314314 18.40701017297846 46.579602223643704
34.229737165925165 13.560281095010987 50.573995996125376
37.590632533312586 4.5903969283111792 53.373138257654588
38.699984866803902 7.7073947771641187 52.134333322257504
22.326705041942962 17.065548484293338 46.580241397896131
38.087968702819119 3.6427538545337983 53.372961999009576
30.862938365643686 14.177391724809089 50.57465052976292
36.272995800921613 6.2722825044148998 53.373528236012277
8.2341252370630755 3.99638066855147 41.621957550732049
35.302177523002563 2.7851498740904477 54.271440680460884
35.598588474204931 2.1265074735568419 54.271326911620108
11.063842726385769 11.455794379060098 41.622148639754641
11.790107000584911 9.5657341089565389 44.205164411009576
13.07529567979816 11.691241550628611 44.205133916963163
26.038849559168888 16.09774858111173 48.714013787906552
24.127949006742121 15.502446204823389 48.714297435151948
32.969123018794932 0.54871634608388042 54.815778858619552
33.012954018282322 0.18758473226109995 54.815737532703466
16.363890145249929 15.402563979191969 44.204895391470316
29.14836158375353 14.177477671199167 50.574954668227221
28.007575889833834 16.458396496806081 48.713698082815156
34.928529271318027 3.403264065538778 54.2715643842986
36.982686056090394 5.4711878132994629 53.37332792532915
32.785585421191278 11.282883666382956 52.135714597934466
32.565005022294926 13.970654883050896 50.574329411280146
9.8217073545319291 9.0896335493218992 41.622149138951187
22.302742779822253 14.681172378341286 48.714544887948691
20.326208995376227 16.015829855159957 46.580498719648162
27.446270864532917 13.970911469240139 50.575237392749656
35.813441554849753 1.4369410301883434 54.27122473643837
14.607336585190204 13.646354819183758 44.205043805836297
35.403769603159759 10.289869822810243 52.135157929486382
8.8738606317136792 6.5910171803122219 41.622085131543571
10.031376805038008 4.9295480980026554 44.20504564506129
10.770510911813295 7.3008271380187129 44.205134843402874
31.405910872664919 11.535767373707872 52.135982818030428
18.466835904458819 14.732654811728887 46.580709319662134
25.781490946564208 13.560704579262447 50.575494579716661
32.753087855544912 1.2420798934591524 54.815881596251103
32.882076452219437 0.90193161674938249 54.815827114610187
34.12471454218899 10.865555029905124 52.135438291880035
35.471908151766222 6.9819991018395555 53.373736269153667
34.483093232937208 3.9718366870067441 54.271696219109145
8.899709881586233 0.0072892305875278396 43.398906871932624
9.5834818658582144 2.4864755774528589 44.204898116884479
13.993977803745487 9.6848386673848914 46.581033741095411
12.943951852658454 7.6846293629165823 46.581034163052053
24.178297542319132 12.952840198169248 50.575722478992077
32.584033370346781 1.564201202515151 54.815941509943542
16.775701658421404 13.23473413257673 46.580870126478672
15.277467141721459 11.543909644117551 46.580978794997861
28.605700908487599 11.535907739505674 52.136479530436233
34.591104429136287 7.5899879979665954 53.373948991190488
33.643433088105859 8.0873839511288903 53.374163299440454
33.403789554766597 4.9280355547224612 54.271976501642882
32.78566099756285 5.3017181955200545 54.272120862137086
17.598883751390364 10.99665960033218 48.715036942890976
32.377380305316947 1.8635980201009863 54.816005981610971
32.136141373715098 2.1359047526949357 54.816074071271586
20.589844849898491 13.645902222228456 48.714752538085918
19.014233214464255 12.41173232995426 48.714917357543499
31.603529062778485 8.7231020701364521 53.374584198115613
30.541044124760646 8.8521543875704385 53.37478465068331
30.005810820874665 11.620521253765174 52.136239040961058
32.126993997717257 5.5981756151529858 54.272265238646085
32.642711403842959 8.4669338494741133 53.374376069148838
16.364436488859841 9.4213181192796949 48.715109550039188
15.328889523982415 7.7086821949335071 48.715134120943048
33.972363967566999 4.482576277950777 54.271834262567509
11.329458184321192 1.1365688221820403 46.580712188391487
31.437389753499424 5.8130841964126638 54.272407526426875
12.142699912315496 5.5724508092918636 46.580980055054681
19.965492571461887 10.045532952812643 50.57619963795662
18.828442186761905 8.7623217015956492 50.576282109489597
31.863838465121347 2.3771502453584068 54.816144785271874
14.507346333131956 5.8837241041789348 48.715110296626108
13.911785011194006 3.973056107185152 48.715038424853873
22.660066455612029 12.156181751818478 50.575917767654687
21.24893985941652 11.182345157817089 50.576077597326218
24.607695221676622 10.290410996369751 52.137072980196109
31.242308044265457 2.7528909437479463 54.816289940391741
31.564437812876669 2.5838170141885257 54.816217093289538
27.225996922154323 11.283162351226274 52.136700779904388
25.886819215092888 10.865967969921977 52.136899562591537
30.005906634565918 5.9869556458179094 54.272677595599362
13.550892344954743 2.0045404010335193 48.714919553328215
12.894334719826665 0.0069255354026642735 48.226339527880981
11.601906652410143 3.3791025595902968 46.58087220593994
30.902143905509767 2.8819068151447036 54.816362264794549
29.284900992882079 5.9433828868018708 54.272801438936639
29.470746565235149 8.8522080382511916 53.374974504330908
16.449383348336209 4.2304220998935591 50.576283065826743
26.368268569883654 8.0877486324509338 53.375453797123384
25.420537410499286 7.5904476899083893 53.375575702924493
28.408246606525676 8.723262239686921 53.375150990054934
28.574403278340501 5.813227709001298 54.272915374380446
21.311183086934129 7.708266423599877 52.137417817233469
20.446069166013704 6.6042512324324685 52.137468701202963
23.407279131330764 9.5648831662608185 52.137218503490999
24.539664805530244 6.9825471011248554 53.375675474057161
30.726907198415411 5.9433106035252363 54.272545650127697
30.187748348394045 3.0128501275086697 54.816501149185669
30.548907148611853 2.9689831076416233 54.816433011581665
17.854368743296568 7.3514227108720931 50.576323809357064
17.057474431603705 5.833410802545135 50.576324129903242
27.884774014123796 5.5983882644185989 54.273017740537355
27.369034443217114 8.4671982024631358 53.37531153499036
15.832192643081509 0.8639133018997871 50.576079774680991
15.313261482390789 0.0067365367637943763 50.226950945451748
23.738496428364371 6.2729108198008836 53.375751655476734
22.30307346826039 8.6999642974860407 52.137334010816062
29.823934439793973 3.0128683643659722 54.816565683947033
27.226072498525909 5.3019968803633715 54.273107044106993
26.607900433203831 4.9283762114626768 54.273181983545442
29.462770533794355 2.96903755228485 54.81662567482401
17.963818373513288 0.0065467250624307027 51.908578447799371
20.804205698824315 0.0063590934694328638 53.244708096174875
16.038962225022885 2.5658320299067325 50.576201216064206
29.109523639766834 2.8819966736113809 54.816680246923141
19.720347060242883 5.4040184241824649 52.137485920776086
19.144601313337994 4.1250688038789898 52.137469224398941
22.420661957428248 4.5911573516543402 53.375829167506751
23.028710990674394 5.4718872825777014 53.375803137050411
28.769344480347286 2.7530149057036652 54.816728604526574
28.447195026593835 2.5839732718535702 54.816770042241089
18.727225460284195 2.7860530717875074 52.13741885598921
18.474307594851602 1.4064970151792711 52.137335549702755
28.147770311752005 2.377336520272685 54.81680395625412
23.789627130776047 0.0061766012196295961 54.214265782948317
27.875437407103885 2.1361183285050078 54.816829851925462
26.039276061242777 4.4829739389216501 54.273241465323665
24.709262957754159 2.7856808638815771 54.273319693872565
24.412775315750068 2.1270681835064993 54.273311095747701
21.923215446961883 3.6435641432321653 53.375829367378984
27.634168676368461 1.8638357825162934 54.816847351397385
25.528487328172233 3.9722855534910075 54.273284622799906
25.082985087613398 3.4037575919820879 54.273310826172789
24.197841943022034 1.4375232839933538 54.273285157800302
21.543624361925882 2.6429254548201602 53.375803733904888
27.427482657624978 1.564459684330429 54.816856199464326
26.873001065110618 0.0060021264606273661 54.801956584851311
21.158353242893114 0.54143872920279623 53.375676832840753
21.287423495810259 1.603832844062806 53.375752640966098
27.129360555668111 0.90221998246719615 54.816847554287733
27.258390665505317 1.2423553255034001 54.816856267541965
24.067598436682918 0.72710174437224318 54.273242258061345
27.042274768042976 0.54901344051386936 54.81683018658822
26.998399811589383 0.1878862231173013 54.816804418304216
84.801249738448803 0.0031949091909031502 51.939958504890257
84.587963840972378 -9.9938169624841429 52.805415240578228
84.232681955221864 0.0031599052968176444 53.81583194802414
84.890906313527211 -9.9937849520746305 51.411302591611133
84.08972394066447 -9.9938372418120256 54.142217209846635
82.066063500770099 0.0031586866599626617 57.060174862081709
81.543228543983389 -9.9938248046633991 57.545725113058353
80.401445309545068 -9.9937965156831527 58.400897045113794
80.551268051970936 0.0031925190144015403 58.303968142449634
76.947536427595878 0.00332261618594476 59.797637901495904
73.573638744961841 -9.9935045525771447 59.887662527305707
74.996504187058235 -9.9935793219931259 59.989185302748027
74.997086213603325 0.0034138815968045577 59.990113977642849
72.179703598342854 -9.9934244119969602 59.584647859303544
70.843060005960751 -9.9933405312434882 59.086319370709006
69.442235982160128 0.0037493801673935678 58.305938706841658
69.590933474700989 -9.9932546184191136 58.402814656796551
67.926947308434819 0.0038674364858444221 57.062682914874088
67.439938225489783 -9.9930836975683395 56.539423646140719
68.448811129781859 -9.9931684223311397 57.54804785301701
66.683282877050118 0.0039810759998628598 55.547665711688595
65.098700471290812 -9.9927928304841647 51.414813411980276
64.997238265497089 0.0042536650242808172 49.992731093602089
64.996656238952028 -9.9927395385656492 49.99180241870728
65.098136048655931 -9.9926964486730103 48.568755323528393
65.8993184215187 -9.9926441589356152 45.837840705292891
65.757524460051428 0.0043451011353967672 46.166083316905016
67.437341040189466 -9.9926401975956622 43.443314853776258
67.924142914503193 0.0043463197722535263 42.921740402847448
66.582708591626272 -9.9926360235583207 44.585570599741388
66.681079478924033 0.0043573321755698835 44.437198711734709
70.83945239415516 -9.9927244890469709 40.89521198982716
69.438938363302384 0.0043124874178177564 41.677947122479523
71.167252568056455 0.0042571352167377619 40.753619508260073
72.175898238154019 -9.9927746019354551 40.39640933797277
73.569713100586171 -9.9928342025743522 40.092900167761286
74.992538175124906 -9.9929020787545202 39.990872612391485
74.993120201669996 0.0040911248354098539 39.991801287286307
76.943646621114908 0.0039868464462102793 40.183585392647714
79.145982356222419 -9.9931408695041508 40.893738544430519
80.547970433113193 0.0037556262648212879 41.675976558087498
78.81928972960543 0.0038735624437205018 40.752262159405362
81.540231232401311 -9.9933129784165065 42.432010062122501
82.063259106838473 0.0036375699463699895 42.919232350055083
83.306923538223202 0.0035239304323542164 44.434249553240562
83.404189583325945 -9.9934792319711931 44.582586738388315
82.549104136693387 -9.9933977031793066 43.440634268998807
84.586846486280564 -9.9936261610133297 47.17123942656022
84.800476007258737 0.0033270329025261169 48.038477990563493
84.890341890892358 -9.9936885702634779 48.565244503159249
99.957791799984079 48.989434333683469 0.77271066696337298
99.753094141338863 0.23101338047279718 0.35650084763183365
99.764653539998079 48.989457588788873 0.37180989076497983
99.633313212445074 0.35077611151908172 0.23373485240818503
99.494315851842288 0.48976137086921989 0.13325402804482955
99.416726637261149 48.98948442256301 0.094415939876006938
99.205392352640501 48.989497519770069 0.020500617208193184
99.982868077773475 49.157790911276656 74.974267972170978
99.997575007973069 48.986919742238058 74.98896534955108
99.982900763819714 48.989425542220921 0.99520839523186355
99.957848877434657 49.211882626182565 0.99523350646051556
99.939169596549789 49.323638255742374 74.930586016119534
99.883917619365263 49.423183712210268 0.9952662514229913
99.867753369400987 49.479576510749745 74.859192803025564
99.764813467133848 49.612738385396305 0.99530498875636964
99.606516035470122 49.771039165165803 0.9953477745010102
99.511937422910279 49.844311459750976 74.503477220256499
99.416957738796953 49.890153469319642 0.99539246462807718
99.152605988780635 49.974612513917194 74.144238884020581
1.0010401933737358 0.57509690905009414 0.10737487341823138
0.95270715440111875 0.70373356785517371 0.057311968434441862
0.86077864499236778 0.73360554417789947 0.057331049930086087
0.78258144398212792 0.79042051827302062 0.057350198934828844
0.69590536750025844 0.96054078630057083 0.057381378629932533
0.72576998835578044 0.86861705634575248 0.057367541020601598
0.81945430644255612 0.4500072472870178 0.19933958429035692
0.65563823959386625 0.53347911812703819 0.19937639689102615
0.42915500429776987 0.43697885762995181 0.42062069275477754
0.56740058053151321 0.10814344992011105 1.0083012978742725
0.70730031195168808 0.10460833309827544 0.69928521006529909
0.77871392788282545 0.034196048229770959 1.008256945115783
0.87454993971200157 0.21002952403753783 0.42052060400224978
0.63387798750397506 0.28823530825726484 0.42057055999858894
0.52563685997320686 0.66348324737141517 0.19941153457944516
0.44224039941031856 0.23966861876522305 0.69934477409168405
0.44217545977728623 0.82729407367424868 0.19944155787402185
0.21954325799367647 0.38555652287145259 1.0083887738419257
0.37784192611770973 0.22725450661547564 1.0083459877630854
0.10038156732542536 1.0088795122497238 0.57462068253780263
0.02651139912715017 0.78641448661592417 1.0084602557126443
0.1004423535426584 0.57511155341503395 1.0084275106324183
0.096850349591326435 0.71507120691925463 0.69945020678022218
0.23189369340246113 0.45001977375887403 0.69940162808075135
0.20223413904828602 0.88235954466933997 0.42070232225163928
0.28042066640027574 0.64170010524033838 0.42066609493256157
98.980122241592738 1.0039421433320022 -0.0089875326673301004
88.282313896974927 32.635185555338055 -0.0041512382606931908
86.996619569495266 34.926160246307923 -0.0037103379453586882
83.4997450827818 38.82898941085115 -0.0027274694306660408
85.391019687388393 37.005533254838895 -0.0032323520099906133
81.363098606726055 40.357666616786616 -0.0022064496123204158
76.540128333468829 42.407321735663174 -0.0011605296380108321
73.956586135022462 42.884617905184037 -0.00065791909814683081
71.331076658699345 42.980694625158357 -0.00018328190891203633
68.719549446031209 42.693501214512352 0.00025326711749285025
66.17767228724486 42.029163258085035 0.0006424227678198946
1.0038395360414851 48.994420906283786 0.012850025975384316
63.759610770327349 41.001837752895206 0.00097589245281071157
0.79623367141122525 48.991893244969887 74.981494002666693
0.67910798407203821 0.065045315946019144 74.94361629282588
0.25889263786132144 0.35323848410109893 74.655488128587848
0.52315146777495425 0.13645954325610177 74.87223022266366
0.23697285604402563 48.991933176010818 74.630182413971255
0.043838147044809261 48.991956430992694 74.22928002795328
1.0187176963556031 49.425637804500319 74.907541722158641
99.770724810325277 49.621021612047329 74.762193068868129
99.650944655873616 49.743801295382589 74.642446700271549
1.018682923082598 49.773488747273156 74.63011636576914
1.0186146493325037 49.966544239354363 74.229197667560811
99.303816196997019 49.938664731029739 74.295410570811001
69.587597052638102 -9.9926848850644934 41.579160870025717
76.415403617221301 -9.9929768481704997 40.09239538783379
77.809338763840316 -9.9930569887506824 40.395410055835981
66.584852778857226 -9.9930021687764548 55.397471176751225
65.900965963126083 -9.9929254960653839 54.145443604241791
65.402195875902606 -9.9928552397343093 52.808818488579305
84.088076399057087 -9.9935559046822622 45.834614310897749
84.992386123231114 -9.9937418621819987 49.988255496432259
68.445813818199753 -9.9926565960842471 42.434332802081173
80.398108887482152 -9.9932267823285397 41.577243258342975
76.419329261596971 -9.9936471981732904 59.887157747378211
65.401078521210792 -9.9926644382634944 47.174642674561284
77.813144124029122 -9.9937067988121893 59.583648577166755
83.40633377055687 -9.9938453771893219 55.394487315398138
79.149589968027982 -9.9937569117006806 59.084845925312365
82.551701321993704 -9.9938412031519821 56.536743061363268
98.983126887072018 49.964119861467267 0.77297410626011764
99.606315493247848 48.98947088599968 0.21350963950432433
99.288077251321084 49.037817876018259 0.044359820722581489
98.982915969009099 48.989509520563672 -0.0045298931722141944
99.25821227288975 49.129741188883941 0.04437365835658813
98.98293389223312 49.211964499108007 0.020560745201858133
99.031272961705326 49.294627597231482 0.044429231594524055
99.201397599483641 49.207940885214299 0.044391001306548716
99.458397324708244 49.334868655817971 0.18638475937600507
99.541858426909869 49.171057233662829 0.18635473607893083
98.982995520692157 49.612804042226088 0.213678114816239
99.123201053949828 49.26475526340932 0.044410150139661653
99.554968500136653 49.561354517299989 0.40760175933244547
99.703705638994819 49.3566356828115 0.40755635688201952
99.883806326782206 48.989445197444311 0.56137883594908011
99.781891480900981 49.115973859947921 0.40752012946309168
99.887387476460873 49.283244331199107 0.68626169071337095
99.328397256033469 49.464871474088717 0.18641989671009274
99.752345689540675 49.548296658082293 0.68631026921971383
98.98303613577869 49.771091524784779 0.37202115182153594
98.983080669076259 49.890189906152969 0.5616222904232071
99.164580593248246 49.548343047024993 0.18645670938879366
99.350247930566212 49.710100867127672 0.40765189192068174
99.205642424929948 49.964101174628418 0.99543681776359438
99.109573594641518 49.788305966219582 0.40770184827619094
99.276934795155483 49.893706110250342 0.68642668780886895
99.541991787783445 49.758647381432908 0.68636712444505399
98.983172472260264 49.989174978760744 0.99547860883509598
98.99764841581694 49.986703040939808 73.98931992863649
0.0014576150078360328 1.0088697830710056 1.0084853671118443
0.026480224400323937 1.0088760615940435 0.78597874630505804
0.0042513424241970021 48.994437160302667 1.0129430066069625
0.02927395181668313 48.994443438825712 0.79043638580017506
0.21945590835614226 1.0088799620108828 0.38500947967613852
0.37773239313512308 1.0088773883220483 0.22665306606777169
0.2222496357725019 48.994447339242548 0.38946711917125754
0.77857734248866484 1.0088638319570378 0.033501822951788052
0.56727435664763748 1.0088719202390704 0.10749211470337894
0.57006808406399934 48.994439297470734 0.11194975419849751
1.003857459265487 49.216875884828113 0.03794066434945309
1.0038844271558967 49.428170759882406 0.11191310029264523
98.982960860123541 49.423259374162292 0.094533181145050271
1.0039597028110787 49.776002910504893 0.38940107096913223
79.798681136033139 26.716933117305608 -0.0031962568438874683
79.246533948108862 28.355818771181902 -0.0029460554480396084
80.044356474883273 26.183242578459556 1.1931879426980476
79.940781421002072 26.748110837079793 1.193258794279882
80.558637598547818 24.997570654020336 2.3199290494212548
80.195379337818054 27.466639573363828 2.320222874623413
80.358355828804861 26.839908738124727 2.3201357390655395
81.02714239328688 26.986993190304418 3.3119446032049238
81.144854834256677 26.34499707548531 3.311864078321658
80.467367753762687 26.245397480683906 2.3200611690901747
82.145606201073861 24.997430464630789 4.110799881664434
79.766680762331532 28.596120247619204 2.3204038521363821
79.378605453985898 28.416757940013227 1.1935135395835337
79.785926681114375 27.343593034247874 1.1933415860288878
78.779484102633262 29.490655127898101 1.1937195825487716
81.908258090669506 27.180816207844103 4.111044831399334
82.03744667622297 26.476252505175658 4.1109564579966706
83.212788296217923 24.997358007388037 4.670725409424648
83.093264817493548 26.631533215123135 4.6708984346896489
78.470836630427499 29.92555071181296 1.1938147345299992
82.737064999620515 28.23089113204432 4.6711102067184633
82.950503118333927 27.410112888680828 4.6709960921912606
81.715105285729464 27.923566288967429 4.1111480984663871
85.588047804585898 24.99722917791474 4.9587428659337434
84.382937115645007 24.997289586357489 4.9589566332716295
81.20705198182705 29.262132648402421 4.1113625771298885
80.38820622986205 28.883477075063595 3.3122341315274286
80.851140593053657 27.663783246145798 3.3120386999727631
78.354949676343779 29.837698507410167 -0.0026502316822236693
77.165625281353869 31.093281840906187 -0.0023226192097123288
84.250959785791025 26.801816709147346 4.9591476942645318
85.443235532169894 26.977206951579902 4.958952503954154
78.052925558390712 30.431604993801535 1.1939358786673613
79.136121041888714 29.726369937049341 2.3206207070897626
84.093313413415814 27.66155901255393 4.9592555324743506
85.270262217603914 27.920541138530091 4.95907082701319
78.371434172030206 30.716697656391823 2.3208483538715949
86.600808467996842 27.14751188873106 4.6703242063346213
88.726920328460864 24.997127622147339 3.310393951810306
78.881520217031749 31.173431278308485 3.3127141363904897
79.356482953183473 30.598280232616247 3.3125764529806814
78.811273524125056 30.184086617867294 2.3207208528352883
80.074781600806546 31.144060152992033 4.1117382603735839
80.459761489687565 30.6016109979169 4.1116195762544789
79.707278001109501 30.104003651418672 3.3124683080547581
88.548679284498235 27.434138190643736 3.3106519803775902
87.65640444832303 27.30283053527581 4.1100365648867614
84.331423624138267 30.707193241316787 4.9594962535719622
85.011654954771018 28.915000259478916 4.9592090895647756
83.857622455901719 28.567897278576524 4.9593815432131025
83.237671738853095 30.201279564635371 4.9596432602589609
77.259904103173142 31.203940159101492 1.1941482986575842
76.230229602073791 31.948499753002622 1.1944001154960864
86.41295810786994 28.172006798372671 4.6704527085716929
82.325791240269297 31.835774786703467 4.9599568630117874
82.175633150950603 29.710077206467631 4.6713472180122757
81.349845887436032 31.190271868825711 4.671631214195858
89.225772937607672 27.533804967803768 2.3186273095156533
89.411300322858182 24.997126897629975 2.3183587288182164
85.393340179459187 31.198415135836349 4.6709147384470988
86.132098006347292 29.252027848755723 4.6706028675119562
80.924411647257386 31.789705119959692 4.6717623682307412
80.34840339619663 32.48722280487069 4.6719293435903859
87.454980974589944 28.401341415806669 4.1101743512227822
87.153827931528326 29.559390628812245 4.1103353589762399
81.856012808825085 32.497697188703732 4.9601016883908935
78.564378517934301 32.738602209274084 4.1121543167821475
79.553521590724699 31.775265081363528 4.1118893636906995
77.980213512656775 32.051220350263115 3.3129555612196766
89.004165175624394 28.742370200719726 2.3187789008091464
88.335779666292524 28.595218565799051 3.3107976154101375
75.734163756696461 32.063862098307744 -0.0019785350396213097
74.12750373127335 32.704054675918094 -0.0016340691916116867
89.648337232170718 27.596038104657616 1.1916156518593866
89.791815913113311 27.617219462400996 -0.0048851906105076282
76.453090668952001 32.313191724669927 2.3213369518313787
76.00286147631644 32.569622159542625 2.3214406370449838
88.017475618524116 29.81922780408658 3.3109677934628121
86.361706815403949 31.646397630116482 4.1106697598356048
77.53679798699099 31.529559599705237 2.3210719206253163
89.220714206331564 30.181439252548081 -0.0045456582144636215
75.802448179291986 32.192144135341806 1.1944986310415562
76.323757039126349 33.174355803733341 3.3133537280975158
74.166604999595535 32.843965690601046 1.1948493537767666
76.809949954120498 32.897440987584574 3.3132417605461897
82.8154374849791 33.226887619961836 4.9599992522681022
84.306725806006767 33.14613172117604 4.6712884354425732
83.330887230223794 32.50060926771117 4.9598403467042758
89.081849118540447 30.139559619422364 1.1919524429106101
89.421300226765368 28.834244429236684 1.1917709600162354
88.672851074140794 30.016438658844827 2.318956037365699
83.746924241619894 33.934897317900223 4.6714610135265335
75.340316878386716 32.885329621947839 2.3215874897993576
75.172938517925843 32.4921114198239 1.1946381617280331
74.28117741333233 33.255644123053273 2.3218097635930106
77.836106933477083 34.578013270195157 4.6725692195043633
79.255345536163702 33.551757698251457 4.672222130871214
82.117530876637545 34.072001531223535 4.9602015624144444
81.219955392133272 33.267925126459311 4.960286070431704
77.280061781512757 33.667296588421657 4.1124684090695451
76.746486757593232 33.97119846143341 4.112591288480278
75.961291090729418 34.345347102817492 4.1127653265204458
88.188995925753147 32.491969981171373 1.1923293690559613
72.878663584447963 33.091987289967179 1.1951008505932945
83.783628112063781 35.564715235335797 4.1114910919357595
84.596339754891972 34.580580221082791 4.1112555018898123
80.012960429895855 34.443432417052385 4.9606093777728937
78.445764657917294 35.576669304390464 4.9609926501286399
80.793181766585946 35.361802992604254 4.9605563045411127
85.314313768958328 35.126412367518498 3.311940346451574
85.196580415045219 33.734830529064475 4.1110704565961571
72.428879278404963 33.128917375813522 1.1951840640490379
72.420769325801814 32.983921345116002 -0.0013053285653485958
87.180235561577916 32.025105429132878 3.3113212412538831
85.948754525708807 34.232492007633041 3.3117447594357805
77.794672545770965 35.947504875492932 4.961142593166957
72.925647124875439 33.516684757527365 2.3220744588217457
74.464562807540801 33.915173937000347 3.3137523369861572
74.706091529086763 34.784216184446429 4.1130287464371138
75.608292471195512 33.515277299719401 3.3135123102893251
72.452262624597751 33.555549496367284 2.3221620382044916
87.801367601834897 32.312531345711029 2.3193239407286423
86.519518057434112 34.610190997585889 2.3197647801302308
86.875700384607569 34.845984041748977 1.1927810219758705
82.988976095523867 34.852723388399262 4.6716807291781279
84.45532010795327 36.166605077236312 3.3121893540530034
77.246477318655053 34.913841182400446 4.6727050079533914
76.378797282664777 35.327296407602496 4.6728973288232023
79.073620163071496 36.605220985009865 4.9609768399038625
71.675214912981374 33.56244139719125 2.3223005107035273
82.241419485021567 37.066690673331649 4.111904190019473
76.836544974271249 36.40406156620525 4.9613549619338517
73.000757599599865 34.197061051211293 3.314038174705277
86.199127307779037 35.799287304927567 1.1929895994073991
85.859129770632251 35.540673164626099 2.3199683665035478
84.965005097693705 36.62340397511884 2.3202275576543934
81.550674627514553 36.253493434206739 4.6720659937169851
79.683163482695818 37.603896555174636 4.6725227118035493
78.907300517679886 38.045796262924235 4.672701388878842
72.489562445915396 34.239031915305226 3.3141327494932531
83.268289582900337 38.275854597711842 2.3206820420758358
78.359219695379892 37.012113033862263 4.9611413623898635
71.69057296834643 33.135464115127029 1.1953156325567624
70.601623546228467 33.455311568952546 2.3224809906431201
73.216503461339897 36.154129657287264 4.6735350719416857
74.991731592976976 35.812270294993034 4.6731884224666826
73.099625819943981 35.093575638863847 4.1133424415185607
75.627360669806194 38.100652476112401 4.9617270692826736
77.307936806401329 37.513056492260162 4.9613743787703477
75.304890302380358 36.939587496735001 4.9616763992493995
82.825267484619019 37.754126664795315 3.3126259815748904
85.283066726905787 36.908572965563479 1.1932551486331016
69.358579762310939 32.704878642625225 1.1956892760817803
70.670505944168298 33.03367820136534 1.1954871148647475
70.693761462782476 32.890381441837128 -0.0010076834638237386
78.182854124182853 39.571828428214658 4.1128568373183274
79.407068917797346 38.988476920488537 4.1125854902111172
77.765570093191911 38.589841186832381 4.6729544531564082
80.238986473715727 38.514651173545403 4.1123939040975284
73.344607023408031 37.317082321935565 4.9620591844216442
69.027243179171904 32.427805059847529 -0.00075505357351746127
81.065247153211914 39.868877352108477 2.3212208172352256
80.708781295427883 39.284560906835189 3.3131435886138294
72.53860633929736 35.139637126390745 4.1134462341546634
72.596552145108149 36.205029680632045 4.6736497673950437
70.491104431287681 34.130789128465366 3.3144771782581781
71.650447637268911 34.246472265048631 3.3142822823663782
79.829481630584127 39.785373710641309 3.3133460865868249
78.535528110271088 40.401952364147817 3.3136328908954384
81.287661235773726 40.233647558405266 1.1942727695221209
83.544736482179758 38.601548459394792 1.1937207796409126
69.00004518768452 33.757097808170052 3.3147069432748371
70.172921133380328 36.073759108527547 4.6740674736473604
71.578917201789608 36.214053975296949 4.6738311132074912
71.61771429749416 35.147802336373935 4.1136103399622304
80.149983766009541 40.390174537190646 2.3214315975459394
