# XYZ point cloud file
42.113995404448545 14.619820268841163 15.498072163535467
43.081163713953828 15.386056700015502 15.534414563351238
42.120487847283471 13.855056769125449 15.372604091999856
44.846768603608041 15.931218588644597 15.50783423614968
44.163181464033791 15.237671256397254 15.25753674215845
47.504203830966631 15.815015906684682 15.362403024173357
46.122732170511469 15.479631481834017 15.164153324913412
45.750711853019816 15.658465166561564 15.267285724138505
42.523754420289855 14.638567749009972 15.39787186222345
41.90734171457639 14.593394294705986 15.547552437719325
50.887431763250405 14.721509153984423 15.892150197485993
47.055679845165081 16.066198945834262 15.488952692211583
46.530887140165447 16.282897241863854 15.632228227346468
42.68294249220736 15.390368851644995 15.633192459741172
42.27542856601832 15.37172415030436 15.732843762465009
49.236600101568442 15.671558272550808 15.579370597489216
48.842712194698059 16.03325773573733 15.699266555585602
49.520070930654882 15.279906509713971 15.484929389687334
50.758305156580136 15.218511769445524 15.954951619749277
50.493778044523388 15.690711568204708 16.04970780821558
52.116512883734771 14.169528908290475 16.717522719851484
41.316191767782911 14.450989534976088 15.684946578646372
41.13832760396906 14.384787368903364 15.724835344786394
50.097702038144632 16.131222298162648 16.175038404540434
41.703522547628666 14.55605903657694 15.595654167961321
44.328029486885974 16.021161202512271 15.641742058813415
43.774659208577674 16.078245701811422 15.782176635354148
41.989263664104612 16.046486677836032 16.221867771105764
42.596687265873612 16.09100137077364 16.074369977111846
45.937479988550905 16.461950835346869 15.790139949937732
51.894612578344748 14.473500648625043 16.522082197106712
40.974511440167404 14.310717917720153 15.760760504304759
43.194725364511228 16.101639295415108 15.927090532938063
41.056707647479833 15.182412671113411 16.022571142395964
41.505509809036369 14.508358890010175 15.641675979071687
40.671497998190844 15.077918548653463 16.11137456247166
41.86456390641797 15.330394442769489 15.831915452565715
41.381313794081379 15.968744460587986 16.367432668907902
41.456339345179273 15.266982370926383 15.928962963057566
40.827132713993457 14.229861219271829 15.792198028042769
46.300101388348054 17.083157287233107 16.393433857538625
48.344149781748868 16.359730395054999 15.842869201079923
47.748185096481265 16.646215506027279 16.008083969336525
43.063028082170426 16.758471719644053 16.519619653112539
45.284107954617937 16.600748565234625 15.960386044246864
42.271682983053822 16.722265918180867 16.713131006954459
52.901915544089803 14.109936547299977 17.58381432836098
47.063508269932811 16.888535649641781 16.192501761148158
48.935846149828976 16.892038474184595 16.509691770450399
44.580303861848236 16.69726683129506 16.140482679277373
43.836327445128703 16.750098240865505 16.327804464042366
48.187009752882503 17.201249460132821 16.71413428764847
47.340265609263092 17.45674460623723 16.939461586112973
39.65702706994086 14.661442783246001 16.336470979278168
51.826218242745313 15.045452380903502 16.574513502999395
51.603641689598717 15.59345394536429 16.663598650315421
40.19917149240478 15.718580194345902 16.64433307458323
40.306325573161246 14.955023767582553 16.194078776414965
49.575855534752534 16.533620452743509 16.329115142412565
39.38236839196648 14.495037609417002 16.394082772932641
40.681106506443484 16.518869670182976 17.093971808650227
53.330610382710738 14.403133002960965 18.240815720356817
50.054188498379816 17.016284178173802 17.13523823135229
49.268916173587165 17.393771628860939 17.352933357854646
40.503727527250874 13.958749039693286 15.855367300695683
39.146545131942901 14.318731455685194 16.441472889922618
40.698340719401585 14.143396439105754 15.818689447284157
40.590012028435225 14.052584244467102 15.839848818423857
40.781701011597661 15.858908463802148 16.508942487528685
46.407958959760791 17.654798076940011 17.18238842080379
45.469098337189052 17.227242056554012 16.607949775864771
52.203755566294717 15.972462417692748 17.534456990245552
51.230125959319054 16.109513987882007 16.788039210865431
50.711119752577815 16.586107534740499 16.946020087595144
39.966517602264602 14.815520429984714 16.26947722911228
41.473831127536513 16.64200832532272 16.905516816719135
52.692307332666509 14.769611017979852 17.338916771147353
53.249703897645233 15.079727387136016 18.302839440143298
39.905069385186309 16.354644933604849 17.27574770635843
38.952998767436881 14.135095421526758 16.477949631571491
44.582617645769488 17.318689221144719 16.832921255613794
43.653584879216197 17.356165334565237 17.065068036111832
52.532055677710368 15.386428042974192 17.416856989270435
40.748561027733018 17.143272315017448 17.770481207983352
39.6422170290029 15.549805988694965 16.771630825130075
38.203463628978483 14.899272394057165 17.087151767054593
37.824570957954606 14.644902880442705 17.165086826106233
39.118961418736433 15.355047101593327 16.888978929286377
38.637035205354238 15.137143422220323 16.994666105244885
38.511865068681786 13.554374630243853 16.575726584913198
40.401983743503074 13.767506886709363 15.868662076451187
40.440745937578882 13.863259150376086 15.86501847595664
41.722477111019003 17.267812631609914 17.537290923763432
42.109468678582942 17.828193350304588 18.256495454338435
42.695547071887589 17.339123509864766 17.301004957574634
48.366749289189457 17.713064605397705 17.59593206076508
37.505881960299092 14.377744160031616 17.227334897828854
51.712195370557581 16.519168515754579 17.690001654226389
51.064545537824863 17.018574302284499 17.881222208466351
52.544551411261935 16.338466395281742 18.555431397879591
51.930588275708615 16.902255788620138 18.742316239193087
45.403684984061442 17.792521804265142 17.439372359087262
40.97099800946453 17.713672375296081 18.531014600891975
53.551039276949396 15.387363966220564 19.400941849629064
53.733106766721527 14.686580000803922 19.312391459821665
52.98640399375325 15.727989530794176 18.408223679247214
47.360848563889959 17.969507786993297 17.860689654501655
38.804549541623224 13.94680709693367 16.502981589292673
44.342091672243704 17.867907948216654 17.706665181836801
37.962589515442232 16.472147474961783 18.417992345339051
39.157035789122361 16.151729568838576 17.448193935511249
50.270249391941846 17.463397263183435 18.105330438385391
37.187051711267081 15.342982149818235 17.885304884087489
47.132955060207479 18.410038147732678 18.940196565181978
48.290014936150435 18.16423915431605 18.638706800287803
38.703362981987866 13.75661232734852 16.516203553042761
37.252043269302476 14.101691903675865 17.272988399638621
37.788045250149423 15.642183049984114 17.755211081913611
38.447914641341406 15.913082301598394 17.608795602219786
43.238654781218713 17.879856311166439 17.980370255833556
49.340888980674336 17.847150840409835 18.359058482149266
39.78800319343847 16.967318629883284 17.997174756318465
39.839843875522689 17.537963280909725 18.799924673394859
38.732500387125796 17.303627838015185 19.05930449295327
46.265875941339445 18.159361395523803 18.143346932906997
37.066756141015389 13.820771552119892 17.301381669432995
36.952724985238362 13.539079768215769 17.312100062555057
36.352321622220138 15.811076137326003 18.775287479727353
53.961453332998573 13.785796986523895 20.951725269245159
53.965435917180443 14.222930717147289 20.433843260796259
36.195756544641604 14.67747678941174 18.089206050700451
38.85481046089788 16.74251773409345 18.214065948750491
45.097803695218843 18.279856867738523 18.439780848628036
51.883760098171081 17.241693511290471 19.928520286470413
51.153468110607676 17.411136396329294 18.966152863495026
52.619574135775764 16.674303837912547 19.711268982771458
35.657755740472119 15.430015228261599 18.923446131868264
36.653696284465383 15.019842636757367 17.997180339645471
41.329138888738164 18.212819307036902 19.367893696529265
53.17804810387743 16.053174802593308 19.534550607046647
35.81991130245347 14.320876815001048 18.160039807313034
35.531640044693489 13.955242846474709 18.208648992848477
50.224523681036459 17.857687731201914 19.223677088128305
43.873663445015467 18.329237085889378 18.745669098354817
40.045858182264958 18.048718555822298 19.675156906286144
38.780178976182214 17.81687333591011 19.973859713238472
35.050782826106762 15.022524041702377 19.048295389603176
37.124352574530626 16.160150281422016 18.605979826479331
35.335147441952685 13.585906705792654 18.234324525424292
42.611305887817011 18.306782185812942 19.056551161690034
41.798213035542318 18.625234288279486 20.273242244680709
43.199615455439783 18.689351933195834 19.930550715941823
50.981335242833595 17.747069901817429 20.183136640551957
49.925461931104415 18.183063695815751 20.471404442488019
37.550556553419739 17.52066417454563 20.259646628748371
45.886578081705537 18.580963142754086 19.259132296276917
44.569061819541481 18.674522738969266 19.590862557379236
52.430249357282619 16.96332979204114 20.983760884273053
53.876717539744241 14.964846387852152 20.501855220335582
53.756040541508739 15.221265368992096 21.791897781716784
53.949342075423999 14.47724149060886 21.697883618351327
40.385286749376675 18.48310545576058 20.61394081555132
47.967361069365126 18.538759035512417 19.824331132384771
49.157300959805326 18.235398156797242 19.511133667296157
34.540252807831891 14.594544825625356 19.148014949275584
34.133612399973089 14.152318653569083 19.221150181973211
43.842172539768583 18.964303194141532 20.871223376765148
51.578103106646481 17.521340032095374 21.229207557571819
37.66511706974476 17.014083885060273 19.305371275370934
36.374922211902962 17.164410426980218 20.528350076616761
34.854107464012088 15.86006626928312 19.929093627256634
34.093052554221323 15.398972048426307 20.088730800777007
38.981441950452897 18.265037197083558 20.947677804542767
53.587998367264134 15.675694663030017 20.61741350739134
46.672059187034741 18.76334786747449 20.15870164744015
42.348858513372861 18.937740067125965 21.238983324320323
33.836791000853133 13.702294216692108 19.266634696408488
36.653257807333475 16.673553322034188 19.534537033609176
35.7116778376067 16.287001861116387 19.743460002826911
50.559474606557302 18.011003260057162 21.511594218215887
52.767101215715556 16.587612372558862 22.121372970670429
53.360033392558471 15.928158300656351 21.933750895514176
53.103487447377354 16.345109612396506 20.778833290929754
45.290279394844639 18.90588857780758 20.509370344018617
34.968153446578803 13.18827314693398 18.396264853809939
33.654115042539367 13.251033549822818 19.283805673261813
53.762193027252223 13.943366479515049 22.973713097865907
53.863829863112954 13.634979008801107 22.271660953732912
33.43960943086649 14.910443462470983 20.220044072025786
32.903308325264746 14.401604006528427 20.321118190280739
53.670819320145043 14.707486073041219 23.043760552379613
40.832109017955318 18.826585943619492 21.607288414810633
39.314044002410895 18.632461871487187 21.970767365895775
47.416962999664072 18.822576704315178 21.131652587884492
49.389217279039229 18.425179564568619 21.826803180254267
48.084395947061878 18.757828586801747 22.170237982137934
48.731532986966101 18.543316753604035 20.789121111373305
52.874448223889445 16.12905758424062 23.329027952334886
37.607147984683678 17.974209820370898 21.269587061750478
35.270418125638585 16.753307429916113 20.776052079829146
51.027779833917414 17.726570596580942 22.622355796810979
31.865479197116599 14.690386871394898 21.490264594564966
52.181061540702643 16.765779659405041 23.540088587480621
51.985884435789913 17.190011305749341 22.352029507711421
46.000916456856103 19.016769741205795 21.494005107294718
53.540389263803959 13.466470256795354 23.656733679283818
52.996232650709636 13.282928351818981 25.085098890343545
53.32844512671015 14.153761475497962 24.356756471291298
34.253151579755631 16.293349866895905 20.999140298566264
51.303413421771481 17.340490057601482 23.792880702419666
31.329669033747717 14.107687398308311 21.586631330511342
32.491968672579134 13.879873696587886 20.390479524648555
36.362209554782304 18.007796405074874 22.662193564345579
36.282447513706245 17.614864877805363 21.574973880654088
44.504047546087904 19.12306544169925 21.87089359084986
42.948180090203081 19.139913161940463 22.256823081614399
32.538178067234242 15.254313846546374 21.358869376233283
32.793777657753211 16.182643978960513 22.349059230093165
33.33795675637964 15.7912446490842 21.194361549339273
37.816799413867599 18.358198850968392 22.324120063064029
46.6640367921935 19.004099613605163 22.536890834902671
53.373460278627277 15.439608599962176 23.16277703971312
32.211589971624186 13.352860717729365 20.427116335156626
33.858086000143118 16.712502436092635 22.118674140513708
35.026655918365151 17.192241437601588 21.859385401473745
30.938561213837239 13.514712323849416 21.646564250604698
30.697859052347532 12.920108630705524 21.669189381964571
32.461521282451471 16.555936210318997 23.536982762899221
41.356005131751026 19.067067460340471 22.64616513320329
50.254298429270634 17.844807924606627 24.083718873013346
49.049017946108918 18.271379172464304 24.408361300653311
49.906756183650977 18.189466395471261 22.928410526921439
35.089380957818079 17.919156870680506 24.125100901641073
45.740057061953792 19.074613793065858 24.014108031426588
45.148855121478164 19.160401893090054 22.921414331825424
31.378884226131092 15.961967271153991 23.767921335470284
47.243476556729462 18.868438506002459 23.629397615543315
48.639158903283899 18.571948004927307 23.26573109494629
39.750737635482956 18.905590411485896 23.033242876828545
38.595648037607006 18.860577495257228 24.523900968923869
52.643977533076892 14.322603328338674 25.780829364515952
53.13514359279489 14.897785353881201 24.450770634656752
43.560941829449177 19.224456224771782 23.318202213235828
41.923456816652049 19.195328417616711 23.721467284644337
51.364987487076078 16.866531290638445 25.010902360651386
50.406882885203572 17.403090581470046 25.281228649750947
34.971483629402783 17.586363553990292 22.980058449906402
33.664903901924276 17.100046655981973 23.273079009986972
30.432780935738489 15.326801213289826 23.96252689468518
31.849251990912766 15.61039245117485 22.547180858839965
31.038281722769948 15.004092520732842 22.71015010975043
38.155787796307671 18.657836839078868 23.412411414763909
36.594412247701129 18.327419433994528 23.778141937019896
36.953852905134923 18.559835819889866 24.911367875226922
52.739136443844622 15.604678285545456 24.592623748454152
29.514219367682617 13.071018033385123 22.967142006182421
29.862190286285653 13.725079860425449 22.921672945773054
40.260273454353765 19.073442971519409 24.125330216924141
49.285859234937135 17.865986380360365 25.587283379861407
32.334992211845758 16.893956134139465 24.742814824553179
51.906499632751036 13.734939145550234 27.134488398067358
30.372692294862173 14.372585371099412 22.835590603921922
46.242278928527952 18.86762560542692 25.139700321524924
44.681751220446856 19.028605534915688 25.535731748362764
52.146204267001714 16.264132357447966 24.780245823610397
31.125800721956459 16.291968355326951 25.00456197185358
51.724432142978898 14.435723110966876 27.22303878787476
42.49896178563165 19.205355319082809 24.823993140101486
44.150828305109272 19.187467950017137 24.414251285752723
51.197509350615277 16.321086732527661 26.26273502845342
39.104228737259916 18.956574239761359 25.648320075003021
37.41086613235187 18.693533658268173 26.050884352345772
47.705145501260162 18.613983642572798 24.762074518723018
51.870747440710005 15.70286655288303 26.057807435110121
52.355258360596778 15.033451603516541 25.896387651571708
28.948054164221197 12.354491449530556 23.400416944520828
40.808544373343409 19.128015012774075 25.237358895648853
33.833838296123503 17.71348458012546 25.630633348032781
32.401114925861094 17.180216152475293 25.951943550070887
33.662638957685218 17.439001431200964 24.448229221058433
50.345363099979124 16.879096972581898 26.508181701752186
49.326734599889953 17.368760200543683 26.790568362396254
30.052696826738533 15.641816464697134 25.229653900146786
50.141815645303851 12.671956929560942 29.403416127800053
29.131329617440556 14.952981206832547 25.414808063496494
29.637007228484666 14.659700057784741 24.117961768674881
35.358830584874468 18.175604011113727 25.282080470882732
29.894393607988341 15.93226172287271 26.49455995307094
31.081552797093032 16.583574846202502 26.241325644711612
46.622579608015627 18.544958490891563 26.288270468483287
46.851655940394537 18.115585527288271 27.449212126318301
48.018261954570065 18.248467989816415 25.924603947886258
29.003166771973142 13.970391641169668 24.231959491855214
41.359823726041071 19.064577500727019 26.359728564575573
43.529931356395437 18.863987934906241 27.073124138692691
43.046315631610724 19.094576995232543 25.944394513332394
36.241491270429449 18.410065888292799 27.585240064696258
37.932421323947665 18.71980816149275 27.186177227902025
51.351440969906932 15.101533947339618 27.35664754529234
50.792967001805273 15.722662982658861 27.533365921017158
45.11916011323995 18.751133777954962 26.672980884366559
32.640479732158184 17.399493907595783 27.150614523389265
31.230914392024751 16.820817959216203 27.463376664592069
28.540502918395852 13.268927656731101 24.302857590866598
27.795137445738895 13.499857359614452 25.655125406810395
27.399797321931302 12.756758405870913 25.706784170862463
48.83307497106199 12.45889633422609 30.778219826519248
49.766146273457181 13.245115486779882 29.869643842327612
50.855865870161992 13.832565900987042 28.553994577554079
49.154728108863104 16.79542904656374 28.005233578797657
48.098854797133917 17.231422840562061 28.293501380733719
48.156477272371887 17.78293650505514 27.105777324434634
35.753150674974648 18.342729042591408 26.439181170852301
34.15525463419182 17.909275611633106 26.80754850605042
28.856949257776648 15.235773911104827 26.707953608605322
27.984347722490494 14.504267754336141 26.8783949241224
28.375134146755634 14.235507369942201 25.557324635981665
43.916115114810822 18.518158833576578 28.200388476005795
50.057152964200583 16.290052656036782 27.750617224716109
49.60589461850104 13.861932511774221 29.947584060450694
39.646865879199765 18.939044359859366 26.775677999002973
46.904925852995603 17.591675898350346 28.611218049619001
50.592565966270008 14.480828044645202 28.659378816657995
50.150713383778694 15.091304909132766 28.806586535290371
45.590355865693581 17.870935849061489 28.953749526130188
26.849930975880046 11.939200813558493 26.26960120570233
26.093638585679692 11.743520043866074 27.718734629253497
41.878064836917815 18.88187530397191 27.482865993041457
40.18764742462956 18.804534997663179 27.896231748588825
35.132253726260814 18.019249027480516 29.098054023792272
34.598732415760068 18.014334926218655 27.967047530124162
49.277594507085396 14.447966886492779 30.065184061425814
48.786034311348253 14.994672984554608 30.220728725406651
44.174309322885605 18.065128885952106 29.316102045540415
45.431296785526143 18.361856554091688 27.815864979083038
47.377852357571371 12.246692441897409 32.084006314086103
29.947113020489962 16.181685927320792 27.741274195513377
31.552499298012805 16.989156761565468 28.656957989441683
40.690716809984693 18.553085358103232 29.000441428824708
38.483331788546074 18.633094224650463 28.307192927942992
33.028101079899443 17.538384795663085 28.326031645507111
48.138384478615535 15.494078771084528 30.411949279646617
48.759630083124435 16.163974910180322 29.217308000905799
49.536750248225367 15.655094302471166 28.993471376603861
28.807796470806025 15.491418321154612 27.980254742746482
28.970756851546412 15.70385403159035 29.215813839260047
48.410403628278573 13.265853100551796 31.202088606878746
48.187827075131963 13.813854665012585 31.291173754194773
36.789969183638028 18.370053643157277 28.709757205285744
26.781982235844403 12.979224132203447 27.08114136354056
27.289313639190453 13.748410520754758 27.003398462595065
42.328201822781821 18.582213165258302 28.597176357416195
45.573523041881884 17.291597549363441 30.075486269795551
44.278221159551492 17.516186381325518 30.409856784850927
25.99120690905643 12.42834546744735 28.486825057593144
32.019582783444349 17.076013892484887 29.809487376329237
46.763462932322085 16.98823667064827 29.762288804706937
47.830685653553211 16.610526245052938 29.474832225539082
45.799099568948037 12.038691891849659 33.300182893201466
27.829578511415562 14.76008021448401 28.176833403629342
47.295305138111075 14.806508254388794 31.573595191474492
47.814311344852314 14.329914707530301 31.415614314744783
35.721112898467581 17.91759276037639 30.190342019407289
34.126090578207119 17.533360951600248 30.561054615063103
33.534357685477985 17.585795596522214 29.466421358990388
30.193445241895709 16.374659716499956 28.955000762878058
39.027533447686416 18.431199912005933 29.404304361104515
37.924130501512465 17.953949556232207 30.855339815074242
37.36290803093965 18.218334435743753 29.802875113104239
47.031774337139574 12.712756936656985 32.403268317422658
27.003547604108729 14.233123356866249 29.611136120243692
26.28771299642969 13.454645026368345 29.739880664211892
27.026723947768247 13.998336705723343 28.328143606554981
26.410940402861545 13.21729526892527 28.431978830999398
32.601098289456147 17.071241520611984 30.909607492213151
42.677440412117406 18.171424586445561 29.692990529095553
41.448334512285342 17.717141707992557 31.122378514175924
41.121572956232583 18.188272306686777 30.078920019860099
42.89644136736139 17.658727091658609 30.760525481429394
27.902263966498161 14.986521797572694 29.435593919494352
46.902647730469312 13.209759552118086 32.466069739685949
46.638120618412572 13.681959350877271 32.560825928152241
25.765198334520292 12.662438521726751 29.819950222031963
47.344088332732511 15.938901731983465 30.636057509565653
27.20868156270172 14.436600199373114 30.835706256569313
44.206794000998158 16.885542616532707 31.470923636362244
42.960417022496202 17.056467611554115 31.789859367457179
45.853101559120418 15.614172348509237 31.980508461733997
46.414727921465001 16.322655309209864 30.889785553329528
45.363853876941107 16.639743623116082 31.169433871468065
30.610017443310912 16.497337944105308 30.12224951753204
29.848812790425683 15.941331786689027 31.520299788891982
29.32621607177612 15.858205912209895 30.400147048453348
39.529397997780528 18.115426605086782 30.46826207144899
41.642900760332161 17.150027207769295 32.121589628559491
45.44971405378341 12.65540050027627 33.571212927899488
43.945033949423205 16.189908506641594 32.488264758381007
38.43827099047207 17.579424457470516 31.858443552221406
36.920205974927654 17.385300385338216 32.221922503306544
26.405826999054405 13.674856690612447 30.987016459494953
31.168374919193745 16.537973092961817 31.230917694251254
46.638373883913076 15.236684897822098 31.762813335231641
46.242044612033794 14.122470080835209 32.686156524477099
28.661653601320989 15.290018663359232 31.773534097251314
28.186899522092183 15.167938306043714 30.63912759568646
27.624209251109303 14.59353085159135 31.986927752785686
36.32918066233718 17.706195983825175 31.234508353009609
25.226040832155256 11.391469347228194 30.532172697261998
25.370309960342588 12.104865452336455 31.145697910533116
25.128417903390748 11.24065140916116 31.852108250351879
39.955020485889605 17.690578580976993 31.490138461731107
44.121717445188473 11.838175311469024 34.407567955715194
45.080188723718152 14.883286256857158 33.020809890387063
44.331352326771665 15.192497242805384 33.225252407585138
45.720198108641704 14.52486823541607 32.84023326234923
44.997323845548436 13.462945152133258 33.733263246814303
44.603435938678054 13.824644615319778 33.853159204910689
26.751607715823148 13.862024694822663 32.157369068302771
34.767805113730631 17.375778578740839 31.600238875265589
33.262773823847581 16.967516015426817 31.947197839886769
41.681989080752103 16.500257587386816 33.067355952507384
42.850061326872705 16.379762115172099 32.770922036786352
29.299193587985968 15.340327500073263 32.826658910099276
44.950934674722717 15.933465325046001 32.223507164644431
40.457848830548727 16.549637805537674 33.373244202234169
40.273454396230463 17.164856401995863 32.461277787122086
26.056573632523108 13.106167461241281 32.282372606775432
33.968371527299055 16.760634918925902 32.913348701756355
32.577645601919542 16.33920206784132 33.231213587317185
43.771800182435143 12.517106643536593 34.632128748130043
43.586416224514402 12.848029059164894 34.698535013464735
45.28079467463489 13.071293389296423 33.638822039012425
35.422961386384351 17.111037364819417 32.575275200474806
25.790043454147703 12.893815253814374 31.09085168393937
31.836031823714723 16.487360575947275 32.270326159304133
30.508385077875261 15.942315278885779 32.564911762798879
36.055280891243576 16.74054166588359 33.478404875723029
34.68098692547435 16.449714289170927 33.800314132930737
43.308842570250143 13.156743601645546 34.786367870233633
43.50890884046126 14.437602385609729 34.161976618661612
42.824232013912805 14.679922529224232 34.346394410473252
43.862292244705266 12.168802010691177 34.588117154825461
31.271065874441035 15.852885169833002 33.524234147397749
37.913324274271417 16.433220026685198 33.995468800408617
37.45912569016734 16.958609924560609 33.144667886731582
39.195491273350264 16.527182905461238 33.68412626556939
38.87205197633299 17.100738757079515 32.803969315860968
44.10487352572887 14.15111727463745 33.996761850405015
26.548527012785136 13.283866514688512 33.379421574227365
41.548027557950618 15.783769586937703 33.950490479023927
43.484608183152261 15.447992388909791 33.450579706049638
42.060825132328056 14.874544166815559 34.547326506863712
42.14585936020292 12.03668497789972 35.523684053656346
42.040415100886278 12.296299245186306 35.565887708629887
25.968530311768401 12.548216504360765 33.477222345056092
25.549242229177054 12.336981072689969 32.360115507720927
33.35628645449691 16.090369346605392 34.105700951834351
40.486434246132873 15.859155730889217 34.217783301773473
39.382997355107875 15.871104093839001 34.491488375770224
28.226089692768035 14.690175609443445 33.051750838392479
27.304722483470066 14.001340351578857 33.236905001742194
35.364364361715474 16.037274055558406 34.60143481711782
42.552301533649953 15.646045859612572 33.693506540740458
40.441902038344246 11.644863939192696 36.297211816160903
25.573190187960808 11.805117550617226 33.528881109108163
25.613197043869526 11.001285111504334 34.214661212064286
32.100494859155823 15.667745906401617 34.39011247265401
38.253811252472104 15.819441132977152 34.767613574275103
41.229822081169047 15.018628936136464 34.761842425189862
42.943126711181563 13.438748317213854 34.894346544081628
41.969810020380393 13.906629652393024 35.164171747254741
41.376402868765844 14.085683245876039 35.322083469846007
30.067683254968223 15.308774724170023 33.788137900309991
28.985046198647847 14.714805785005019 34.019076472881061
36.630043567798211 16.269119275470594 34.302732010165499
40.343341389749483 15.110076100727172 34.986813904938884
41.617584049987357 12.766565923238314 35.699684379763632
42.49460272538002 13.689931356363434 35.020896212119865
34.134741938952992 15.741064894193926 34.887221732627722
41.863461861878193 12.540781160138941 35.624841369204034
38.456270815867583 15.130510389447217 35.454897606899728
40.934345166574346 13.149194712360885 35.89245816043659
26.146664890912611 12.021766170582129 34.554012728277371
40.156895340809555 12.153618162293235 36.399303799218671
40.299835400816079 11.99464134424235 36.35407313736863
28.038942908255244 14.079639727140853 34.21368203209596
28.112120663560617 13.479596989532872 35.240877180930696
28.923090931703435 14.08589691997488 35.077907930020231
35.984186449411865 15.529211063582288 35.311042793331524
34.876842961014958 15.294875620687749 35.570422612889942
38.690849297626606 11.445664137098269 36.946032489157986
38.70186267033607 11.353559647513404 36.937589324709194
30.931924940933794 15.188006904892664 34.64940121169397
37.483200854998998 15.059199511192363 35.691183573088523
37.115340583353706 15.704920157968644 35.042132720828647
39.968565144654036 12.298840471397918 36.454908855480298
41.306365484065992 12.970361027633338 35.789325761211501
39.275250325343642 14.373830651394675 35.859747983950641
39.414308623196192 15.147552214147687 35.218960685436919
27.243169201001422 13.412538571635769 34.369116906085665
33.809459643633929 15.005331667732834 35.816489395307599
32.959107597436216 15.384811146628511 35.155925180496112
36.50928477171302 14.934659194599899 35.924373857308439
40.395301928314048 11.824228246804893 36.319876188888188
29.867616598543879 14.658148447760544 34.879786301273427
40.723030834832869 14.224480975763795 35.492329564155135
26.609328744489897 12.723230155020696 34.483114629265984
26.936029227076329 12.200584329225478 35.45240001695332
27.446531235652845 12.848089839899442 35.366317675102181
38.501950962385365 14.382204130173225 36.05156317302081
31.854603511171838 14.973708149564407 35.403627183708494
35.548726937418465 14.758705509465734 36.151067405643559
38.594857654808806 11.617015657766581 36.980417604557204
38.655005938262974 11.533911696272082 36.96037850783528
40.019226742063175 14.320999241824229 35.672426199185651
40.506946568550241 13.300459040476522 36.00757801817872
39.737591595841572 12.428190675269832 36.520077338729941
26.187954265435241 10.916511831791521 35.220018743959898
26.588058308473286 11.546522502185152 35.497869077362687
29.122363452767495 13.47471456619467 35.986444480112638
28.449664582649859 12.910787591043194 36.117839698444314
34.615534204877875 14.533904613675901 36.367958598075589
38.511278824964847 11.693764018967727 37.005858227042921
30.837336965288888 14.513750586544202 35.626715402445619
29.9221421419129 14.011645368732495 35.821936653218629
36.912754007751452 14.265740735851892 36.43746033662741
40.030401917162578 13.421948134443918 36.133006672447763
39.511662800440504 13.511890748311593 36.2669144951115
39.161758347632755 12.631988576492464 36.675178071869638
38.82529582047502 12.703464439431198 36.76284854757499
30.99845003790125 13.851314051955683 36.440211747193302
38.405489405460244 11.763037633714871 37.036329100656857
38.279031627449349 11.823826379809359 37.071385997228901
32.797600381222637 14.664801104706751 36.045655153545844
31.856020411495866 14.278249643788952 36.254578122763576
38.378358678065766 13.59236884121443 36.552262969236146
37.780320579428142 13.58173091657296 36.69954241340993
37.710605863268768 14.345998328710039 36.24507452686273
38.462862235986556 12.753167953028472 36.855591790084517
38.958292522132197 13.568975247610743 36.407349071652234
30.237395128110496 13.39021983109887 36.599848920713676
29.583952004755659 12.901691245143546 36.731162191962454
39.467342282584582 12.539782417386855 36.593859067265406
27.282044437880792 11.14050935035382 36.296764485843923
38.079740597552806 12.780374020110711 36.952055893062422
27.913854419280973 12.328088117956607 36.21420643439069
32.11304536620014 13.602463016908455 36.92918012905244
31.418479484452117 13.22140210784405 37.077338781193355
38.133751835282979 11.875243909782888 37.110517143565211
29.047650899153911 12.392851789200989 36.832236310217404
28.636311246468306 11.871121479260447 36.901597644585223
33.723313259422227 14.263534354544234 36.571884994664146
32.88507631851062 13.951537161004467 36.759872475804414
34.595958669337307 13.775461979367746 36.980137455419523
37.795437647894005 11.947113529305172 37.198670122736218
37.971765965740133 11.916540359588332 37.153152550116026
36.12002938665843 14.142602080712148 36.625915328558506
35.343992265401241 13.978377344134021 36.807691226266705
37.274005449617277 12.766041470399569 37.150485092176197
28.355932545513351 11.344108500401928 36.938234455093294
27.957024236837047 10.823448106526181 36.79987395077498
27.522746599370496 11.735113043497712 36.274139354484049
37.607336662373712 11.966517551358809 37.246406477050314
36.863140790016942 12.724711762864697 37.249556782276905
37.17289697765915 13.537216223635355 36.84704020740385
29.894336143953087 11.943705533151533 37.375042831298302
35.38280480595931 13.209309740145224 37.269505510881316
34.82585034255743 13.040535534494287 37.396803261428161
36.564947107635909 13.459474006387309 36.992605105205996
36.454916228778245 12.661299691021593 37.34660429276876
32.625974591482027 12.966714560347405 37.417248403995764
32.092619164680322 12.643575047286539 37.529123859553749
33.886837521556345 13.536814712127565 37.140739122128061
34.30259473229097 12.845776647392647 37.514151365584461
37.681519375806332 12.784686171740205 37.050833789452362
37.206922214105347 11.970853368990012 37.34572839326546
37.410206728749543 11.974469482854534 37.29566531637785
30.811506570086763 12.81391092128483 37.202188038928263
30.300976551811885 12.385931705207806 37.301907598600678
36.055284531078797 12.576729991208619 37.440212472107149
35.965334325152185 13.34963800960147 37.134114923826772
29.414838786519368 11.042420429405269 37.437698322586904
29.12343838246419 10.816625552830148 37.349454655499244
33.820668518908761 12.627872968019645 37.619838541542968
33.226968130364362 13.265915460513286 37.287154601821882
37.00044771290824 11.955722002685727 37.395865617689864
35.670074881789802 12.472235868748671 37.529015892182855
35.30490245676021 12.349341087677761 37.611720106126157
36.793794023036071 11.929296028550549 37.445345891873721
30.454205889836878 10.836559506064354 37.726385001891536
31.928339771997468 10.882935304662812 37.924723205615322
29.597514744833131 11.493681096274559 37.420527345733582
36.589974856088354 11.891960770421502 37.493447622115724
31.634679424856547 12.301209199940912 37.621149570608722
31.258834182668409 11.94460922553022 37.691983327221308
33.008204271509129 12.135632426242028 37.790259262404319
33.387096942533006 12.390001939856488 37.712324203352679
36.391962117496064 11.844260623854739 37.539469433226088
36.202644076242592 11.786891268820652 37.582740032800771
30.970562924908428 11.578975257003879 37.740592512756749
30.774070322167624 11.209639116321824 37.766268045332566
36.024779912428748 11.720689102747928 37.622628798940788
33.522591341882567 10.955021639573523 37.941340469073268
35.8609637486271 11.646619651564716 37.658553958459152
34.965094485863567 12.209837750079924 37.687118558823471
34.145122015541872 11.713048775780404 37.85911421963381
33.951575651035853 11.529412741621966 37.895590961282679
32.689515273853615 11.868473705830938 37.85250733412694
35.713585022453145 11.565762953116392 37.689991482197172
34.655603953539831 12.055760103341211 37.754112308989356
34.380945275565452 11.889354929512212 37.811724102643829
33.803126425222189 11.34112441702888 37.920622919003861
32.435676582857006 11.592421449475188 37.898160835936707
35.584793027861281 11.479298172950317 37.716482901438553
35.211818911841092 11.05168191493112 37.775972740213717
32.136358298792885 11.02980931401509 37.937272498853147
32.250389454569927 11.311501097919214 37.926554105731086
35.390179835710569 11.294650773537848 37.753160754850086
35.476464336894921 11.388485978311666 37.737642272578249
33.701939865586837 11.150929647443728 37.933844882753952
35.327198246038563 11.19916088422065 37.762811930111035
35.288436051962762 11.103408620553926 37.766455530605583
68.381845675125817 13.614070644497996 28.534590434453538
67.787707850241077 10.958534767630226 28.879732075133788
67.865694212948171 13.489720495448069 29.440605164411931
68.103424011451807 11.045975989243518 28.22287311093492
67.36706976074413 10.866049585822267 29.538202113108007
66.301485322303733 13.225453358708513 31.170541738904237
65.570860292784431 10.577441679422357 31.390689317415358
64.834682185754346 10.484053875078654 31.925282730390467
65.313535541071019 13.09569161777476 31.927984936566354
63.114321566725494 12.865654040323241 33.08339586085922
60.806487224144277 10.120325322600003 33.521704919343641
61.6035054641073 10.174039739215335 33.370526691692675
61.987569939904461 12.774218250302505 33.436962480800048
60.046669747963975 10.078631178535129 33.579992837311593
59.339511092021354 10.049804932190611 33.544210192233081
59.008851192352736 12.63365641362005 33.458921552390507
58.699416364351777 10.034434411272917 33.41508024828034
58.277144047353744 12.637394075465846 33.119054494850126
57.670902523615737 10.045031114242718 32.889143577520187
58.139414599936885 10.032832411464721 33.195232049519284
57.727616616373368 12.667016065529118 32.621864935380003
56.87079729690096 10.222799333570633 30.950438612717157
57.343724808242058 12.895130579719975 30.403043970710911
56.959660332444912 10.294952068632806 30.336608181603538
57.164028916482309 10.375569562075791 29.694730085652356
57.900383167189972 10.555495965497041 28.379401083479273
58.169887666580237 13.132182078045577 28.609869610390092
59.020204987602881 10.74800184448042 27.111012924225754
59.734096557224674 13.396449214785131 26.879933035897785
58.417376892745509 10.65114177556371 27.73272855304047
58.87233683340655 13.263401848823253 27.719818765583405
61.213755296986221 11.02626414172518 25.518116576079898
60.722046338457389 13.526210955718888 26.122489838235666
61.798219283919579 13.647700252499503 25.476598402255565
62.023649164284947 11.108614226108738 25.113955257700987
62.845957272021835 11.182865254986925 24.78806311949478
63.663947463826801 11.247505812103974 24.547076504894598
64.048011939623947 13.847684323191142 24.613512294001971
65.135172935522334 13.918493859667489 24.429485005844061
65.927941835912748 11.371740619128698 24.373393004354199
67.026730687175686 13.988246159873595 24.591553222411513
66.140962974374176 13.965955752161221 24.422070536763325
67.128038327997231 11.388713139854588 24.722371147067989
67.75843783217465 13.9845084980278 24.931420279951901
68.307965263155054 13.954886507964527 25.428609839422016
67.964034717133046 11.3507631606982 25.414558885264761
67.596550404318378 11.37651443707659 25.028459619067089
68.368201447913648 11.260965111563918 26.393878872997263
68.783818303380727 13.823493660880047 26.813219261498254
68.396655631033155 11.198746217748678 26.967164583870119
84.141654682743336 29.732270601167322 4.1940874006689732
82.196358015788661 17.064099245958023 3.7162131556190623
84.073397132517158 29.745762427149526 4.0437964088577214
82.145641541711157 17.096856887125018 3.6793337716325318
82.082459025492298 17.132618776971686 3.6550612542489986
83.904556652575152 29.746187323274867 3.9693205243357284
83.792246314186627 29.741367965844272 3.9658137998582372
76.509049786990246 25.794165711252298 36.932239509732028
76.509319700326202 25.749545167530268 36.935569029249997
84.132955099288296 29.721369637218228 4.288803338097102
84.127276415225467 29.77818705031968 4.2937358727923485
76.495123478703533 25.837829490152679 36.920080742530835
84.093429013130645 29.830069282564541 4.3053302338321906
76.467944773909849 25.879250488381079 36.899446817206545
84.033109916483511 29.874416038695987 4.3230051680941735
83.949347790046943 29.909003259357505 4.3458733674023033
76.316708224725673 25.978411413537494 36.79391075069249
83.846340022830049 29.932097750490705 4.3727888874913479
76.154838958631714 26.016639272794187 36.685754288177797
26.192346685240636 13.059428245655003 17.209831489558827
26.175019669469883 13.093563316489776 17.195249474734279
26.123994143931707 13.09750823475208 17.208116875648905
26.081795749658017 13.109032132423396 17.21927123635356
26.039134560548977 13.149673260766587 17.232347956900487
26.052555131634605 13.127006971081709 17.227620697257628
26.075006434226058 13.014403214004087 17.274592672079869
25.98524001389287 13.029298314542324 17.297723511453615
25.830183522157885 12.982902489912105 17.425900493998842
25.835399404115051 12.871578012559159 17.663991852891463
25.946530918600182 12.893064729180152 17.508350464074326
25.952487538512905 12.861136242120864 17.634378797270081
26.074246939174323 12.942404618568569 17.363010699985601
25.940660382174666 12.95273253214325 17.396697991121304
25.916450571876872 13.057702985142376 17.316503964353274
25.80128582721742 12.917165500258077 17.545776941013095
25.875371619408917 13.096836811210249 17.329095690667124
25.648628528514145 12.929259134987749 17.713775778604862
25.732391309216183 12.894671644165646 17.69090740067336
25.649674834060992 13.10971160641099 17.542915236020015
25.55446412993745 13.025488844502295 17.743044599152491
25.588311288796014 12.973606119186231 17.731450267668759
25.623515021292093 13.02644508367529 17.596538195613473
25.689982142761103 12.963125234788539 17.576164360102844
25.71849510853108 13.089302358521696 17.460135786387784
25.753630583212985 13.029961241610977 17.447759669008082
81.825061102295763 17.252604016941568 3.6665196993727989
76.967900990552181 25.03461758679332 5.3512436261123497
76.326170230601647 25.576995508979991 5.5436680675941705
74.491400006463863 26.446612606032573 6.0515393253075072
75.494761243160099 26.051027833563314 5.7787706999208552
73.33746786583059 26.755318801532688 6.3561612451367928
70.678964880691936 27.087766252093346 7.0344511495097812
69.231048925027466 27.104422288177638 7.3936641869584339
67.744682200076852 27.020179565947142 7.7561242425135912
66.251539017487815 26.836832440379141 8.1141072795404696
64.783447632291328 26.558290139190863 8.4599824910868158
28.06272249720519 25.658417941296882 17.487916003525157
63.371692040534754 26.190488311679218 8.786379526119914
20.212387924770582 21.625012886137888 50.595453007829434
18.271300729378229 8.8963685803101615 50.271337831435424
18.073606895256166 8.9693145267699581 50.20398753703963
18.19289844778821 8.9122882037714817 50.261791992954286
19.931237556339234 21.62061856459124 50.517469326070099
19.862982187373923 21.634110624653442 50.367177134862963
20.362931159845211 21.751052909311671 50.535047633289054
76.428315429282122 25.917210994230885 36.870946127313509
76.377403778756047 25.950591287419286 36.83541895839295
20.404881219543775 21.856418450168697 50.414942217144578
20.453606322350673 21.928149300067211 50.239327948508731
76.223680122825286 26.005464328165246 36.731392756080623
60.432770742179756 10.937491676240654 25.992320466196809
64.460965703789824 11.301220228719306 24.395898277243635
65.220783179970127 11.342914372784183 24.337610359275679
57.30341821080107 10.070782390621108 32.503044311322512
57.044444258991987 10.109561851097814 32.044796333845674
56.899251480020453 10.160580439755392 31.523724323590017
68.223008668942128 11.311983700221495 25.872806862741605
68.307792595489175 11.126593482686499 27.580995014983749
59.696592635149685 10.844103871896952 26.526913879171921
66.568036563582339 11.38711114004639 24.502522948306936
62.421495655912281 10.238680296332383 33.129540077092486
57.479745077693039 10.463010783689084 29.037871121453485
63.243803763649154 10.31293132521057 32.803647938886286
66.850076035188593 10.7704037757556 30.184874643546809
64.05369763094788 10.395281409594126 32.399486620507375
66.247247940331221 10.673543706838888 30.806590272361522
83.62591665205909 29.945230154961923 4.3348908947803828
83.999866405242059 29.747677024847118 3.9957566597576939
83.838565288765537 29.756094561208563 3.9652725796118649
83.668570586122073 29.733460870159977 3.9854114870881858
83.825144498735057 29.778760727534632 3.9699998857570122
83.674533914697321 29.789975051875217 3.9979509506240873
83.702678855548214 29.812205052316433 4.0023714233289951
83.795902175755629 29.796736253763179 3.9783498111162778
83.931980260394852 29.832817920826876 4.0064451198886779
83.973059020870423 29.793683927383864 3.993853430676781
83.670040420051365 29.883869414116695 4.085803637875582
83.753704130610686 29.808260023715103 3.9895040775250159
83.972664552500405 29.883869082479741 4.0922510760757618
84.049219173701289 29.836811074949647 4.0703915311227838
84.121464695482359 29.740539756846072 4.1110301210279747
84.084354167884285 29.77746930960549 4.0580154923457776
84.121896649041162 29.810402091455884 4.1675826321555061
83.863191512057924 29.861222304991614 4.0252253834045177
84.055430445459507 29.873722237567122 4.1879562590578647
83.659809020889924 29.916542037080625 4.1567115862837376
83.64485117350371 29.937343942177105 4.2411520923441213
83.773424742078021 29.876117303253647 4.0483563029219951
83.862189169788977 29.914039869045986 4.1214532649638684
83.729250784030526 29.942539518083329 4.4024022161379133
83.728601233660697 29.924367505251166 4.1551408800403991
83.798879166628296 29.943782048089421 4.255770731107626
83.944122660633056 29.919681560458102 4.2183446669200375
83.603954933715812 29.939805417624264 4.4332275753388259
76.083341634739668 26.021654251580735 36.638820757151827
25.54878430024069 13.082305713731353 17.747977383480659
25.585934944339147 13.095291697466646 17.646352809856193
27.392293784067004 25.563162566949764 18.06686917119605
27.429444428165457 25.576148550685055 17.96524459757158
25.73680778494219 13.124842369421662 17.44285142393084
25.842964601007022 13.1399252664629 17.351179000411111
27.580317268768503 25.605699222640073 17.76174321164623
26.090370177022535 13.166962504491325 17.210744414625278
25.962822122031699 13.154203976079659 17.272494815824171
27.806331605858009 25.63506082929807 17.591386603539558
28.068685825780435 25.714932123012119 17.500455467061059
28.069184031980207 25.765920111816641 17.534488358429687
83.6750321208971 29.840963040679739 4.0319838419927159
28.053960931973045 25.841499108217526 17.659216102720709
71.926015501363736 23.142364842175397 6.4809932326769424
71.675564125213143 23.545657043289893 6.5679889877870519
71.921550751052536 22.94955276241387 6.9715162173884799
71.884451275049329 23.092162265486664 6.9895482771437241
72.051673454370288 22.602071988822416 7.3900033045438818
71.940288705160256 23.229148105474977 7.4564920318988683
72.008725669033751 23.072919876703448 7.4298622661969951
72.291619727866873 23.085756565648701 7.7763449496631427
72.333782041556589 22.923674769822377 7.7558514422197167
72.047772885642573 22.922826613850361 7.4108837199394753
72.767576795190479 22.571915576693602 7.9616257986845866
71.740344595494904 23.505083268630841 7.5230859876517382
71.62945066078656 23.502777992846678 7.078124116563334
71.819424168561653 23.240600819646573 7.0148508704218937
71.330652993184785 23.757165977841623 7.1678341618139214
72.716683860244444 23.129925682169318 8.0088620582487593
72.762957572720211 22.952047908401859 7.9863707264836794
73.315460170592559 22.586230325829192 8.0617007600179331
73.310354791409324 23.006296241620163 8.0890454093335595
71.172179831960861 23.85743858507222 7.2132624136306163
73.169592098415649 23.407459722056139 8.1487747049779085
73.259219033626493 23.202860402608167 8.1138997211590169
72.635574335545613 23.315074323263133 8.0404223598753326
74.633735394990723 22.669534479229423 7.8616359330646297
73.949801596682022 22.619412780084545 8.0277123354214499
72.398619805177546 23.642089869008583 8.1193433433581035
72.001800926939524 23.552437659355238 7.877015027314668
72.217712035094863 23.254462974233835 7.8051028040011534
71.226445454612104 23.893991068181403 6.7007178272648815
70.599664041112945 24.17107966260901 6.872972472273533
73.944167238012724 23.083268014730692 8.0579067003947618
74.62755149088342 23.178489326538198 7.8947664567606495
70.954427755454219 23.971673315183196 7.2742217161541731
71.425867807843986 23.77282021902662 7.6175034936531159
73.887699410080913 23.300322797332001 8.0853522889928797
74.56559383882005 23.416648164022135 7.9248804343908414
71.02989897942183 23.998584131320676 7.7294740434460181
75.320795833666608 23.286426815144925 7.6091048184726606
76.585091543944444 22.888546668932186 6.7020007219732474
71.234611649011967 24.085356023690039 8.0998874873597071
71.482089963447024 23.955523241940739 8.0306061671232296
71.259076626332146 23.878354461788412 7.6653161121262734
71.828260433888929 24.084460269877415 8.2879028329071502
72.025926069990064 23.959389396389405 8.2312396114951447
71.662203788949057 23.841559522553155 7.978974471087696
