# XYZ point cloud file
29.113856714125035 17.762869768976763 28.832827938985503
31.371353121353625 18.237678241993247 28.563923500750157
50.182255859390843 13.20983257826731 31.495826645089672
49.373601917281519 14.120849952116988 31.694454907694901
41.202536321729781 18.417644902003083 29.261477348964743
24.212447478546615 16.174798079773097 27.316690979603404
22.35852397898109 15.305953265544883 27.492203254564743
18.678006542417634 9.86690532420557 21.643350763183186
17.764538674375736 10.253822043474804 23.677253183943161
17.29519396148055 9.1528369199754014 23.638314761617046
47.302155767689129 9.4210801014932226 36.341210679885641
48.422635306993108 10.557420968014245 35.114945570866539
49.736998015995923 11.385390470240274 33.255376258693957
47.06678862401067 15.687274298358625 32.16337755901516
45.60227103944321 16.319839464288041 32.426833567693912
45.513040333842397 17.07817926008369 30.552875320098071
28.335538869424287 17.599491943655615 26.878320588163625
26.214517146251808 16.943045359172931 27.111063961097109
19.166776644691573 12.883553399232653 25.689290496367207
18.0516277215801 11.794710828337607 25.741280396676078
18.484008950907857 11.34573463119092 23.680560781532037
39.720105956771121 18.119270736051966 31.456723860764637
48.330040602986983 14.950697593325273 31.918058730837799
48.152366886804145 11.466219807831305 35.238517896858589
33.668507107511509 18.579137912461782 28.276887072228263
43.957838189473946 16.839168279216992 32.70458570127856
49.324767616503244 12.339531679090378 33.402974800586975
48.67460096316595 13.236039931534382 33.578197265306656
42.157475494088956 17.237689178236671 32.99258302418346
16.67062848740262 7.962612476201711 24.386794528732374
15.791471824623699 7.7253347946411033 26.552476224437832
36.812328533893819 18.576882580984531 29.886869797936143
34.535267771329472 18.445121876734071 30.190956729117747
27.773735289438875 17.233344892692187 31.016269803108941
26.928936034211237 17.161637214804518 29.079679415465115
47.657743342649098 12.327831458079427 35.388814590765989
46.945978767437168 13.129691801183547 35.56364380959635
40.227429808135426 17.509588463976261 33.286626564963299
41.780783332729783 17.904333200785619 31.14991028975847
45.449102881702089 9.1374320580172448 38.126814202153106
20.679780736787201 14.34918027728834 27.635041428707357
22.902746468803421 15.616681153976733 29.493198147361749
35.359456786303042 18.137241848949863 32.064639011029534
32.247632230766079 18.174317239425271 30.483356007607981
24.848453860230666 16.442746251212199 29.300877884968653
46.027455509221689 13.860108185192862 35.760455728581007
46.701710278519755 14.804895878530516 34.000928320974154
47.795977496250188 14.061842011860906 33.778488706737107
19.20069774983801 13.318431796046536 27.743122653650691
19.526770357081716 13.692598364115312 29.780447810855431
46.687305386666878 10.620364303016249 36.976653391111867
46.338832446494891 11.426937521383836 37.101424029214144
29.982778698655427 17.768418577426285 30.75980417569842
16.560125752579676 9.5311149559276398 25.734423539739804
17.17849999988546 10.671773114748108 25.756398241688956
37.569206737398318 18.197286216357259 31.763123054707737
42.298901601951407 16.436176090828262 34.767372174988751
40.529335985667352 16.754199009811632 35.04347057080308
15.662393013635747 8.7677840420587501 27.804386840388656
23.650643898561192 15.808651028809669 31.454640194548716
43.932986210504495 16.000782790925548 34.49900147923826
45.407756992929976 15.454366342863555 34.242272345804395
43.416923695248286 8.8530847122618681 39.741995688416715
17.942843385709743 12.228737595895911 27.814870779415987
45.046486848965962 12.882874393860472 37.418860609112166
45.789220516603649 12.184791112880436 37.24954652891995
28.700772245389029 17.147464170029494 32.896662065220355
26.579342675887027 16.56370224883781 33.136340298856446
25.652713566266385 16.576898308209504 31.249013176042414
21.120187439706942 14.695487687092101 29.653835619215016
33.123072706280041 17.940012797716975 32.356875815994925
31.792951205369452 17.280402399272031 34.437494241002597
30.892670499464614 17.60847550200263 32.635571412679099
44.961090364782308 9.8313232665179822 38.592231864025294
16.997208609695384 11.501208812753847 29.924734228883491
16.097950519872985 10.344664116825347 29.940304465740404
16.924560195964343 11.095988673992796 27.849239604504362
16.160697346962724 9.936702381024773 27.845727847441164
24.559314621788083 15.865701613209577 33.351111332239384
38.195852235777778 17.650903276563369 33.582427769772615
36.68856267802721 17.021358958482473 35.602693707530776
36.092362541858826 17.659571982140374 33.875673825881996
38.650087847490113 16.950212441936316 35.323271178985706
18.1457312009045 12.622637917108396 29.871188412744512
44.743316202825433 10.563591283148655 38.691801331097707
44.34477400477158 11.257838717407164 38.812903155800399
15.461069770210425 9.1698684812154543 29.917672090117044
44.915566535902009 14.508429406945732 35.976380541065126
17.381039805724324 11.862590544932484 31.952819994361295
40.594480205455177 15.87307545149422 36.70623177188601
38.8956910489891 16.112396000726775 36.965043252663591
43.027630033037774 14.060029824397994 37.810915158523869
43.626524913984412 15.065201421585602 36.208269679461608
42.179125688877335 15.522305388208807 36.452741981777109
21.796720398995671 14.939806214581457 31.630152469510051
20.939385411376087 14.169214635013114 33.693812623657081
20.117977156801782 13.983033226324912 31.772990643652665
33.947638363829839 17.53546855112338 34.16208802238225
37.107534128830835 16.236778813659949 37.225402002637367
42.905556892006878 9.766579002910488 40.136748491259297
40.399593290311103 14.889991928356233 38.254802531107046
32.633885144919347 16.786737212315018 36.144169979077724
30.599856644285367 16.484389604694851 36.398328059236533
16.36275661597892 10.729841623029369 31.987188819449674
22.670146090390148 15.063640523516145 33.537843103360075
44.121458374614626 13.511006821849456 37.606897730572257
43.771267635950757 11.90394105684973 38.953772404291769
19.392270252089702 13.195467701379272 33.816745702092433
18.638894169852591 12.952284745083109 31.881071868596006
18.051361678695095 12.156598436769293 33.904849541048208
29.659723651229584 16.898093168062211 34.697876125269943
14.908250783341686 7.3188925486795551 30.885828692928534
15.100589433650329 8.401636991095323 31.942336055333971
14.918115246033366 7.1561377530368873 32.98516070259474
34.673368284197146 16.966601363628911 35.877662968172345
41.237670760410488 8.5725228666519868 41.161280542972875
42.135251948894783 13.014864502019998 39.286337091021934
41.096600791824599 13.463485783385313 39.473182791436749
43.03116377023747 12.492476897326025 39.112354398053427
42.22397650595191 10.953864115080536 40.343854336364821
41.660295780664896 11.483657998994163 40.472351341308332
16.936212755583622 11.067755865874247 33.956839441357076
27.579061180304727 16.394115604732324 34.939436951533239
25.581306655155188 15.77581950997045 35.158653988168766
37.315104216444958 15.324527105810292 38.724726284475501
38.903705842869435 15.158828936027492 38.488199899089615
20.368228315256708 13.332700338537979 35.65217987678416
41.780946245282593 14.521936382070372 38.02793860455683
35.656951769801985 15.384670136498503 38.960932877572183
35.256080574224136 16.244409051974245 37.483511892337482
16.063085033888985 9.9448181522847481 33.971957286369957
26.666292314319406 15.531602687952669 36.855007160514745
24.824115555210334 14.895056431068824 37.050868863849466
40.715189247930908 9.5755029947213863 41.484226511266428
40.435885920970051 10.062038641908774 41.569096025492428
42.641091362980205 10.378708761167148 40.231440257020992
28.600942316878317 16.063967786374555 36.636431207592238
15.598893766977302 9.570555330061346 31.983677062386473
23.695589615709274 15.052219383565998 35.352330709618336
21.949409104896276 14.233868829831895 35.517642906655183
29.594192903975049 15.574169392226393 38.207198847723106
27.762832171025956 15.130577531518334 38.419816221979758
40.033967405917402 10.514833947801012 41.667818567133779
40.128131047210715 12.377032570953819 40.769892050441655
39.1819917287511 12.727586071904023 40.934596645810274
40.867806018040206 9.0623218946056134 41.414447413932052
23.101278217849192 14.163612673478758 37.221159913527814
32.229374086660641 15.186335195696774 39.418663972644353
31.471819586010554 15.910671117157909 37.978015654114984
33.953428048280628 15.338381317900039 39.193375290869014
33.368334755063998 16.135175209264006 37.735608240392587
40.958267308619213 11.96036464790035 40.615057703608691
16.831247684779481 10.268572282821426 35.853929601726108
37.284712543686666 14.307267220786233 40.082956137016311
39.930355539878441 13.831799105848612 39.670166981912409
38.133643430978566 13.006913321249849 41.106770112918745
38.611531017810478 8.8736528815004085 42.552010077610262
38.446443958988546 9.2557647825485265 42.61111968533703
16.111777408247363 9.1766596951053128 35.850622004137236
15.444710786583196 8.80415999346428 33.949982584420809
26.004445884986239 14.58636506387074 38.61276699194773
35.843898869202668 14.407489361587951 40.292741131968242
34.35208278237512 14.413636984799417 40.500714160518875
18.975103885281484 12.361855019479458 35.753979846970552
17.79035180834266 11.335490089524431 35.821558201223993
28.820168741808189 14.575349860759436 39.834791779785874
38.653519721057883 14.114433400808796 39.874417578176399
36.380673210130361 8.2951091515857485 43.41757108931499
15.642432695352179 8.0756745716059086 35.811683581811124
15.840018246255381 6.924353833392086 36.884121939934523
24.344673019740494 13.949466352815767 38.783237674753678
32.831023358210324 14.325621503818066 40.703841907600527
36.998375751188732 13.210940613709866 41.283901406712609
39.51529438461975 10.927285839536133 41.778954538187364
38.159533716361693 11.607778950095971 42.031826662497394
37.342216853208797 11.865896664820157 42.169875231670218
21.522900591581784 13.34793587371836 37.363397283214638
20.111999492084117 12.459921471937674 37.475506858083804
30.509928930892503 14.930748808646049 39.633513908247068
35.792744274548859 13.33669328618978 41.463407487898472
37.834197134039258 9.9455105195007043 42.76150458842028
38.887431751107599 11.293380462892539 41.900883180069599
27.184732473315055 14.125320416740891 40.019562675986947
38.186065221998838 9.6147956611620824 42.681292517519566
33.24147712968486 13.347207527442066 41.819077910096951
36.877770737484823 10.503184893882812 42.947239170373706
16.512000127776446 8.455243153755676 37.597012972426555
35.95127630123676 9.043100375740563 43.548048099423639
36.158249349972557 8.8099271749143604 43.497209624097721
18.889150275422967 11.512518683258886 37.555853652303227
19.146992557165856 10.678070130083301 39.19624296102787
20.189789287079606 11.58145737534953 39.136761745051672
29.789993133281911 13.873589082465632 41.083827996532634
28.314366058939953 13.516162981482815 41.255145395360472
34.05478340293346 7.9934798020263607 44.082073957117174
34.077690924241708 7.8576414591103045 44.066034963042256
22.807717508440593 13.229169020409941 38.928742345017014
31.933047633235368 13.231815761557556 41.99005536382704
31.302899139568886 14.144726289951631 40.899162572616873
35.684178777372964 9.2554983032482632 43.605279071517131
37.395968522448726 10.243086689699334 42.850586521992724
34.478384089488131 12.269346164513667 42.606181848868729
34.534328034950121 13.38233765511162 41.642671009111311
17.872184173718232 10.519542576124707 37.603266102171119
26.897538474365078 13.077661118127812 41.410616314992282
25.627469329223363 13.587222864864245 40.185132096365137
30.628114660757568 13.037844611815903 42.153110752527553
36.302081131040396 8.5593788860238362 43.453504798142134
21.415990934506588 12.435977254544834 39.047159372456065
36.447394566752507 12.063969400618971 42.313016486449527
17.075930160549312 9.4954729721727205 37.617052921675686
17.669542679382658 8.777907656518348 39.221824356725165
18.302806624943596 9.7389888842336099 39.224735706898734
33.432904792855183 12.273654403972385 42.751931373184902
24.171086030951244 12.968904390186113 40.329085948116138
29.345710427225971 12.768122627718299 42.305865896485415
33.910160379961745 8.2454078052398181 44.126019343598259
33.998666046584468 8.1233665003151909 44.102166555167145
35.48812235657455 12.19910943065436 42.459162193899616
36.287158359469331 10.722012094373227 43.050053365035652
35.360852337926495 9.4440238289015621 43.668067900481518
16.737518274026588 6.8589802344140702 38.622260692742167
17.256434330430846 7.808841104631524 39.187551469673494
20.61040938837386 10.7278311629337 40.61201569671978
19.75072787895796 9.8884292113931895 40.652095296152297
28.104534914068886 12.426583487494128 42.446093381395173
33.790553354492772 8.3578238156826661 44.15328497893239
22.836821461808562 12.279381297295503 40.449324830293257
21.644132426545251 11.528707935629283 40.544095315685539
31.296005849582247 12.085199051009065 43.03116807733349
35.632743576392429 10.896377143620748 43.157529866504262
34.924072569256964 11.023737932348968 43.268101010822548
34.565121519887896 9.7388489458780665 43.806589219835487
34.104320995070623 9.840849322370385 43.880301714770468
23.200372650627088 11.344977691178364 41.76062971274105
33.641590715017031 8.4589752916813019 44.183565647326347
33.465444105389047 8.5473872762139731 44.21641987286273
25.560169634284538 12.564477379890267 41.547973774279754
24.321761456147026 11.984095156205653 41.66521478408788
33.385931718274279 11.130729508467729 43.492056957797999
32.578892473775255 11.108800344549262 43.602175855026132
32.366930875503712 12.211972447184696 42.894285382400241
33.610330585299373 9.9104416946446872 43.955561470378242
34.171477903097596 11.102237140918421 43.380154613210678
22.21235636469364 10.656444496150364 41.832827063608832
21.372117936072687 9.9285366157284329 41.880754402020173
34.986011111631846 9.605927614949568 43.735499060978839
18.32754334106987 7.263210738509998 40.60152058665885
33.090350980364704 9.9466107727334823 44.031271374500179
19.077623181081758 9.0227429615551973 40.663749823956508
24.804788937333022 11.025651002356232 42.772251385577036
23.899625243077825 10.455945161121685 42.844175277290702
33.264685246414487 8.6217706793251967 44.251368149825481
20.691912070224653 9.1718680829510166 41.903712494761677
20.181656292571379 8.3974728046293183 41.901366754558083
26.922685431853662 12.018207208855939 42.571748591137791
25.817398220942181 11.548948591337059 42.680998858771417
28.208683815623118 11.337388881940472 43.38960012360333
32.801348754787782 8.7243329899740178 44.325486369101569
33.042238189577382 8.6810406776580322 44.287901321505842
30.235745522878084 11.895183431604229 43.16058355043883
29.201611686137561 11.644695479056669 43.280644429048778
32.003029150499408 9.917065517665959 44.17963425788848
19.848792941300339 7.6166434897505972 41.87375118350792
19.335066501458407 6.8344078748529498 41.539234557262141
18.600911121707295 8.1433958149496295 40.646809245067644
32.545527652111133 8.7510162395594424 44.36357548875273
31.45154174673501 9.8517818795951904 44.250123867235473
31.762125962264911 11.036768851576765 43.708905838421487
21.951832628211964 8.5541013927726581 42.934984305540908
29.372241967263818 10.534116184448864 43.993579809982492
28.63449158027958 10.27919398004367 44.072018044968502
30.947544671740371 10.915685604326942 43.810690257915539
30.905545965156069 9.7539305331773019 44.316768147089604
25.61767247464455 10.123106512382789 43.63489304369439
24.925260064150805 9.6405754519126496 43.685489758249091
27.271442284104275 10.977744521730155 43.485861608916977
27.944534215912459 9.9862673449250963 44.140215760000956
32.55196692063889 9.9488295267057953 44.106327128652964
32.004178418159057 8.7532470903082356 44.439044604169837
32.278506386999219 8.7607013495967347 44.40161311065286
23.115105892463255 9.8481383048340447 42.895721767173953
22.462669444303241 9.2110937753584459 42.926139413969537
30.373003557668618 9.6249384378947838 44.378595293429413
30.147024426932994 10.747316379352867 43.90604524000949
21.382577143306399 7.2187456041734555 42.887756875822774
20.994150568311646 6.8755968963986192 42.672064649117019
27.31243142138748 9.6596076144312768 44.197178402688976
26.403552469668874 10.571006667414988 43.568025399313285
31.726544395431802 8.7287622554439572 44.475324096800932
29.861682428460579 9.4666865894609487 44.434703416340582
29.379036023354779 9.2814826413909799 44.484274716402155
31.449652760255042 8.6876038812888723 44.509922563321297
22.859778130651858 6.9517572927037419 43.562789600425276
24.90252742985983 7.0616876628556096 44.197366377599991
21.590044140064101 7.8867416376914585 42.922127531680047
31.177541536583856 8.6303721131433591 44.542335432185439
24.336412224826518 9.1304501370333071 43.719077746121783
23.859717082036276 8.6001689736425515 43.735166989477733
26.257674477598911 8.9245648776043929 44.274252789387958
26.747397539127949 9.3039780764754241 44.242075752045182
30.914178401816862 8.5579014626008387 44.572090089501842
30.663404851667313 8.4712488773728403 44.598752512240864
23.502124316972466 8.0574647939181823 43.733523107508205
23.268849819414022 7.5102515392717857 43.714169888328939
30.428875713682501 8.3716776704301594 44.621934156236804
27.090182012270574 7.2036543779877835 44.5657857498597
30.214011562713551 8.2606400393381723 44.641296917159252
28.932105375711092 9.0720273358272472 44.52658592554323
27.867601066079864 8.3301926013799097 44.604372656641814
27.62212076542437 8.0571170664131984 44.612657979595056
25.850403042160345 8.526900710651633 44.293240364389973
30.021946457163068 8.1397550785013859 44.656558315480055
28.527404796452728 8.8413749425614618 44.561020454677092
28.170837552517177 8.5928888818147069 44.587075916602885
27.437973491423278 7.7776439615962287 44.611811422934565
25.531521406599445 8.1167842538873902 44.298761686011062
29.855481374207955 8.0107857017301107 44.667495786056094
29.388241880893123 7.3754188252794446 44.662234461595403
25.176173083743958 7.2832107603088527 44.269280770027322
25.305679201974726 7.7001958921912612 44.290736290489903
29.608647913104424 7.7362062092472348 44.675826904714583
29.717041731999942 7.8756122857528723 44.673950089245722
27.317845596052372 7.4958489047530819 44.601845208214542
29.5318812184568 7.5946003275067966 44.673098770506499
29.487858485617451 7.4528593354696779 44.66580580704516
73.860786356355561 11.447318095940243 36.927455146342361
73.325329666748075 7.5382999554135335 37.22060993365595
73.251747736672712 11.295060122371407 38.272180807340717
73.686683422145393 7.64340686972767 36.233148519404253
72.820295040405341 7.4235343879773241 38.188169342591465
71.295447052559069 10.952106217363347 40.715749932504544
70.559246357048579 7.0453460327747788 40.778866584908371
69.608093786510707 6.9165459323552323 41.479803014953475
70.023359211105117 10.774589233766136 41.720690507718302
67.133862439597706 10.441323136995106 43.10526671599942
64.258935917528831 6.3667525215460676 43.180750076008408
65.335250989233401 6.4563269789586144 43.108747539578019
65.627492591721435 10.298380992943928 43.431694538398844
63.223512240339886 6.2913696953340938 43.111513699196038
62.250045673962887 6.2317114703053615 42.902455949521496
61.54582388537888 10.026946526047928 42.828482259457985
61.358365511972295 6.1889937667631685 42.557826353752645
60.505590992929243 10.000537525478212 42.12570142029648
59.890928035677021 6.1574947040877994 41.492535293900161
60.566621842049869 6.1640860246998566 42.08464079765092
59.698011819790644 10.008921317528559 41.209258161778237
58.582836106988417 6.3113827766639314 38.206825635734418
58.930082745089912 10.233048478196659 37.562803638906274
58.6378411426019 6.3909944642113476 37.239856640085442
58.848159642539642 6.4843034086324813 36.252592243933634
59.714548024279701 6.7041758903828308 34.297571420746422
59.86757853298834 10.516758183959368 34.859453953638806
61.111811720677203 6.9531873211476274 32.500149225414873
61.823879217101961 10.859712088967429 32.415884828474987
60.352978368372241 6.8262630457906219 33.369616500044387
60.733784208981945 10.683970425940403 33.580304382545577
63.945910191089816 7.336965715562501 30.411611289042177
63.095967058555956 11.037229072564642 31.410944253261231
64.501161495640787 11.209699320387632 30.604103631304806
65.012334227542937 7.4572075764845369 29.935993283651694
66.10430104058841 7.5694415428167545 29.588762708377008
67.199592075451619 7.6713832994015378 29.376993223759861
67.491833677939624 11.513437313386849 29.699940222580683
68.962380901413724 11.633032599657296 29.637362980353902
70.284797390722133 7.8959988080547925 29.583284813816384
71.573502384282193 11.784871780282849 30.303152501521541
70.340591514669086 11.724684761699642 29.841043123575631
71.968221222635179 7.9636242536602984 30.401099965686956
72.613735276731802 11.811280780852565 31.005933340683047
73.421314449870437 11.802896988802219 31.922376599201296
73.189803254826558 7.9583560596042808 31.692179818113178
72.643915029008014 7.9702155742723555 30.993205469437719
73.850575252197672 7.8806208821490369 33.351927647898535
74.224501562361269 11.684364022335004 34.24852054219842
73.952006957696611 7.8163275016962235 34.278915127603454
91.63484886652526 34.402845393856872 1.8627132694217963
90.093897412144599 15.675388381794043 0.025018412000941126
91.524898822861914 34.414212442619892 1.6066647850471139
90.017451925781813 15.720812640783709 -0.043489202253358172
89.92482262771442 15.77097710756443 -0.094160589419079344
91.285296278925173 34.407658148076848 1.4508408206663859
91.130928091235873 34.397929465878761 1.4211342222788161
84.730309989393362 29.96087785457474 52.817367469730357
84.735171603600534 29.89530510856158 52.820484923443232
91.633233622607861 34.391013494200394 2.0129939549160589
91.620609159364975 34.474821056624833 2.0226797234144893
84.705884513619097 30.024329493752525 52.797072733691522
91.570358124007598 34.551050634256434 2.0368792068822952
84.662605691641801 30.083790881604902 52.76019066377296
91.48499989413304 34.615881669149658 2.0548806230704422
91.368820138585974 34.666062820393208 2.0757805062039134
84.434944729765434 30.221629873125902 52.563132112899694
91.227640720417838 34.699079469248858 2.0985315459589735
84.198085204309308 30.269348013624466 52.35644508086672
14.76893384825815 9.1758694692133655 9.700406019448236
14.740481089392905 9.2250959461501445 9.6749913737972602
14.671200300449946 9.2303876558751004 9.6851234982924712
14.613184607231581 9.2469584063175247 9.6947568942509861
14.552005707874564 9.3065035165235166 9.7088967080676039
14.57211295228565 9.2731861381161931 9.7029485831094267
14.618125095170072 9.1099847067593505 9.7776067285032955
14.495549800143081 9.1310363203810336 9.796639182120904
14.299242831474514 9.0652623165419453 9.9680053744087509
14.340262936569262 8.9124821109109966 10.347173411132154
14.475772487230254 8.9393152702413339 10.120934901164183
14.499362477013744 8.8982884158045721 10.323712347272162
14.632509382800295 9.0080256744775635 9.9162585673326582
14.451129928280013 9.0218795260458542 9.9427848105427188
14.400137459296039 9.1722474684334809 9.8138031601634168
14.277441531891501 8.9733774852881876 10.151730051626437
14.341227588255574 9.2295841637216363 9.8274185524928761
14.082902487586258 8.9956790308382644 10.390824428016742
14.199083150612722 8.9454974876300266 10.369924381634403
14.050671997058739 9.2535705512640547 10.124938439859257
13.947295996880497 9.1367407296833125 10.423025044758585
13.99754674659653 9.0605104217096883 10.408825531888059
14.027742935168984 9.1328312456167637 10.201532120828922
14.123061080943696 9.0400585410502803 10.179501958769027
14.139074432210091 9.2211534588133883 10.005023884084666
14.191715832103226 9.1339274291737294 9.9894514975893607
89.560732946002275 15.942620975596171 -0.12404072937315114
82.320264625090729 27.378873539455963 1.9647388953138982
81.40599260463722 28.172781592421408 2.1669680376029481
78.851367049584013 29.437296797314996 2.641771670430975
80.241417138927048 28.86383156690184 2.3942607203504398
77.265464019206021 29.88095509326573 2.9042263132989072
73.644773611991099 30.343991563168856 3.4513895007868651
71.687146173367566 30.353501325320185 3.7244374727285816
69.686365331683476 30.213676732608789 3.9893530663335603
67.685067580841761 29.92749617977049 4.2404908306476186
65.725913057112535 29.501061372437427 4.4724975874172959
16.193604818486772 27.790445628032128 11.19657019744851
63.850649957580281 28.943459496988012 4.6804294521228602
9.0348885687694498 23.220534951547972 62.695621029667407
7.5205193423407879 4.4112552007071777 61.103561124307291
7.2351690218428226 4.5112363002735414 60.956858344709985
7.4102587978868479 4.4325413374662368 61.072378278224576
8.6409183371898646 23.204252140531896 62.51008884012397
8.530971153619106 23.215619526070405 62.254038896670309
9.2242368730852942 23.406701198294257 62.636668558214097
84.60174980513456 30.137514091276127 52.707809000103751
84.525111037855879 30.183914418288815 52.641472071052206
9.260271276448286 23.557241751996848 62.457390274976703
9.3032917461310696 23.655791890151885 62.188324989201774
84.29830933062928 30.256525330637551 52.444030417813593
62.926749278174313 7.2111643460049173 31.005937748384405
68.275907147156204 7.7609577568140864 29.304990687329461
69.311330824345134 7.8363405830260602 29.374227064141845
59.345039809858477 6.1693542187558741 40.793560945224705
58.940072414646664 6.1994230361600158 40.001950771548096
58.684267812487363 6.247089396211118 39.133813115439352
73.594770650038356 7.9282872422001383 32.483789991789791
73.897001922083106 7.7367158141488028 35.245884123252438
61.975596707636463 7.0823642455853753 31.706874178429512
71.176477552712726 7.9387165115969802 29.927914409585231
66.43054202409661 6.5582687355433986 42.896978054960869
59.209513397936959 6.5894103229466214 35.265130829681937
67.522508837142084 6.6705027018756162 42.549747479686175
72.1818646963128 7.3014472325695312 39.1161242632935
68.588932873595212 6.7907445627976486 42.074129474295702
71.423031344007825 7.1745229572125266 39.985591537923014
90.919509835864389 34.71181949970677 1.9913974973341855
91.418851846510435 34.41317803975349 1.5137356508680941
91.193208382177801 34.420615862394499 1.4308405702237721
90.963492637944697 34.384480242725672 1.4261048649668009
91.173100852718377 34.453933056435467 1.4367887173625586
90.967658531796616 34.468451479697706 1.4505053578791607
91.004731163833668 34.502024226142183 1.4647462349255562
91.132026834397394 34.480161785386386 1.4449808291365098
91.31859206313915 34.53761408599464 1.5209798788048339
91.377501689381432 34.48027714164941 1.5073644969387416
90.961376565465031 34.610773878720707 1.5960320876722527
91.074011623994338 34.496732350940725 1.4546141404783697
91.378242649493373 34.617717078744974 1.6705673876765452
91.485771856776054 34.549053082076888 1.6491210631574029
91.598123601100866 34.410709844036376 1.7249678273100804
91.53841266402118 34.4618260902987 1.6335486680042965
91.597773538346161 34.516276892228504 1.8198380000252694
91.22318068443893 34.578824818470068 1.5381436837642113
91.502456606756283 34.609050045077325 1.841868035711034
90.951243786269444 34.661989432830666 1.7098611049847445
90.937051051613395 34.696244801762774 1.8438899145702639
91.10060492594404 34.599876277484 1.5571761871822609
91.22635747632863 34.66110110798887 1.6957878013422434
91.068539688143318 34.713273148655773 2.1219928157265375
91.044976182742815 34.674954535779776 1.7223142601158399
91.149741879442232 34.709792263826699 1.9004354554463285
91.34807065197171 34.675730450535937 1.8696406464550144
90.899499743882586 34.707932828102059 2.1449872806397901
84.094654779186172 30.272977258485387 52.265890533376066
13.934670033259362 9.2205474773836151 10.432710944741116
13.97454173195203 9.2357532538022564 10.277431142944476
15.337429725201801 27.662406744513113 11.982856539081068
15.377301423894467 27.677612520931749 11.827576737284428
14.159243335610647 9.2731059395426794 9.9828794082737744
14.294811547586091 9.2933798328597668 9.858377499409718
15.562003027553084 27.714965206672179 11.533025002613726
14.618733834610239 9.3320906014348068 9.6858238237402965
14.450578658626487 9.3133756108372019 9.757675775499159
15.853338350568926 27.755234877966696 11.307821369839111
16.197770712338681 27.874416865004164 11.22097069036087
16.197053313569519 27.951129656117288 11.278575901331603
90.966941133027461 34.54516427081083 1.5081105688498937
16.181355966811509 28.067954818137132 11.480326437466454
75.673469118259192 24.533272661234271 2.6194922756472536
75.299949861068171 25.125953960169213 2.7275042069527364
75.73365044936989 24.272009182841956 3.3993311989219119
75.67109767123759 24.48212503804189 3.4279105439236996
75.986273345722566 23.782485428747162 4.0835722811792863
75.781131287777782 24.706936248656049 4.1995719332727965
75.887208957998638 24.47704443814623 4.1630703847382318
76.3092479465856 24.518327037553252 4.7822464437190435
76.38033803390509 24.27952135766801 4.7497653246450451
75.953045499123675 24.255902281933039 4.1329911124345289
77.030071265434145 23.78043847655735 5.1552422337210944
75.486949658151843 25.112155057601012 4.2788147928402349
75.290793920425017 25.085569034559061 3.5378841269314663
75.570305789949259 24.700554218335903 3.4625925549373733
74.864936447714626 25.457953352236188 3.6323253408750364
76.912675398370908 24.603572617665449 5.2494558541262704
76.990696933719676 24.341493718271543 5.2138087810064082
77.792158875045999 23.818221398628566 5.4334343954475379
77.748646984370922 24.438216491659198 5.4981536316799815
74.642094596669878 25.604313079959844 3.6771547126412081
77.523505804747302 25.028897726140485 5.5853488751115483
77.662427918258288 24.727827251911087 5.5375456647861787
76.786955936214014 24.876021140844159 5.2927151405151207
79.577835880121 23.960548604068673 5.3946346512325922
78.658190642560641 23.879444128636614 5.514808188652653
76.438319835071482 25.356253004722547 5.3866267226911235
75.87701698661013 25.204165118074023 4.9072358790570103
76.194691525290409 24.766580599599962 4.8216642782791421
74.662815780151021 25.635444406604492 2.8642913306525166
73.791864274763839 26.037921513372755 3.0234569061112557
78.610147259144739 24.564069975801964 5.5862734093553996
79.525119009100209 24.711739081463264 5.4730485994641382
74.337948258645881 25.770664714976853 3.7351788176103655
75.038745706905274 25.50408018023008 4.3782117490637971
78.514938382112689 24.88387088592475 5.6297720990531124
79.420653722094642 25.062633971629904 5.5207765377807343
74.484102203738786 25.833201505936799 4.4864627267447421
80.440392882551137 24.872642678261357 5.1650587359909705
82.127039984143124 24.271934542828404 3.9501447088229522
74.794071467065791 25.982803886004845 5.1314689636809998
75.139738377476192 25.793737888298679 5.0655232323726755
74.804207351745873 25.6581198621287 4.4253939164181562
75.629189587551465 26.00328570821733 5.5603402862367526
75.907143088455712 25.820729985913502 5.5044240964586457
75.39301074556343 25.627394393696889 5.0145723631191848
82.06215297893263 25.196520095987168 4.0466589468133769
81.302776248924346 25.037428297697314 4.680202797988481
78.785543183718744 26.070389524417259 5.7044332625841072
79.252331509357418 25.427412193271511 5.5786956053872148
78.361531998627214 25.216325480306303 5.6825587876179835
77.936109712168772 25.802327227897024 5.7971541563608415
73.755319117548623 26.014100311857526 3.8392118847770149
72.991284000491618 26.230929871043372 3.965946155872742
80.326943549793356 25.253727498837208 5.2168925086616795
77.287941745560929 26.369104070111778 5.9408962249709072
77.138239820148726 25.559578714900411 5.6891267286242337
76.551267727427827 26.072850993666169 5.8192982416075054
82.674387679726095 25.340672452563567 3.3012465907579092
82.741925908471828 24.37827349454146 3.2007854924387047
79.637186618675216 26.348187417255549 5.4163509875748792
80.144137122822343 25.649890573444612 5.2797951161049159
76.244105885020417 26.274583300227846 5.8810896390141156
75.824900576649711 26.503874528589204 5.9610651498738196
81.181129385402727 25.446044979131145 4.7357815306455242
80.985114486169692 25.870829491437274 4.8032288226654316
76.948763821917922 26.591866784433165 6.009128587748477
74.52310943649384 26.514415506534903 5.7624751121468822
75.249828318750986 26.210777449523739 5.6327138160702539
74.13188546674769 26.259477485485473 5.2497072902798223
82.540550056813501 25.790226096639802 3.3623939464685133
81.933574723122391 25.628410729743308 4.1054036951135338
72.72781367566165 26.314566482476245 3.197559472042764
71.520421642730298 26.45244352587504 3.3784576358942129
83.103901021610284 25.461507691302565 2.4872863258239448
83.325732467895946 25.552002890797048 1.6520823426543849
73.066770543100262 26.317619068552649 4.7293397465741123
72.73067537138337 26.385860359431543 4.7825211583797671
81.726396783027695 26.077390203181448 4.1766924389621911
80.441545740382296 26.619576486833669 4.9496494441917758
73.870898845484561 26.089410742990182 4.5959549729636731
82.964757726929136 26.499029853008054 1.7918821346853964
72.671946019556003 26.295768441223327 4.0164759941422554
72.900589035411016 26.579605423188653 5.4511750611093523
71.442623099594513 26.436150097660676 4.200659987251214
73.26353102163759 26.505912702582524 5.3937455533154113
77.702206305053821 26.936695274692219 5.9370166952965588
78.864817780682515 27.023577534282072 5.5876374713896784
78.07435857779717 26.69227405129087 5.862150712052415
82.745842865029942 26.400890539307561 2.6259572923968939
82.966785400872183 25.922087416930371 2.5499327865990615
82.324905007460259 26.257568348318749 3.4365974550624019
78.460643550054982 27.289027919277537 5.6689451190476801
72.234287759804175 26.462589812410588 4.8587895545584097
72.20030867662399 26.368672577678197 4.0889416341126541
71.436843607060467 26.533607032909604 4.9763700808568849
73.968737869165267 27.138273883427509 6.2791409720719145
75.021835802234946 26.839409098810492 6.1044583735105071
77.194285741251363 27.214504086827215 6.033916569116653
76.485855952914633 26.845059310026421 6.0974413833185084
73.57012573933838 26.784868762079071 5.9205513084915333
73.171813115148353 26.865743319071747 5.9835776372076488
72.583533533026554 26.956675879636435 6.0739648363852563
82.133149943364913 27.244855315172821 2.7909979857023988
70.467005497138445 26.444765193306974 4.3371049439555822
78.588525943499974 27.951897220944527 5.3333327611083527
79.179998984153812 27.628388870688298 5.2204929225088295
75.599082340008536 27.215572251743367 6.2557817631854133
74.436197598311168 27.545591346358023 6.4486749884044769
76.221292623352582 27.621041979737015 6.2076521744137221
79.818462203514898 27.935055614941316 4.6177234294765883
79.613369914468691 27.343760874731075 5.1333115885026261
70.124842937837144 26.428678709506308 4.3831498881292728
70.226143225125384 26.445104205532321 3.5576928375667505
81.151866419037376 26.868783811168512 4.3314529802894199
80.276525964203216 27.634217150799611 4.5255753152627181
73.950158743497568 27.644278448786391 6.5255825634570161
70.410027425549501 26.542675502834136 5.1199755327771008
71.503419595829655 26.739154054950042 5.6605067396539477
71.638472529196179 27.040841086459217 6.2133111551220406
72.364552967924396 26.662462502342851 5.5335352175155768
70.04991149826752 26.52574378112163 5.1684363571904628
81.726875969248368 27.081327885296602 3.5976875598374614
80.815733113132794 27.878063912294209 3.7997492994548701
81.199654843545943 28.061132366584062 2.9980162898372011
77.909026302268501 27.590739274810023 5.7741815785352051
79.193306557768082 28.276992201128998 4.7369896685154913
73.528580603055516 27.227644582979377 6.3487885064434462
72.878502649537069 27.328130510392022 6.4486709107628375
74.945350121097988 27.983148328218888 6.4192990364858877
69.457130122532504 26.476081836321693 5.2461449105119859
77.455472385525653 28.425310950835453 5.5356483340303546
73.232316314662768 27.755240102763253 6.6358768597664124
70.394584872255109 26.748945147030366 5.8155827364750579
80.711172263371566 28.381956357121453 3.0962844418553388
80.33893539525728 28.191206921952727 3.8956661771651229
79.688212110458593 28.547126615872873 4.0198100362286624
76.852312592581285 28.032253046884275 5.9628657381482899
75.466589214088231 28.425515684343043 6.1927225894324636
74.887409179521669 28.543114408857104 6.2843681992519169
70.005705450359699 26.730661760292435 5.8679143344414975
78.441643028481394 29.067969165721578 4.2423946590083599
74.41205167523529 28.091430649856445 6.5036846056243363
69.561615919956864 26.381492172831322 4.456984062619739
68.634721505623773 26.362636167926951 5.3497402251016153
70.48941933481558 27.433011942106084 6.7907246284605769
71.834157376349083 27.421137391341745 6.6026563515824286
70.421572253849504 27.051586404690372 6.3835006514960053
72.359081625698138 28.325866972534293 6.8112718828527985
73.624415917989353 28.213179706851481 6.6247023377248855
72.07910748498044 27.857941308203312 6.8059138152311842
77.995714241206173 28.777369142384849 4.9508289099581981
80.044484291941231 28.746604813667091 3.2234737053192095
67.769451438126751 26.059021753075875 4.6756141429465359
68.780208910529666 26.273703504573955 4.5554146839650933
68.905494491732654 26.292893573613718 3.7268848258510943
74.431411379191843 29.114856669220234 6.0213031090439895
75.348609983150823 28.973078518813029 5.8803782798116515
74.032008946959351 28.675339192416352 6.4157978233424728
75.96963465963708 28.846983651739773 5.782111464336781
70.594189855655287 27.87105331735992 7.0135868658572971
67.6202350843716 26.002928075129304 3.8781212469262218
76.806949907821632 29.531886796607601 4.5135492120489999
76.425247263272226 29.223059881736287 5.2113299735736867
69.994790169595376 27.031520955439166 6.4409328154348451
70.017806274521419 27.410838751056524 6.8541897088344914
68.477477861451149 26.554526616609234 6.0636998161829059
69.365575288952087 26.677032255334552 5.9518298334838082
75.768851948822487 29.35633658519609 5.3151936099707298
74.799404009320497 29.506189703661832 5.4641462426146026
77.092554742560651 29.755518133764788 3.7293226243037916
78.767340937066365 29.280220270874853 3.4515174455539368
67.328709607045568 26.31053301202941 6.2003116563827589
68.164447486694073 27.197231118014024 7.0916286850016323
69.241489626640316 27.345800061007182 6.9559581092952856
69.292275124668038 26.972664807726147 6.5330264212946858
76.123707778862226 29.670614929794631 4.6216609444343311
72.657805277265965 28.797720269237541 6.6184196437557148
70.729783823315984 28.340253608853953 7.0391371870774222
67.570920177093967 26.13669040380077 5.4762478901508178
67.471606435822096 25.978470782974242 4.7093978044731237
66.920862374503116 25.806697558957801 4.7697069470310929
72.957923440140831 29.246079420168368 6.2385640515400418
66.260222915770754 25.556788312900792 4.8378996492854798
66.430458066432607 25.588766836756761 4.0043311056666893
70.158371679997828 28.313388743375036 7.1160322954873312
70.07341131333007 27.8465691827585 7.0836682137828175
70.267756082650806 28.78416906827065 6.9494003370496724
67.056895586604782 26.570446416353821 6.8057253990225792
68.317622826833741 26.838219560949529 6.6557993572062681
75.358714523930558 30.057454829354135 3.9989322570675592
75.517517901797646 30.185348407403094 3.1760294089428545
76.392555255597983 29.897646789209816 3.8400857454335089
68.02685197344961 27.610693773008979 7.3458585983677693
69.217786320078005 28.234588010017518 7.2393349182670086
69.216170612345451 27.774750385752618 7.1960450194736811
71.060614104688057 29.262833260765433 6.5039121493766636
66.990196818864419 26.218984051752564 6.2387081846915216
66.6853951472647 26.469975804625399 6.8478635911950718
67.257449062652711 26.051912358458559 5.5118038745134692
69.246240848719609 28.698587714604649 7.0833121256995675
70.888333819481375 28.813346342928721 6.8658890842826583
66.771274706382059 26.901326971975763 7.2573051760081562
67.91283133984345 28.054580003010223 7.4037147010676447
71.236619483698163 29.662596154552705 5.9742429416528982
73.242000080349612 29.644887135529462 5.6937804604287665
66.364256411882195 26.023756008947302 6.3072515395632802
73.697851158078649 30.205365267142575 4.2438211651618349
75.11461720436067 29.82659618778748 4.7767045766656349
65.982493342997287 25.608101564893275 5.6470494770813175
65.613408859088509 25.739723290097864 6.3847558008248395
66.677803882269217 25.871125126086483 5.5752778342178848
70.533308108468873 29.629529075583008 6.0688876768273836
65.391795114634334 25.06977503654776 4.0996130535873601
67.829015190443315 28.503092551198815 7.2618341510477933
71.406119096415836 29.989399079590363 5.3076635770848686
73.493512414222977 29.970966925059386 5.0157313115999944
65.601636963093966 26.553539129316601 7.3869962120543207
66.360747547230403 26.790301535511023 7.3038700318740943
65.998448542173378 26.255720933072272 6.9230874749856479
65.086323454907827 25.176437306292062 5.7307859545437427
70.395199682390938 29.23154919658435 6.5934572024134033
69.299888666413835 29.139785813933976 6.7370430250241036
69.375606388064128 29.532538536825538 6.2206523668957647
70.674044226573102 29.954980335595245 5.4061790858124326
66.224854557865314 27.696060611779235 7.604449356449499
64.869471004310569 25.051954019823672 5.7491527628762258
65.408736046875504 25.146646340438949 4.9174609808421952
65.202693715684802 25.028370376171392 4.9349123735476361
64.552809468866116 24.470219224168694 4.1595122092172829
71.559259149735283 30.224249330324504 4.5429138026680533
65.727454558802009 27.561541991115053 7.6608680525504003
66.488445842842282 27.283944037922605 7.5288064095239449
66.035125605460109 27.16134448209117 7.5802250696939444
65.196880437193727 26.899900639171925 7.6720168784082059
70.809231023393195 30.188986814044828 4.6438453148297913
64.807711684955493 27.274678395705717 7.7615841424196397
67.78027316602558 28.930166954311606 6.9284626901670965
65.814617493669118 28.512670972589948 7.1622191148888152
65.995805058169864 28.113727570919714 7.4798401265793011
64.645661994322325 25.273581304816691 6.4751802286693296
67.797134427700669 29.62340233304829 5.7747478848720419
69.468993720495803 29.854022236679825 5.5641507216016013
64.421880182869813 24.762120061994949 5.7839495032619288
64.77742146707439 24.752986708439025 4.9679738342516053
63.970425345513959 24.409476413769418 5.8133397247684817
65.455611980876085 27.967634830888841 7.5411126269842619
63.517411381226253 25.643764572017531 7.5906517403519196
64.112360454749222 25.432435232541152 7.1073825162676769
64.691048315372996 26.209077789420697 7.4809892030513376
65.174424880406292 25.944007780411127 7.0081452259273487
64.456734634380894 27.656091264381974 7.6504944685820417
67.861759549757949 29.849277355510889 5.021454069799387
69.574626159461161 30.085553307004464 4.8056913294500179
64.411488280566033 25.139155939235899 6.4950142068044947
63.831281234042855 23.880171725694936 5.0169109869209931
64.348477261060225 24.417926418717336 4.9958985590320149
63.233413854088816 25.48073822232519 7.6147056757681328
63.25853426804764 27.202832042286065 7.7741754866825108
67.769436017342571 29.310980069151871 6.4229749852512406
65.691821359162702 28.869704547414322 6.6700456115894182
65.079613910898388 28.704135331195562 6.7394864395515546
63.855363604720694 25.28490754741555 7.1291494768428469
63.324916760034668 24.9414204481476 7.1703876003518072
62.789889153863683 24.523496335278438 7.2052185508800077
63.928144978429508 24.826171395935305 6.5325904893415192
63.947566275767677 28.351055935672242 6.8634509832632995
65.23540351747161 28.356023921174714 7.2279175183470707
62.895388936975024 25.895287092750245 7.8969019400018503
62.581788010351936 25.715268183169396 7.9234633114178639
62.282444854688343 26.172388026115577 8.0083351266607572
63.7044315652047 26.85732811975873 7.8754674808612402
64.191368855398977 26.519533027705709 7.7758081757731761
64.164356259542103 28.021970841047303 7.3452022937801491
62.879591130217648 27.535966362971219 7.4778187983249413
63.952741632200421 23.818135346821858 4.1812264304796125
65.634552955126352 29.164080436484401 6.0319228095553736
61.938354655620387 25.974866059278391 8.0374787790911704
61.934514385221753 25.296129525368826 7.9737836960802566
63.42609373164499 23.843503518211186 5.8354542304971844
62.647243159513984 25.101167465908528 7.6602758890649527
62.056009622183574 24.639339592434773 7.6987659302640088
64.997309542548692 28.99173935305566 6.1042032976289686
64.99326458486118 29.202121822022292 5.3589898882656319
65.646139930483315 29.378690494043564 5.2849363167158252
63.81896097139272 28.624220099374494 6.2332381203427083
61.714204796216748 26.458962162345205 7.9184746057991262
63.536621119023131 23.419618697166982 5.0142922274498103
63.398356197964375 23.067634260005693 5.0002053768290899
63.619640047091728 23.144013085171068 4.1637416853228375
61.340511086181792 26.244446169992219 7.9501255710348397
63.440631341423099 24.445361863889897 6.5643282387117576
62.852824663116792 23.834182600644027 6.5882087325742047
63.786017805094602 28.825588816661465 5.4911891478057431
63.115970347979399 23.358782457051092 5.8326981392438091
60.839402474323073 26.994328189418329 7.167158463186512
62.589622015534516 27.837369301481186 7.0036212346138047
62.517932806011345 23.310746174022476 6.5852322963004877
63.569085050272157 22.479374557309235 4.1078749491727597
62.360785725703295 22.910701748249295 6.5692225058900551
60.415887861360908 26.751211469629773 7.2030290053831969
61.223689038415735 26.73835434786988 7.6325430412073061
59.995957940042409 25.972796461630708 7.7307765257350702
60.822994707012541 26.508340423763801 7.6664810428813137
61.228147635289019 25.514974645167548 8.0926916820686721
61.34314357321189 23.898131565310813 7.7277274501980759
60.937001687736689 23.263333650692946 7.7241179886252418
62.144792272875655 23.852752321410065 7.2314268679408711
61.777261089940346 23.278301515681221 7.2281604295243298
59.541744641387368 26.185164694853352 7.2709867095289642
60.511805413009974 24.955421403468534 8.1393264808599533
61.281647098804555 24.78615888621307 8.0162862618011879
60.569195314387173 25.744986341145506 8.0100894060180625
63.33539165521055 22.499092421898624 4.9551574537475664
63.803440491739885 21.855296924381594 4.0162384382780782
62.099253081594647 28.266573695556549 4.8598536585891301
62.337871271707982 28.277779223029931 5.6406701975232725
60.509049181606549 27.484834145923049 5.0069465967763964
62.405482719573065 28.089526029830477 6.3791407329657694
60.58368317974962 27.21200546878439 6.5493661690461131
62.970449244877145 22.988327504612158 5.817872170178827
62.904180413358517 22.389951069011172 5.7704603540308765
60.746422897156911 22.778179381013977 7.7047018931358391
59.113929428538817 26.614898211160622 5.1185730278257466
60.142847303628443 26.958946669883439 6.5867038810454792
60.471388824171655 27.378737841471768 5.8150709027038303
60.019742940125262 27.119473185997272 5.853324153524742
59.232951658699768 26.369750042448782 6.6574411889398224
58.853193888174289 24.161970723564281 8.0988457404357739
59.79122225347529 25.137290590440472 8.0607363490111421
63.585493341618793 21.755513468975217 4.8500234799311173
63.433107253590471 22.058738320099494 4.8999023120742544
60.49446980168544 23.9676849107862 8.0482667919492989
60.045989873027281 23.266712629078626 8.0442810451867164
59.835545563709175 22.730984108056877 8.0228407907739481
59.087531521338853 26.515825059514952 5.9257962375862379
58.155981470427079 24.275413803002948 7.8259452152940909
59.16177592603583 25.321195228017807 7.7850828165245778
62.289225001965335 22.264531426793813 6.518023621439152
63.16740502483993 21.607352392515573 5.6598095967718152
63.007024555025517 21.926489390075986 5.7123055716932862
59.648091262050997 24.057368474384873 8.1744165433477125
