# XYZ point cloud file
0.42509483250868918 1.0662999782424314 -0.33217056103345222
-0.29668352459721037 -0.10312688911384837 0.79757039527241691
-0.23294233411819665 1.0300891567831343 -0.38927937858514206
-0.51377858042886393 -0.83411414285474228 -0.2125789291819502
0.39503524102010124 -0.035823747754553992 0.67651312566111965
-0.50687527975774582 0.042897688108789911 0.77618152996107481
-0.39254899330840143 -0.023516265307475415 0.85421418589501652
-0.0080759374999974654 0.59217471121943643 0.62152560426793846
-0.6763293939418884 0.19028131124668501 0.7332569843722534
0.58281730775608587 -0.38085798343821198 0.69072159223617469
-0.72374148050275711 -0.5026605593206952 -0.22982395242922493
-0.40091265722519687 -0.30584091012138082 0.69718575142622985
0.034469391131430438 0.60704411480380882 0.71168818239467413
-0.5599113017802968 -0.32365035168649614 0.69708089220965297
-0.034855827520637206 0.59038307107230636 0.69854321802814434
-0.43927644791953968 -0.070633791945446944 0.73037274351298542
0.34772518207830938 0.43379508876618611 0.34154367378883776
-0.38028929360851604 -0.60362776708584853 0.016955538876696874
0.51464122588663219 -0.46593746911833001 0.73630600714425487
-0.47008826934191594 -0.81419300617490942 -0.2897906976382898
-0.12633186573606636 0.52828101532487226 0.71916654291183635
0.31032820132496841 0.42648346496277378 -0.14084539253662909
0.073606810984045978 0.72060271095745154 0.63233284851969218
0.30562091979977346 -0.36138976672557988 0.28814061555591897
-0.68358458209119632 -0.20328187548214993 0.68571133446505117
0.054711601074308724 0.5722408407913695 0.5907875762953001
-0.24993201854184344 -0.32577943550747923 0.66397847889846684
0.74888297745105481 -0.39109172733045394 0.69815575990264822
0.2322435635040927 -0.23593288872390605 0.76905375009134724
0.16760536208079735 0.060817628361226284 0.76154257738078002
0.063396289187975796 0.23836036874738697 0.66991611399363427
0.11449686330651998 -0.08162656835024551 0.81026286503346157
-0.64795933622523494 -0.74765891626633496 -0.33622337138779512
-0.77260956229713829 -0.81523029896779109 -0.37794475079234813
0.29938497987871227 0.83974848017711046 -0.30754880043575383
0.7021336362469599 -0.44517401034378312 0.37820958324609144
0.14800515118616531 0.59075741551059124 -0.45299214420540634
0.71374496915934404 -0.30172615874804731 0.71865393122392662
-0.31172739001521244 -0.45356653027101057 0.55035805277562755
0.60406051562817176 -0.41476302750220984 0.68358318875095669
-0.1533327288889681 0.48890829713460571 0.71877360618051966
-0.57871479456917418 -0.75559743774519328 -0.31336637618197472
0.21204631174921484 0.86039861954600028 -0.22542570839637799
0.16829332280753118 0.54493712377057557 0.69013710596385724
-0.25999561782298519 -0.68828781341806522 -0.13945147025391824
-0.35930987554766469 0.49750135041668697 0.75543266208097259
0.077717466871230823 -0.15025435599692916 0.73390973421481087
0.018971111161567578 0.8953060252117202 0.19590070808338034
0.67463694561961107 -0.61654846079116488 0.58146770383987745
0.1112248501808768 -0.29924451935599738 -0.56511169555160423
0.24887370136566123 0.91698488018324786 -0.30552426131219468
-0.70046837818854835 -0.90552149132413984 -0.37172342154710192
-0.64060683120767381 -0.83750092613645788 -0.41659294284471926
0.42328923412002739 1.0924254263726128 -0.41668796773806482
0.39168378337646192 -0.081501877973335857 0.76471437060254788
-0.58258168685542389 -0.84745525428075896 -0.34933715240141394
-0.35172283037412644 0.56773946431008948 0.57339457909477476
0.29546608019332954 0.5353910541690845 0.52693552559283496
0.74591198506916356 -0.21426926882897601 0.66713025065042553
0.58060475237111886 -0.38286451114432363 0.71778962399157331
0.39254462851436367 1.2748293898307437 -0.49239222561432472
-0.47755249370082264 0.77947975593987406 -0.53748048656320524
-0.010356151813628145 0.21000234632918202 0.72948808744047877
-0.41953878009188461 -0.1614866756473563 0.7778867354292176
-0.27595324506285301 -0.07624663769465867 0.77462742395358308
-0.94423623595070927 -0.76477100336000947 -0.51280145164520263
0.30510377114375675 0.56583210472777323 0.48698115584664681
0.57065652974661329 -0.45421523773464689 0.38357643098789795
0.41397679556220179 -0.012572177259403405 0.37639029141517044
0.090932306180844691 0.27867509880195174 0.69675624697881844
-0.65632028024274636 -0.22627676988392054 0.69043045224773092
0.62256473280254943 -0.38834636767347708 0.70517245370597248
-0.15974662734928557 -0.39052830621473822 0.48292404156940272
0.12697150121795886 0.057479051261272396 0.77987900000028443
-0.72462202245243112 -0.41538814512648603 0.44055934822268439
0.14759365270649072 -0.20952553942187135 0.78516901698718256
0.27739032318944457 1.1621393160911058 -0.35128881620028674
0.044435612706349659 0.36011449119445693 0.83477631495020566
0.13430048017357477 -0.18341668994120486 0.73166034366146615
-0.52048093183336608 -0.35283350009761216 0.66504311675395344
-0.35131958147210973 0.01862034438344029 0.8066113186793098
0.035446070901704374 -0.28142661699382732 0.51263974203255591
-0.40756464072637311 -0.24879210644174821 0.7555685247997026
0.0071830087377717788 0.80465901464998169 0.63215611606993338
0.1609401910535464 0.30350739802261684 -0.47970797668353526
-0.72181982990500293 0.097005660803139104 0.68620721096673254
0.5769140128793766 -0.37860963373946022 0.73740856211601713
-0.017206272261848454 0.99297929811710084 -0.35807111847820439
-0.63696483060411913 -0.10397511885921062 0.5050670768740666
-0.45291667881277808 -0.18592064013637355 0.78159731990486048
0.32239348497369047 -0.37831553541447249 0.34864270090570715
-0.25094135123468186 -0.19420263516697434 0.72311902766480607
-0.47495885058094789 -0.54301544253742517 -0.42530355830907229
0.20380069878115448 0.37741556164389278 0.68790009570774435
-0.40861751030992988 0.22850250595060828 0.63978452314946521
0.33775431136008338 1.0863770962479711 -0.39530498307802686
0.20105469653917396 0.46256866827966769 0.65221971176455629
-0.82722432066472429 -0.89664855648314257 -0.44957470094051111
-0.052566716365723298 0.31824139211782132 0.75499014428587996
-0.026555840018047228 -0.31755238106337247 0.52731700689325445
0.60300924418524682 -0.40314577274579033 0.64156607354922324
0.36044021746495059 -0.0073216518333965031 0.67020237921980597
0.44011963155648015 0.7133884663457859 -0.26006019434519922
-0.7651836636477376 -0.4783155812300981 -0.022620636241244441
-0.023347911238845942 0.60538402801221491 0.7141807415593906
0.094859167669248734 -0.26691328106140855 0.61433485867979742
0.33267933333701372 0.81105197102918725 -0.28857877225996464
-0.24587640259177279 0.42433145360253732 0.76302221366478395
-0.704482329608493 -0.83031471040024973 -0.37847533883954121
0.35583640428853336 -0.22433651753484396 0.20448517289750878
0.38433213836062885 1.1957874155336601 -0.4287809238332505
-0.30770935350215378 0.67769283876349862 0.59223099248454769
-0.77148288198725234 -1.0134078748324677 -0.45383982959506408
-0.14982406472036613 0.33167812946463293 0.77671654118109856
-0.34743047762129065 -0.62682226708582167 -0.08824285348506189
-0.36289896669392485 0.090215903218691107 0.65291479467435742
-0.34125027072924885 -0.62562705605815072 0.047492227340946158
0.33886672853209188 0.024369744042704866 0.56571316222675216
0.72130365819309405 -0.39810338559367864 0.63825804311454393
-0.8181729770716637 0.28782794517618537 -0.22538013944700541
0.21005071956367161 1.0292276012289063 -0.26548695420945911
-0.50759155396534528 -0.7441624120919943 -0.25129542414994965
-0.059214988752222197 -0.16621770231546051 0.72596632000082195
0.7398873380792601 -0.21966035200004219 0.64345242548425796
-0.36932264245627211 0.64779182666814261 0.68481470687800927
0.65160817454863684 -0.14092151116129137 0.63670655203596915
-0.60100368692991957 -0.60381521633817359 0.21181105890745355
-0.31543389118775433 -0.093970800252177966 0.83457633787124763
-0.46736010518185989 0.16419002546628514 0.63753001607532545
0.33499613110446802 0.35083721854815542 -0.26413528280433063
0.45417273845315265 0.61688529747632348 -0.2495295453361206
-0.60306722349465369 -0.41561759638255102 0.60452402212960399
-0.27866703745752641 -0.41709082347541315 0.63321688462554393
0.74751910553117407 -0.4591917771129026 0.65899360862038714
0.059730928190738553 -0.18133666093620082 -0.6249898284420059
-0.39728876770748789 0.99459356546384758 -0.26316634468939704
0.21195486510776629 0.2554848225085764 0.60604310108053783
-0.65015635355619183 -0.65068395758156461 -0.24024769302888327
0.25620828827028452 1.2193349699314444 -0.40413568270877764
0.52697094974843406 -0.38234989577989453 0.77468044866697028
0.22915567390763281 1.1198267152673771 -0.29740714729985562
-0.24939227605683056 -0.17032527207446613 0.77890909536826225
0.82315154618523101 -0.37419806486046836 0.66935633398972572
0.65368349907459455 -0.4980145819695978 0.67737176985242931
0.26819288413210263 -0.11287630935888004 0.74009447351898361
0.32758872502437608 1.0773110705199387 -0.39589230347556459
0.58723047203855616 -0.61085402404078493 0.42395981010554884
-0.48816761214452953 0.097286786833424621 0.53149001878261615
-0.23760711545946256 -0.17625936523191932 0.7313832739133499
-0.56730560299365207 -0.23235734181731527 0.70835977745144563
-0.12744627370311346 0.50912740302220705 0.76543652682927421
0.59432805341230965 -0.40717757418890321 0.69744287314714271
-0.7093984072838091 -0.43360185104229565 0.16244174942700562
-0.4987313044349948 -0.30925608305464314 0.66113904773613585
-0.45879066531119372 -0.73460582744816283 -0.23695596048383116
-0.038947474184652275 -0.27268039115087728 0.67065764314085907
0.072330507563156399 0.015350318130622931 0.74552900558699431
0.38977536310324012 0.75231182388561135 -0.30217999220915903
0.42892034973012239 0.89977970616103409 -0.38553010836087642
0.3185830598672128 0.099945193736877158 -0.20662421651949181
-0.71199762366568731 -0.2094182497461432 0.45705801346308039
-0.6389187790218509 -0.63993465156776574 -0.2208903233119428
-0.69810157708686438 -0.68100773164059958 -0.44744708838142078
-0.40538613512157573 -0.7161358623220444 -0.075256108196169791
-0.48043908060990104 -0.83310702072450016 -0.33455824070128859
-0.74130061795992175 -0.2609808091711745 0.57842147385016407
-0.11975362248168686 0.56242984941905894 0.69528138455731403
-0.28029079831857029 0.12325945450489018 0.79206639523565947
0.21965574386947839 0.71579608894472813 0.37427834304159902
-0.29434304432971992 0.12581612010794174 0.82120082990955323
0.20618024297002702 1.068798920471195 -0.25700550176403913
0.28805311013581303 0.57718720104162768 0.36266079777064242
0.58883048312404274 -0.70073187985716268 0.54116137333996539
-0.46415426544790428 -0.75751536639335337 -0.22146598352408997
-0.74938596460329077 0.092385062880062652 -0.50090249220234906
-0.70518446482158925 -0.90924929138485711 -0.42855648980524785
-0.71564428362499033 -0.036859927737869391 0.60857870713399764
-0.32315650984251265 0.043283978400806777 0.67509800938480957
-0.12551870350904171 -0.38511044440415221 0.53114744818150506
0.11854269489425828 0.64919323274048124 -0.40458472151700553
0.15978721095918091 -0.17979216412363241 0.78054415547287004
0.46128637258937699 0.97695348285018946 -0.42476028612800887
0.056166040516540061 0.81343384979589728 0.59495053223102978
0.67406175115271649 -0.36160107421546273 0.66933481509649262
0.064248689646066115 0.52452415273211406 0.66391114006853513
0.6778568609897313 -0.28728857192869683 0.71000473994709612
-0.15781164777346435 0.31445152246623298 0.7640207146465543
0.13532860974478611 0.60008239530426666 0.66307019983990712
0.6988924344488372 -0.32242477531101188 0.66208487120262349
-0.77861587113356734 -0.65197502499691229 -0.29561243808515147
0.12881970766564876 -0.19598238320598105 -0.56243715427460517
-0.60781008990654639 -0.67604892398590533 -0.34845502140443818
-0.60645335166186332 -0.7717630582749937 -0.28583811978154161
-0.76116727518125282 -0.7499153173785067 -0.4221226306863306
-0.12265904967407426 -0.54085479719731766 -0.090332306334002244
-0.64669161208098069 -0.91509421336041541 -0.43308107721147371
0.22187622125326989 0.42013408541778796 0.61076666876417507
-0.47431812180896049 -0.32596425044433941 0.70554914756505083
-0.37352444741826485 -0.38217460555297444 0.6256560464776082
-0.41283611981425983 0.22759279929866372 0.57984761251339956
0.33422893715956636 0.61241963172896186 -0.13243208799970141
-0.10410215533657974 -0.1020723654798652 0.74580309848755766
0.23296037801119107 1.120760382087084 -0.33764946414265529
-0.12339194611628468 0.33661379386512946 0.73178708410345594
0.20894303065834485 0.064298329324965486 0.70525969999363802
0.32135639938243399 0.008331921842272827 0.60778745669228718
0.33421147664799111 0.16919734182064827 0.0069202090020255014
0.25050223525632909 0.73231682710135626 0.012309879729035522
0.76765260168586646 -0.3939300716700016 0.66035263011740097
-0.019687533009382641 0.19557380463287033 -0.7212541715802403
-0.27602317469846271 0.49070194146458501 0.7504215959845455
0.66816998392119764 -0.27952649113202144 0.69065276905504813
-0.4259288225186344 0.48950934060129736 0.6904183945474629
-0.72874102930216456 0.45375122966333326 0.079429989975877913
0.12175367605205256 -0.18541587209795241 0.78650041344360178
-0.27064249698833143 -0.18838221459698756 0.829463569429711
0.51073583317537175 -0.44808442898854706 0.74097656577686388
-0.53265932238496516 -0.098832573388978773 0.71785332878085706
-0.55157760778067066 -0.2192690354637028 0.70756122783278341
-0.72243840876126209 -0.64728411355948268 -0.33738472501565164
-0.094348602713607121 0.58652900402427921 0.68756201728503674
0.77846533056424727 -0.17094003838183003 0.43336532896739044
0.12613553054592685 0.87894575965574884 -0.32034865562685555
-0.35570806758849471 -0.74718268793614984 -0.13398359351645572
0.36116509781227091 0.74571766117328231 -0.28280907635551156
0.2540733636082888 1.0935260305152885 -0.3666476609193916
-0.080586542093099123 -0.26920365151726644 0.5891371924827089
-0.013868329340168906 0.14953125540310186 0.74661693891737757
0.41015849988479491 0.019570504036209968 0.44858442400984533
-0.42986360137977409 0.34844809863515902 0.57098635525944896
-0.76813586048281079 -0.21964900153125244 0.17169494015285336
-0.63520259317501004 -0.2014033819544685 0.60980453188496364
0.27887767026990229 0.36102853305762994 -0.20473296030846644
0.33887043322195654 1.2076374323877643 -0.52549030023434939
-0.86919713414561928 -0.8524221355138335 -0.50253239091984447
-0.24258000782115774 -0.059887388703011357 0.77878499351534414
0.12700338889439955 0.86700151662021585 0.087808523041756015
0.048166408618090628 -0.19912972452156152 0.53239373919760702
0.74784847470697313 -0.31346626886856388 0.69534708201602369
0.69505258124232938 -0.31520682688730561 0.68595572230413149
0.44813035258635781 -0.6161875821296614 0.44020617388567551
-0.56851190519819683 0.30380820079462545 -0.56649198580181004
-0.16521960347948195 1.0156070870978571 -0.11012517236492636
0.65833780882391579 -0.60596680735630559 0.62524125518794627
-0.58601199052284247 -0.48813285221317448 0.57229889272545531
-0.71766474016397108 -0.25649030228913183 0.30143793787734019
-0.20073444756508296 0.53598292512580192 0.65556418932305593
0.70642332592964774 -0.37660947237997267 0.62051377851641165
-0.42760095860216163 -0.64274073433183787 -0.25059133834024383
-0.50617423015141583 0.88702777645747743 -0.20289023564539521
-0.41646099786977775 -0.24472085965614676 0.77468863298104207
0.42389291279491159 -0.22629634603850146 0.73203563089193135
0.4149924222018937 -0.078620575258580683 0.34059227085568722
-0.75669704640757285 -1.0011390763878381 -0.39041142675326412
0.31849492281701419 -0.42926302964651164 0.47658193823154882
0.65735232702828439 -0.54742445913721682 0.65646030332507443
0.098343245541807178 0.82543303993510353 0.30701763066045551
0.80452538321696387 -0.27662480821867064 0.41990474718661197
0.22955156837546031 0.95003818152071151 -0.16693889535653383
-0.54441960995039107 0.0082196901811788514 0.66175212417727769
0.12828342786983749 -0.14731572030738427 0.79029315581813409
0.82662020886763843 -0.44528639025639016 0.61212619465958262
-0.28073355639009501 0.68634967000455882 0.3773295698040533
0.27050921146036533 0.9319258733900978 -0.31838814891500222
0.31096137879091934 0.025320139281425291 0.68060620541299244
-0.082292300617215375 -0.10080034630100609 -0.65651228374251769
-0.52804888063399469 -0.15137230396584478 0.72289620005441257
0.35238265349553455 -0.29915812305124856 0.28134622912878848
-0.705467398411189 -0.79024307397593807 -0.37068629730813818
-0.075488862795954681 -0.33947811257185156 -0.6218710834357748
-0.27461739870794277 -0.55555233816690852 -0.3594955719264874
0.46227049770509998 1.025152747985953 -0.44370782106369111
-0.47332314064110026 -0.016967941446840662 0.72538424961856895
0.30060466051904466 0.62412248554686256 0.38563670573895159
-0.76780091940010475 0.37710492468095413 0.17343553096586461
0.11793492854379473 0.66143968430128841 0.66133806530345662
-0.2679611090635392 -0.33173543734984712 0.65415334675451842
0.15441269437348204 -0.28319647123459513 0.71659268837309087
0.28184310271707069 0.10338917569224071 0.49912882131499892
-0.59760769538648928 -0.16928386569323006 0.69952252727207176
-0.28143021215979225 -0.026765518301372193 0.78910239722906628
-0.74855874770010722 -0.34265444244880072 -0.18515216161076564
-0.25516775418862814 -0.1127928573457404 0.77295262127726128
-0.56725244086718574 -0.13643444671773786 0.74345700521868396
0.40416080919670172 1.1751001201430695 -0.40376895117052225
0.37756528019821367 -0.46451814250242296 0.33485080315487892
-0.061889308957991496 0.79015162280839424 0.34585964570982419
0.69264135610575073 -0.32781463523956988 0.64300212270281953
-0.22444666334173791 -0.11093744776621328 0.73562142370713524
0.19089893821694837 0.32125940094776206 0.70917785361921082
-0.19975973690169546 0.009021189887814085 0.70487168907813658
0.29608131814964977 0.029205055226066534 0.55519775554028516
-0.14176514072784707 0.40256879742506468 0.75572424140132455
-0.57730789390628656 -0.25894390393604061 0.67529200414319135
0.16952883813917463 0.96393491656089925 -0.22379211678288291
-0.065868217551665165 0.41049470225172291 0.76244681811232606
-0.12597560639354821 1.0172366913791178 -0.0053351272379833503
0.37569363067676953 1.1255776094102408 -0.39312907236888384
0.35108772839317215 0.61722229808755769 -0.16306500472536323
-0.50322021776972248 -0.84795743274036917 -0.2856152773651508
-0.56357841525759378 0.31098212230830935 0.7393437868149646
0.17397528667683826 -0.19161532173825968 0.7437559601999193
-0.32071058841217548 -0.11798497820065013 0.82015283870532496
-0.15894259708281089 -0.38749361887028977 0.55914534550339479
0.85029404298095201 -0.21650904059277831 0.4818162147729157
-0.38991979937530985 0.29211541179757772 0.69442629865978622
0.35971271861870724 0.9107079105017799 -0.3668555583993478
0.13597331594631301 0.59535260044343374 0.63705458875410459
0.092925561026753201 -0.17759716786208157 0.81550916562637976
-0.40892444938400452 0.039216191211055129 0.76080114314027236
0.17587239809590027 -0.23994709642480672 0.74405286052154107
0.81005004927162672 -0.39248217661647633 0.70244070926295432
-0.72473916016616879 -0.27975405766856865 0.56671336428782526
-0.27066535237041922 -0.23245565118045652 0.76235620623048561
-0.40408008992578726 -0.1873764476326869 0.7412908030083476
-0.50728532308354879 -0.46478582178739458 0.5651837892014
0.026370425450284785 0.80941512150627792 0.39307721329457834
-0.54865049725640702 0.59550621114634206 -0.52603210515608279
0.04995734999330681 0.6345717878614785 0.66073644027131406
-0.23842076659975575 -0.29567097218610439 0.71552859012047954
0.008881984483222638 0.81422661384551387 0.35109369296531456
-0.47058758703656078 -0.13791922407454393 0.82256432144132541
-0.69424799389028458 -0.45934986432584379 0.62408489573809289
0.33977342140914324 1.2434103649399972 -0.42889996643699524
-0.90501548321630887 -0.84347450895389842 -0.51755268302371249
0.29388036046165178 -0.42174219363277654 0.30758403507546239
-0.33844322928373627 -0.027930533612219755 0.84280402886966899
-0.30413127740576185 -0.054258481886046539 0.8065335566342724
0.1463865982723016 0.095089067166585828 -0.61078014782732737
-0.066435728898077695 0.47582605666953359 0.82541531325085904
0.052947576227040827 -0.078275721073727267 -0.67516600281261629
-0.028610833822141135 -0.26952806924451256 0.65290938694852985
0.20251213348036412 0.84077419888416927 0.00057374394344655855
-0.31541474982394435 0.31743882705612148 0.81360064043302183
0.76793736292672277 -0.35054669816918493 0.7185862686059421
-0.68090928178244914 -0.35825428173459084 0.40254986535850756
0.34154048851249019 0.28471809510851465 0.27862193363544741
0.32499245933254173 -0.13779666846436145 0.068533241215525287
0.17422798448746901 -0.086783209878650069 0.77251202964565513
-0.60426542664729732 -0.64873971124752661 -0.27408927048594878
-0.15256773193678974 0.6179668145076147 0.73688741993885909
0.7326818766636678 -0.38374859417685991 0.62690347991483275
-0.4271004705631638 -0.016287072689323168 0.8309297262860742
-0.6892933899639706 -0.29812527431597191 -0.50700134699642652
0.2141172849262345 1.0063295628375284 -0.2987145520352823
-0.11825120335031114 0.41112112387078836 0.81460234538157517
-0.42162903298689969 -0.22227108051844402 0.80879032176039711
-0.73132059150813022 -0.15041293268125466 0.31852170309804073
-0.07691867232502414 0.25840001347261188 0.7929510085626883
0.44516957797555889 -0.14478801357370052 0.29044201018241633
-0.55734453336133916 -0.073256992605839066 0.71889441526129083
-0.16072483129371129 0.41234450098534126 0.74757370931334943
0.18045915657239942 0.74893308271812775 0.10958854701249532
0.66321524669364251 -0.35206420956770801 0.69801267202392925
0.13949379039712895 0.52652249110146032 0.68427571613738269
0.30299966774305975 0.72890052000659988 -0.31364727964872774
-0.59999803938679364 -1.0083179017441242 -0.37457062197011393
-0.37212558390867967 0.2411721834740721 0.6642387972127155
-0.44521250584845173 -0.45555150107960785 0.60544975454044625
-0.5649199722265843 -0.16318353034389688 0.71966356254117203
0.019280007468478466 0.88564227403763995 0.26067268950869105
0.35856069355912457 0.12109646091783421 0.0077131876178322401
-0.26889406072340805 -0.28307433337856303 0.68429822278571484
0.70133698219490093 -0.52558159276796301 0.69596372940548346
0.4236936903536499 0.75272940985629821 -0.26737790907296066
-0.30214964550383305 0.66599457489959679 0.73626792859935986
-0.50093056038318773 -0.6497969090193112 -0.21387527261301242
0.42756930425884576 -0.034103606260889929 0.32489417568850598
0.71926556003241693 -0.42346883515974687 0.66867788943911277
0.33392275305779773 0.64993494484903702 -0.22661796134727696
-0.22477430538881515 0.46497702221095016 0.7484071142975357
-0.56899106341459005 -0.77962969277374383 -0.37763057311945492
0.13214153596785083 0.55565590802734777 0.63516087871389981
-0.037088601510497199 -0.30154058146834495 -0.66902464144742613
-0.013835998963933172 0.99514694344482768 -0.36010991936387482
-0.55139976168746907 0.011246886981344684 0.76082031202597467
-0.21868241971799796 0.35512755120923467 0.70199649077805759
-0.6489291983753116 -0.52531993721143522 0.10708536458746654
0.18886416537337603 0.87251346278916486 -0.077504118354948304
0.31704852983973453 0.38496287371728721 0.46674184848528677
0.10221664554557375 -0.057287833240582842 0.74806164398296282
-0.73582090064897709 -0.13191132335414713 0.73072781949472043
0.31745861542020304 0.6607013047952337 -0.25503158689202099
0.45834607076553535 -0.20817826991567001 0.2892637899213395
-0.26537269598920421 0.48707379144582497 0.7375694281739773
0.39333587937595738 0.7770696263102348 -0.27875929216681872
0.13154100896870791 0.8488782756381994 0.13593760474511152
0.16572831424406687 0.98553721563953856 -0.24784986832486311
0.6824471211905796 -0.51805463292383336 0.67271594863941253
-0.18280319386738153 0.40447289598419989 0.72358268135671988
0.24954427909389842 1.0483925003070262 -0.33514196990001288
0.55268785018755473 -0.081262555565268402 0.4359989943907161
0.16508510594302894 1.0126944739726653 -0.25446039738657422
-0.29820536233819483 -0.49992960927732311 0.40177530451481269
0.35043722168088109 -0.20398027148505049 0.28857075026268797
-0.16940173054790852 -0.13349980580738352 0.77504937939960472
-0.25520406459607825 0.58318469517075266 0.50498163453314726
0.41699535913411845 0.92758965175830943 -0.45898880431212419
-0.53173698477775133 -0.88520550320277169 -0.28375713407112935
0.12286424359643933 0.59102302428109521 0.65712961584321317
0.1580108270903704 0.74914376461764709 -0.38415683861708061
-0.28635239250524736 0.46325944680839681 0.76400899192497107
-0.4332227813923093 -0.064649145289159105 0.80644229703599768
-0.077573694472949484 -0.3618492505582307 -0.58705170166500542
0.82818016762125435 -0.3513173239661509 0.63429075764262688
0.57668495561430388 -0.14763462597748589 0.67759241009598981
-0.099564930824337594 0.49270145607090798 0.74430929406098212
-0.72741369686529778 -0.80753297242513211 -0.47309009855988471
-0.83674894240559228 -0.92070848085202028 -0.48730109726260862
0.048082356483112321 0.79314431840044586 0.6418426729287372
0.31596464373095001 0.62643033554009575 0.4878664331720568
0.36153031246228018 0.6694797584408152 -0.29186756023796789
0.10099852672950638 0.38648828409504521 0.76298806707872968
-0.65207351490300391 -0.44988867034699176 0.55205766925920852
-0.93085485742630292 -0.86985003189480792 -0.51166668235623458
-0.0062618949176300731 0.23322782478314608 0.7373639564525365
0.43978059821025006 -0.55790754217544647 0.62078290243932743
-0.47812593731302533 0.043913648982729647 0.75603082302387259
0.73738618786615717 -0.41632074448926848 0.39555084412506858
-0.93139138669273169 -0.69422510054253905 -0.43124978929917113
0.26942727410041734 0.75151829012879823 -0.24916742773402722
-0.6508107573333306 -0.28941610813907204 0.70351195006137468
-0.1169465926691311 0.51848927278714907 0.73505702558519248
0.43660149213630461 -0.36516471120060423 0.34127522777974262
0.22995527339673938 -0.023166520352905895 0.73881821030756356
0.29599491768657682 0.65730193315004826 -0.17782037911519311
-0.11893827206429686 -0.49900824223789986 -0.43852098270459239
0.031571392273910703 0.3526770162992845 0.74271243490164407
0.28565548187875311 0.081414050651797965 -0.31155442823757307
0.10245495410023686 -0.43080940223349207 -0.33039885743353015
-0.76743818927978902 -0.63835134814867711 -0.34570266145092088
-0.52540032172744233 0.60247998548787152 0.30476708167813094
0.16420785947517835 -0.051939007199568454 0.78735830534572981
-0.39321738787543925 -0.22229238364804393 0.77835840300030679
0.2205757564197901 -0.13551082832849382 0.77247036807116398
0.76942877388444053 -0.47920642073554487 0.66168047990101986
-0.67684957850755989 -0.18479640291041832 0.70029239937980314
-0.36443964888600977 0.085175350550880324 0.74857013685450546
-0.07104474532824856 0.4616966756361327 0.78209417191986041
0.4919652172254052 0.69901517173445793 -0.21651405207643926
-0.43479844660223543 -0.72874112150008274 -0.27470871691951171
-0.630601486326968 0.30484505372929727 0.33274680264013989
-0.43258862555160471 0.71014511606188879 0.28686467214930644
-0.065346226406505892 0.30509167994956687 0.79387467730663852
0.33974522951435748 0.69016190635458785 -0.23237306388465173
0.17919042134553198 0.63267489700724466 0.65945386067973866
0.35680716258706902 -0.064312760833848293 0.21114882996891238
-0.19790482219463978 0.0052971135622508214 0.75861301491561894
0.48750230630987135 -0.58104557794740597 0.41844444259748848
0.69823243573727867 -0.35514123886910576 0.72523207704693204
-0.82277288044725649 -0.24668917301545346 -0.38929982161363252
-0.2525142648214036 -0.14419505069651528 0.79316174658072391
-0.54940561210077954 -0.23030113895398241 0.71566860170166535
0.28503198798995966 0.39401070608051203 0.65420438363657851
0.23386408601447695 0.45504174683916299 -0.38559962818183369
0.50289730400712562 0.80025701501172908 -0.30578068450133289
-0.63314172785053513 -0.67979641580346328 -0.29655738223489836
0.42915528273805847 0.69122289941408788 -0.2568546943095793
0.2139289354752858 0.0075133151042465762 0.73531204520163307
0.59721546043294094 -0.087795760115851218 0.5891883669343474
-0.068000386433305859 0.2358378057594992 0.7674808827838584
0.60476931275777579 -0.45245731132796574 0.61822368424092344
-0.44182231492441337 -0.76232803226180135 -0.16573826581906292
-0.14644652484721554 0.51089934470692944 0.74621427647419702
-0.39475165879011742 -0.39138224770585683 0.58913209099828734
0.8786299750909925 -0.3108963461262928 0.56951783262852107
0.57253015764142567 -0.56828674158881065 0.69647293008475275
0.78838196364075541 -0.21756731759668413 0.39076135422256097
-0.17240123612328473 -0.13423731972716713 0.68609414824443249
0.029295975875339053 0.95112747115074203 0.035562432478287942
-0.32662288956992303 -0.66264036498676937 -0.15734507832072664
-0.039033656615926837 0.68371912240130817 -0.6089400680898116
-0.44054356637761805 0.032355284091071024 0.77119122585335376
0.43624458823252521 1.0345099583600805 -0.43330728369460703
0.23683299667766367 -0.15929727432902352 0.74648624105846118
-0.065928155659135346 0.25458214160067394 0.75980137641067191
-0.80498247892830177 0.18364526662858038 0.18732804501302569
-0.29300378071227495 -0.64458212616950683 -0.20093639800166407
-0.44217925403172487 -0.26076607020917564 0.69116276654603581
-0.47160367307615614 -0.12676327459399594 0.82482593532433279
-0.4378351113632224 -0.63700840532579761 -0.086901469011699817
0.32132328735381588 0.059082656260185829 0.54307831537485507
0.28923124890183871 -0.17340838183731067 0.74491220531629665
-0.65981766869517999 -0.35509241200672692 0.66131112903727285
-0.61266992936555775 -0.37077719622553929 0.65656291813116319
-0.69267665595240491 -0.37287257893582204 0.64936134147501035
0.18020925683056088 0.35423307294740569 0.66931904182102997
0.011251844878604089 -0.26163367435498053 0.60269922211097171
0.15508588582077287 1.0311670621568192 -0.30559613672957431
-0.58229916118804192 -0.80945183905980489 -0.31563581066338608
0.22537741073034301 0.91490481264757184 -0.22334561309821277
0.35663946901611077 -0.22333494823072275 0.76662675828989846
-0.40461794052650868 0.23314078629191926 0.60424579677799795
0.016632285403441749 0.44918378806498049 0.78631461207618081
0.20478677989609739 -0.30425815728839778 0.7283513411833713
-0.28628458369792442 0.5217854755027842 0.58538508936800993
0.25802593076494285 1.0652583449125097 -0.32139585276597993
-0.68678193828986256 -0.16298864927637213 0.70509653509853543
0.13751055534596057 -0.41747264110361915 0.47892581084500474
-0.34332246403365518 0.45907296625150584 0.56869491026395957
-0.67805656278608195 -0.92891380183269634 -0.42379634097798302
-0.15713638369101979 -0.045283720423458185 0.71507030969301688
0.6495726051439723 -0.31280302388268399 0.6780979823063138
0.19719184053083305 -0.0064699125336660224 0.77013643961214084
0.28268519780722468 0.71829160122761904 -0.2407646119567346
-0.58852385665286455 -0.68358687410283903 -0.31363615114351218
-0.84355154133517507 -0.55374553236661805 -0.28398872441029877
0.25866579941212287 0.43527595296229893 -0.33951267707647492
0.58133583638403374 -0.23649920821966708 0.33667795170325787
0.12909683593054311 0.85470037315119152 0.10185182732413489
-0.3809682096488789 -0.38667841759999755 0.65178207397391041
0.38726470369135502 -0.48824358621203334 0.67584587342093583
-0.032065207896081471 0.23580972722101512 0.73632158798585179
-0.80283140674520492 -0.55768865534043099 -0.28419286668159494
-0.87183715672854767 -0.02572716284595078 -0.2927698438979931
-0.12136037582838544 0.74018023955467127 0.43647995890912528
0.60062723508648874 -0.66598569049753942 0.62170173127675366
0.017067840563676384 1.0235865857345183 -0.18431654355293015
0.62485384106795161 -0.065341476650347285 0.46777071206748433
0.2490550762982302 0.81769683624504075 -0.1678614823977167
0.33944932240295067 0.063024277973645848 0.27336546976791265
-0.34651928523878128 0.053116393019630337 0.77437877246802422
0.27168104752349143 -0.05537298268621571 0.71149755642929247
0.11548024154586356 0.58353180069274124 0.66439873904995306
0.21886708757210371 -0.1569059198919831 0.74371268795977308
0.22670920052376475 0.045059920727941183 0.77147142217534181
-0.020937271148893544 0.16602930949135253 0.71254165324332996
0.028920719663237282 0.48281652389105556 0.76986180930882009
0.73645540530121645 -0.4501364838696984 0.67172591499753809
0.63057601318403922 -0.44344214411163385 0.62244555360434983
-0.21817167366200829 0.24285839290075195 0.77190298608770558
-0.76508443168893114 -0.91070615677703026 -0.443018363553489
0.050963433275931891 -0.045978706842191297 0.73234919191136427
-0.038192061593580906 0.35412325645861653 0.76545501761985602
-0.0554445022738701 0.35297901450049096 0.81400137398656458
0.29873135032721798 0.038167757150968207 0.6039498845503215
0.02226381889797624 0.2422558458580677 0.75992431239723501
-0.099434269607397319 0.33170588811574664 -0.70917393401022411
0.10216813000252589 -0.344889946119602 0.46828435968392235
0.1890659985009 0.7523704338400683 -0.45524457735232815
-0.26340842295032862 -0.4936837398679641 0.32199273948235785
0.63519776208146972 -0.48283133098499209 0.66286834222772573
-0.28026774555431988 0.62647192515569872 0.39012513716635855
-0.77026171529953702 -0.53425673811997632 -0.21220767677991015
0.36915723284160018 1.1372896846298779 -0.34800481258204474
0.067425969348490433 -0.20838581419091939 0.79412728687407608
0.035418640765083609 0.214778186804371 0.74445206002440623
0.22334835620892068 -0.32061350919652609 0.7282949103687959
0.28415577575059059 1.0740282064418536 -0.36654827222375497
0.54030290548756676 1.0430997761570884 -0.43717683111273731
0.83232259807587727 -0.20214842878451389 0.47534096621583899
0.33502229379027337 0.46270686119523052 -0.18494299925909319
-0.2778856449917666 0.39396170685009757 0.77499536455393336
0.25539205740378002 0.1641360519800501 0.4699946152145551
0.026294040732427248 -0.28284278345772229 0.58603715689412494
-0.72723173669466501 -0.58816155286271776 -0.28522572834089788
-0.33079025875648504 0.55356632224582514 0.80241406434309237
-0.20991401965690626 -0.3901667486648972 -0.60069567871884999
0.65324057327800711 -0.54613299352068756 0.64143147903635134
-0.65336020009803564 -0.95103091402306372 -0.36587350080153991
-0.59907980156350593 0.20016595870184561 0.77150925284025806
-0.88605595896694034 -0.20412948313404478 -0.05491426418914358
-0.025245186441204659 0.42352198203848568 0.84046806788986661
-0.054990932728946618 -0.029914800059294588 0.78353167398265011
-0.51502120604473989 -0.68022028706502757 -0.30977530104592965
0.60189488654231083 -0.40350190836143218 0.36958400417748605
0.7082668526433924 -0.13108947153371298 0.39173530597683648
0.11362443508858711 0.19597498233290578 0.62370179778367074
-0.010449089943075585 1.0067334000953467 -0.42544539928705261
0.087833696760545532 0.79775817253626125 0.575332777407914
-0.02411882502457896 -0.26753683468760014 0.5302995684511278
0.29657897320674653 1.0375779583795857 -0.42220051067705811
0.17045985003391229 0.76226508669637782 0.55580492099724621
-0.10870042655732393 0.25100764385777685 0.7389368199523263
0.7402475329512419 -0.20343389310289295 0.62982914585465943
0.36059319649043164 -0.17582856449674056 -0.037500814386246972
-0.25505064448093062 0.59847238214560017 0.80328213730015552
0.32284859891090623 -0.30756670741388881 0.75357175654021802
0.74494800065596944 -0.44167220076746738 0.39564657242723067
-0.29115819119696607 -0.21207927597532228 0.75956757631962102
-0.77210374182286801 -0.54038671792909865 -0.22008979396049932
0.38235862027799605 0.63148533679015095 -0.24223698300777929
0.76841439724307747 -0.42721170472796333 0.65095679719171651
-0.64891403090702982 -0.76023271237322754 -0.36431823371213889
0.24203873021365752 -0.28388641939126713 0.72720134070615838
0.49026205652414312 0.90382959649537165 -0.37885314703769035
0.13920125641330294 0.32514481024889075 0.76785645155650517
-0.4761655867216068 -0.3238223336529269 0.65757032162640705
0.29172906427084966 1.1603206260163925 -0.40911142382014054
0.48567344017877012 0.88147514062405308 -0.42357049163943916
-0.088486071963231883 0.49207328749762613 0.78836918965149216
-0.017274974175786717 0.25066753401402142 0.75205200992277854
-0.47139176006500438 -0.74730327328897372 -0.25368142186158327
0.24923545938221325 -0.23698582333554263 0.71550738241867728
-0.14384879936931583 0.46951937934955357 0.71555607856755277
-0.43283072906820985 -0.73766015998221945 -0.17386605223363594
0.070017805714466252 -0.19775831133510025 0.63817514360026184
-0.36686616938001615 -0.029287983211616186 0.82918680728087457
-0.49967584596039494 -0.086368010687803753 0.81974011508866251
-0.32285143137833794 0.32223769617121389 0.63812443412791042
-0.36278210071784578 -0.47453015967519985 0.56815398775192927
-0.92395317079893102 -0.73191678357815704 -0.42432859919745258
0.77777146734453018 -0.47326018892921917 0.57404686198762001
-0.3258968703389975 0.30618965528212172 0.69025567294793655
0.76521655043392744 -0.38404168215405599 0.65178964822775143
-0.88835890528734707 -0.65683807190263366 -0.44080845717137862
-0.16628543314364963 0.033420525516592914 0.73620090901845847
0.53337765847964702 -0.66165960006568358 0.49752060872095871
0.1918590460897196 1.073053886671095 -0.38049678863953895
-0.15883407901023094 0.51201980001241187 0.71401686440198597
-0.47044703981109892 -0.60697025175491026 -0.20523593557104425
0.2336010612484225 0.70836017125560669 -0.31243997482276109
-0.38520248029567039 0.018917230159734899 0.84559648832182166
0.04092636629390034 0.53588903641138597 0.67237130750154783
0.25635816477897055 0.51592370354041428 0.3478176902597947
0.19842846104101541 -0.057819917843245694 0.82853384739129599
0.11706444947850958 -0.29447522595577569 -0.49404668850308342
-0.61397793218944319 -0.93871435654088997 -0.36125363333711258
-0.40412775036136228 -0.81106327928853572 -0.13800547802416219
-0.36770625977210569 -0.22752567136490143 0.79143765511197683
-0.59796186878294044 0.016213802153525414 0.77584814283161796
0.83871217366742901 -0.40358401826717638 0.51929111457173827
0.65939960921492569 -0.34874554453205686 0.39825863445561493
-0.5399661846965782 -0.60042706092259834 -0.19936299232180144
0.16153373319615838 1.0962755967568143 -0.34024169521164138
0.69649863898196607 -0.44070621821445388 0.66436133883432591
-0.58222297665169043 -0.68194407626877895 -0.30987709021269394
-0.11994967001347634 0.48324452538741403 0.7623640201870443
0.16099491899038121 0.65842191682144424 0.60614559758626596
0.31288380948451433 1.2423782694285963 -0.41294188526486986
0.29604894007956473 -0.078896548410883893 0.73215676956894438
-0.7320281300802054 -0.94394811572924553 -0.42928109722934504
0.72699621711250151 -0.36680320446966963 0.38624249759119778
0.27850820830844247 1.0436751766991998 -0.4624328009775609
-0.20604487975487107 0.27979391870037951 0.71009772361312296
-0.039557276426375854 0.55583948619245804 0.68904267758600568
-0.74955770183831927 -0.31270491482961482 0.58184502315516395
0.046258180623233613 0.28831792635343145 0.77352406663059714
-0.91084991816636185 -0.68243746464087751 -0.384775832294316
0.78073410435487745 -0.49872878670703158 0.64652316689499223
-0.40049822429261228 -0.048539047722279793 0.7968049011322722
-0.0056372036285115001 0.76757429358886942 0.61443760724367591
0.10098812593083029 0.54323320063091352 0.66307275567150903
-0.64788656127639976 -0.28732682903824847 0.65388499354764429
-0.38525523094834524 0.082388094614552099 0.81510593566827572
0.1826452298638479 -0.23469090947705507 0.71038779991148271
0.11513250818594356 -0.17506058311948669 0.8031231868871429
0.29992535758761996 -0.20933623054479789 0.19507641022461453
0.38663878525136575 0.67802744869817344 -0.28009764369485657
0.074786410126433722 0.51669578623263934 0.73782375958733226
0.0086156855088295181 0.40696808432861031 0.76371721729899278
0.74359114667222448 -0.57895888530267836 0.5123523692818388
-0.75245331067654897 -0.53643646835187209 -0.30695151181534674
0.06037675680322474 -0.11449309324130974 0.79132324761657236
-0.3639758642069979 -0.30580370048567973 0.71916011838678173
0.1161168526019134 0.91258682117448231 -0.30169502101538814
-0.50241595730987543 -0.7138788491441741 -0.3280883808249162
-0.35123958593468263 -0.35746953570069318 0.66746403255909925
-0.3321080057253103 0.37136551521466199 0.83635548664386983
-0.37060743755414283 0.38890964673732764 0.69968100695028879
-0.57328450846469137 -0.2725942023447967 0.68428708030234286
0.31970551473712572 -0.33016069156921946 0.22177090189799298
0.057715511515969986 -0.15159738309659154 0.76657287170530442
0.38883831957302473 0.68713280979949909 -0.2864289529993278
-0.73151601056060622 -0.60230130140182325 -0.24729467805284422
0.30470413502100779 0.018824952119634197 0.59284854446617974
0.0074818208960736321 0.28646431428113139 0.77616938301271432
-0.44022177357675663 -0.86013677814017564 -0.23929385343310061
0.064646847407557662 -0.10650245021966587 0.74144324575397613
-0.22150709331086604 -0.48588794580603833 -0.48471002019460752
-0.8836898730645113 -0.58217730952289015 -0.3546571816082893
0.55687216614711277 -0.26771394172092844 0.35121123593693682
-0.081533931503474655 0.76117299166218011 0.40595966121002203
-0.56664420558441897 0.26784394528151445 0.67329483878890928
0.5056237656687661 -0.45278926021038512 0.71105036110979558
0.48456858144365533 -0.055337809813629457 0.43097803862789252
-0.35516666045339607 -0.71321709780467968 -0.12512837406657962
-0.047642559319907019 -0.31680433767930927 0.46751249436557174
-0.10309031571551275 -0.42793510336414764 0.3106876787270334
0.11391889350093232 -0.018112279738993209 0.73130560519195775
0.27237182122743775 0.27418491687917124 0.49940446506185632
0.69153675923085522 -0.36416693297105152 0.63438806353628996
-0.57865230049657512 -0.24843206619765645 0.66495575585352107
-0.24123848670635795 -0.23060970695018357 0.69140527838422416
-0.50703631957430328 0.066138000373089589 0.71026507898233371
-0.47802374966839611 -0.68858257447824833 -0.2507937377492615
-0.84045191963174926 -0.91856490291147397 -0.42437071350467015
-0.52797761189795045 -0.75428805254674258 -0.30033083488711876
0.65783651000372823 -0.46010801952055691 0.61512916807346896
0.28853706946660473 0.6306234176251877 0.00019600314000944863
-0.76615762359107453 -0.35627620014923922 -0.083248693428742193
0.17068285632353497 1.057476194827764 -0.22801184905235239
-0.33184321592091415 -0.22744387306660752 0.77372663641223483
0.39322145292976707 1.0039663873291556 -0.40340461280706386
-0.15826617238196228 0.35084544981389065 0.74513370322729466
-0.3413862243460053 0.34710475211851533 0.68441525822222005
0.032755695295116904 0.68292388332295628 0.60674215782073304
-0.45555116053480127 0.19832564000766606 0.65945462564376944
0.30111705051736992 1.1035935788386078 -0.40152272184775972
0.35940358072738743 0.7260534311249347 -0.2563049459319604
-0.34594023090518844 0.40979390395481241 0.66193668711214659
0.21470274612413931 -0.11071207672903416 0.78653385225434969
-0.23360733548128287 -0.45150422019426895 0.55583378228475011
0.020663747325280202 0.6693451959214991 0.6532990548542541
0.17989919070608984 -0.38063200625184956 -0.15018942274231017
-0.81545487823971419 -0.87638269349521369 -0.46464044699692408
0.33859992252180771 0.42562039993951029 0.39380817031868443
0.70409566238450161 -0.3916584332920463 0.67665733259207395
0.15700907157497079 -0.13986725075661077 0.82038332189088647
0.22120900906912588 -0.13458638177286497 0.7977852196621904
-0.44934625898522906 -0.2714225536399919 0.70370876866846777
0.43710468767054067 1.0256355495944862 -0.44351609247863699
-0.41894613561782634 -0.57699249745336179 0.25502114312129054
0.75103873042633928 -0.2669414465253519 0.66191363151228622
-0.17653145258774972 0.77252416202993457 0.58230491264353335
0.25030321797862065 0.31938743287196192 -0.46737035264299687
-0.61382373511378141 -0.68013983614484985 -0.29432189848866974
0.27247045897434408 0.91604957650539465 -0.24013605968208962
-0.76278822787698086 -0.63391189732828224 -0.2364433261465777
0.28710022754250275 0.7381186598435252 -0.30117254540598992
-0.86093929329149788 -0.8552291050416414 -0.46267707430824068
0.15602967593706296 0.35672524458273536 0.65001495115391039
-0.38996873117338415 0.16398038531764936 0.81157550777749776
0.19506489404435667 -0.020851671949193129 0.80444222422889
0.54677620614047528 -0.06839645278502493 0.47926699456452404
0.070309828667809882 -0.39402826917045841 0.091121152001784278
-0.022185140921808344 0.19908805299317667 0.72274233655805098
0.26283700925960574 1.131891714270062 -0.41827256209993013
-0.48308625583265208 -0.36978310438040563 0.66249099002574496
-0.081719526477733062 0.60393890546322559 0.62487576757290908
-0.47823693348394558 -0.096409971723472765 0.73637764492183644
0.15781698346600903 -0.087009472451782255 0.75235066639572024
-0.82163071452215819 0.19310180879278471 0.098892447871856692
0.80680515394817442 -0.45364870922075151 0.64812857912416622
0.27928708647322242 0.68342466535193336 -0.20176466142973215
-0.32762914651954178 0.34897831454329209 -0.73445777911451593
-0.21006351358257591 0.68884260490930327 0.72106250003486005
0.27446686531696773 0.068644637076674897 0.57318131415208118
-0.68024146953802767 -0.99051593326422283 -0.35181067307158109
-0.52240552978956156 -0.22922919336056369 0.67353497222591496
0.44707033270269259 -0.088437652358110963 0.67884855034682978
0.36122057020615195 0.049366034762210464 0.42262035159031397
-0.48417715171107956 -0.37475242252019836 0.61094532097554666
-0.39309857262535663 -0.01408764813159058 0.77360793626391633
-0.51641726686068168 -0.69487304862172206 -0.28815453604708718
0.27885571773924589 0.46467774024039121 0.55860918424489325
0.68944983729706077 -0.30573807568582989 0.69482958063235678
0.41352013329140336 1.1642936407095568 -0.50963981232764599
0.071950256268147328 0.55055650007753631 0.67828819196472567
0.35191586693012233 0.68568383787165077 -0.28254978919802465
-0.1107826457458021 0.98153190043084093 0.12394405208011117
0.31456809641001415 1.0777479957248708 -0.47806502371966397
-0.43345352937069359 -0.46018444247861412 -0.4608811984292509
-0.72023548341319499 -0.38004136229726138 0.53910794334673717
-0.51160235854455616 -0.26498135868035755 0.68175357637774958
0.5249031531017132 -0.66344485004792575 0.49529511960807948
0.38762490789657944 1.135084058830953 -0.47257804666048697
-0.17316648503848375 -0.32412279958527179 0.62975738992215913
0.12557978447773621 -0.009893383915993148 0.76946886095209432
-0.50155847929475783 -0.27531806490432942 0.66392754138274013
-0.7194372091728849 -0.33911024670019696 0.34759502425420719
-0.68324247243709246 0.38645124295123345 0.30262876867442445
-0.6726004659697149 -0.0011601402469318955 0.7558534533661101
-0.31754408490430208 -0.20568798217841211 0.80756537660197925
0.29675083440473671 0.22188655497410004 0.56519716434675837
-0.47717540884302689 -0.43283240785842292 0.60419240438188959
0.00679546547155363 -0.0098519166369861466 0.70948728765093971
0.11359442142726994 -0.10443011777478217 0.79543106376483275
0.22424226977986494 0.0011439490534268515 0.76626563239187595
-0.54599312340912576 -0.70422769106712879 -0.34398153930122843
-0.36288590020683076 0.25686145305317787 0.58816792046750299
-0.14368964063224299 0.50499284853406889 0.75348790745422578
0.31967134238155115 0.7270543767818527 -0.26881070579621991
-0.57565942142465154 -0.25120627807752216 0.68897339954943693
0.733525711864909 -0.45498970209975775 0.72518533206813895
0.62895993617861601 -0.28526456830791846 0.64058575476991297
-0.25829236333444383 0.47312052808588367 0.80209217007684597
-0.53078229612255168 -0.78697034707810465 -0.319377214941301
-0.34896814129100706 -0.026448912673062264 0.77897085731979709
-0.36013650326592028 0.60361734617181773 0.7142772053453692
-0.036754419160343055 1.0208563900914189 -0.20559392895316364
-0.59502171024547668 -0.66966586297225916 -0.34060410891916071
