# XYZ point cloud file
0.087321930188508645 0.29498154195827553 0.70859100948592157
-0.66208909309702157 -0.29611813357872752 0.68529942161213064
0.64498183054404024 -0.40085370626687844 0.71008451908542014
-0.13232309738914694 -0.41383467595408785 0.46758473207379581
0.13463471046197562 0.060149835263500151 0.7927461504038753
-0.71622463404556402 -0.47997435250152343 0.43003894675813292
0.16502858333949355 -0.23157882118696715 0.7909819783090164
0.2301785690500342 1.1922180373708766 -0.37006786468544561
0.036866901936793539 0.38138125927138766 0.8537377034668836
0.15177600878579156 -0.19976902434618715 0.73673520631133371
-0.50703879118220918 -0.41216005840661296 0.64990939812549442
-0.36537929243819356 -0.019812945234416013 0.81029328202603779
0.059771989482250376 -0.29349460503711544 0.50748908413282123
-0.40080033579574348 -0.30073217481609849 0.74700046007308529
-0.038826836442616752 0.8405741458256486 0.64453149891227568
0.19896782330424756 0.29387679225821195 -0.48255431384356484
-0.7701187210156677 0.017721374973222126 0.69448228200633544
0.59778514616314737 -0.39610997754455823 0.74237665002837261
-0.086121871236887415 0.91719348527241351 -0.38504246189141966
-0.66139866591028529 -0.16421496277207481 0.5029232636469132
-0.45387654702844671 -0.23996757683570547 0.77637014886614253
0.36170771936866331 -0.36995638735748049 0.34829662919387516
-0.24316644716265756 -0.23051336055240856 0.71857425717445267
-0.47727653499091716 -0.52969062822228263 -0.42645710898286637
0.2025047649968581 0.4161066334517276 0.70122412856112959
-0.44872401797055339 0.18553473108678098 0.64166463119360273
0.32180548579727564 1.1238805660607056 -0.41468687022251416
0.19534611848575523 0.50760985974483397 0.66423063456747045
-0.82679876409937592 -0.9186873508056701 -0.44762711280725043
-0.067058615261984755 0.32181588017906826 0.76754357530140993
-0.0015509305924634731 -0.33530060290538621 0.51914677168471357
0.62988264310489761 -0.41283659663156591 0.64591644285559013
0.37722769465873895 0.010392526870674601 0.68142336171001006
0.47769440780039751 0.7614616459375938 -0.27110330042211217
-0.775660403466226 -0.51972244009866664 -0.021349775332179632
-0.05416770950326999 0.62839668904942592 0.72826096173918131
0.11796001544041523 -0.2835344341050785 0.6127991617864943
0.34689280996007454 0.83546860770246845 -0.30470890310302678
-0.28502186380994843 0.40719437533898173 0.77355042004395358
-0.69514537071162508 -0.83721210026421566 -0.38594112513148993
0.39357456580869865 -0.19585149205778762 0.21058935895862874
0.35560490379539367 1.2603813154441514 -0.44588823922997989
-0.38416915320052247 0.64030673850854924 0.59520870800104575
-0.74834642448472621 -1.034388548688189 -0.47324961821291467
-0.17261676533054526 0.32477033224549245 0.78859020913863986
-0.31578696581399868 -0.61623586543778508 -0.10971647968359832
-0.38604157889401591 0.053752970081387907 0.65347565373960848
-0.30380250796290298 -0.62636450130866539 0.021281593760878792
0.35628642789480125 0.045996573729652823 0.57463556279335393
0.74750924902199856 -0.39729770895818195 0.64399546280337461
-0.92141294286670927 0.14589202278451729 -0.22418976194179052
0.17039283073885692 1.0355969324085805 -0.28573204653833528
-0.4826881359022952 -0.73553015383228093 -0.27038508141539097
-0.04684500503286948 -0.19031439102300851 0.72681271598908026
0.76408734600697592 -0.19225499454222028 0.65255402704224608
-0.44709953211081022 0.60697517324810413 0.69166561742470378
0.67504945542606976 -0.11152148771950188 0.64687457655769975
-0.5721538243164126 -0.64090561316774863 0.18790467800173971
-0.3183208181652919 -0.13538229657376899 0.8357584914671321
-0.50607656222473807 0.1153498421413266 0.63882603681990346
0.37734322473641591 0.37374239078462246 -0.26364432307735086
0.49971386229480963 0.66355304429233541 -0.25654930562239997
-0.58539288598081995 -0.48047128702244457 0.5867823774032388
-0.25219228277217454 -0.46177567811281595 0.61479695615493313
0.77273282504297391 -0.46694606398872196 0.66254883929795128
0.099143661649353731 -0.1493500534385408 -0.61199413310410122
-0.54492568155447962 0.82484134450442959 -0.29381990264790403
0.21541510659147534 0.28205229124421471 0.61547298987145282
-0.64670814490860895 -0.66022994094731668 -0.24608969504171085
0.19599513278794767 1.2392010077610625 -0.42252917182513627
0.54637928784860179 -0.40737640896212124 0.77927372978522058
0.17802816120718745 1.1357097611689984 -0.31690130511957548
-0.24353898318978295 -0.2085970076353405 0.7766865708423687
0.84658407765262389 -0.36231495522272095 0.67536879437624364
0.67905362283971904 -0.52159596073433612 0.67802680963667328
0.28494667295371023 -0.1154564348842948 0.75012701072336796
0.31167990842940085 1.1101412547269707 -0.41550780043058566
0.63458876344488147 -0.62153264119415397 0.42062874406589756
-0.5239204380676572 0.046955911548536733 0.52940553183356442
-0.23073438263888058 -0.21129093146295208 0.72801493959578778
-0.568643624178792 -0.29406384002925812 0.70085795844044974
-0.16064237149045191 0.51265078531514519 0.77927078636669123
0.61781997272800204 -0.42374201118179489 0.70137007883716507
-0.71134044426088749 -0.47861659940237278 0.15621610294175348
-0.4895465307287461 -0.364327867394036 0.64846291928087041
-0.43037296142676063 -0.72207489622411725 -0.2577094444692527
-0.018975734226865271 -0.2996302179683985 0.66634236574533645
0.079782556819514738 0.011228239604454515 0.75523570046006583
0.42067058588259343 0.78660379109922296 -0.31545645184806048
0.45934851152184919 0.94801353077367878 -0.40185741814669029
0.36111028625890462 0.13311410726769424 -0.19861798614530102
-0.7293196437242031 -0.27420336651530519 0.4552490736907302
-0.6344589523790729 -0.64947986763319232 -0.2277410874568524
-0.71092480298496064 -0.68566054024418488 -0.44072762767331142
-0.36589042605775646 -0.71253685523200705 -0.10360756648579184
-0.44815066673734627 -0.81632111830717502 -0.35816083232005269
-0.74891634782860095 -0.33480464730140458 0.57547914404847944
-0.15853600642617138 0.56501798486313604 0.70600760350146885
-0.29819512251504676 0.09503321930805253 0.79879980041320664
0.19638944183562757 0.76862984277189916 0.37376437390164696
-0.31306068112280627 0.096157373612919983 0.82887295231914493
0.15802509428879574 1.0779756630465922 -0.27681859579417534
0.28085292901991288 0.62994237907443384 0.36224354476305365
0.63118656209029211 -0.74065676905534872 0.52912919944282777
-0.43219740284804331 -0.74704540108069928 -0.24489594390677638
-0.82527264365634778 -0.021801800435708785 -0.49774837361890789
-0.69015075537720172 -0.91502603785782011 -0.4408502762140234
-0.74949818018725445 -0.1108621632075506 0.61241094483626313
-0.33902532207491909 0.01033020263883877 0.67571221116013191
-0.097843687772149579 -0.41106567848363174 0.5171202162373163
0.12398236789975492 0.61219367317787921 -0.42266782046299767
0.1764304478476646 -0.19776439305069271 0.78762828890490155
0.49074512624588529 1.0396755456853874 -0.44175221918283825
0.013551408462598502 0.8581149244101951 0.60606672035440923
0.69801389269631464 -0.36269332374270924 0.67560459464351652
0.045192571910344981 0.5535277055014145 0.67573767661010109
0.69858928864427483 -0.2806285966499189 0.71804621196270446
-0.18041605822641849 0.30548065890966747 0.77490706661865971
0.11806004630802924 0.64820832261721684 0.6763088546293865
0.72278041922960412 -0.31508903054221005 0.66952432394456451
-0.78935099575503909 -0.67570215842227643 -0.28908610818765901
0.1735799624074712 -0.154784431105778 -0.54748106842132671
-0.60583454258119041 -0.67369880732866605 -0.35275132777231555
-0.5884177607611436 -0.77187990974552978 -0.30054736133253712
-0.77045549930979007 -0.76224178407192689 -0.41555903130321958
-0.085574594095090717 -0.51515707671685895 -0.10510296249392326
-0.62617427299717043 -0.91275045605922855 -0.45013191230407301
0.21878094907066981 0.46209785306246864 0.62074663468428426
-0.46209457546931887 -0.38343755719847916 0.69193226021029375
-0.35284010735053961 -0.42894760703145707 0.60840344332062202
-0.45451343211472306 0.18275988059757786 0.57972625769479436
0.35223329090941924 0.64153378583065113 -0.14224556247778608
-0.097222830509403835 -0.12556820902902111 0.74839560104568648
0.18553350116365586 1.1324769535250159 -0.35775457691147849
-0.14527823496405645 0.33168289228340875 0.74207719054021481
0.21936829239760058 0.075483673936656004 0.71675693436942112
0.33801234022948456 0.026097687994079521 0.61728886913313019
0.36423139458253573 0.20178185942364379 0.010892470751493022
0.23800224991336449 0.76044892710671164 2.1799888994422645e-05
0.79201920658367264 -0.39018922401810485 0.6660959551523824
0.013307314930393943 0.15922820313775254 -0.72476684863591245
-0.32444766717157414 0.46974353563734184 0.76050023531340116
0.6900459226912492 -0.27114194213901932 0.69891097585916029
-0.4931092488476807 0.44175047597782857 0.69636131569247439
-0.83989154862260662 0.32109952168420008 0.074258544446220043
0.13799740593797338 -0.20621672786005885 0.79269902859066477
-0.26447292127182109 -0.23243928957386029 0.82723465604472679
0.53334805534134411 -0.48069412182257931 0.74198757278714211
-0.54694583378885397 -0.15448928548054663 0.71566149093555254
-0.55377667336825276 -0.27896789151927948 0.70046432520410207
-0.73235959786110527 -0.66146703962663356 -0.33311507450225264
-0.13246453689384197 0.59395421281012695 0.69859261694953645
0.81636309005186902 -0.11980590121472723 0.44591400215060162
0.099670027246128612 0.84802631755205482 -0.34262409814106576
-0.31224167147845527 -0.73492270313476027 -0.16328437594457057
0.38605434049884124 0.77430201592698467 -0.29652912960208511
0.21864616645182622 1.1062996249127224 -0.38715025778799017
-0.060989524486112501 -0.29146975967538769 0.58250948343780351
-0.016760116315250428 0.14737913089679378 0.75716942812211485
0.43290063688755431 0.050176911396261126 0.45669368417500067
-0.485740020355383 0.29751024133489956 0.57129857095465297
-0.79919506031781573 -0.2826419904407711 0.17520171395232254
-0.645042885234135 -0.26406443565466908 0.60496971085207818
0.3091085766879953 0.37705348893263668 -0.20727879604142885
0.30914071299512536 1.2406479395277312 -0.54346558710928505
-0.88412259509679636 -0.8766108923758642 -0.48761152993342627
-0.24463009152654536 -0.091707345346265789 0.78083986098076963
0.080701141414285971 0.88048099660250934 0.075406551602771543
0.067545274112667641 -0.20794209148202736 0.53066998784132124
0.76929968542670046 -0.30273548318295429 0.70263488971350441
0.71737304335582586 -0.30916642872052691 0.69341337051426422
0.4957733809107161 -0.63652983792420947 0.43065749485382199
-0.63603734800112477 0.1735352773152794 -0.58098260205257546
-0.27689683639509433 0.92711436620186483 -0.13369625382833306
0.68976145695335411 -0.63896925155323281 0.62060530280379567
-0.55918252732284834 -0.55267504736099138 0.54887613644484468
-0.73556734865817308 -0.31468304547855208 0.29952513919038815
-0.24769974477801071 0.52176660939933939 0.66248399604643993
0.73364969012356163 -0.37243204911801708 0.62700158046994048
-0.40804266303277892 -0.62718414719334525 -0.26496452777357504
-0.65360338144834174 0.71133440610994647 -0.23037466539781448
-0.41037550097164122 -0.29849062016610706 0.76654017153936138
0.44418732655691251 -0.23206227313115857 0.74080634058772787
0.44476957547137452 -0.049087491458919885 0.34846723252422862
-0.72626141113211951 -1.0247886633477101 -0.41495439686104163
0.35578117002640219 -0.4383643038006646 0.47329347750803308
0.68508370805054852 -0.57569096252381335 0.6548162822432495
0.051450023552638058 0.85222568771074592 0.30318099166741419
0.84541208919967836 -0.23288774816289504 0.43321798850864113
0.1987863877113849 0.96872043848732758 -0.18517126724326261
-0.57191623386324686 -0.046983116427166571 0.66186674073184193
0.14316030109525357 -0.16413688713990116 0.79813018713803885
0.8551424081977288 -0.43801925685809628 0.61759134030102203
-0.36085702135431497 0.63500026691227518 0.37047312922716813
0.26163118027749555 0.94352388274358923 -0.33803721315650748
0.32565439951903308 0.04189626286242909 0.69202972140990937
-0.05938703079750951 -0.097286148851596366 -0.65130615574310369
-0.53642061702111121 -0.2077847072159118 0.71870456688437656
0.39076180426384965 -0.27913961395781595 0.28509446423824514
-0.70060388286713504 -0.79736316185108347 -0.37498912623631853
-0.050130015102133996 -0.30112484222671654 -0.61204319248616201
-0.25524172792360211 -0.52318174905291404 -0.36659908928893614
0.48592641341733867 1.0922619890900815 -0.46109672762829135
-0.49257115742200774 -0.065881838007993743 0.72542890652920278
0.29116731744478841 0.68586592633452526 0.38573405249858794
-0.87086287510867599 0.25420480285185221 0.17409577523845243
0.095498325434908438 0.71209065992896825 0.67501753637018069
-0.2490917017808485 -0.37184866060394572 0.641414487523015
0.17653394781334697 -0.30736231785993784 0.71784151796292406
0.29556344680327662 0.12649926800425071 0.50610344672491792
-0.60755312516688598 -0.23200162723534579 0.69549206371060812
-0.28793972296703707 -0.060439131288393177 0.79185069719941126
-0.78120173279089045 -0.38676324877240642 -0.1776388720270905
-0.25388212998445958 -0.1478773730911902 0.77277089592314496
-0.57877578792859996 -0.19747072329891591 0.74067018743371626
0.38125136067049858 1.2483439641598757 -0.42097795075777711
0.42249659839439602 -0.45850475818370118 0.3330168279273984
-0.12490514999251801 0.78120336947773339 0.34126592604222239
0.7178291516190427 -0.32018240635880879 0.65044729294525894
-0.22196220938119993 -0.14206900731850336 0.73507703396819579
0.19137575679423335 0.35355255554032272 0.72306626808469332
-0.20492762463664782 -0.014567633799155821 0.70737394264342157
0.31222541572414819 0.047849107276947578 0.56335438731068876
-0.16919124272292407 0.39883987537883669 0.76757930861447932
-0.57650718469849238 -0.32033542112343749 0.6664576869998502
0.13072802968123831 0.95897655841726959 -0.24410808125596262
-0.086719105085448334 0.41781612321427808 0.77622289612209983
-0.23252176441211603 0.95306014542838113 -0.024450845391402964
0.35803808539171555 1.1821506603630887 -0.4115260035475039
0.373561879942784 0.64783198749341331 -0.17274764264279341
-0.46662898956910315 -0.83844901948427797 -0.31314705371469742
-0.62375085587381029 0.24870728895523087 0.74701106307379916
0.19203108280940739 -0.20765669804457776 0.74973989769427618
-0.32193543809082037 -0.1603952734136902 0.81991368306480794
-0.13204036980836165 -0.41756621384342196 0.54441856353763285
0.88703775583019073 -0.16501632309791958 0.49348764910957499
-0.43326451299695279 0.25212276840465009 0.69899339732717891
0.37439470027657151 0.94137232630020939 -0.38473412657907247
0.11819236903394881 0.64120408475613466 0.64879002109292827
0.10787208072415666 -0.2009097891976408 0.82219037567945463
-0.42896326638417648 -0.0032521394367321932 0.7632419192519535
0.1956910993189922 -0.26092597844913712 0.74825863200418752
0.83105434570368253 -0.38787614128455949 0.70752181531058511
-0.72969251452240602 -0.35099126460824603 0.56208588643742452
-0.26066807373846146 -0.27486364530490182 0.75650657206225347
-0.40306326902958745 -0.23508004377532465 0.73552830472237574
-0.48159687318019984 -0.52033391997563339 0.54247891095334921
-0.02637867512895653 0.82651113099588436 0.39241920045955681
-0.64687917297338871 0.41987992860492795 -0.55185471008907783
0.022636627535778331 0.66931862312215884 0.67326312733823102
-0.22210165716371577 -0.33699093562478932 0.70617079286486728
-0.047413055752864253 0.82312580585802131 0.34810450826067196
-0.47678248541975066 -0.19370971321358788 0.82021390726761467
-0.67235376782526313 -0.53829742535904579 0.6053097803664329
0.29090300512502054 1.2962497744629466 -0.44528025209643118
-0.92570339586158035 -0.87265687912386003 -0.4966949231914608
0.33626552429895185 -0.41300639623773705 0.30482308098315158
-0.34770770638894533 -0.06816787303094074 0.84628672171661279
-0.3096315127152991 -0.091564157513969846 0.80855230455550142
0.19615081712756322 0.10124419843889498 -0.60332693538698479
-0.089284979375172213 0.49018968469353119 0.84341544392842138
0.094225727540816706 -0.062177633599237225 -0.66427815417072011
-0.0083676582587290937 -0.29441476920705334 0.64866897576353466
0.17268228349692905 0.86293739317246576 -0.01366838577311924
-0.35128461357568064 0.29056810830082114 0.82411539912865805
0.78783436827743358 -0.34534526476015426 0.72473330594742791
-0.67993580526158048 -0.41469821422769382 0.39361719538560891
0.35597603260621824 0.32247417387117139 0.28094448125211358
0.3622937452513284 -0.10287164893483336 0.075863287700123294
0.18813981586615647 -0.09403415252342473 0.78259788858481016
-0.59971973135108492 -0.6508579334779947 -0.2808475245193609
-0.197977525977441 0.62001719472032413 0.74978602973471098
0.75947967602813549 -0.37877651107491239 0.63328142465865866
-0.44241925843299335 -0.063641716759148537 0.83361238458501674
-0.73189343577905319 -0.3396597084582087 -0.4952327406174728
0.18178619282100783 1.0081817757990859 -0.31951592813496177
-0.14238917220637504 0.4135839169896407 0.83007785543968637
-0.41785398112717331 -0.2775705114002962 0.80230363866751375
-0.76226849550791798 -0.2159479288894568 0.31966294079744628
-0.089082322568023287 0.25674222862293572 0.8060246356548042
0.48018188163532471 -0.11324226023697825 0.29920283509047962
-0.57567695627101223 -0.13123607774561741 0.71796003569248157
-0.19087195015434766 0.40602874588931215 0.75876027224784792
0.15361958244323937 0.77085638422638247 0.098806715129995837
0.68530532393346455 -0.35529060676726676 0.70438478834545037
0.12711031001143525 0.56965917867845306 0.69803924082909319
0.32330849675103579 0.74001902887482629 -0.32828917658609313
-0.55329713516392509 -1.0128291850816158 -0.41347567606120528
-0.40969838379129619 0.20298964208893011 0.66719628773192952
-0.41854488405297374 -0.50992294785948111 0.58281358712628162
-0.57374670519766724 -0.22339275322303997 0.71544361122180256
-0.045085867761168075 0.8907807119270057 0.2541611875673695
0.39217301325192899 0.15716405176881487 0.013676520047429364
-0.25435899876797663 -0.32271480277131381 0.67456606704154964
0.72495123639451187 -0.55172682299130482 0.69566686132933242
0.45606958402732722 0.79881050147298538 -0.28006388435367668
-0.37099897940122517 0.64167969020292048 0.74670062642779556
-0.48420716419073084 -0.64387776341128422 -0.22819789866805706
0.45692375576259181 -0.00083887204108101798 0.33302083154519124
0.74358754947197347 -0.42954299480570679 0.67320160858309208
0.35725425360366359 0.6731549670059831 -0.23786392247160393
-0.26546110370418674 0.45113544862925359 0.75899362473120391
-0.55442606950543105 -0.76879623680079323 -0.38947502409727441
0.11623463480175644 0.59697401422129204 0.64643252599899625
-0.0070035554338261363 -0.26399479602161513 -0.65645076085674958
-0.082351961818005748 0.92005378676046057 -0.38703785024148729
-0.57773206360191942 -0.046614866545169775 0.76319988492194568
-0.25118719298441228 0.33759480128672337 0.70937486528070792
-0.63871281000100844 -0.55837773875371699 0.094346470532704174
0.15707361757246652 0.88471084051269067 -0.094059285706379114
0.32122218275672054 0.43151086738559741 0.47161398869010185
0.11366308364811673 -0.065214844129769745 0.75674000633306449
-0.7552887715458434 -0.21203033666077697 0.73314663555082049
0.34016678823670787 0.67837222502153516 -0.2670715380700095
0.49599019019681556 -0.17844660280283087 0.29798131231017422
-0.31269882230273893 0.46695602184279217 0.7471392725404904
0.41983532446978167 0.81603021606386505 -0.29275878882170403
0.087014789475626131 0.86761117148317801 0.12530100546624823
0.12449343250471223 0.97762970319792863 -0.26869264328526299
0.70806198997967407 -0.54187437983005893 0.6728249385293168
-0.21515742312158359 0.39377375768438405 0.73308832446942418
0.2191879614153649 1.0600513096515449 -0.35568387643792931
0.58299031763772291 -0.044799158719382781 0.446164023326169
0.11963600105789851 1.0052072466898831 -0.27536567330390582
-0.26464192796649222 -0.52770879252943281 0.37766015994623814
0.38440753140344341 -0.18096795865310966 0.29396594157039146
-0.16311817844859711 -0.16436291426668515 0.7758863349294991
-0.31745986189749864 0.54927083415547884 0.50404084407264804
0.45063179659027419 0.966460434717618 -0.47580736248025346
-0.4915429115593728 -0.88084599601627289 -0.31473865137181711
0.10484036135176034 0.63549633638577241 0.66983710488847947
0.15868223941467541 0.71978867979684225 -0.40373443060115122
-0.33306962546472541 0.44104820478257167 0.77434045061200152
-0.44464070757967633 -0.11335202516780463 0.80680455887203095
-0.052365667717078068 -0.32127705991016065 -0.57846699493687126
0.8541696011852089 -0.33238027921545221 0.64140647951063556
0.59798124359854476 -0.12839906600020168 0.68808847309493615
-0.12945832482119179 0.49853285309433204 0.75738139134855231
-0.73207629089968673 -0.81149033072664345 -0.47022765513205833
-0.83825492644239041 -0.9426055401060589 -0.48410237226724284
0.0083876675036211878 0.83873912440957454 0.65534624113955786
0.30754953240252902 0.69992390309388597 0.49219240070264547
0.39393679137554116 0.69426700457172963 -0.30302610473078673
0.094421004366727956 0.41489865836591378 0.77925502955322656
-0.63256716325522433 -0.51670952960586636 0.53388878504015835
-0.94984658992891191 -0.90422033537087465 -0.49055278007589287
-0.013143482712683507 0.23671260832066743 0.7488871724726387
0.47409734852284124 -0.59561052833532635 0.61347084013905118
-0.50324517099934596 -0.0055593749511011481 0.75847964875708129
0.78117507543203324 -0.39133228414352583 0.40636034699925716
-0.96148170668248412 -0.73379170417209583 -0.40335684564551855
0.2761216194176459 0.76117849457899744 -0.26499983213137668
-0.64836151939273989 -0.36154559300647016 0.69471986233994087
-0.15075515034542697 0.5222631348824347 0.74755675755476858
0.47749547619307187 -0.34998988550499543 0.34542860228866346
0.24346839165338885 -0.019187785016054448 0.75025872089456414
0.30904593561376004 0.67628965570929367 -0.19004646638560629
-0.091742924832761474 -0.45290036078421991 -0.43849756226671843
0.021244228165079093 0.36841659712801444 0.75656390919727556
0.33164135373651327 0.11177247443967531 -0.30249313182293136
0.1453812469594471 -0.37762502527306019 -0.3252011594965083
-0.78266182750156155 -0.65880288173000068 -0.33692724634859239
-0.62878881953992405 0.50475972624656329 0.2960426620155161
0.17658280610639565 -0.057029071110057394 0.7986751441846458
-0.38840636775544013 -0.27329840353584967 0.77161508614623031
0.23670763131639028 -0.14506315797750347 0.78198914547360232
0.79448943167642128 -0.48812438701124439 0.66459328738936918
-0.68824726536381498 -0.25674255133722035 0.69786831766140089
-0.38574798954974554 0.048026270223065382 0.75198006229039294
-0.094918042826064308 0.47221150594237216 0.79742431760839594
0.53358780980367548 0.76246321276716955 -0.22636404433240642
-0.40770959749473512 -0.71090913276894874 -0.29366766557959778
-0.70723364635501085 0.21792579257657074 0.33009486344717942
-0.53870718112293225 0.6197771312107978 0.27571047043459274
-0.079248409847346934 0.30750049479903296 0.80791090135614851
0.36126416036341702 0.71555820867533093 -0.2447979819189392
0.16369944374797107 0.69255150371891361 0.67309056968079872
0.38811637800945498 -0.033243670728047903 0.21792308956701945
-0.20235908097558841 -0.019560448314564383 0.76279586480818296
0.53441789075474766 -0.59246589306854602 0.41316564402993095
0.71825246980705693 -0.35814086532902678 0.73144656691226828
-0.87887111272667084 -0.31226455296894429 -0.37123883947678493
-0.24878328409529971 -0.18191469380906877 0.79233457757835524
-0.5501757935907472 -0.29066576870292238 0.70805133002217069
0.2871104906025419 0.44480997002796308 0.66621908624339454
0.26883476625715907 0.45095055422436303 -0.39238788750240516
0.54764440002654169 0.86817388095739645 -0.31853759783480839
-0.62912696691883951 -0.6832831783309663 -0.30230679150194462
0.46650812509468409 0.73550686021059519 -0.2673234925732153
0.22614540325863253 0.013340781386350642 0.74698869513262167
0.62165633897810046 -0.054858840219505822 0.59959043336988316
-0.078695370471391968 0.23343703694547102 0.77920970869925554
0.63407169055642143 -0.46625905166705106 0.62072239695221043
-0.40392678713819041 -0.75479450518296698 -0.19325313713246572
-0.18243646336047092 0.5103685331435166 0.75864673368804247
-0.37395493367704713 -0.43677070347877489 0.57109713449836619
0.90983561972661064 -0.2746356657061142 0.57852294738111354
0.59913392602010518 -0.61068793039443392 0.69159838020371822
0.83016528224813513 -0.16729686645461594 0.40477624898277398
-0.16599121569255715 -0.16071644532200047 0.68449878005568721
-0.041517729020895899 0.93595441685073055 0.020313700426207504
-0.29269720928955323 -0.64469200221374656 -0.17872961704034296
-0.047277283271258241 0.59160703869849129 -0.63409079504939925
-0.46186021578717984 -0.013592490719336325 0.77367371326209522
0.45226525228423142 1.095126726595705 -0.45121421967736097
0.25443482322265254 -0.16895066759005051 0.75486659542027112
-0.077672313766617762 0.25327908093571683 0.77148854462742378
-0.88625873698118873 0.078331288567666135 0.19336979941522259
-0.26067116057943274 -0.62058839194108639 -0.21936691821625587
-0.43580143028138885 -0.31134161818343831 0.68110391856664165
-0.47891374474417781 -0.18227071985219201 0.82300978712982698
-0.41091346074900414 -0.63416497356563539 -0.10770452905658345
0.33744867323963135 0.082281684581494652 0.55145963116940422
0.30770250816492606 -0.18160247401617191 0.75372115779940074
-0.65020397114450468 -0.42771260915664477 0.64883986894265355
-0.59987894032360778 -0.43883606840003964 0.64177294288854725
-0.68186281339403543 -0.44900404325518384 0.6368987637007173
0.1782177713075086 0.38677977307599143 0.68147697510471872
0.032576446567460948 -0.28044056239923165 0.59894827434004938
0.10831420447484774 1.0149806139403452 -0.32756655877588869
-0.5598802027806169 -0.80497991090325272 -0.33335536811816446
0.20316369249778177 0.9234023192951657 -0.24249031040831426
0.37572886736818667 -0.23520059572985463 0.77532992738753848
-0.44558883156137341 0.189757632606538 0.60496246382420438
0.0013898113672272672 0.47196734583602407 0.80334720822829908
0.22753492819231447 -0.3298127933195536 0.73013295461864303
-0.34384619300515595 0.48907048031375844 0.58757735043965553
0.22481207218516985 1.083019400743197 -0.34149970699021992
-0.70113026614154528 -0.23604587379697239 0.70403259827083531
0.17285486170198006 -0.43163821433878535 0.47035492718693916
-0.4015140162499673 0.41740913693283765 0.56941214024644182
-0.65719282666669443 -0.93230940046365784 -0.44106494369472138
-0.15620471404707281 -0.068026400077565441 0.71731485960454933
0.67260308080843956 -0.30979834626927705 0.68558419937609472
0.20909241399887613 -0.0042255052490176581 0.78247097527870935
0.2938882972064718 0.7308044638612099 -0.2553672969701708
-0.58164106016590988 -0.68056046496154643 -0.32125683679826267
-0.86893354259107625 -0.59188510689701257 -0.26806946859786507
0.2940036055103139 0.43898289152042658 -0.34480681547539049
0.62116063398482524 -0.20309077105411166 0.34791069917826078
0.0842477116039273 0.8695157991499336 0.089948278633510625
-0.35993898625718401 -0.43660732252209655 0.63428291207037546
0.41691111163981986 -0.52507091759682112 0.67166388177407299
-0.040793376847394924 0.23670438620565548 0.7473434524553042
-0.82462220791293372 -0.58973465772759415 -0.27225730408120974
-0.94875007521251398 -0.12819474382078688 -0.2770389811487739
-0.18479559336757312 0.72602124065766027 0.43496451267616365
0.63498608076370999 -0.71176465041987047 0.61144289963103304
-0.060587248247621517 0.97973381863742048 -0.20634262837027961
0.65513780945144617 -0.021876506101764726 0.47837025457669924
0.23879455141964101 0.83302894067683653 -0.18463372880630757
0.36294544899757675 0.093219762862844391 0.27877962999872352
-0.36350922513570261 0.016766602510750239 0.77802645390239888
0.28739747117731973 -0.05058996902797297 0.72208572575623364
0.097480637855815289 0.6264693279804856 0.67737441113236585
0.23626268555366714 -0.16711697468390874 0.75176084082333716
0.23783465286641281 0.054683547104798613 0.78523751050695978
-0.025436713575013314 0.16406228027754199 0.72180287899327666
0.012444953992773122 0.50925335039489639 0.78658639125888996
0.76068730320978695 -0.45891945386388766 0.6753579348641594
0.65918035926912211 -0.45468073086569216 0.62571807156922077
-0.24060271979566039 0.22461129723407414 0.78101521195207368
-0.75663543912287068 -0.92418218006315911 -0.44921541649458874
0.060473294971835401 -0.055647314817538707 0.73971765044429816
-0.053363042573984387 0.36190895150168068 0.77924084862430476
-0.070745906251687529 0.36021011377867485 0.82992930515553098
0.31384511903807599 0.056596459701622415 0.61332768037814489
0.017055445397224034 0.24970898103052708 0.77311826578423037
-0.084484050455982285 0.2631077964807389 -0.72225797710081707
0.13268342757360507 -0.3541885832928191 0.46206700743386619
0.20183995444804737 0.72344341652477517 -0.47422289326334521
-0.23037167088534716 -0.51160972984041742 0.29940243623443052
0.66164302775487549 -0.50385513216602451 0.66411439666573102
-0.35304714011104998 0.57811279497666135 0.38384422062740953
-0.78699394573668968 -0.56572273166206521 -0.2054295029425699
0.34317769456806779 1.1995007296363678 -0.36599001735417858
0.083669024566756178 -0.23458033100298081 0.79832144002462613
0.032110420540755413 0.2215168183461671 0.75680815953335667
0.24667728630817187 -0.34734676870908388 0.72976191274701563
0.25808616025017272 1.0954410319837571 -0.38668897498877541
0.57299496657964788 1.1421915080128429 -0.45367965715825065
0.86897183190330374 -0.15075224692046341 0.48712559980295467
0.36629194855334468 0.4867788850433552 -0.1894626457453974
-0.31745784434645863 0.37224581227897158 0.78525008803553575
0.26580837588105233 0.1881470293101497 0.47584569945966138
0.049489135118607308 -0.30111658833685517 0.58154516242142762
-0.73988056189160556 -0.60801775957245052 -0.28061379846565515
-0.38960355441546213 0.52788362903226371 0.81491979553334204
-0.19797452317906128 -0.35995981373434205 -0.5948709392841387
0.68217267634542722 -0.57264611217428563 0.63996251179592889
-0.62037287680465081 -0.95785184595645134 -0.39272803436563386
-0.64897595127561569 0.13560353150548821 0.77936581132944482
-0.93753454287025306 -0.28188035694771774 -0.037921020006184136
-0.041020152431546109 0.44084711039193447 0.85940957319333577
-0.050400401608071022 -0.047197490143964238 0.79068524435522036
-0.50212494176270006 -0.66905475728327168 -0.32079462788516722
0.64512908037261241 -0.38480829882427248 0.37750812619655605
0.74630255104970189 -0.081323314830498816 0.40439685574358464
0.11460893370074032 0.20816596502133144 0.63221051272617501
-0.075908989616694456 0.92413136664795381 -0.45342545427503822
0.049261490629580962 0.84684114048842751 0.58546593313079853
-0.0025279051686677434 -0.28283691731481575 0.52431906593746191
0.28535479090271032 1.052463502633973 -0.44267240645858053
0.14244556039204781 0.82568260104867974 0.56496045584627197
-0.12371937976314662 0.24446881926148123 0.74878587156006304
0.76515878487875 -0.17284023789173553 0.63916104235492455
0.40530499645644191 -0.13220005581839622 -0.026474455860256541
-0.30866297192168801 0.58656809389131404 0.81753166410193501
0.34444373089642255 -0.33087039432028753 0.7582508159101522
0.78944084015525817 -0.41864020603115559 0.40599339729372375
-0.28349838543605799 -0.25425768436452145 0.75428810233050569
-0.78885574312175955 -0.5714639371399084 -0.21303344968735871
0.41562161926332486 0.66350323443835713 -0.25161858783129532
0.793784015402208 -0.427384330229855 0.65586737855272759
-0.64235861592873356 -0.76030219870283666 -0.37069332761579155
0.26415103178191757 -0.3055173028652014 0.73072988049729304
0.52981541652400033 0.97215437457509069 -0.39428582783452981
0.13759754717656492 0.35308824785943305 0.78415007200375442
-0.46464052860787763 -0.3774293291023243 0.6438968708266728
0.25280699707774978 1.1872060659496295 -0.42839220886869356
0.53339170004075953 0.94081872144163547 -0.43813758627624466
-0.11575619567735451 0.50208168301959333 0.80406022970545621
-0.025572947823951253 0.25427322946664255 0.7642677802550466
-0.44348490476209967 -0.73478010458737675 -0.27421378687762044
0.2701999090166165 -0.25215243022374256 0.72080526627197372
-0.17745258856577273 0.46604861637722195 0.72601889063968628
-0.39808991694862605 -0.72798000062661572 -0.19887271108117233
0.088558651660667564 -0.21218548808249516 0.63900145184399548
-0.37765211681843169 -0.071555491975177965 0.83187256714088065
-0.51232168822867585 -0.14270570331662302 0.81954647947619819
-0.36396212103815806 0.28873912026893755 0.64114424699036832
-0.33230668080493331 -0.5212526643779567 0.54446454603116834
-0.94882139399784471 -0.76958220039438796 -0.3997247939187325
0.80968340645240389 -0.47088339933730872 0.57907683834885759
-0.36464890180333853 0.27413476494215416 0.69521906097218178
0.79013737152633112 -0.37829140817399498 0.65792296842437992
-0.91951737182544235 -0.69078062401047458 -0.41578715626247131
-0.17104000567778144 0.012729421083998105 0.74094531900675165
0.57837816997217217 -0.69254381931413711 0.48712836811329296
0.15010039319816926 1.0612356899479902 -0.40260977222632022
-0.19730532975229309 0.50762576147343808 0.72451299243491363
-0.4555241854462615 -0.59959049898557648 -0.21843937426584858
0.24447761202218743 0.70318693617439187 -0.32835988893790358
-0.40101997380344834 -0.023638411700262374 0.85013275505695063
0.01937656293055845 0.56239253247701448 0.68443382346791992
0.25059407493392527 0.55682050703745567 0.34735745599015289
0.21110365501333384 -0.062984223742062362 0.84168427692655712
0.15929134123014599 -0.2444765734195169 -0.48079993051661418
-0.57929842434022127 -0.93998809560931385 -0.38930022999863034
-0.35509439043740088 -0.80510706216351835 -0.17310348663509245
-0.36152234888025614 -0.27794377258038327 0.78490772221629612
-0.62733017765406984 -0.047364634586597454 0.7795188958289625
0.87430417173023045 -0.37992365049525123 0.52844057616450968
0.70020855002100824 -0.32384428005422095 0.40854865102574323
-0.53081146718110972 -0.6009563766855317 -0.21002770117886271
0.10609266589306721 1.081016779313849 -0.36211317555825318
0.72152818512995687 -0.45087418789499978 0.66813348575289311
-0.57472982842554199 -0.67842780346294607 -0.31792400909337815
-0.15065316563298303 0.4865310714988329 0.77589678664040207
0.14068141374151111 0.71307120061770668 0.61691366535635694
0.2579724953449638 1.2863918645173893 -0.42965585515479532
0.31241596058864474 -0.075706251325913243 0.74315571865256658
-0.71411607208161954 -0.95545863043072821 -0.44377613678756767
0.77014497122231695 -0.33684096949547815 0.39814356450876787
0.26700666217553071 1.0477492565053144 -0.48350735106570397
-0.23141186214196097 0.26255287411798101 0.717239822053795
-0.069583578640260768 0.57120527765095197 0.70088869296510836
-0.75045744554318272 -0.38846341308311416 0.57658560570080297
0.04062746626175695 0.30205272804548766 0.78838290284972246
-0.93627137542289152 -0.72101977069048129 -0.36143654854596008
0.80716971062279441 -0.50776664084474454 0.64904823476959805
-0.41169085715177545 -0.093358297999735385 0.79766727668240378
-0.050904584000415198 0.79636564541419474 0.62499295182256631
0.083977779404500907 0.57990233022450077 0.67545639414618464
-0.64665065368799635 -0.35547391683048968 0.64528221902394378
-0.40685438808217711 0.042401544105721278 0.82045072355030513
0.20320948858159937 -0.25225332318757854 0.71419316301933478
0.13055715669486645 -0.19620957717050658 0.81004552424063547
0.33499297740467426 -0.1834171975103871 0.19944641981048505
0.42102844250712401 0.70979783240340311 -0.29096089594829877
0.059370897787566435 0.55143428239660075 0.75379699569652203
-0.0057429294408901654 0.42437082047779562 0.77888223378723609
0.78268391846875573 -0.58633563593128368 0.51383395510835683
-0.77375967831258397 -0.56210455431832251 -0.29776941862628803
0.072620833774797333 -0.13184981735868284 0.79878907492985007
-0.35038794112561078 -0.35532274499872418 0.7073505125835915
0.081542644673387343 0.88151501097376084 -0.32426114359991942
-0.48603890931459048 -0.69942359836387968 -0.34085152802657603
-0.33231487133245352 -0.40507973827010613 0.65219727855694742
-0.37358532686918799 0.34417971952839466 0.84844043156309468
-0.42124990698324893 0.35103187883461828 0.70545895446147
-0.57059881548250324 -0.33466204705834723 0.67467167377335358
0.36041539442775949 -0.30789444017629286 0.22423476011261556
0.071840025923096462 -0.1710249322874331 0.7719431253159037
0.42352806554485767 0.71927744522130332 -0.29754578398476639
-0.74034635108810676 -0.62369250845171997 -0.24467807199258829
0.32082625264528097 0.036479661941833719 0.60188560879967667
-0.00056174026124544696 0.29566492826294244 0.79046418916816563
-0.39341641495921742 -0.84957472721710925 -0.27345989521168867
0.077251196240812448 -0.12036985417825807 0.74771327316901193
-0.2053678122891931 -0.44869500043311739 -0.48430603103836489
-0.91467715855124609 -0.62230228522642062 -0.33212303359343309
0.59622443293601357 -0.23946544582444496 0.36118221776131421
-0.14274274504614226 0.75306156136886671 0.40376775027404932
-0.6240212117352435 0.2044209050141621 0.67830610512387679
0.53030303973854309 -0.4830593405146022 0.71161693285186089
0.51252207805456074 -0.022709022108703181 0.44018574791907739
-0.315539711552554 -0.70084622150539033 -0.15171824279755697
-0.022768039924722316 -0.33057999411351791 0.45829008134162663
-0.070658015848655609 -0.43484660001420039 0.29474334327550622
0.1242543637492286 -0.021491620658049548 0.74061252897285357
0.27858477800451276 0.30712010405445689 0.50579236901215552
0.71772156459973679 -0.36088944784961097 0.64096734102360386
-0.57930893085312007 -0.30898123105441488 0.65665424287020002
-0.23015102699558376 -0.26623508111004934 0.68480355490365952
-0.53717424014692838 0.014095147806283848 0.71226988487708454
-0.45742842759398705 -0.67713516685198094 -0.2666936691777515
-0.83490993224889998 -0.94571366164526793 -0.4257240267973188
-0.50700598366852923 -0.74420701290266322 -0.31666931910487328
0.68701507651026894 -0.47082810299357902 0.61820484588791302
0.29022319137638419 0.66065893247157526 -0.0098037840872109427
-0.79382126500483174 -0.40334344165847646 -0.077125442206460448
0.11645872755689091 1.0578875387093092 -0.2479103960537401
-0.3243713775129855 -0.27415836140757843 0.76734985856160165
0.40349041963260923 1.0499747887789059 -0.42187799850660923
-0.18386387100607848 0.34254736257360463 0.75555936674003021
-0.38550495498212278 0.31277834712212993 0.68938700224958183
-0.0017278057342036135 0.71348139048656201 0.61646229391254792
-0.49627911970643801 0.15056761871068858 0.66177909291944914
0.27561325434778716 1.1290690277410782 -0.42142718471336238
0.38311933331840464 0.75558813372556521 -0.26944698635805864
-0.39704748703342219 0.37348931462355495 0.66640274125698085
0.22976244498709342 -0.11869837794563054 0.79709661982914071
-0.20262847615627066 -0.4888078429211733 0.53550037505219095
-0.012348391560010441 0.70038724496098403 0.66535113155508085
0.2242949965088421 -0.33628917978597883 -0.1466767166553673
-0.81852559822233317 -0.89480493739417177 -0.46051700094568915
0.34324584776813261 0.4757420324880659 0.39615211532620265
0.72764779834065152 -0.39518559491429173 0.68208244151886888
0.17148108954203956 -0.15616461628407396 0.83000389912699291
0.23677654270907489 -0.14543470197981279 0.80808135756506871
-0.44204511775670774 -0.32393338261145566 0.69320655837726974
0.45619633903258006 1.0840419945480324 -0.46132208654609741
-0.38390909020693442 -0.60140365443308852 0.22752486188866428
0.77441966699782228 -0.24641097206129281 0.67026609327626474
-0.24587425817626496 0.76097897141361415 0.58760646556669371
0.29998558959630017 0.32268102190375458 -0.46679268042674593
-0.60802690286053362 -0.6813667974532196 -0.30134816987420088
0.25914942475716352 0.93616239155418235 -0.25875063472025417
-0.76968627687599067 -0.65892002742222289 -0.23334988003633761
0.30273870913987011 0.74683818761259957 -0.31646679864846661
-0.87034829160897864 -0.88054200729164034 -0.45189153607393706
0.15220159826470692 0.38552853736339365 0.66108054246689818
-0.4191153401068366 0.12528113340925096 0.81861230975187738
0.20698672436531851 -0.021328528127409818 0.81762763516038106
0.57471753689158156 -0.033350688754043567 0.48926826376073507
0.10739138090880296 -0.37376209239130098 0.084015455889169033
-0.028448772252776422 0.19882291788127482 0.73286710868957172
0.22576611599796337 1.1439644388449661 -0.43869202292196974
-0.46664099239533385 -0.42678641219911562 0.64598225616721905
-0.12198038274150846 0.60973208459182437 0.63289837317490338
-0.4896605310154758 -0.14739762012383117 0.73413325509782368
0.17170396506986307 -0.094327943189795427 0.76149319175086205
-0.90803307187920446 0.081026031767944318 0.10517150061863845
0.83250656548871227 -0.45347412230730555 0.65242339148628758
0.28973885998348337 0.69752398852222264 -0.21525837850144924
-0.35111665896103261 0.23703511529230603 -0.75318952106260184
-0.26961348603009405 0.68115696946856019 0.73256741177988616
0.28816096392292856 0.087867437689720163 0.58167906182935525
-0.64079834780012845 -1.0059881412693583 -0.38419695009795873
-0.52279443914867407 -0.28438545356024569 0.66533184265971101
0.46665952491436258 -0.072843050175105617 0.68984043654282345
0.38186756201882233 0.077965327638684023 0.42963723788052022
-0.4677829781512326 -0.4276344435857613 0.59414292790962975
-0.40716475181777945 -0.056463954522572024 0.77500937708128248
-0.50059937905177421 -0.68488759303295677 -0.3011823665574056
0.27679840547425982 0.51732751230332497 0.56641682159280293
0.71117090000139882 -0.29954682283904788 0.70247207774060527
0.40687349624345082 1.223766493644165 -0.52698504940846291
0.052487043709277259 0.58384980639636197 0.69123573674125183
0.38058747694250528 0.70955942943865402 -0.29454145823173405
-0.20913149928723307 0.93778309867232323 0.10993371476348557
0.30502617594181913 1.0948352966233958 -0.49831059357434526
-0.43870974275280439 -0.44892534986332322 -0.4602268968028298
-0.71263275482912825 -0.45069720459391327 0.52887733541777671
-0.50751839785270292 -0.32086370750863935 0.6717089118070021
0.57026745487471686 -0.69468408223831624 0.48447414104900943
0.37881779952153316 1.1859831841684514 -0.49087654192888763
-0.15225858910856083 -0.35704178257455688 0.61895863522522987
0.13568372531441852 -0.013006113591566226 0.78049207129598486
-0.49618539415917873 -0.3294757188426809 0.65315018359294186
-0.72505381309847472 -0.39714827001724995 0.34235864726164422
-0.77607583581208317 0.28276554114004782 0.30107024913919744
-0.70453503249024152 -0.073508547267921109 0.76074402379339823
-0.31152100306650254 -0.25243983560597538 0.80315322175789916
0.3057369939904877 0.2549313150511896 0.57394426510380825
-0.45396059180439252 -0.48783921955280807 0.58337569395783717
0.012982792462956638 -0.019287725879657103 0.71601576245845067
0.12657265021560704 -0.11808631679430093 0.80452855483292396
0.23659433849268297 0.0062489683016897501 0.77900857546765678
-0.53544197151019102 -0.69388951111768371 -0.35338550903156651
-0.40270964130898257 0.21765539968401093 0.58858545917282257
-0.17870234677247865 0.50508613742707809 0.76630309037618716
0.33837899031233576 0.74605091421119418 -0.28290029676309203
-0.57546237492549146 -0.31309333759835933 0.6805569404109999
0.753752325488664 -0.47035621676886663 0.72798898299186376
0.65391912921739603 -0.27714800197433043 0.64874023548395598
-0.30158073081328141 0.45734089035473513 0.81489653541768448
-0.5074276365729844 -0.77596176329451438 -0.33730737777766251
-0.35933864035686192 -0.065406294731827685 0.78051990048867026
-0.43083082839597076 0.56705529156248957 0.72240026647930833
-0.12278551671147397 0.95805468040686925 -0.22936517320922079
-0.59206191553493781 -0.66638662002915083 -0.34566626138253653
0.0937363121159418 0.47609831569128858 0.7601883030395058
0.17762560762464119 0.11666326482422384 0.704851169666874
0.23456447392904067 0.45138908326344307 0.65515709032831992
-0.3157970473699141 0.014993500919261216 0.73972483662987898
-0.61919451124096625 -0.4064313053309121 -0.51332361208886468
-0.062696613407638324 0.66214352011379418 0.74144570142504307
-0.36089308119641217 -0.207757515985592 0.81453742961472742
-0.27956305596847386 0.82585532214317503 -0.4698336310324045
-0.75422362924154562 -0.39980299332198488 0.44808333007640755
-0.10645506228545543 -0.097732155214176331 0.74444469385588974
0.2987588410873343 0.63082716346301915 0.088211620290739035
0.6845881580383768 -0.64726885441501913 0.59237186587118629
0.39061197015030658 0.69933340775541986 -0.23861613369448165
-0.15568805281478859 0.40258770291051604 0.77614175558754539
0.47132886667810681 -0.23473188958966418 0.2858537949222999
-0.35686922133045407 -0.31303436738105894 -0.56973629580852148
-0.7538747689244456 -0.28372578871651921 0.58141585132686657
0.48686552792471538 0.96776678573375108 -0.34961357519406988
-0.3469854726531878 -0.29267856625416222 0.73044412750663312
-0.75515069020801739 -0.48748004807963152 0.54794457583874134
0.21057572103819844 -0.0081459242935384424 0.80799684324371057
0.23356926502516906 0.56556518361008301 -0.46962085143826116
-0.38826661024884324 -0.79114190531699879 -0.28774751601435256
-0.78667703677674972 -0.33818941209383269 0.24501385892336636
-0.41085213855974168 -0.15265314652800832 0.75238551349763227
0.0031474511515963144 0.86675636428536862 0.35148418053928765
0.44256849510602159 0.75221367509509385 -0.27675331756590538
-0.60080400169572812 -0.47357173248050888 0.59111145908119767
-0.71558719383812264 -0.42420979365401301 0.39217118632484471
-0.55101373435095091 0.2027511698474127 0.66059066235259678
0.33507295176020158 0.81769833010643289 -0.33363811757128303
-0.45529382353433867 0.51011219953774578 0.67331582620705532
-0.51613809702746316 -0.016246330675266485 0.74323330856388381
0.61756351980782753 -0.36569384967798335 0.74452102405259879
0.039522244324496469 -0.034096913282265717 0.74383119927541941
0.4251361716698483 0.58198457577631579 -0.14009027422975606
-0.48301000483624001 -0.056594749915089615 0.79292997266018972
0.23213778796874429 0.0423427603482045 0.73874512273469861
0.14654055420079359 0.35543305013130144 0.7149057932160261
0.26881381907670132 0.56180557569732414 0.62347630947644461
0.1649910859296142 1.1338319766303826 -0.35069591904982289
0.35958134327869473 1.2109026992547047 -0.4502381813951537
-0.80938115736183214 -0.43545525652802564 0.016023387970061975
-0.78435254122521414 -0.96555757387925922 -0.49216495961353068
-0.56956983572386655 -0.14356352893067559 0.75270928253048552
0.79072073718129587 -0.54564480418596872 0.57593783957362632
0.58279989721594028 -0.17085485269819145 0.36150603931990588
-0.23734430025638709 0.54329303701321763 0.73849030082944012
0.69483367962810405 -0.25279747062207036 0.7084278260182657
-0.52779610876321925 -0.36552864954771724 0.70047630078097711
-0.05873996342177179 0.22320616238677893 0.69711918951925611
-0.43620555385447979 0.26580434442990075 0.53584207249214089
0.69607318421102882 -0.2816887967719266 0.60708517255505612
-0.25761721572928664 0.41860506568900213 0.7104730487261719
0.364895479659058 -0.25156528287391211 0.2286169113038703
0.19898230349184232 0.63972882165765554 0.60172177307547869
-0.74809538489300031 -0.26572458673355381 0.6040753713778475
-0.6801980447708722 0.19690494659928692 0.73767010183148329
-0.094940777640758256 0.27245061677246607 0.75016129389547004
0.055483786551873138 -0.27082637598703574 0.51694226242476304
0.44197521046809207 0.79634758741937439 -0.32465326533257866
0.10492848362289564 -0.11989069115105089 0.82506614074600648
0.18996610219049259 0.75701202719131011 0.36811202238357765
-0.84110745933888253 -0.6695785790369424 -0.3141223939721165
0.046214624515682701 0.22460783492633851 0.76365992253320059
0.31581401205393256 0.19121581489623996 0.60390790644825643
0.021818877554364846 0.9204379012969337 -0.23236125507143512
-0.23162401615695671 0.30447486161265491 0.76321231853334481
0.24700583583831914 0.74410920852638895 0.3710655006711292
