# XYZ point cloud file
0.032699605138178711 0.22142398267806129 0.75672616459313602
0.2459389704669821 -0.34653957854445494 0.72998188408626064
0.2589066080216007 1.0942314504161406 -0.3854516716411851
0.57322765064151504 1.1398849117010705 -0.45395174783101666
0.86867420775515392 -0.15265314595426638 0.48680802081473118
0.36556201902560659 0.48756011352406681 -0.18932127654873554
-0.31503127080707216 0.3740297146216065 0.78446484419912821
0.26570156108635068 0.18701742469041704 0.47629043513254032
0.04889613473015153 -0.30099091487639384 0.58213326228891304
-0.74155585511620359 -0.60595305370811303 -0.28088202450323863
-0.38584152478121503 0.53051671210355877 0.81338993573131901
-0.19836352459621587 -0.3591410842181606 -0.59671943521789217
0.68119372516837196 -0.57196540487273761 0.64033493875956893
-0.62091885500513833 -0.95914743773839017 -0.39215590236954512
-0.64644605435486113 0.14074528237572537 0.77869499669127151
-0.93813944386389991 -0.27300312820517014 -0.038136473595720588
-0.039415402727247084 0.44112565633275302 0.85846907878039858
-0.050289043612711026 -0.046615471038869316 0.79070344500235734
-0.50333810904158938 -0.66928210524195109 -0.3210421662578824
0.64503032165176322 -0.38501248324512893 0.37718701253570686
0.7460869805167718 -0.082779517551914594 0.40395792671833064
0.11484549006069678 0.2075324159093217 0.63252108433098186
-0.07380183145079755 0.92691681023894645 -0.45034293650506285
0.050903647657056794 0.8449289697319422 0.58477837858604786
-0.00313166411496546 -0.28282590722258227 0.52501459206143153
0.28606905396767601 1.0520316542168207 -0.44126247059035251
0.14364661548975377 0.82318729081479169 0.56445073412093905
-0.12267029383853689 0.24493414221905674 0.74862197324591051
0.76474643637093109 -0.17422830781441512 0.63936695042427161
0.40494003419903812 -0.13190623135473345 -0.027604178081588771
-0.30513366672288988 0.5884144161724425 0.81597109955207614
0.3436718029580792 -0.33002369162637901 0.75841472040312752
0.78927408385709441 -0.41907818641568007 0.40558584585274815
-0.28378655497786021 -0.25307810219281546 0.75475236232083276
-0.79066896207530668 -0.56830826051467831 -0.21314527668874206
0.41499614525654316 0.6639195115727734 -0.25135860092698792
0.79297690135292953 -0.42784185102495442 0.65624409558400743
-0.64361628506253687 -0.76056807250812497 -0.37097313289631728
0.26348427684960107 -0.30485885134549751 0.73094257022837894
0.52958917001179984 0.97123409986713227 -0.39423479461981259
0.13828142289452572 0.35252084363729885 0.7838616476703919
-0.46552685743439781 -0.37566799942421714 0.6450425268722455
0.25395067336855881 1.185423005268385 -0.42723224747116006
0.53309166095282379 0.94059818610346113 -0.43796515804198677
-0.11375687005470958 0.50246062328845298 0.80316075300107315
-0.024747596195274113 0.25435776483216976 0.76409067151955057
-0.44455203392723419 -0.73542907183746209 -0.27406999603720905
0.26963398947884087 -0.25172346945126556 0.7210318748258544
-0.17550053739210547 0.46665817229151685 0.72550053006293069
-0.3992123194194761 -0.72854496331110496 -0.19840272627418543
0.088112430230847139 -0.2120731605518742 0.63944698576239745
-0.3769337522985623 -0.069658325726312142 0.83178353655333481
-0.51172509153900236 -0.13997442871358601 0.81968281901755091
-0.36214354060466292 0.29083722287028024 0.64109333058478413
-0.33361880023173285 -0.52043399910110644 0.54590206705845645
-0.95024206157902036 -0.7677194226814299 -0.40063575281014074
0.80902072460189167 -0.47131082540064284 0.57929886233452166
-0.36274107918405996 0.27621128763954239 0.69498364419044378
0.78940915645790888 -0.37893229630187797 0.65827161819929714
-0.92077717132693948 -0.68841512718310049 -0.41691760199893579
-0.17062100937802249 0.013460801095360964 0.74107724370967176
0.57780932375073668 -0.69134431774785199 0.48734240923748118
0.1512698030789732 1.0610114993973738 -0.4007575648961712
-0.19510347526933813 0.5083540094675385 0.72387674120788859
-0.45692586108135202 -0.59940868956465287 -0.21833797650194597
0.24434178027297371 0.70451184219809448 -0.32709371496362749
-0.39997821524872812 -0.021508591929197962 0.84986746176829797
0.020686579876352695 0.56158668798048339 0.68409231018761218
0.25076060719771753 0.55484373513641572 0.34782166516322022
0.2108605258776155 -0.062454573422909831 0.84157377164618907
0.15891528264701371 -0.24311357949400048 -0.48319672015583137
-0.57978632774227812 -0.94132810837426639 -0.38882031175585041
-0.35593659630415608 -0.80584691209945536 -0.17226660373036395
-0.36178806993078716 -0.27638349638293747 0.78538431698713396
-0.62608972811885089 -0.043158935422631828 0.77945499884803837
0.87382617291876663 -0.38103096455586893 0.52840932031734766
0.70004815846640867 -0.32437252273222406 0.40823053174372248
-0.53239396677338391 -0.60033625811581004 -0.20985701469646756
0.10742302697606299 1.0805399952286727 -0.36029377058701684
0.72067721983755284 -0.45083659709751078 0.66850259422909986
-0.57610773875787125 -0.67833058123947865 -0.31812181533998896
-0.14861681564314289 0.48705388876349431 0.77512785220370262
0.14177682004218717 0.71106618917798592 0.61653586030125851
0.25934287867983841 1.2834934817844683 -0.42891311214976113
0.31210538172323865 -0.075770220587980219 0.74332265286348331
-0.71471066781756232 -0.95679300763204189 -0.44362625403209677
0.76999212240721882 -0.33748871842427075 0.39768714272578265
0.26785471731208332 1.047792403807863 -0.48183626442658323
-0.23001567452491223 0.26357049729275417 0.71708911706596723
-0.067849754753346758 0.57094008154611586 0.7003747135935896
-0.75170988035332176 -0.38380555359769453 0.57789115442496097
0.041439896231869611 0.3019179550028106 0.78808791536024358
-0.93782975801912549 -0.71849045362300767 -0.3622587714239387
0.8062249616404813 -0.50797277763154991 0.64947657081397381
-0.41108699960058104 -0.091329386962353709 0.79775127765842413
-0.048798511330213401 0.79539719053939173 0.62421025395233798
0.085091458940368625 0.57869983336432895 0.67515318704725757
-0.64751788998787418 -0.35203448138196691 0.64646181649000667
-0.40555692694633194 0.044612989115474733 0.82015751972616258
0.20266314768035976 -0.25182126570547148 0.71444881183395381
0.13010963151361388 -0.19542670466086243 0.81006034027858576
0.33465764674126497 -0.18375445236608456 0.19926786363070903
0.42045401028723539 0.71027404647937331 -0.29062362380588169
0.060661979922450371 0.55065687208546699 0.75321886273405525
-0.004494561684419196 0.42419683355893945 0.77839498690259745
0.78209634164565678 -0.58618734374834336 0.51396238183546217
-0.77529295355001615 -0.55929014833582613 -0.29821822529507003
0.07237285959815587 -0.13125101457339206 0.79882193901794452
-0.35106391752814936 -0.35403223883786339 0.70818929803014541
0.082417929104167342 0.88247788379512215 -0.3222025353201694
-0.4871080623349453 -0.69995078624521412 -0.34114618927113227
-0.33321952515009201 -0.40400329795140166 0.65323345028816959
-0.37080397225989081 0.34651719212183707 0.84732466471367829
-0.41865430226806133 0.35378182752026177 0.70491789668577454
-0.57127594085534916 -0.33194161893705232 0.67572347483073258
0.36021574310325555 -0.30813489892061519 0.22401456840439593
0.07150077148576095 -0.17046905570331994 0.77207559898834432
0.42296358759841368 0.71974764758773446 -0.29720084846001527
-0.74215603552196718 -0.6216442557469346 -0.24475435000105605
0.32064965903303921 0.035668637800551295 0.60221392162191378
0.00035109892463758285 0.29569124467866637 0.79014182419723156
-0.39397191441701018 -0.85060457272559109 -0.27290151519866512
0.077009905292678482 -0.12003193323420192 0.74789464963103569
-0.20586000792191861 -0.44859425858040858 -0.4858872652431252
-0.91616649976929132 -0.61869464183944167 -0.33295940778210564
0.5960706270133791 -0.24002669239799523 0.36087121562832891
-0.14081383553371651 0.75288633175197717 0.40400355316843672
-0.62144063508804237 0.20958597488777286 0.67782633191952613
0.52930816336408348 -0.4820608692585262 0.7119018115315825
0.51228069390744757 -0.023820051901036976 0.44024105596242791
-0.31652515838607442 -0.70143281977836303 -0.15122262890034577
-0.023468566940163527 -0.33062312726404386 0.4590675177315795
-0.071525822550718487 -0.4350042129981766 0.29559226970481944
0.1241656644283804 -0.021438124937818159 0.74076859530433836
0.27863475515867187 0.30564432363942906 0.50618141556428853
0.717089323219815 -0.36127003908591426 0.64125009420618184
-0.57990860308872172 -0.30610741278259379 0.65765511078970817
-0.23060373278928559 -0.26541350749965886 0.68543557613900674
-0.53598313266440201 0.017457487063490262 0.71231647170631973
-0.45865798002333058 -0.67745957755765396 -0.26666538295066644
-0.83591301535135099 -0.94634471053009594 -0.42566773166597827
-0.50812799269664488 -0.74480604940893969 -0.31668852326662034
0.68629133621883653 -0.47066241278929333 0.61849194882064396
0.29001533485979358 0.65966046803449352 -0.0091600963219988785
-0.79531681918591701 -0.39817932486919716 -0.076958794583116941
0.11752374231444662 1.0566975403723902 -0.24650277677118027
-0.3246794721402555 -0.27279553665350775 0.76784108464882195
0.40380973691585709 1.0489475241783577 -0.42114304363033384
-0.18225403120370132 0.34330961857198972 0.75515255046745722
-0.38333324171508742 0.31510213895743355 0.68906410798522444
-0.0001119211489370997 0.71233226230214441 0.61601875287145802
-0.49459240662721271 0.1538512862042829 0.66172860475972328
0.27652022372039298 1.1277344246073913 -0.42022369069983156
0.38272309660409753 0.75569554998357269 -0.26889407589929704
-0.39458089758839776 0.37600909702600482 0.66602262910355137
0.22940466540693016 -0.11827475550704936 0.79713879297502999
-0.20371437798417524 -0.48833865346777472 0.53665692932493059
-0.010598812855887374 0.69944295162145842 0.66472056428017012
0.22410621324463698 -0.33606229471382143 -0.14792069392336771
-0.81944694850339861 -0.89549071083397269 -0.46097536875165623
0.34329151402849511 0.47358991750848212 0.39646768523126141
0.7268550980928854 -0.39538600077306807 0.68244787738530732
0.17107894356951903 -0.15540272968467406 0.8299475502024265
0.23635552586249808 -0.14487870558741012 0.80810100934039397
-0.44263029985372704 -0.32217351641409664 0.69410696906697567
0.45652422212528698 1.0828451943268416 -0.46078714911767449
-0.38557336346420357 -0.60097628793835867 0.22908730799332133
0.77386773371198103 -0.24750510748929688 0.67056363229140459
-0.24276446381113459 0.76180795715901972 0.5868262110680682
0.29911013320931978 0.32589782764293496 -0.4670022187611238
-0.60952066484477641 -0.68103341984823018 -0.30145879168266632
0.25945734384722208 0.93532204320798051 -0.25765495435989294
-0.77160646703210567 -0.65685315046962067 -0.23333427633722081
0.30252642249815231 0.74763517611860308 -0.31544541721195074
-0.87140994257448501 -0.88074500800725541 -0.45246183405333262
0.15273710468547996 0.38445225561762975 0.66116183233164705
-0.41736703930112284 0.12770905918015529 0.81812892825771399
0.20683665436086507 -0.021040750099100336 0.81757481055745274
0.57449105144650936 -0.034597776107695211 0.48931588286507477
0.10690310030884831 -0.37400246615172072 0.08401604408834018
-0.027817138828828192 0.19889284570730403 0.73287009223695776
0.22691957899737325 1.1428498802073968 -0.43722809260685835
-0.46770235805957405 -0.42508199426988735 0.64725835318548164
-0.12005688193787556 0.60965735207929583 0.63253774774743832
-0.4893486446368982 -0.14492208440916876 0.73453469158022955
0.17144230761779156 -0.09408511258134844 0.76161811703204307
-0.90596972739899684 0.092778111543772468 0.10516645892187881
0.8316383872131663 -0.45405664940884805 0.65283355370807428
0.28946098389627828 0.69781554685692981 -0.21438757193165969
-0.3489942630494145 0.24468728635417847 -0.75065944541002239
-0.26620230065908856 0.68246326636803545 0.73124230956134539
0.28803691229613548 0.086965178409123212 0.58203865262774457
-0.64124625076465946 -1.0072357556314673 -0.38322552215243455
-0.52326530100100577 -0.28196963926445573 0.66623389022556267
0.46633800417965077 -0.073414697939991669 0.69007463779383116
0.38162384143563166 0.076851861218985462 0.42990601310994947
-0.46893486953000441 -0.42599373558349285 0.59549094511708844
-0.40645760391349306 -0.05444322781167088 0.77509488192331233
-0.50184477440194364 -0.68515920776682293 -0.30129025149163269
0.27720867554773676 0.51521881274175385 0.56653582477638409
0.71049589459667395 -0.30002864962529241 0.70281269935460244
0.40787031320125955 1.2217719521595427 -0.52628440082536443
0.053745902619999342 0.58284134881045802 0.69084276057003535
0.38010316823678814 0.71016807143692695 -0.2939910399895318
-0.20663338464797576 0.93839398693016385 0.11086261978552869
0.30590149382915044 1.0943938899918795 -0.49685181358724506
-0.43954612964230932 -0.44803158605618876 -0.46121511494223455
-0.71425276333456544 -0.44681452638369201 0.53043924365547213
-0.50813504852247959 -0.31865624907977619 0.67269153669934667
0.56970633481367017 -0.69346604422334401 0.48468929834391616
0.37970079708706272 1.1842125345724845 -0.49006465896507834
-0.15300461403476717 -0.35653605639628605 0.61975494713378509
0.13561914450367141 -0.012822100166358652 0.78053195127919039
-0.49687630431410135 -0.32738912766252337 0.6541802386465605
-0.72667815353663023 -0.39278708407933927 0.34353192349586337
-0.77296558442523988 0.2922130977795323 0.30109506505008454
-0.70337091486404901 -0.068314554078131806 0.76073521809665934
-0.31170250883638495 -0.2510156363195728 0.80347470583817682
0.30578664365801522 0.2535416424099779 0.57425753229788867
-0.45530527290124212 -0.48638284017375355 0.58488509767787633
0.012997940504090977 -0.019129468270985939 0.71624821847766285
0.1263021097824204 -0.11753453231804478 0.80453668394792643
0.23646598474642921 0.0062297256646797194 0.77906206511979192
-0.53660701801589461 -0.69421161597670888 -0.35374195165863043
-0.40121992881375235 0.22010072495739941 0.58878718370646865
-0.17648428745975409 0.50576193740680964 0.76549583741777028
0.33806823545012676 0.74646186999724051 -0.2821131385538429
-0.5760253877617405 -0.31026607967850062 0.68153458811373113
0.75265699295756683 -0.47025361845070712 0.72847631395815426
0.65339300213812912 -0.27760464245796168 0.64899531622068807
-0.29874125608560576 0.45907366918967618 0.81376373150471792
-0.50841410514187224 -0.77677353474601851 -0.3373344851655169
-0.35875377165148592 -0.063706104114134021 0.78060978836493433
-0.42689383404304593 0.57016625236167329 0.7211325939451747
-0.12074836065719552 0.95935649287667601 -0.22714987277335297
-0.59339496511021217 -0.66619330389017506 -0.34603770909908604
0.094757111056541277 0.47534358832092138 0.75976474156614415
0.17770784829467878 0.11621105800685427 0.70503492505154952
0.2350623853554783 0.44980902592651972 0.6551712772978
-0.31506769273933166 0.016445888789135665 0.73982673617319605
-0.61973890335620574 -0.403871034980396 -0.51427568806411017
-0.060610778814684352 0.66180908033807029 0.74050440230826453
-0.3608256108896164 -0.20609138123921245 0.81477623530879484
-0.27625578795208305 0.8313707778280417 -0.4661658740097181
-0.75576012819091964 -0.39507789959660311 0.44935090002694977
-0.10645652041760911 -0.097143375907188911 0.74466819603524215
0.29860292356390161 0.62935590299813704 0.088755301065496894
0.68363951695111602 -0.64636522649380801 0.59272587187629
0.39010576725351775 0.69950292790444202 -0.2381941171181623
-0.1539272309664792 0.40319627776638711 0.77555342656692261
0.47114651643224725 -0.23513405493845418 0.28557249984779887
-0.35733729088209998 -0.31126608627426222 -0.57084073331409257
-0.75451393738378947 -0.27849818978155039 0.58230904942285022
0.48671054430567473 0.96660457152259305 -0.34944188103356311
-0.34740881336182916 -0.29132336041275231 0.73109975757854428
-0.7569679501004245 -0.48320965470479216 0.5496733196718786
0.21044767636405659 -0.0079476252219894405 0.80796861578586032
0.23326922152504181 0.56863189450450413 -0.46838933480353973
-0.38894822251770123 -0.79212931442811918 -0.2875350253151332
-0.7880641926529286 -0.33248798448654959 0.24578165160279397
-0.41062411074406135 -0.1507723275273154 0.75274113297620815
0.0045482085874812839 0.86499331354360542 0.35164531139818678
0.44203247788519384 0.75224577745679433 -0.27649778765495014
-0.60226995333733413 -0.47098504651269479 0.59273548294397926
-0.7172823482536792 -0.42013918349560697 0.39350718741315305
-0.54881073328996166 0.20686734261905571 0.66033255675448999
0.33493268254233932 0.81808460853075182 -0.33268372491961529
-0.45169925586565007 0.51349885944587115 0.67241659837897672
-0.51507692086947721 -0.0132076026447141 0.74328048178943362
0.61669466620270974 -0.36535544687328425 0.74484111420714783
0.039499756813096809 -0.033874327600427634 0.74398913656059662
0.42447159917324484 0.58188274212133884 -0.14003411290232037
-0.48209525960749389 -0.053956779478374628 0.79293517719307971
0.23206551727072089 0.042068848128272052 0.73888309715779954
0.14711130652363913 0.35458418062490438 0.71485843608348887
0.26938545596611618 0.55966641454456756 0.62339602308615483
0.1661791494059166 1.1324263098291052 -0.34929973749357046
0.3605048986474646 1.2085730830808235 -0.44958437219545644
-0.81115683918506853 -0.43026868747872449 0.016442852747953651
-0.78481195741419096 -0.9670248835886035 -0.49237597252376197
-0.56907921743907863 -0.14031350485072558 0.75303834233787015
0.78996773201953907 -0.54567380040631086 0.57620938708495117
0.58260948576520555 -0.17158616917623348 0.36122915532970268
-0.23473691886485604 0.54435021957707619 0.73762779923698929
0.69422496308309256 -0.25338530397010484 0.70874864859177578
-0.52854338510849885 -0.36322918654629177 0.70154991500336905
-0.058036994014997845 0.22328902133870798 0.69720865347931493
-0.4344808818010879 0.26877714926468599 0.5360919991908375
0.69560938595694743 -0.28235350691035777 0.60727903609757306
-0.25550918619629037 0.41981782142930513 0.71002167216749257
0.36464639311138214 -0.25187743228996773 0.22841284066335277
0.19977014383009184 0.63761858993006193 0.60156804973675904
-0.74857384360269741 -0.26052174898647174 0.60490258592626489
-0.67723588745506369 0.20284339432534182 0.7368764623795272
-0.09389143075142492 0.27276556722857137 0.74997162882681678
0.054922102151685692 -0.27089807785481312 0.51757225133092533
0.4415176618731067 0.79650140479922094 -0.32428490492937456
0.1046763377606208 -0.11920825898341825 0.82500623347530677
0.19057582398929895 0.75445359798890976 0.36834636829735601
-0.84279940811962817 -0.66723875155493495 -0.31460671966269338
0.046790287967848343 0.22448920175940401 0.76355601579730958
0.31581168878556198 0.19000964547544719 0.60420500901838992
0.022954600448748863 0.92082077236029747 -0.23043762068715168
-0.22994452723230552 0.30556125808242918 0.76279189818155757
0.24748936062046489 0.74129121633031225 0.37124090620583061
0.59184242926143682 -0.46873460630827957 0.71812581519232666
-0.61018721510107721 -1.0269355374969145 -0.42703532217471007
-0.68524884934026176 -0.55635621513543221 -0.13674708171068772
-0.41559994664717337 0.52776386810728049 0.82316626216805844
0.18514271431010876 -0.22269066993793452 0.73548628060851229
0.018553272611043781 0.57336659221550157 0.75716592693220974
-0.58825198073696328 0.04895060667946538 0.80312257711915791
0.31609483216191059 0.015660809611778959 0.73440783868785076
0.53778861301135805 0.88150629229347466 -0.32241802480561788
-0.42316330697581428 -0.60765331663007416 -0.13385711218765906
-0.34185544824680214 0.45989521325781446 0.78808979352207231
0.41782802566797983 -0.59439522555399638 0.61733961147301386
0.37414890599576367 0.052315246907749469 0.56578962324294579
-0.71047544681236019 -0.45274274840142326 0.32432610196409684
0.48242785374871744 -0.0020345854403558405 0.39404843301682391
-0.8396610157868647 0.1533132713522587 0.25800883674627784
-0.44397855730360725 0.026578589047911549 0.64938456442758508
0.090708147884802415 0.085016020432274075 0.7617070192402835
-0.47583259565950264 -0.18739160270055244 0.78926158353701581
0.42457897389630261 -0.6018461591687716 0.46885298980286549
-0.20453989812023821 -0.23744076584778995 0.80977728605851951
-0.33982525902595562 0.005592805004953405 0.76477895106547322
-0.30754834167803402 -0.40436821660495692 0.6140692476904519
-0.20576454997507732 -0.086371501909633608 0.75351511491938794
-0.026681754907182054 0.65299025174879333 0.66158810426152925
-0.90954398329547104 -0.93519751129928608 -0.45252079922248356
-0.43376560328678337 0.18247692014878503 0.74564251119732816
-0.43958703629074414 -0.69724176130231186 -0.27493399633853599
-0.070851521248163962 0.63215046868249303 0.6959577795829901
0.14816827409301148 -0.073725556550064297 0.78037014572627328
0.2631466912205056 -0.11141979933241331 0.75120762648408501
-0.7073374285637577 -0.44521232718112724 0.45129785315520721
-0.3585445314009359 0.23056099843446987 0.71604486180130777
0.072484984102839434 0.084952852699675674 -0.65147288211726107
-0.4448912676908563 -0.34736604297763218 0.65707461686808699
0.39542425921747437 0.67393909528608731 -0.26791798992740468
0.22897914214214588 -0.096059677062060089 0.80724495858938639
0.55464600776194928 -0.46151505588205577 0.71512594618236136
0.39266818319744878 0.70262997166019225 -0.26605544271563275
-0.69205828922591461 -1.0565290455894463 -0.42822616263713265
0.29083751255861223 -0.077950115543721665 0.77253370104345009
-0.080111414555668503 0.70219678971888122 0.69237580355028783
0.82404519218966676 -0.50951504088444466 0.52880132925394108
0.3453610238385032 0.1699598518028882 0.42368693759231491
-0.24428953580737556 0.4362799977323526 0.6268010991429982
-0.11585835751363582 0.50677883316376438 0.76520597260938317
0.55423343047469942 1.0023285374545399 -0.35140041370566877
-0.93168483922481826 -0.8128921981120758 -0.4151427804773391
-0.24929607929569642 -0.10510164578995607 0.77024415109606892
-0.57589421069058844 -0.065249356873692932 0.74242687427330623
0.25995072445805079 0.15459124088901355 0.46185117120672459
0.21770866543355183 0.97375786717329049 -0.32045325193210061
0.62923918998112249 -0.49513749331034962 0.67035420671154
0.29370043853739247 -0.33303082797295769 0.71797732341889642
-0.25568744233731522 -0.030796647938378996 0.77749132811938892
0.51845433692677823 0.72883430380885628 -0.36928679097982098
0.49579098072992878 -0.68284752860614972 0.58198616005776316
-0.53711440816021394 -0.6285408398386636 -0.28925621517649347
0.46164313410422686 0.029196544657381196 0.44923131562877572
-0.43649940979298663 -0.10746050049831268 0.79833206886188179
0.35294918206875359 0.34918448210227737 0.23314640593489599
0.6379638811815429 -0.30328427999185781 0.7132991001481841
-0.40453544140425279 -0.5767588894377873 0.10116056162057063
-0.26111684772967969 -0.084190364313524668 0.78004240337189046
-0.70766054160714376 -0.29456875423265938 0.66443206420040113
-0.080422443731617221 0.53796809586814831 0.69601453176261074
0.14518608294791768 -0.25532226078965436 0.76693678400280874
-0.69358013897300097 -0.53520356966714111 -0.36162333539707703
0.092886870047998116 -0.19846234052485556 0.72995646022270932
-0.70899748688050046 -0.66746775022443394 -0.30231479412925211
0.14792674297525643 -0.083226224769312296 0.722471937180579
-0.0072344918195739183 0.63150837822007055 0.66708803826349339
0.35958499650839926 0.058634949033343986 0.53086640309008715
-0.16447255574371766 -0.24802071879266929 0.7611580099388533
0.13237733553681252 -0.096697012450202458 0.84202640435301745
0.12034190078424345 0.82856718526015705 0.56804062410996536
-0.52509722050986696 -0.3959574635942813 0.61820699924328082
0.21954416256942011 0.5353097861807381 0.62808270352361006
0.30216308879072606 1.2754760106228016 -0.38489210142017782
0.15936541206890276 0.27365535435692756 0.63859403025154293
-0.35642874304295979 -0.67336841620016052 -0.1555713977367823
-0.59012281792003485 0.25569540858082007 -0.67135914467609581
0.16439464358751721 0.014156941783454613 -0.5683427556454923
-0.51993063349267565 0.015446505299838265 0.77399972638800207
-0.47070698660289523 -0.2881365661053179 0.73073418665965661
0.83510872651362611 -0.19870883545834683 0.61299022001207604
0.56861565990575258 0.96302045596771002 -0.44730830037951819
0.76286242334105836 -0.24588510874468295 0.70640640360537077
0.21001932031119885 -0.43243482431557734 0.63200431047570049
-0.64613245482451021 0.11246046887624495 0.79260082188880432
-0.089386666142530657 0.30844177942950068 0.76193715977424148
-0.80010625934582791 -0.19597138812116732 0.19351303942677944
-0.17440514079691205 0.13777249974974914 0.77401585471394085
0.40233895341859238 -0.32018010924831408 0.34010521879488564
0.68932242621594142 -0.28862737002519623 0.73231438820763017
-0.40180074040278946 -0.22802845023154017 0.76003256052808865
-0.64071465524908966 -0.75203441303732887 -0.31157235769697422
-0.019318644709473531 0.29852239303752093 0.79411342121682083
0.59897614285817014 -0.58723118380343564 0.62347967618858746
-0.087140267039126584 -0.38026922751694325 0.64737989173429966
0.59240847887146053 -0.72406069572992671 0.54104815586968158
0.34234606869113193 1.2442154456004459 -0.45191774281481401
-0.75238947918393073 -0.78929294831513097 -0.38479312262067111
0.097662160983652768 0.80662000310377202 -0.44593205637986699
0.087022746658544037 -0.23658628009135541 0.64534264586009371
-0.61953269331515237 -0.28299000295543397 0.72752785918234864
0.013361358429058612 0.28782274269348562 0.73642001228158804
0.40944574647385323 0.68161734710074207 -0.32325156414482237
-0.87219520228707648 -0.68042303840454288 -0.34851367578826853
0.43625761194226698 1.2059240543770429 -0.43874398266240178
-0.33465035674063337 0.092366006687065294 0.79198029566857286
0.061458571079320734 0.65376722652101726 0.68089123712836397
0.1129627914535174 0.50641558123960095 0.80036043138320423
-0.4303505042765341 -0.62559279215298602 -0.26235719920925149
0.40966736625071754 -0.16152611104105397 0.73367046197218855
0.72391884969838927 -0.47105400311200896 0.69511930448527437
-0.4161601740075902 -0.67670249233786173 -0.20613891547814234
0.19858152501532089 0.96287743303503071 -0.28084522419279168
-0.091011472733709908 0.52430561041841628 0.79619134137161751
-0.72043520377524572 -0.75691446090055514 -0.35561412428236494
-0.42497146483797543 -0.29449981111257006 0.74195156697042819
-0.69861891403943588 -0.69839547930475909 -0.3333860776721238
-0.74691707679858332 -0.99031484618772936 -0.44593228553577191
-0.31956167898949239 -0.049410483577226216 0.70956098576521498
0.28972348595295827 0.073408554193781228 0.60887622597400437
-0.35585657439940732 0.20037907087704454 0.73762150019746997
-0.63141065938157581 -0.007615207800863999 0.55103566551417771
0.33544294253866802 -0.27897883834302029 0.087555759321798377
0.78041353770230693 -0.42145395462860957 0.65794590482935433
0.48277939620246535 -0.55045621267785982 0.39458594172639749
-0.22269358035223163 0.47234056039377137 0.6675362383965151
-0.7244853374224558 -0.41602055274462835 -0.41847371425889435
-0.47602429713355221 -0.005271512530253375 0.78172219551549915
0.40171513096573186 -0.53136851245350414 0.4138790011494109
0.44618144994068487 0.81206654848449844 -0.29329732787676122
0.37105842596088046 1.0614320773350912 -0.41654571074285585
-0.43158237494404084 -0.11700354284823877 0.83067796095539137
0.030542007142390304 0.36371482244368991 -0.58771956216968846
-0.7026073784006801 -0.52017990194710428 0.27135448394688311
-0.42712898612916561 -0.76786003494591526 -0.32055467627282397
-0.2024083077372989 0.26555847888695894 0.77882508921714688
-0.65318034550313175 -1.0527380922100065 -0.40976430875393177
-0.016588723678701456 0.30350392474811905 0.76359957399758827
0.34427740401960882 1.1173724924597117 -0.40559316032135584
0.068277749154004752 0.90182237435687895 -0.19319503808809557
-0.25448219252825588 -0.13557830928190917 0.76668775684463242
-0.47898417405642313 -0.067348896317669826 0.7887397779247145
0.32202782169074418 1.1230687711643306 -0.38634631967667588
0.18506944477492659 0.43908836786285299 0.64288742657555176
-0.77242129529340975 -0.87163028177619406 -0.42388535377953573
-0.20987381269510585 -0.21348882346346798 0.75211003804139054
0.75129232322070294 -0.4738479971994991 0.44193221333622645
0.57940953764669878 -0.61601449706698475 0.61688529155033933
-0.70889536041054768 -0.7092339517668389 -0.36796794052860804
0.92036330069822725 -0.32971548868473999 0.46394100790032411
0.46403736432639064 1.2521597411933936 -0.46213915941937955
-0.43953829408363809 -0.52414356086387848 0.54262889633180578
-0.082506893227030531 0.2503328309190529 0.76334057371203201
0.25431998837411918 0.82202944155442026 -0.28145701828274383
0.1347986571405837 0.76428623562887488 0.57565785691870985
-0.43354410996705539 0.22206324413545886 0.58765939115420807
-0.48805812703111773 -0.87881636011049569 -0.37942478385255995
-0.39466322931907882 -0.64934429321009546 -0.18214558721064122
0.25547965676637752 -0.38316674676757234 0.68176599490674406
-0.83483288743413731 -0.66874947280909502 -0.29779975698176386
-0.73304609294048007 -0.093685395631966983 0.38568514383545249
-0.023617809644802534 0.48471573329707418 0.81227821152839041
0.31239044753025702 0.7046414876685958 -0.30792095351219118
0.39702335286126633 1.2528032832562275 -0.42152683329172191
0.20929128692664989 -0.40302543088767884 0.32949491153625488
0.68840754644666724 -0.66320390909478633 0.55393480001465178
-0.49367166255429318 -0.033479638727671457 0.76643125196115136
-0.38306715237024669 0.52019459394741752 0.76005940164236208
-0.50581184024758663 -0.56543664234245927 0.46971838324922288
-0.25545643193985157 0.44743240559918895 0.71402745512007115
0.2117593609362487 -0.17418745680086456 0.80186575137528848
-0.06769637707469478 -0.049326437394716649 0.76782598422832038
0.70125958148205747 -0.29725724586360425 0.72781351683761386
-0.39884078217387575 -0.091790827485663584 0.82608363876190438
0.19258228569943725 0.74268996766644335 0.44688525764336262
-0.66541798783984163 -0.61174585440750029 -0.22149367815969967
0.10251924855826111 -0.125004684162624 0.77202226872450908
-0.42392366934054238 -0.63193642414068663 -0.22505316618488891
0.31102294265718911 1.173808103040038 -0.48670233499804993
0.74790979153948811 -0.29107097504721136 0.70847977784607963
0.30297259926324571 0.53186481392535612 -0.39238216861035369
0.81978117201688683 -0.39890691456137528 0.46277775577393143
0.11321855885998566 0.64761263689644899 0.62042054239088174
-0.23774739454229632 -0.64475039284668512 -0.21832415242370118
-0.74298984732674178 -0.7876650077904479 -0.39857691931873518
0.040074058632493248 0.33082220012866514 0.77209986603052272
0.40497893487738779 0.018638271527548156 0.61117938248953863
0.72938550492688492 -0.12286909939806367 0.50761325272126712
-0.72659675973688564 -0.46232436003468536 0.44451622998806783
0.13580932948028135 -0.11314329969520909 0.83197382731054148
-0.59129788201005962 -0.92667318745435079 -0.42435546146551495
-0.56643334458779648 -0.59812516042454611 -0.35839224241729539
0.46027172261846161 -0.036176728822992388 0.67291276532335331
0.7848037008054245 -0.43881143876021511 0.6606890025194545
-0.26489959779362415 -0.39306547610137699 0.68491654114261991
0.20302706334872589 1.1926633560760092 -0.44369075979539829
0.24780386992350678 0.88784682166786411 -0.32299250304110672
0.84930583936788828 -0.25955699780707064 0.57902484705855883
-0.11322085170784391 -0.27945931676306035 0.69890874949957293
0.21479165836616687 0.87724727872712016 -0.31333539849457637
-0.0056270963714819544 0.35230433017857798 0.83309266462690701
-0.30875697894107645 -0.59467949133806819 0.21451483451997433
-0.75097713218374551 0.12079357289392867 0.69702548609868487
-0.35348546826055305 0.2954894290428598 0.73352848516357483
-0.81028041810518125 -1.0477819233348171 -0.52772161995990174
-0.18365430889619461 -0.42314993769326925 0.42288945340468231
0.2273052427692388 -0.45965242070108303 0.52865505228820453
-0.25908144367061325 0.42990182278479949 0.79251523457224238
0.47591764560654326 0.027468567730151605 0.56869033289105531
0.22443070935673326 -0.0033785949249285352 0.79140438415098302
-0.16275346890774678 -0.52276553081264687 -0.3120962176308808
0.29478250773007808 1.0467958108790025 -0.41448362654922377
0.27615904759889176 -0.30166969728269599 -0.048085970800443079
-0.16536793640716141 0.27841442220871748 0.78507328923497965
0.036176033870225055 0.51437774902957933 -0.63972655485747865
-0.75030754459587268 -0.98996191524817245 -0.45543246012722527
-0.78475335927457657 -0.11534356548977698 -0.51226782855996333
-0.60804671632011598 -0.41760761885719777 0.65365706348434216
-0.42881344886462891 -0.050128372866888427 0.83717119545794105
-0.17685932372056179 -0.34692372871347921 -0.54256779669059796
-0.515438113578643 0.023505758314509961 0.66863904549986231
-0.47888329625580006 -0.11765063143370114 0.79087827725696513
0.30372661824017477 -0.36506882476875901 0.25322507027852481
-0.82951985998224309 -0.61659892208658285 -0.29746903315635365
-0.11969856059154083 0.19021366126514927 -0.74241994604502892
-0.26651786661274812 -0.3049810583197381 -0.59204117440107851
-0.17460639983863757 0.12365210996104281 -0.73106592314541174
-0.49391713334646781 -0.39364941167987233 0.63699573557399347
-0.48548185376262509 -0.4859891686086133 0.55732173372608429
-0.80413019574497469 -0.94502323697511947 -0.50322213504901292
-0.79962890667846587 -0.91655965807553308 -0.44690677670917722
0.24656538712106268 -0.16181462259772328 0.7732045102699594
0.47067864206989363 0.62585550198283713 -0.21002230494771723
-0.03756478405204966 0.79476373616650164 0.6603451375252618
-0.905216735904812 -0.2564603780135446 -0.30940691605205828
-0.42690898531663457 -0.71676379615697705 -0.30406603948766886
0.27420897142272871 0.83991622506349728 -0.32070014454092188
-0.080419423264556755 0.80414412043488603 0.63469654127928621
0.72432809326842396 -0.43062024387967046 0.71192478736671205
-0.82260734801490543 -0.77755196976146923 -0.43717282677364189
-0.59227048080990485 0.0023861477181519319 0.76042272043900283
-0.48297711843345859 -0.35887267817768542 0.62146438235038914
-0.42675343568471469 0.40839296952421122 0.71570319674878746
-0.56313367023198424 -0.21623979451251074 0.72318225739256903
0.28985790940474487 0.39279570929789642 -0.4095324371106166
-0.11797848544967238 0.37709099807445234 0.76874774203261964
-0.60368207060606416 -0.36508593437856351 0.66696590256531962
0.18287410420901118 -0.39443531173159752 0.64366837837966528
-0.076449279879799548 0.52911717663470625 0.73240246673316278
0.61768547554561515 -0.39383578013779807 0.67236430811150072
-0.3445891823517524 0.43128847579805196 -0.76138733228362199
0.4593387797165196 0.55627678941263881 -0.17870907858529961
-0.024451133351222509 0.61641432743289393 0.66045760034643308
0.21672815305364246 -0.054851723243320549 0.81282837680537767
0.76053465459377811 -0.33237570695815499 0.71180447048679696
0.71011274618467191 -0.46861410366583822 0.66479413886144201
0.16021823531338519 0.72918016067355218 0.50694648342443216
-0.41648010827221604 -0.39957745736565986 0.63109454722347991
-0.44450465164472597 -0.68037714081933132 -0.3082988494904555
0.090619637511508699 -0.18303106005867686 0.75388457995457259
0.33843957436723748 0.70844484848491263 -0.29127807785460291
0.47189289534547285 1.1084970830786069 -0.45552170150221372
-1.0097571121835838 -0.93097886156241749 -0.48531974093703489
-0.58118401593124069 -0.11340406968995609 0.73301819466861673
0.1447728776699293 0.70842993695953815 0.62298020794245801
-0.88739335016099119 -0.87565243163815421 -0.39825175611824903
0.32488668318797309 -0.55251726435430193 0.45726246300834461
-0.1835817521526053 -0.37723274675249208 -0.54254189466890423
0.28657593928815928 0.39699473409691599 0.5314825261859184
-0.50904363152944043 -0.4698365139790841 0.58488379978665606
0.040342613660211413 0.86480885222457182 0.61306871880348979
-0.74973802494285913 -0.35820953406716693 0.48311429620181201
-0.16943809950555355 0.26689189724676687 0.78617171165893041
-0.81352532762613272 -0.82876672799326201 -0.37483911075785237
-0.26035209045569019 -0.43886478459995182 0.66795039641726817
0.26895815603612583 -0.49525038048602532 0.62945804089181934
-0.80147375267357823 -0.35632636842532417 0.54797612661740303
-0.50257561207930479 -0.02698018184985429 0.79049535407719773
0.61869927705052419 -0.46671720397349148 0.7289106200878912
0.21064569779206543 0.46960187314035018 0.64074984473394281
-0.35952242852885696 -0.02392723527730567 0.87112960680167362
-0.84311418173848729 0.33258971854606578 -0.33003582403862453
-0.53726082849078338 -0.33369696366450619 0.66179705925235055
-0.75530115476419724 -0.5808172635277149 -0.24929614919056675
-0.54518539388614329 -0.81943411697857726 -0.34592850480570903
-0.36367350472478677 0.080467279134335712 0.8068654816742864
0.73873325178047722 -0.2830505000282395 0.64872647849870901
0.063362966374922891 0.4577393288082181 0.77174524521703702
0.22733851278361072 0.75311088354117928 -0.24256763082757615
0.15293179571077786 0.85881163995365739 -0.30744580861007975
0.35998685542159059 0.67457646439110519 -0.22282135139970194
0.48484318941415339 -0.010247654793099414 0.39868357634322038
-0.61223572002962712 -0.54698745309855923 0.1714815071053053
-0.42327036012390984 -0.028600555730967869 0.6985261146926014
-0.098722680174837762 0.39693449193311992 0.81847651694920742
0.19232377922829791 -0.24897222757282655 0.72295246713554917
-0.8652093355534074 -0.81911448289505007 -0.44079176713100665
0.14322398959120619 0.013432779644903192 0.78765696247854322
0.26484694451520951 -0.010914147009126296 0.80062335730171341
0.050486399721245689 0.87390792473401468 0.55578511494752902
0.20861571750844554 0.06382438376728139 0.75019252338889331
0.12999078459534452 0.84914786165702161 0.5133039326254476
-0.72368146036427916 -0.0142981921670291 0.71771126224390969
0.42681040486980315 0.033716382899896757 0.55917389969636488
0.072409371722500282 0.31164519726739215 0.707020644056918
-0.26769829102930487 -0.59082023061205113 0.14004761734886273
-0.74619041912216666 -0.4619665701640816 -0.22055906049298102
-0.38782779302585269 -0.61993473035042967 -0.10809941913760923
-0.73101622889610596 0.022481880812637911 0.638020376222876
-0.16419547715630678 0.27760621064382818 0.75728630452970336
0.73205894804822513 -0.57405555427319577 0.61725524909449803
0.47932466510748561 -0.55514182441543714 0.37606166426938614
-0.04167187573948361 -0.42712822737953005 0.37246154501397299
0.53857542759643451 -0.60083067689465786 0.44234508934517436
0.67247696064191231 -0.47420388477687769 0.56523183426951817
-0.16545341330249208 -0.55566704120151655 -0.16364627789674913
-0.62330805892754881 -0.13366683288694503 0.72738319974302712
0.83672963938612099 -0.41669141188450354 0.63635511541458456
0.70932339115959842 -0.62377902888557824 0.44839057782167302
0.2997868842613034 -0.35719734635808642 0.30590013724551923
-0.60558751260456845 -0.34387797931657271 0.69799665284277879
0.7693222092031391 -0.41455465928599367 0.68093078758040804
-0.24558697499559301 0.64720903147440367 0.57857966876281353
-0.89758502091732772 -0.24164761933012358 0.082640207628614348
0.36095740665858855 0.17797964546243605 -0.25112089995689502
-0.29103769142740354 0.30071804499947596 0.7585185420875753
-0.22405774474947293 -0.058793069219413852 0.78952700049979185
-0.26334333059970305 0.46049173648168917 0.79109847604360795
0.23581975838457936 0.76535166542828392 -0.096864319005486976
0.32254971717203418 1.0688925063635857 -0.47035852953325374
-0.24208221344690628 0.21273107926710288 0.76643063838018222
0.070355554172806478 -0.31012554480186694 0.43339863632171571
-0.46046447311644378 0.0018076084301803519 0.74176144926199328
-0.58329965934194306 -0.30560913614020713 0.68619984155867542
0.41937643378577505 0.76117994789622756 -0.36257417263498581
0.25931872070955109 0.94201902468109644 -0.38613342048352095
0.25409503087448293 0.88361166291797666 -0.2448439596943679
0.56663607130621685 -0.36753122663417148 0.7508994829927893
-0.10034987470085177 0.47252323338288882 0.7755234517551699
-0.4223499783805682 -0.57485711438163367 0.22248561545198697
0.43541891612577643 0.52636446342813592 -0.15116552649199022
0.7335870805951803 -0.59098901169943652 0.59480574181606016
-0.5870855019863459 -0.45099904069291608 0.60609787368633761
-0.41503553388486836 0.037456793515790565 0.77064128746494731
-0.17184199380868925 0.76716861140568149 0.35056031179211189
-1.0151926229638359 -0.69985002332876434 -0.41431327475494051
-0.4848667690890931 -0.35920993661659928 0.64570052886768892
0.21177769473378838 0.049846900495293056 0.75129185146964517
0.64246476313371126 -0.43351828970462236 0.69880665019126553
0.72080305176763204 -0.48820423875869867 0.43223629532044328
-0.57537963455976637 -0.65010445581332199 -0.26427764290064104
-0.22301722345619979 0.68737566070577216 0.72484826324712159
0.70268476198756424 -0.45210298991151809 0.353494443254462
0.22704659640538871 0.81266734262538343 0.45156188598261338
-0.18376282627079021 0.46693184081880723 0.71131323725802531
-0.96438531797574356 -0.17947138082285718 -0.15740066889905435
-0.57950529959777697 -0.86187277028357467 -0.35663717956454732
-0.27966920367231296 0.21484470458107019 0.78348023102018161
-0.60338228751673739 0.058152579900495383 0.52069127972937324
0.17963633307531346 -0.12167887320544946 0.8273054038944494
0.21122616652668746 0.87100919793813247 -0.26533255120545363
0.15669005028514071 0.56046958365449129 0.67123933678183434
-0.27270329030186602 0.59069385534231955 0.78985852069162021
0.5308959390093122 -0.28975224737543925 0.33720396846229761
-0.31490995898977836 0.19382667604980242 0.82942249868573015
0.70752847683900377 -0.39305064687478541 0.66459702398767817
0.45989305751854559 0.7745303916364783 -0.29429002324498299
-0.19123264064996803 -0.49893018164485525 -0.45897348284171002
-0.88435766795732107 -0.183494115711893 0.0021372881172005975
-0.32537617402701535 -0.32212002231809933 0.73470376206643451
-0.63723524327155801 -0.62510410959512264 -0.26908354162768333
-0.53814775788834801 0.16737607816255284 0.72000744262410876
0.70169251590421133 -0.66200486719938567 0.52137934983414524
-0.18485798756572258 -0.24433404278018678 0.69581645052689822
-0.93096236944024735 -0.88178760780767007 -0.44734410952605153
0.3205416608452083 0.67272805813208869 -0.21558024074506932
0.64808355924524719 -0.52215413348659023 0.68754629547287749
-0.87143640032633041 -0.8564691266134199 -0.40879276578908019
-0.51735950068577274 -0.069574725503416701 0.77849960682065245
-0.94144318413025996 -0.63966638924938302 -0.35892095011613812
-0.29808725926512913 -0.57161625591756149 -0.36176263371016404
0.50041996288581814 0.60897583267970035 -0.21727371975647713
-0.13727564089118616 0.43213351833041713 0.74127052591708775
-0.71768227391848782 -0.29183701479261437 0.5457943656325952
0.58823163003052947 -0.21513208889848645 0.7270088553679237
-0.5645638173960581 -0.7308406281771056 -0.34223537695434558
0.87503835660673346 -0.26393060128392598 0.46431712714887396
0.078591649449816003 -0.24178953805751924 -0.56439941778467784
0.29508214136507682 0.08849440246900997 0.48252919880034284
-0.062038274119304404 0.55190243040321896 0.79699750852510931
0.25107302081062244 -0.0079098604643945691 0.73742243939298291
0.44600344101412226 -0.47612060893556407 0.66960165490271351
-0.14911656335705459 -0.18598831549043737 0.76157388155535344
-0.56552479394738242 -0.8638933824906383 -0.36017179051410508
-0.51556948005696768 -0.03604301640899088 0.71044610708925404
-0.47642657807154265 -0.61697381394458439 -0.25006669239581925
0.57209373344310777 -0.017188544870979428 0.62857531967836522
0.55385403556535628 -0.65333286464989992 0.4099756114819364
0.47437931950547885 0.73536033146781143 -0.24451090716257085
-0.70584466065162488 0.090789989993798059 0.5983331332858981
0.30144446754934151 -0.018698186314635379 0.70376301373836725
0.66442275349647417 -0.37988757107976667 0.75695316544227609
0.41386473382141098 -0.62512848876880778 0.46999571513887517
0.34713139486622424 0.43143296395331809 0.31660684233098024
-0.23683295845881958 0.49876975899816678 0.77801435630900073
-0.71855432491623361 -0.76832547218996705 -0.35437982317763783
0.0025740277219661323 -0.25309579260327197 0.62302433991664685
0.23216032996734093 0.84903627664134795 -0.28726840114862284
0.22909522509579183 0.68170880122366384 -0.45732650819104848
-0.2264688233778962 0.9425610019177153 -0.27529192685028292
-0.042098768107411644 0.57081978019760449 0.73563109044016173
0.59738883168518164 -0.70200875376008298 0.48635517408225937
0.28858984263033705 -0.13126179356089196 0.74252031620078185
-0.41602625743547605 0.044634236271900107 0.77065967712082895
0.67275178560518789 -0.48020003693818492 0.6430552162950427
0.76142859580996536 -0.31911117227691488 0.72828487548684251
-0.65679924283659208 -0.90713132809748487 -0.33789019655300478
0.32017395432028373 0.98867910271276926 -0.32860949745460033
-0.511077048252222 -0.080865309259168683 0.73221411508223966
0.84920243593956002 -0.44214345752291795 0.60527587834053875
-0.42907040888750014 -0.89411106030908005 -0.29081114465595448
-0.18375502266033017 0.67011414850454898 0.44363537120131014
-0.16554325975197592 0.71416220465240698 0.62192080171551112
0.19972404832961033 0.37966936097952342 0.66127633852241274
-0.27189778021550204 0.010551330017626981 0.66483790339535531
0.018295758075264956 0.27450132667234506 0.75210324799290262
0.65255136201982644 -0.68253720905117365 0.4129282617069272
-0.35533693598035576 -0.61100750807833037 -0.33260710908377078
-0.52766638023037693 0.17685891767112238 0.80630371957114022
0.61136485295149967 -0.35569512702700568 0.70533682899717576
-0.69493128942674787 -0.60039875661106379 -0.175068508173851
-0.66833251929423199 -0.51746356855408671 -0.30299235034846816
0.16833833228991146 -0.019401686334456159 0.78070229966895255
-0.093056626313098079 0.41373622834476365 0.84941263776115861
0.077114475035303442 -0.12255258189968199 0.81938956179879341
0.15985404719121732 0.92623760459793658 -0.31485296942746288
0.3616536379229256 -0.26520663665255029 0.23056729870092596
-0.20731761371503232 0.55475761577315907 0.72917034255041102
0.57131656209643999 -0.21753493686425873 0.77014569516520481
-0.50693336374620124 0.013642990048376546 0.74741966573598617
-0.24590496024995545 0.81724320012785334 -0.50614937877811528
0.24245521606844456 -0.3728745164774363 0.68446300647109481
-0.64872070177369601 -0.57740382958846581 -0.13030271340068467
0.18183984400866926 -0.039274786943867213 0.82621529607099831
0.57537181521520786 -0.25703624104911427 0.3744583556654959
-0.78697683399817286 0.067025880492133538 0.70135457584873251
0.18561850657014922 -0.20142203270873349 0.73971446005942099
0.28058282072747076 0.028958026750968813 0.65785858571538824
-0.19966862618327319 -0.24677284080991768 0.65460412095479015
-0.11520851696267798 -0.51350402244796634 -0.0065252691221751036
-0.94815536233563158 0.027101162644681764 -0.11402127834019282
-0.10255392189828072 0.22191023638264085 0.77296430153490547
0.22052883546538915 -0.040852893596916573 0.80069346610822123
0.5097345250079961 -0.25619286485826542 0.76811494265547609
-0.7192491065469433 -0.63349189918000803 -0.21559455034860164
-0.11587741748681957 0.34548766892813809 0.7681296116713483
-0.24713971068104357 0.1554137386689991 0.73739482885957131
-0.53768702876770114 -0.02715349324236449 0.76254270701601712
0.18148337773392598 -0.18368716110663641 0.77704261810577435
0.35774145401003032 0.62879632467149449 -0.14947381980500296
0.77712232391980685 -0.19694559478802365 0.38071411764268248
-0.42451021813048051 -0.25433264379719311 0.76484926102321538
0.5610158170805235 -0.50518781558828874 0.40944297880415803
-0.49070876094413052 0.72038061585944213 0.23373046203439429
-0.89657847174207461 -0.2156927220286331 0.057864802795755566
-0.37276401413371296 -0.72895546509249343 -0.21526612472345974
-0.38914483444364834 0.23724004317911884 0.60491862074298552
0.015249136577201838 -0.29795079261559643 0.6135328912653577
0.303808111755977 0.50109185369186093 0.49403362780413573
0.31515888857519592 0.6503075289947251 -0.21211895626853661
-0.26815260657496154 -0.24327527367296931 0.75144653104785419
-0.24433575859456447 -0.25824101409601674 0.77787442068338919
