# XYZ point cloud file
-0.22503543010715532 -0.41776425709874088 -0.58167476346722902
0.63381131234767518 -0.52527165919082819 0.63581098066779329
-0.66841926181484457 -0.94041646043883942 -0.34857878453051905
-0.56324695114083623 0.22164668005236321 0.77068362122551692
-0.83567442025982297 -0.17681008568010159 -0.06887875130534038
-0.017866053124084402 0.41583140467916413 0.83173213853879147
-0.065237742723847525 -0.020251630545427779 0.77620054058763532
-0.52457107352356402 -0.68151699564477863 -0.29470918843605931
0.56424649945573879 -0.40875471417056086 0.37714358590974495
0.67378604051707125 -0.15705247164880726 0.39119034416466048
0.10194166394629045 0.18754505335983032 0.61573096979451614
0.013007468711697001 1.0201710185534671 -0.42264410555914433
0.10146210441697123 0.77643246052770387 0.57406300870311455
-0.050165849037772769 -0.25652411823081384 0.53288548487286547
0.30077895737304239 1.0236647913887065 -0.4157447149616138
0.17864095016406489 0.73552828887641031 0.55305836572687739
-0.10660380837734484 0.25196251939082903 0.73246602283213325
0.71810882969942957 -0.21755158865833862 0.61713721738636806
0.31599487609604049 -0.20451712388675342 -0.019050676731867
-0.22751044091928785 0.59982103243567564 0.80269975354455902
0.3003982569819903 -0.29211511965145542 0.74233811072114975
0.71173324312933195 -0.44826174416220105 0.40185433928832048
-0.29922167788964749 -0.1888536338471955 0.75918666487204045
-0.74811198609977358 -0.52622381529740037 -0.22318989091094865
0.36195868349479321 0.60152786803051828 -0.23672545574625903
0.75075655944623554 -0.42283410099092178 0.64067773802022021
-0.64840724646231873 -0.75609712055486122 -0.3546691747487003
0.21809759361353276 -0.26925633682808947 0.7185564704678441
0.47526709545625101 0.87129767827533988 -0.37350419209879826
0.13515242892374735 0.31203233206317504 0.75565571209069893
-0.47951339511137014 -0.2956764638010847 0.66102069478606473
0.30442234185800077 1.1473696254410837 -0.39941453183458275
0.46916742538809286 0.85027097935672658 -0.4189770647784592
-0.07629144786293196 0.48613547299458515 0.78256861744215145
-0.019097985954898533 0.24769792727274637 0.74346314690461313
-0.49136846519248301 -0.7460818796071591 -0.23361119029695376
0.22564352192204007 -0.22646542905343783 0.70643759650180982
-0.13084132335955445 0.46745049208172657 0.71117147942953252
-0.45764483755404006 -0.73381538836164406 -0.15231252620571145
0.046522098722656668 -0.18807445188374569 0.63482378330240796
-0.3607121227200456 -0.009539606747019258 0.82733874536457797
-0.48718153628000094 -0.061331943370005249 0.81980168776886997
-0.30557122295162698 0.33104548644031695 0.63561975254117709
-0.38245125540040581 -0.44493275073683791 0.57608882856987753
-0.88873070154365719 -0.71381193517077213 -0.43541811241396555
0.75646586272378302 -0.46885209196156219 0.56968673008577708
-0.30854529475247672 0.31532733149339709 0.68765196976366072
0.74671436883500242 -0.38344349269632505 0.64062107930736145
-0.85154787858339298 -0.64175904321353427 -0.45149578719279315
-0.17039163594622719 0.042928885553431995 0.73154525288362537
0.50309182660066343 -0.63327973936638304 0.50566972408244282
0.20520160985762681 1.0678063523896018 -0.37354136476298905
-0.14304397896524046 0.51008828559185093 0.710373263298128
-0.48237977622000683 -0.60667841239807019 -0.1902589838572919
0.22499126301866079 0.69121474494242907 -0.30791004656075094
-0.37525593236106536 0.037939885357871239 0.84371421811867375
0.046552888710748253 0.52204841318084516 0.66583374436228815
0.2461414759991607 0.49125616513211656 0.34510943816207451
0.1835845645398444 -0.053580874463304312 0.81377079586980416
0.07909449087584175 -0.33336632425114598 -0.46714953912383805
-0.63211188121517803 -0.93015068831395753 -0.34182386671132692
-0.4375601609207469 -0.80259912185590654 -0.11210212685550047
-0.3717929423057742 -0.20080317091382865 0.79189696501760354
-0.5720522260229961 0.040566591031862886 0.77531996832335026
0.81426546939718825 -0.41125814944284034 0.5163817563805525
0.62401586494491212 -0.35859033718953692 0.4024494771055287
-0.54483247965694726 -0.59699323024616624 -0.18797012346767938
0.17847164492547707 1.0928597250818624 -0.33257902588875254
0.67780109276889666 -0.4309772217515766 0.65429905553369982
-0.58501734768288127 -0.68007665758003299 -0.29851209729031636
-0.10691166234565319 0.47937573211439055 0.75733958640691301
0.16576240826394839 0.63419224808520491 0.60063139525306219
0.33030178277715727 1.2276363920949591 -0.40024614023840277
0.27627411916991296 -0.079663344655200655 0.71921722433633906
-0.73545181041192653 -0.93323815126855469 -0.41877021250783697
0.69222748858493732 -0.3788398889773667 0.39115841129209028
0.28400803960126098 1.0327785242241516 -0.45655345051944474
-0.19775943205507884 0.28415565738083193 0.70572955331403597
-0.028936978582222217 0.54638365176110748 0.6839941479443713
-0.72873563344514225 -0.28010291628999684 0.5813269171233153
0.043961730612958494 0.28128557824623424 0.76316211711078941
-0.87510194731269064 -0.6642876073752233 -0.39555071860599722
0.76485594266983048 -0.48831726162469036 0.63796893565392776
-0.39346480630968594 -0.027990812263692266 0.79566518611645343
0.011673964954564298 0.75322626157626249 0.61329246233273571
0.1042470994489002 0.52549992155453373 0.65573860181022936
-0.6352641750445629 -0.25645955735911274 0.65535278763776106
-0.37262715760050336 0.098995270183229511 0.81305541727141006
0.15907673003308842 -0.22272934994497404 0.70287447034647399
0.097139313210852229 -0.16156692185362709 0.792684045469084
0.26004602024713952 -0.22428186370967482 0.20645781996958457
0.36761406954371845 0.64879655883262966 -0.27477696009110941
0.079550798447436399 0.50078293184677858 0.72937975113943954
0.012171843868558962 0.39800620840108702 0.75509235125782892
0.71987620191321144 -0.56630615694980113 0.51500624572321496
-0.72792392578180554 -0.52581102039032612 -0.30986896680866871
0.044451249006931093 -0.10362365714084038 0.78190900791767948
-0.37317353848389567 -0.27820123834896959 0.72154846703904973
0.12550162183210256 0.9090228622671912 -0.29723720880015392
-0.5149639483841788 -0.71597775138594533 -0.3111616327419553
-0.36441584210564004 -0.32969577275663819 0.67137671441654589
-0.30922834686096201 0.37983576486395354 0.83432311902746958
-0.34580500949627302 0.39921356775873651 0.69792152675769192
-0.5661311115406289 -0.24323496582158732 0.68636203595728618
0.27686833917494225 -0.33943758121820705 0.23544911447585903
0.039894247454475007 -0.13936046592550905 0.75847423818088444
0.37002546773846934 0.65795325593148068 -0.28114470781032308
-0.71500380835971988 -0.5911027287639109 -0.24664101647978987
0.28209476387719556 0.0086735495743175961 0.58442152543723025
0.0066184419100929759 0.2813668602497833 0.76664634147487121
-0.47201910471796027 -0.85440749491647283 -0.21266348088622866
0.047261654821193932 -0.097853175950901761 0.73343561997005557
-0.2428708938070594 -0.50957924561385959 -0.46250282018976296
-0.84568243704150881 -0.56491142196403221 -0.36548697125592189
0.51868038551669438 -0.28127141624894642 0.35653723308988439
-0.062779017505262935 0.75658033231366406 0.40650113012518196
-0.53104413154584496 0.28746761700804097 0.67158947081061637
0.48433509253589291 -0.43200469482348136 0.70126452320958244
0.45281342389422896 -0.073944287071004672 0.4285845195151976
-0.38588753591042857 -0.70991182101192574 -0.10136406270116094
-0.075971909650669467 -0.30572953332504627 0.47316439614960393
-0.13593901239437223 -0.41825782847226517 0.32339040524142448
0.097931111543762217 -0.015866178660205205 0.72160844658389589
0.25569697606486752 0.25438783433224837 0.49269129178874271
0.66975030141837211 -0.36261253821436312 0.62470030334645221
-0.56962752980724196 -0.22036746658026929 0.66657066075151761
-0.25381695682058236 -0.21013404824151077 0.69172995885259891
-0.48675349359359976 0.085674613239797526 0.70908143079530284
-0.49337091808653399 -0.6885370802552917 -0.23332470459192112
-0.8297549874089083 -0.90236692603798629 -0.42305079197976503
-0.54164153072174925 -0.75298831899996166 -0.28318229611115653
0.63521948848320875 -0.44932669965355293 0.60907367359534592
0.27609350753227657 0.60534889519953283 0.0036474580431817838
-0.73597573738082311 -0.33819418177839877 -0.088828834249280231
0.18526323627907049 1.0490212436534394 -0.22011748683814103
-0.33822092206977317 -0.20211846541734002 0.77392404328679598
0.38954270201467533 0.98070317026503739 -0.3969423700078587
-0.14913558493330115 0.35171591016109022 0.73987860045601672
-0.32101947976638012 0.35649059693312213 0.68212067925954389
0.044089315613301761 0.66732130656745903 0.60340215781255546
-0.43338734124341682 0.21387902548800192 0.65762784840823274
0.30942572797550527 1.0891404262477198 -0.39324831188842813
0.34438560923094741 0.69919272690747614 -0.25115596074280688
-0.32251713001235327 0.41895210381615722 0.65999902066532101
0.19681362493413523 -0.10496875065026956 0.77350742377331938
-0.25882548601222455 -0.42570336481974125 0.56335751055957162
0.032733288921339643 0.6541488851333791 0.64940772440924066
0.1339221492805347 -0.40440087273761977 -0.12393974324212564
-0.80207180796937294 -0.86466202103642631 -0.46370023894444179
0.32294545200527613 0.39762422851297474 0.38937388370051429
0.68559022041194506 -0.38630647793202655 0.66472670150444291
0.14018995151106317 -0.12926686456688735 0.80780867855051597
0.20321888918937381 -0.12712189350586556 0.7844175730973284
-0.45141455484351001 -0.24431402138362568 0.70601530951972724
0.4317565293358987 1.0000649872656826 -0.4371536376396945
-0.44080601199859082 -0.55724672151699095 0.26870829332115775
0.73133600973124446 -0.27538644694528491 0.6481781222396471
-0.14913682444346454 0.77112184526394933 0.58339327726234314
0.22496925174051619 0.28971424758302 -0.4575766352421804
-0.61365520176355393 -0.6761045571408274 -0.28474658072535464
0.27246906005638172 0.89775145859149386 -0.23412692735181206
-0.74520778683027133 -0.62043280768475484 -0.23669876362288167
0.27657116260228065 0.71743453000231294 -0.29636594227385382
-0.84076478483326422 -0.84102096862765874 -0.4659255824219517
0.14958534146901892 0.34126468376559616 0.64055534567618488
-0.37309286607102954 0.17872380797581067 0.80949657784540185
0.18024319102460806 -0.019391081846574593 0.79036413288180318
0.5164662364691659 -0.087428845864444771 0.47432913746964944
0.029626060822942168 -0.40110164770974921 0.11003631847513562
-0.026475003971214051 0.19767253970865287 0.71484360300431748
0.27528300785733162 1.1219091767860265 -0.4097845878396712
-0.48858541108262199 -0.33922784854768273 0.66680494560306336
-0.067693581349400844 0.59698975201292859 0.62173027678840542
-0.46855959508596623 -0.073699474552982647 0.73634501690466714
0.13976812657842785 -0.081941394029024534 0.7416835218643606
-0.76296799758950096 0.22641912108184203 0.085743864994612951
0.79070803148986246 -0.44888997791644958 0.63822696502036491
0.26748390837239766 0.66117227965788117 -0.19694349844766124
-0.30173575324825119 0.36136536526707819 -0.74090534537507646
-0.18260732814814817 0.68764835741535224 0.72112710752831299
0.25311752984837099 0.057085950072457897 0.56540015944916433
-0.69702887301255201 -0.97577883554947076 -0.33424380757087091
-0.51683382289747759 -0.20299552689932465 0.67518833252957766
0.42486234377568799 -0.096005912719105219 0.66567826276362574
0.33322437092551693 0.031384586317530716 0.41989269536059481
-0.49002307766161812 -0.34610607174991492 0.61560150391148727
-0.38514411270396653 0.0046659441678806868 0.77221290615350358
-0.52741911881837766 -0.69485295039547779 -0.27255908744246016
0.27060634849613185 0.43875493891242773 0.55031619913458152
0.6706700319774459 -0.30663447746363781 0.68039683881825552
0.41846324993561801 1.1437204145239221 -0.50088957913764642
0.076994379421710057 0.53435121666736263 0.67130208684594173
0.33522287132355277 0.65908166759859987 -0.27734784293576653
-0.080797997275352973 0.98745613075411953 0.12879761714535798
0.31982227443359923 1.0645702026439505 -0.47154029607407311
-0.434362845333776 -0.47165718546586333 -0.4494333103603505
-0.70621066258910403 -0.34772774276428264 0.54016139024752519
-0.50887850160758008 -0.23749430871411947 0.68399588897518848
0.49420983423263243 -0.63476503784735971 0.50373238389057162
0.39230230161635271 1.1153778126703013 -0.46411644712573263
-0.19402424034287558 -0.30287837536779427 0.63233004325514452
0.11084317127263743 -0.0074674110020266082 0.75818785107487041
-0.5002427660803761 -0.24829797242584661 0.66640813353996065
-0.70069446480719999 -0.31331302528966543 0.34661150259710793
-0.63158101874532546 0.41523686483218691 0.29564641484962062
-0.64092317560003265 0.025701111884265826 0.75490232541900482
-0.32311753931781961 -0.18043450828247465 0.80688103849401727
0.27951548718279495 0.20323294123420654 0.55628453747599671
-0.48698742090264524 -0.40187353213008226 0.61022938941604044
-0.0066941080737663583 -0.0049723904941124109 0.70254343331349711
0.097220397397238756 -0.095584151239650444 0.78446556219198593
0.20824777126343408 -0.00071356730317677364 0.75274528238279703
-0.55300902793633711 -0.70524486755818994 -0.32994483329659618
-0.34605846018259534 0.26786338676863886 0.58595705072951842
-0.12847950901806371 0.50206060231829175 0.7492723748574347
0.30690592091907121 0.70330556847801007 -0.26380158264912112
-0.56703943091610087 -0.22238412425767429 0.69070802077208415
0.72027519341168067 -0.44275782044730466 0.71103205876015996
0.60559976108119296 -0.28735576158283288 0.62979216307462282
-0.23641797834022205 0.47649525995060926 0.79966177345184519
-0.54600866070615561 -0.7855908048988528 -0.30117248995695922
-0.34453486537543832 -0.0084821067038258202 0.77711899942914364
-0.32561235561174828 0.6118742630711399 0.71485042646983354
-0.010664160003511114 1.0305237767737663 -0.20068813556029474
-0.59473406020955188 -0.66859020962484061 -0.33059237141169939
0.10407667196886106 0.4277710054052199 0.73428562371306061
0.1555693944691483 0.09889121829936498 0.68319959643910055
0.22878751101264694 0.38538464959959756 0.63329506544642067
-0.29756193803575215 0.060299931864487344 0.73424502740135555
-0.5712522303494898 -0.39267643007757969 -0.52089494415833637
-0.015164339459091458 0.62510802830904166 0.72213832147382373
-0.36215264471706177 -0.13571567425604691 0.81653136549377359
-0.15297058800922247 0.98615346150146554 -0.43883755105968647
-0.72978619858613669 -0.30235648495094858 0.45130220554268208
-0.1223344651781928 -0.06341124156854 0.73654657162063908
0.28511046945920215 0.56711821935255624 0.097944700934785356
0.62991263011408383 -0.59024180130575288 0.59648218821495813
0.34662903403414758 0.6405276860016752 -0.22219905118522809
-0.11935671767844225 0.40254392274365586 0.75799789193744238
0.39142635702121753 -0.27427569851507866 0.28772149125032698
-0.35064655145865053 -0.33384088176804 -0.56252825820537389
-0.71349976692943295 -0.18007880047735281 0.58031930431527079
0.44586571892026949 0.87296701369488139 -0.3276364113166641
-0.3617239384897486 -0.2204885784929439 0.73974164882095461
-0.74998844131945641 -0.37331808146860523 0.55871609556925561
0.18386732069678713 -0.0090236640491661579 0.78093188297378113
0.1916572923107176 0.56935574496501073 -0.45215809841474774
-0.45518694786968039 -0.80591016971283902 -0.23564073391943152
-0.7373838517601341 -0.25198510597971313 0.23921993660873775
-0.40056852599975734 -0.085717159817865207 0.75421920541701748
0.070989121119036547 0.8297746473280263 0.35527962808503377
0.39050399743491093 0.68167712970833261 -0.25987788926162181
-0.61460447274572383 -0.3745395873250349 0.61192741230712611
-0.69945216723290926 -0.33639993564867132 0.39948829991319157
-0.47129562877013997 0.27436332031027583 0.65553580416580126
0.30936933761460317 0.77852416018307125 -0.3124375894166147
-0.35163411751210205 0.56419180737590136 0.66769136114525129
-0.47335306730396209 0.054431081809866444 0.7403564723930175
0.57925986099069471 -0.34414276615225603 0.72352605675658177
0.017673638870522534 -0.019138494752875962 0.72817590858048709
0.3713168673548366 0.5107593154578447 -0.12847564715988136
-0.45052867350050008 0.013975607737928497 0.79025311932491515
0.20401342788754251 0.029027058933997971 0.71459033096253444
0.14283095344072638 0.31415140411117953 0.69097230113936214
0.26724290666655559 0.47563957847426602 0.60384397946854285
0.23252792251472298 1.1174977775703654 -0.32141080922713783
0.38595355978202894 1.1342469394098047 -0.42239831081277202
-0.75931676292674499 -0.36372791605792454 0.0057635424452688877
-0.78602020433149811 -0.93810736041698561 -0.48179893182187072
-0.5368205851666954 -0.059670945158327604 0.75356354332662645
0.73719741352153045 -0.52587466056006071 0.57117677690964264
0.50811126938951379 -0.21954435615275997 0.35497550244785381
-0.1725423566515758 0.55030212782657351 0.72497013770572583
0.65451439807011402 -0.26694089808223193 0.68464658716083293
-0.53328793219781323 -0.27289338752904235 0.71511584477625456
-0.051613699635310706 0.2239446968100931 0.68184432013772844
-0.36663599389619428 0.32313065219289 0.53482891683203626
0.64365010673047651 -0.30000397285232805 0.59007852672068273
-0.20278307882201618 0.4370791364354078 0.69897698628723615
0.28514441250634137 -0.28741866974042085 0.23668593804886395
0.21074554428065184 0.55864002746936658 0.5850566132959315
-0.7061281688861083 -0.16198129015365881 0.60277001552515963
-0.57908939496969292 0.28802940791188347 0.7282944607522075
-0.078872734883488782 0.27386832268746408 0.73242308367724651
0.0050740627336103294 -0.25021805567744348 0.52339726091853489
0.39077860529646768 0.7288637009716642 -0.3064839014616767
0.077370889549237543 -0.093925889523311712 0.80460163385830252
0.21366627240329628 0.68166239753959901 0.36764199992434665
-0.79636490827300577 -0.62628555472311243 -0.33190387750155215
0.043112338020670826 0.21154972439392022 0.74074644277250901
0.28618731845267176 0.14569382365957945 0.58449071121956686
0.090152146855182025 0.94982932785477869 -0.20545564075275058
-0.19376207740130313 0.32293763976304357 0.74901415637596225
0.26128251964325244 0.65616017381962155 0.36985200960509756
0.55043215045410676 -0.42605869311261413 0.70443462779638499
-0.67243924903745356 -1.0028754307995185 -0.3722523039090726
-0.66693688908350302 -0.52415666433840735 -0.13128976484424348
-0.32451707526037143 0.56158265111568917 0.81270173799746659
0.14479390697011318 -0.1949184495888179 0.72187157019845416
0.044511470106244566 0.52870495438717857 0.73453305122917878
-0.52754289499337692 0.12477982462559062 0.79711725568237712
0.2834562713542077 -0.0026394548113677918 0.70855058869060339
0.4767662399074073 0.77994219500986706 -0.30369494864783753
-0.46049483831058824 -0.60863243357814445 -0.10024941644442231
-0.27149028152302002 0.48574667184640952 0.77642011739087446
0.3549087699839224 -0.52583518120720107 0.62558572054601858
0.33218706465633563 0.015907192322008767 0.54873795555843996
-0.69646902565632596 -0.375065740186868 0.33178691560588747
0.42193167950080124 -0.053985734064705415 0.38483480259994618
-0.70541048205643708 0.27617815935517931 0.24560394089925364
-0.40699729066293733 0.082016025330249764 0.64774519991162915
0.073975159264029422 0.082130585735637668 0.73978494234755088
-0.46216187466556002 -0.11057465149249818 0.79201318770418272
0.34400354876441597 -0.55655249994972888 0.48709835724148798
-0.22337818971346524 -0.17552548547457092 0.80883815666695313
-0.3202574594499219 0.053537565748774218 0.75917666048110466
-0.34187625939432387 -0.33640375573792786 0.63300003723761256
-0.21136036593423624 -0.044823302122328906 0.74792309450478767
0.014696973995695473 0.6157587621961722 0.64659268381339541
-0.88119704399683751 -0.88322771455268523 -0.46755195455152831
-0.37990557380915879 0.23321996464325701 0.7385917395671564
-0.48053786020342448 -0.71081813077442169 -0.23821159057017649
-0.025519676940237268 0.60335721649346152 0.68026098380419775
0.11941463615517289 -0.061301602059019411 0.7594265867368899
0.22734315250125192 -0.10509346718736517 0.72924453743231954
-0.69748719878470711 -0.35553843257887019 0.4603896204055814
-0.31058408619101607 0.26999745478685189 0.70824408928230742
0.019452419610419991 0.063292242992060377 -0.64236639146796248
-0.45714686842251151 -0.27063608732712391 0.67118696423688151
0.34583861494429557 0.61754502109270115 -0.25258337991237312
0.19792847653655388 -0.085529109662021346 0.7821863043068541
0.51118420128162567 -0.41756347948683226 0.70226182187774089
0.34673533000964962 0.64575165208561069 -0.24991233212280384
-0.74393821261948667 -1.0158282550098396 -0.38180053515335199
0.25711937221590464 -0.077812366189614124 0.74715480139314083
-0.026254263272622591 0.66965156252633651 0.67773104263357431
0.76469635255027235 -0.50818454571359806 0.5234133176557465
0.30484387091352882 0.12098162263173315 0.41389526146562838
-0.19020878325419543 0.45514562181019291 0.61917116060772448
-0.07703196789127098 0.49242287613264935 0.74674412795089051
0.50309650854925714 0.88388433103584962 -0.32940731848650562
-0.8800847118428039 -0.7622922131486658 -0.44398144379107762
-0.25206844169203757 -0.057139017864703767 0.76602629068809303
-0.53214807783124041 0.011757599696190835 0.74035683417646658
0.22655016615047918 0.11870253254052651 0.45185487325363582
0.24307358120297895 0.9544834249967602 -0.29536773931854143
0.58312519527637274 -0.45624024383299433 0.66044173177851473
0.24618949619696195 -0.29579553532398084 0.70677221158493653
-0.25007033500729126 0.011834369202660566 0.77043322629946775
0.43961229545895675 0.65062553861377559 -0.3554999804236485
0.43052572505337849 -0.60445088870371366 0.59684368074649052
-0.54773572288591543 -0.63301751060310885 -0.26843621492834591
0.40748103999531127 -0.020250050630406802 0.43728847901799384
-0.41761915902097391 -0.04033896380803581 0.79716310487696185
0.31511939012748069 0.28632545023904205 0.23224090365851069
0.59725885608548168 -0.30017454017559536 0.69119861008592931
-0.44976656027306694 -0.55105405209653113 0.13693470177008349
-0.26034319853419019 -0.036466833390262687 0.774961305598179
-0.67811565392657225 -0.19462393614461981 0.66694669399857487
-0.04268931803061049 0.51867555819996125 0.68016946714392068
0.10603146243376882 -0.21688920700920172 0.75453949191298153
-0.65473293323816506 -0.51853109553479038 -0.36634049937288449
0.056478239107177419 -0.16848203979758866 0.71927199920366358
-0.69101058628391621 -0.64773913316529586 -0.29924605186552888
0.11597248460185083 -0.073072945365863201 0.70552470012429369
0.029107528528434123 0.59185696263713128 0.65104262559790216
0.31678283268385021 0.021737404410116179 0.51607043477393999
-0.18900224179717018 -0.19199603928603792 0.76146767445682839
0.10606496376774244 -0.075838522629951916 0.81850361155731866
0.15912563031380511 0.74581301284474466 0.5568381737063226
-0.53512847112523554 -0.31170202666779889 0.63464585968445453
0.22054146431711885 0.46402748507385516 0.60871244722542239
0.36136557267510927 1.1969294926438279 -0.35595727383749642
0.14744406331649618 0.24145414037189966 0.61965984957238385
-0.41450466796578489 -0.6809112096018628 -0.11146402617780726
-0.48256321455299744 0.42220990066335873 -0.66800857838373973
0.094154036044467482 -0.040642406731992597 -0.55945830111856343
-0.47393804361622394 0.083390225810957674 0.76971898991738341
-0.47140345825312502 -0.20761808621132949 0.73985779521752926
0.78593287778477805 -0.24921694216373458 0.59258122261515178
0.49852757478570808 0.86103895800703456 -0.42855491371661703
0.72463287401077192 -0.26968563801761775 0.6819516463583698
0.15055750382647881 -0.38375424451768619 0.63597411671663029
-0.56717085462744854 0.19396598092338446 0.78473406163869186
-0.071842652200611923 0.30589537487158358 0.74325509204613793
-0.72362566494839564 -0.11034149219468903 0.18258494555711913
-0.16180693215194308 0.15900661423390661 0.76007719093118098
0.32429201500406357 -0.33805537605079017 0.34614805848208996
0.6524744198045842 -0.29240937540535972 0.70786002374703316
-0.40222730950836927 -0.15660971496952253 0.76499538877312445
-0.65002218687672197 -0.7412618447503061 -0.29280236432207518
-0.010723200384592069 0.2865636470430829 0.7710945236369231
0.54519474507878085 -0.53200328408012909 0.62366072406309292
-0.13359230909439734 -0.32379146432467343 0.65848480484270477
0.52621040038300726 -0.65004486029537234 0.5582118378180243
0.3802956396098045 1.1701505428810395 -0.42418986820287896
-0.73826003977495924 -0.76810663761098952 -0.38238653252165555
0.119024619003401 0.84812548167243873 -0.42202869856124048
0.043969211871781599 -0.2089677035148669 0.64163245053122198
-0.60102536036097254 -0.18857982012414276 0.73365727375856271
0.017457469223793431 0.27326676128799243 0.71573641097354235
0.35307113627981002 0.62719676124786505 -0.30798970848469454
-0.81855111666661751 -0.63720928872920246 -0.37157675164100756
0.44194267058288483 1.1041799426924364 -0.41192910172826613
-0.30612661955458398 0.13515874829169461 0.78312111986050414
0.089896547980286012 0.59659820093969818 0.66218469234820265
0.12218327487003311 0.44996443845771306 0.77167634159646525
-0.46200107689544412 -0.64095360460190587 -0.23131211644874949
0.36925744092029822 -0.16113022843977842 0.71006867599170398
0.68528771626953811 -0.4439679142466908 0.68022994547544302
-0.46211779056622926 -0.68482680457390832 -0.16732842355380262
0.22881465465605855 0.94421954250076245 -0.25604594261464664
-0.054785381649340437 0.5024419354367996 0.77512948243589297
-0.71021527277904095 -0.73902013434577651 -0.34969097647426595
-0.43150351342759485 -0.21616729732086321 0.75126544244167759
-0.68505455022351791 -0.68314819453036391 -0.32807572107797833
-0.76787953398365749 -0.95711746774319217 -0.42185517269185091
-0.30897886718122347 -0.0023585308672115501 0.70712288849867633
0.25508281801384491 0.045721220261215889 0.59077192878714024
-0.31198214501091215 0.24027069535471013 0.72933097143784464
-0.56764585001598222 0.069833068594514436 0.54849931111395034
0.24829687904913955 -0.3280384879221005 0.10224679985828944
0.73791039524472501 -0.41603179496910653 0.64214342108226041
0.39730442482835882 -0.53118983535176356 0.41040037576445565
-0.16889279227916765 0.48394357322998882 0.65750599223351613
-0.66114365380615059 -0.3846017348026598 -0.43223728191170174
-0.4391557988018957 0.05876230843641056 0.7777732040131492
0.31819451015727873 -0.50755425608168203 0.43038484455314396
0.39907537271142068 0.73822922550442027 -0.27504336231133752
0.36747921911639025 1.0009004549001639 -0.39162674407784426
-0.41421433652792761 -0.047622624701070149 0.82907938841413009
0.0075151461184237434 0.39940949782986301 -0.57239510362597978
-0.69922775639935519 -0.44557833996146279 0.28288908470062335
-0.47962239470505308 -0.78468582964986022 -0.27647811034509262
-0.17415202937547791 0.28132226075085409 0.76373790340253167
-0.71490658972044274 -1.0148052875255842 -0.35609041419633947
-0.0079607826454224373 0.29119464178631871 0.74222668805506542
0.3584681483509109 1.0554293175988299 -0.37922413063851257
0.12273366151750764 0.91304931720496685 -0.16950836879132458
-0.25993220674399753 -0.084615285333816459 0.76403872698928377
-0.44954297970808521 0.00088129137053816198 0.78658492053749185
0.34420972155320984 1.0641070151457355 -0.35955768766767693
0.18258686565654569 0.38508787782776555 0.62276028857277499
-0.76507902441428532 -0.84618060560750252 -0.41864898728849487
-0.22774824774513069 -0.15919281319315248 0.75244074461507771
0.67783146811143657 -0.48368558492763869 0.44054919643501633
0.52375167277373835 -0.55366122609371393 0.62035466293780928
-0.69187310134721214 -0.69575879068912261 -0.36492871845615538
0.85117792992141394 -0.38378591775476056 0.45207267749909141
0.4705630032362409 1.1359576782040492 -0.43517515988155619
-0.4788266712714746 -0.44160776855483685 0.57199060098156274
-0.070753833799522159 0.25157411256433021 0.7449071430825035
0.2507027030525304 0.79732895083285693 -0.26008417510320458
0.16521393034455922 0.68554382848296158 0.56305446943507342
-0.37269369611515923 0.27446059105290804 0.58501630285898254
-0.54601759782434778 -0.88606066288998542 -0.32954085980868242
-0.44102941841463039 -0.65797777021043791 -0.14380699701958011
0.20266530105831926 -0.33905789820994064 0.67742370569207733
-0.79181937323057339 -0.62770464858840958 -0.31294459267468855
-0.66021111844547664 -0.0076152533332585204 0.37997747510780699
-0.00015661426642132881 0.45413123108158138 0.78761027256303284
0.27989523247275683 0.67209724542673976 -0.29007575863688584
0.42399770364858336 1.1519559662552306 -0.39343879543195626
0.13157118930485145 -0.40062565199923034 0.34738735465427073
0.62902399829556321 -0.60995900380414136 0.56128253981057497
-0.45781975028224187 0.033460398246675571 0.76367105819390302
-0.29749902259383298 0.55249039469922301 0.75091007262674547
-0.54422026817894675 -0.48249398021910417 0.50110022521071562
-0.19980614873070612 0.46323950222376442 0.70281264813015309
0.17744812873285154 -0.15025182988359639 0.78070569525946432
-0.082118281154767381 -0.02238572155702967 0.75532174242131001
0.66428654633626794 -0.30105241795074822 0.70382688701658369
-0.38254723555253189 -0.028007489019722331 0.82307201435755162
0.21434687965920896 0.6638795413679992 0.44142996681649549
-0.65362146190600656 -0.59084860578359633 -0.21331270873646813
0.072368351524990437 -0.10242921431484117 0.75526389123636584
-0.45997181124932807 -0.64340864936962694 -0.19176759476419925
0.34028952133972856 1.1292691436477642 -0.4601649396806381
0.70987594877780724 -0.30352735019358346 0.68518667732941174
0.24876316316761926 0.50694685957327512 -0.37838838523593665
0.75031621685710448 -0.42722393512012413 0.45506682791568709
0.13532738473173955 0.58446079054924738 0.60429251617625201
-0.30662354558584859 -0.67439008987333415 -0.17210533541849715
-0.72913611749809593 -0.76965986620658544 -0.3956028981508013
0.044745389864932594 0.30759945941313155 0.74800266568488727
0.36281550216570757 -0.015048808978176648 0.59126414500111923
0.66802380977662335 -0.18070985504332371 0.4912641535808886
-0.71662187237633335 -0.36980338236425703 0.45296272052812081
0.10804025468655798 -0.090728941676882835 0.80956211097907271
-0.63415890392751528 -0.92176096493042992 -0.38331583038655648
-0.56187879714769551 -0.60479858498876482 -0.3454665772396488
0.41876244442871835 -0.064967878107256072 0.64898124071480678
0.74310710081885456 -0.42994977357593922 0.64545039429628193
-0.29965619592713866 -0.32058139809211983 0.70035683425741035
0.26837370100940294 1.1743939433702026 -0.41562509817680926
0.25237165131982664 0.86679169064367423 -0.29989914985378574
0.79592178343671671 -0.30360113016422841 0.56138805864332686
-0.14649567695753607 -0.22889278756690604 0.70204117537468069
0.22603136224816334 0.86482172296961368 -0.29008346726949452
0.0054973732771568251 0.332087346684664 0.80682644582783636
-0.37199002422886629 -0.55933058535901092 0.2561944642322469
-0.65109716953263352 0.21742209988499717 0.68640799276960873
-0.29905254859379848 0.3316962270056415 0.7244779869385386
-0.81943539534397991 -1.0072544071825174 -0.51226060792840111
-0.23472323540448192 -0.38429828538315508 0.4473551136102345
0.15785142052611922 -0.42166698333690111 0.54005258529382916
-0.20605578495309906 0.44347737500189544 0.77791706275863404
0.42917691067509534 -0.017473665600907462 0.54995237303709277
0.19678003947683509 -0.0072160343076311112 0.76488930602837502
-0.2219694350909589 -0.57499548895405639 -0.27668120449747491
0.30801555300578176 1.0116690495744907 -0.3889564143570452
0.18651804477364564 -0.36223828089669613 -0.028080553968419686
-0.14088579225557618 0.28820572709414782 0.76823617698174618
0.023387705142333459 0.57755535763172938 -0.6219596836757908
-0.76921506041609322 -0.95774527594642966 -0.43265928240080509
-0.67427753597227769 -0.015389894035245599 -0.53272200110239831
-0.61151383951969063 -0.31921306526496906 0.6687602988736141
-0.40377305805834895 0.013940705019821087 0.83283399102019284
-0.2078204476945964 -0.40446125630591223 -0.52534852576351532
-0.46810671214831312 0.088068146777643186 0.66632391068206076
-0.45585314310583769 -0.045919127448677433 0.79054662926759001
0.22066630546853405 -0.38318372319756921 0.26872454313762062
-0.77956939436390549 -0.57580063931174696 -0.31446424741008938
-0.12976518397265213 0.23939944183387243 -0.73184170685569705
-0.2763151894175615 -0.34302712623608694 -0.58079683578112706
-0.17652760162924652 0.16780536767621881 -0.72165924725594888
-0.50730303922298425 -0.31029338263690243 0.6538647544651135
-0.5138522495896849 -0.40272654244683093 0.58212069935934485
-0.79489150356468063 -0.9171258442618091 -0.49992531088452052
-0.79258240956275472 -0.88513468065920797 -0.44264576927525878
0.21030775528939305 -0.14476134365814891 0.75215450270812867
0.4071814818598587 0.5480326808576409 -0.19767247138419575
0.019738050269578089 0.74676441041728903 0.64701766673561756
-0.79268592263131299 -0.1663682113835756 -0.34185368779914338
-0.47150204545187524 -0.73471933554084901 -0.26522714752767107
0.26602043634220474 0.81405220835760639 -0.29901034454027853
-0.013868727881737097 0.7678970268208557 0.62427216929555707
0.68752571042788535 -0.41044206211182738 0.69399058328660823
-0.78599444782296501 -0.75049635486967659 -0.45021098966047668
-0.5368696829960653 0.079381761348364832 0.75601256985928489
-0.49255393011085991 -0.28152557114721 0.63629929354773185
-0.34588723002425326 0.45359965006277803 0.7085265391321881
-0.54227406817657853 -0.13335147413662296 0.72741330453451281
0.22604608134683613 0.36209048552564949 -0.39815514229175686
-0.090735582042121177 0.37310675806452454 0.75031539285915438
-0.59946049533614798 -0.27095845463754875 0.67863291717952956
0.12666062637525632 -0.34940978596687211 0.64547594955387699
-0.040760418242355101 0.50771904263266299 0.7143663324891677
0.57122978073121322 -0.37483712272697461 0.65715691221647621
-0.27747009407585166 0.59328769240510737 -0.74632911321409634
0.39478275672589458 0.48080938970640075 -0.16815830010431121
0.013126719612392534 0.58210134201224839 0.64522668390505244
0.18807676985104038 -0.049268329385369541 0.78654581965781523
0.72377119069670437 -0.33751337759560929 0.6895778822355858
0.66647094315087019 -0.44425916872138455 0.6519192901802664
0.18478070256396784 0.6545768718063496 0.49798509125278212
-0.4392881086551228 -0.32252672126329657 0.64945432981154905
-0.47943883816562716 -0.69833922736210419 -0.27494621817862952
0.056515594003912817 -0.15299503894712208 0.74114769021649141
0.30218836829510742 0.6674944734823931 -0.27388615084592693
0.44830616056161787 1.0157864335478219 -0.43140505615671765
-0.95401393324332862 -0.86433784796780966 -0.5241391372543176
-0.54329963993756603 -0.033989516984022305 0.73254064386432782
0.16804077465572753 0.6307206239639106 0.60657228949296971
-0.85886622542753832 -0.82696997630212876 -0.41192001549354695
0.243753206336077 -0.51380659618165558 0.47619267511408259
-0.21591092278168755 -0.43779772598054262 -0.52422045882885304
0.27001562735464102 0.33446731031473526 0.51658608645015325
-0.53226858055884341 -0.38301948067173586 0.60755077748203035
0.09373470506719972 0.79417861035894077 0.60109300246803177
-0.71963653053541998 -0.26498096561228524 0.48416589153581757
-0.14548938341445972 0.27805145622255534 0.7695468130027977
-0.79468168817771945 -0.79388551218055925 -0.37826769445822306
-0.30135603997296512 -0.36244088274940017 0.6873761043119867
0.20646753517081562 -0.43804289569253113 0.63561791521913902
-0.76542863562852403 -0.25059330781919753 0.54516182655610335
-0.46468606842303894 0.041571165557577561 0.78706051023503421
0.57997247786208916 -0.42563132712819085 0.71368662086146117
0.20786195467218427 0.40760038664546666 0.62035048276953031
-0.33993918185560545 0.03252551987683816 0.86345040864952516
-0.666446844101517 0.53219785030010758 -0.33613838093228443
-0.53659882749963028 -0.24953386083267526 0.67352667170331337
-0.71887444312775783 -0.5478157699790297 -0.25533001061548388
-0.58299289358463291 -0.82128106606741502 -0.30927936308853088
-0.33247627696314463 0.12757825855005556 0.79845027374367972
0.6927475921328794 -0.30149995229503512 0.62872953725214453
0.074775010566872968 0.41706284136095395 0.74647515589474001
0.22294058762491575 0.73355061321001302 -0.22265676305668691
0.17614819509824908 0.86392954903619801 -0.28382164322693137
0.32101854691116349 0.6223289210689289 -0.20703419648724042
0.4241536341398886 -0.061381285256910167 0.38933247379214175
-0.62339219795001521 -0.49295179095786767 0.19140355316764124
-0.39652970822007449 0.027716132398663329 0.69700022455926514
-0.072745211884038596 0.38671757932520379 0.79654822130490965
0.14964651457210909 -0.21882060561387437 0.71110480299572387
-0.8260840892026946 -0.78321127254374312 -0.45814949525120685
0.11982009358864509 0.014943821377176925 0.76385720173752347
0.23601371696640694 -0.017164991355210032 0.77232401813255058
0.10508615134279475 0.80490938238175858 0.54715661731492882
0.18325598665983422 0.050764581299262979 0.72543086401221246
0.17066769443864471 0.76627494945094266 0.50565437984240569
-0.64915532611854188 0.079445117164656187 0.70989008284823696
0.38139822793738398 -0.0067588363618653335 0.54175529422496704
0.072112767313226467 0.28700116598632153 0.68602109631381447
-0.33414075543888067 -0.56961695798510226 0.18274064519327604
-0.69651659754106876 -0.42251122511392813 -0.22898922766815755
-0.43425655049259659 -0.62089992134886163 -0.070390314535229148
-0.647973543141525 0.11538643694966422 0.62974665432385968
-0.13983972715170534 0.2877408551660422 0.74178796005350289
0.68359974388533629 -0.53555499659934569 0.61297898612032198
0.39165770091790897 -0.53794780075332604 0.39338286018291457
-0.10574705311607691 -0.40258032005190342 0.39687654750027512
0.45808520176582057 -0.56735184873316336 0.45726906380248789
0.61368680012441335 -0.45799556444808953 0.55952792908718774
-0.23336343873108234 -0.58801211229622663 -0.12273612357294494
-0.58212916439339946 -0.048598469541323075 0.72663449206536568
0.79281847746505685 -0.42198553399798255 0.62098840024112978
0.63488698496377838 -0.59893439518610003 0.45803446996786201
0.22057248319639378 -0.36855174374767197 0.31891269648727971
-0.59802692358015208 -0.24836118995484879 0.70823230375161339
0.72964438888543159 -0.40662017626090474 0.66362102942643753
-0.16551911346654213 0.66247237359906763 0.57432605416514582
-0.80471025827911502 -0.14670913208276137 0.059569105172963432
0.2823151311526706 0.11161389277812611 -0.24395343402101788
-0.24618035418450956 0.32711751916791376 0.74685139334971551
-0.22447118187380433 -0.01611480085290104 0.78197541141015892
-0.20638767876606057 0.47307672870277484 0.77673198807993826
0.23928908378708913 0.72662356755840318 -0.079164724731140002
0.32895309624531599 1.032102830553264 -0.44532058266773289
-0.21356519449007783 0.23711695821004472 0.7538467104653136
0.012760679824014076 -0.29582470750715584 0.44486368290251987
-0.42480420990640555 0.062414956765605822 0.73848068314399462
-0.57269904118725967 -0.21693238519470881 0.69486707828045691
0.36589387790078831 0.70598076011556699 -0.34549609178072438
0.26546810432565326 0.92320691096557939 -0.36202474261473583
0.26138798427469112 0.85015331775180214 -0.22245778534910055
0.52807280506590226 -0.34043964082244882 0.7303191858033754
-0.067060945253947679 0.45778445452823913 0.75588278035784173
-0.46831829481842258 -0.53159176166136168 0.2579488411812132
0.37488665419934275 0.45496812081238297 -0.14107155984769171
0.6819504599979278 -0.55221041507028368 0.59296208037536546
-0.59814633964199859 -0.35663351993930958 0.62446001331025758
-0.38159811454418691 0.091998074079852554 0.7652903823495556
-0.084713538222833673 0.78324705059936728 0.3562936310019047
-0.92817391062196886 -0.63468957232624346 -0.46604297136432549
-0.49425776861796011 -0.27912804651645517 0.66026685899906989
0.1855668016452392 0.038326361036260054 0.72664688573146352
0.60044367149034095 -0.40554516373787786 0.68330170112216582
0.64541519695393257 -0.49367758006695961 0.43305586405590346
-0.58394600084542225 -0.64641162482311632 -0.24473882799937541
-0.14675651968463832 0.68379433907817111 0.71352304345667061
0.61767966666436402 -0.4743250328025384 0.3563076341608471
0.2510051596346643 0.71553092745303937 0.44648743253197942
-0.13755195148511445 0.46982771833509523 0.6979632908838147
-0.83785377333637734 -0.067626166706948432 -0.19300169374898979
-0.61797559739052099 -0.85650308382255702 -0.31941199794870689
-0.24574837751566925 0.24381657751587338 0.77130521271979013
-0.53430609252060646 0.1326545721747755 0.5186998405219041
0.14987770552913604 -0.1017484135839094 0.80369756305848261
0.22509783566587771 0.85325594123955562 -0.24253399288118316
0.16608142637873646 0.49571420725143078 0.65029293888127637
-0.2000564585513942 0.59765925814680543 0.7765101187302158
0.45084718095751652 -0.32182768836382808 0.33779337633664541
-0.27832797060995329 0.22836697139394849 0.81678615387337361
0.66313181510703911 -0.384288819393657 0.64813739651193192
0.4055225546277641 0.69998360175445984 -0.27736948915524051
-0.23731042892534493 -0.56327234181021291 -0.43076356896282819
-0.78155334321950543 -0.086575418377923929 -0.020259934859274242
-0.34537921081410916 -0.24900469491521976 0.7448402808258382
-0.62946075579073302 -0.61312538144994455 -0.25852405296444703
-0.46874095602001953 0.23281517655748063 0.71420644464241068
0.63788580616706847 -0.61576797335268596 0.53014223968276619
-0.20947966009419305 -0.19345229981566642 0.6993316375238684
-0.8880715966972208 -0.83042155578084964 -0.47202607371521732
0.28960073029704869 0.62933925890621767 -0.19921903911653849
0.60549163515054394 -0.47682620443042267 0.67762695066311918
-0.84143975763723944 -0.81350441421226383 -0.42198143712237868
-0.4828728916584597 0.0025166855476064787 0.77661421834514055
-0.86641295778096072 -0.58360851350580945 -0.39630851012396628
-0.33942180760066742 -0.61471117797160013 -0.32961639246673702
0.42935525312379674 0.52550785060158645 -0.20599779896642478
-0.10195356101549491 0.42814889494880826 0.7248232005200349
-0.68343170676606135 -0.20041733344184887 0.54681391086280962
0.54819276728334865 -0.22284140031723243 0.70178690033589941
-0.58259934324787288 -0.73551104961877722 -0.31756576892804755
0.80596571460050503 -0.32261668660087361 0.45118261149658601
0.0109837846060441 -0.32510833007746542 -0.54975379226580112
0.25552207742122546 0.05428952297522277 0.47141682250244543
-0.027580366688593649 0.52221128672835149 0.7748435089931508
0.21967501000952261 -0.016169161986671163 0.71378366990762232
0.39265916716084481 -0.42694329763529132 0.66443344152165285
-0.16903401707049603 -0.1383252727240338 0.7580831591070023
-0.60687777145062349 -0.86060682684781464 -0.32102080732770699
-0.47654943004943218 0.031419437451847443 0.70877318859111715
-0.49917169206043099 -0.62524542675602068 -0.22316402689399162
0.52635930802855624 -0.064174591073724807 0.60558209332842494
0.46843116953472697 -0.61573348580352094 0.43062335593229006
0.41747324152859511 0.65421113555483823 -0.22896551146230482
-0.61594441801401811 0.18064861750702699 0.59107016157595005
0.26610404283796063 -0.032042887367299849 0.68112737481319607
0.63059187950578988 -0.35924889319467429 0.73465482108849212
0.3322310694685342 -0.57421729128238597 0.49069414878380857
0.32003708206517389 0.36181613482837621 0.3130044743117022
-0.18000443197577187 0.50531336102267055 0.76337934493496895
-0.71085063085085176 -0.75009043383705576 -0.34708962350424799
-0.038455634653953741 -0.22034117903021094 0.62438069191184364
0.23686860324219916 0.82972945966929978 -0.26498277359828215
0.20142689572665828 0.68748695191828779 -0.43841623592898582
-0.092307588081019354 1.0547525237147086 -0.24774609501250366
-0.0076360166064932677 0.53921254235365379 0.71635611921296072
0.5233581218319503 -0.64323424351959269 0.504853961054329
0.25089357369714627 -0.12465861249673454 0.720955094826918
-0.38159221011963496 0.098924617958425887 0.76514442914231517
0.62460850724740835 -0.4522769914065598 0.63296192154687292
0.72675677659479732 -0.3256309112744048 0.7046252661653285
-0.69099257511078926 -0.88307654944452874 -0.3044487698647369
0.32298337323559245 0.93837378992740006 -0.30422391820218064
-0.47880300683732435 -0.011063191376639914 0.73155576250215759
0.80134888049616504 -0.44755204977252605 0.59243863912228989
-0.50889475041757337 -0.89099279070806559 -0.22798075855184607
-0.10907539270854727 0.68317144804365404 0.44434163589761
-0.093511891128898128 0.70528331888518536 0.61391687209711365
0.19192162165890903 0.32952905800358095 0.63958066583490414
-0.26074449567400126 0.047803705363538174 0.66123341438758854
0.020941568339206462 0.26033773742034028 0.73043572180935479
0.57053126760688899 -0.64608929493593537 0.43166095969542773
-0.39389158496811083 -0.64401209161768302 -0.29966065126198638
-0.45991018644151671 0.24014335231932882 0.79844569059175263
0.56883275812758027 -0.34013450001406642 0.68634719947899936
-0.67905727784471837 -0.57057652094205613 -0.16946573829279221
-0.63622662237007432 -0.49984440525076879 -0.30323474597666511
0.14166368486394054 -0.016178308607529251 0.75731602342579274
-0.066707582208030303 0.4000427385103793 0.82550264352878977
0.050482323997505851 -0.095056353152487671 0.80065787490466156
0.19165006590217804 0.9269482324579601 -0.29004766280417371
0.28154564885811872 -0.29923583810132726 0.23949546849868342
-0.14847791938376798 0.55562359844540032 0.71601916102264851
0.5353966229910605 -0.21956524750961892 0.74232865737036247
-0.46294658204764283 0.079358522965317757 0.74375139766371812
-0.13449331321251812 0.96868775739635016 -0.47910395635426895
0.19032131337070535 -0.32953577722713956 0.67985236247874292
-0.64110315975008403 -0.5499929444122198 -0.1192652944558259
0.15571104084928322 -0.032174934472405159 0.7998715056853628
0.49907378072010911 -0.29253850890153837 0.37073955209227849
-0.68921912183207112 0.16898965708855707 0.68909168499032736
0.1466280711948289 -0.17652130743784061 0.72484776403972417
0.24612809237540256 0.0093783794948233135 0.63772605074335553
-0.22430465988527626 -0.19838345964359366 0.66025780669147305
-0.18664170825996029 -0.52995284200955384 0.03233407198453242
-0.79877702176417342 0.16818312839109395 -0.14112132917990583
-0.090873749199326781 0.22798806169345892 0.75510860512662747
0.19175458252840194 -0.038369663295386616 0.77469135470244321
0.47187232933806778 -0.24472873427776418 0.7429512259896669
-0.70088096862609151 -0.6038029239964946 -0.21251080301850434
-0.091738626593635075 0.34365649502624573 0.74981697936105041
-0.22372145351353545 0.18373965572173295 0.72708488934934845
-0.49458378565546912 0.0444273221574365 0.75951392008494212
0.14578875243753053 -0.15803352584150007 0.75914749224280875
0.32000880074524662 0.57198087872409797 -0.13551567350074811
0.69923150284017677 -0.26191714469836935 0.3702681614208656
-0.42564727450390283 -0.17799117555463401 0.77133859878693356
0.47987627979370906 -0.49706916923196343 0.41802542753367988
-0.33918329441578576 0.82641131106948806 0.24638690524208695
-0.79879456582727792 -0.11923078207977067 0.034574508316865371
-0.43466897551289629 -0.73934563944638954 -0.16759279132833393
-0.33409075131836419 0.28288324773332862 0.60134417104997784
-0.030692596617938772 -0.26164404979883987 0.61745519135632498
0.29229285002145033 0.42496255275532629 0.48198165142219429
0.28314927117330813 0.60839614901745609 -0.19622665096105507
-0.28402343097733818 -0.18157034291018209 0.75505466185127545
-0.26312241703633132 -0.19402305676361919 0.78070389698721709
0.72704730650145777 -0.46602244636060769 0.61599548585859842
-0.69889510177850767 -0.25888963175536839 0.6914422913452517
0.26459137110961528 -0.070859893658576284 0.74843734668079287
-0.10265011892708475 0.42607593975321478 0.76984197079206151
0.28371908999197037 0.45546781565284711 0.26361680134052978
-0.013019865301139522 0.8938767609630528 0.20281275547210076
-0.37408239323852621 -0.66891422660095246 -0.13919895870588705
-0.083109755570528243 -0.34603509553268874 0.47499477631588394
0.24438100894989967 0.2986500326337988 0.6005303645385357
-0.79659681820039063 -0.79720632204643527 -0.41249640517444486
0.7097533348173366 -0.43000751454157904 0.64065184768908101
