# XYZ point cloud file
0.67903125712962931 -0.3546178263971882 0.7061221797973154
0.13120682887829582 0.55539373301659989 0.69588015165486894
0.31513828451657333 0.74580929642931437 -0.32271542062661496
-0.56093112111994614 -1.0172266931212155 -0.40207685066620513
-0.39581010355614143 0.21896305595598697 0.66760908114562767
-0.42730513750778054 -0.49578827595471786 0.59385395906640781
-0.57443556575070465 -0.20235082673615246 0.71838559908771416
-0.017703411905155009 0.88791225247682171 0.2583595303009254
0.38624381681528885 0.15338159243619742 0.0076785497938374192
-0.25734531303535269 -0.31258548027607969 0.67990823442701753
0.71658868889865246 -0.54503065432532782 0.69788626721498659
0.44604626898933564 0.78861371701544591 -0.27708855375007957
-0.34001765514346349 0.65733411857504009 0.73852530720028753
-0.49062995734721249 -0.64554678511495478 -0.22613347292379515
0.45372073046868855 -0.0092803375451664394 0.33097945977953813
0.73678131641894729 -0.42842606118925275 0.67481543153159862
0.349108908406351 0.67312023826132261 -0.23455275424268507
-0.24832638971570398 0.45947133552079578 0.75417324171241162
-0.55882889706046512 -0.77362568595687708 -0.39062616124773086
0.1220362300704102 0.58280300992699186 0.64521529585983473
-0.015082339646329657 -0.25180227141461131 -0.67983034852383639
-0.056723237457039999 0.95586170558395445 -0.36761682403405871
-0.57151074144983083 -0.024022587693555586 0.7623409346516965
-0.23788543202363277 0.34579779344157391 0.70769685214422395
-0.64910835871621742 -0.54781476657953121 0.1027839948952014
0.16867327158022594 0.88035046615509671 -0.085614456051732901
0.3208335941632916 0.4143910390555714 0.47441637237541556
0.11134943208497394 -0.063210991476159606 0.75688632883473161
-0.75681197003058931 -0.18019053036335997 0.73370693087354155
0.33179414493904757 0.68120005689794461 -0.26322380477187579
0.49258292555716721 -0.18475952553214015 0.29375091726022617
-0.29267892049935162 0.47814267207925365 0.74230786791093095
0.41121526101940975 0.80837799360541851 -0.28867219543133515
0.10452256595721354 0.85881940688802416 0.1315905699036044
0.13960570383262616 0.98278488256949004 -0.2577406782283127
0.70009198369901215 -0.53570857219939771 0.67476023178565114
-0.2017197992169939 0.39982289362954671 0.73014663081459119
0.23062769786901682 1.0579593588689864 -0.34635058481306302
0.57930510854016237 -0.055441285032882703 0.44490117402715512
0.13665038765056414 1.0097799539998835 -0.26451714805352822
-0.27223973708319971 -0.52208333758699865 0.38874695189484143
0.3813871414775809 -0.18554034583037726 0.29138075557823129
-0.16364804763569718 -0.15593921586060588 0.77686474862233723
-0.291102060508448 0.56471890200221253 0.50698704003061579
0.43954818881999891 0.9610618968920317 -0.46984880542142449
-0.49978592632830554 -0.88606306391406253 -0.30684021633422986
0.11143551334030455 0.62063323959806205 0.66744061685203349
0.15528750126161128 0.74337960681609871 -0.39279495256517194
-0.31352057830210334 0.45319313826936813 0.76868485577308121
-0.44177830215481873 -0.096776426881716837 0.80633809798544931
-0.057828058179202557 -0.31502478219267083 -0.59864581933204519
0.84807392318102237 -0.33963124669804223 0.64293585984905377
0.59273884990262482 -0.13449475016977708 0.68965764622992864
-0.11695380729402827 0.49908691741689104 0.7526862126141225
-0.73414499446581738 -0.81290928684370911 -0.47554177571984724
-0.84067532590318228 -0.94215230082292845 -0.48716076243601947
0.025548532459425677 0.82490075538853613 0.64885087920957218
0.31029877445364418 0.67152705761583853 0.49404130790425782
0.38271213572704954 0.69550508194918947 -0.30039275431463963
0.096205932567860808 0.40643130423871732 0.77623900843600069
-0.64485819196286309 -0.49583429078956165 0.5449315535687802
-0.95085116707085937 -0.899304775082304 -0.49862628650214802
-0.010046928172556369 0.23604024593117057 0.74748807563250708
0.46691359461858628 -0.58551776070721129 0.61668502881494192
-0.49602929029829679 0.013405161730791981 0.75772062223654402
0.77572862284049882 -0.39780684909793607 0.40154458881822563
-0.9643459012162291 -0.72176463101148869 -0.41174471547087776
0.27274203878623027 0.76471387339543462 -0.25807816385458793
-0.6550464172953403 -0.3369100056730856 0.70022678807120542
-0.13642883924258631 0.52378043661502094 0.74276101145630236
0.47369438083302995 -0.35282301412133865 0.34296392617579841
0.23992165637371921 -0.020537918221322116 0.75044951826921036
0.30418188718583528 0.67610504423253737 -0.18537379650636154
-0.094650180452914512 -0.45653212895415773 -0.45276096480557726
0.025158787434676366 0.36407238309397982 0.75412741488837298
0.31993113345386393 0.12029855671149114 -0.31615129254875285
0.14145392323818573 -0.38221294337653156 -0.34179465856496094
-0.78726693736607001 -0.65125762741941173 -0.34031535902661503
-0.58731216819088616 0.5499722801381175 0.30712047258727182
0.17314058415401745 -0.055560139080960802 0.79811665745182125
-0.39024660829782243 -0.25836416095306181 0.77463863002702738
0.23251806929182539 -0.14232275250423854 0.78212927190498505
0.78683707148443727 -0.48668196440092615 0.66629984503427409
-0.69104880667918422 -0.22992682944706555 0.70079346584949676
-0.37831816134706142 0.061835506138100627 0.75129766045457202
-0.085246104823434532 0.47115145794155389 0.79187951080154662
0.5221199367372753 0.74509944249632021 -0.2255568959044254
-0.41338099909465664 -0.71687911829441742 -0.29236001109123322
-0.68298050408908062 0.2582041125818364 0.3391330504746719
-0.49361822461690585 0.66078000725087094 0.28674979182375537
-0.073757109618651118 0.30814700121765615 0.80398819205533201
0.35373472328886835 0.71390905603673893 -0.24082631255933862
0.16877332955785274 0.67210888824777459 0.67024223744865097
0.38484087246128262 -0.039174972922390694 0.21427056705222114
-0.19973126541138719 -0.0118196470630485 0.76269755701706288
0.5277850548648253 -0.58911001534176943 0.41380385907682893
0.71159660490916066 -0.35770494940212938 0.73361739821224603
-0.87532152740240909 -0.27680282455052385 -0.36979815474088795
-0.24899406056139051 -0.17121567477716759 0.79329988113135386
-0.55320090539933109 -0.27079518648155965 0.71245166808516203
0.28562941136532127 0.42702316929310591 0.66689053829231071
0.25477365533882734 0.47110970028045074 -0.39283667045091519
0.53500674102070134 0.84919150694963008 -0.31656279668006349
-0.63498545698456654 -0.68230938154558807 -0.30261336930252014
0.45501328476504055 0.72733088842890936 -0.26568264441048228
0.22293522008855304 0.01139557516127887 0.74711359575153935
0.61716261360222191 -0.065492873364387805 0.60069941132340432
-0.074187591504003114 0.23506644288578382 0.77681232111483922
0.62773630786794543 -0.46240931782879002 0.62186229066054466
-0.41239208698571228 -0.75927735878037694 -0.18626990162043811
-0.16713954954072741 0.51370113284298924 0.7534423682342748
-0.38027834041981867 -0.42504225635482218 0.58032347209051593
0.90438149791460787 -0.28760954142112638 0.57884500384265181
0.59065046739614269 -0.59919255775032187 0.69431402768487871
0.82573691956867357 -0.18219878983092297 0.40004731422090245
-0.16617678290692273 -0.1536371475874736 0.68728501052653712
-0.012468663399353375 0.94089751263783583 0.029275096809680434
-0.29892396104682972 -0.65013836234473565 -0.17569339844216714
-0.051184139758867708 0.65028861824679396 -0.61464112217883837
-0.45546730043959938 0.0034663538077923661 0.77276630093285803
0.44861119230705404 1.0764749715809518 -0.44567174869342097
0.25029425139118811 -0.16627250354167256 0.75544973392338122
-0.072759024774470937 0.25460066206745502 0.7691577996147636
-0.86643918263306485 0.12902420754729604 0.2028871438592077
-0.2658921826935905 -0.62677138824435819 -0.21883456021772574
-0.43890756975845635 -0.29636439807519732 0.68660442339536232
-0.4780812157690757 -0.1638377620501501 0.82307714604051085
-0.41873003841638079 -0.63577582444509773 -0.10192001339669687
0.33490608604464045 0.074732599908336361 0.55286804592675409
0.30314820668114861 -0.17922065115151931 0.7543716259284956
-0.659513940898522 -0.40366999568791773 0.65653858057669723
-0.60880760726595318 -0.41732666564170096 0.65017234324134066
-0.69256643645915872 -0.42343165734659216 0.64499935031164668
0.17876216102784825 0.3757347781188134 0.68147607599424731
0.029819544869028825 -0.27622593764253711 0.60276937126294783
0.12575031234385325 1.0239800077148615 -0.31561864165146503
-0.5664596287645085 -0.80902757058852082 -0.33067236691172752
0.21077957111911572 0.92278094155726542 -0.2332789670355524
0.37039108804148002 -0.23150796163639509 0.77602679846424394
-0.43097939129607143 0.20794760114304012 0.60721738913849066
0.0069498834433385781 0.46626265605184258 0.79828850681679597
0.22300860638743436 -0.32300408698432914 0.73194462273932714
-0.3196718161686205 0.50440039585298102 0.58829601909177498
0.23763693402952935 1.0776456789832576 -0.33286991245890363
-0.70314790462006904 -0.20827750527807964 0.70632496357988828
0.16860793828438614 -0.42861438078669511 0.47462717294742518
-0.37796522179250291 0.43625059882891826 0.57136742540416918
-0.66196645972504697 -0.93649946693698549 -0.43846231682046266
-0.15493697024635233 -0.061508233416645908 0.71863126814697864
0.66678629792486344 -0.31092646152511882 0.68709475584847723
0.20562630931634951 -0.004938665679773635 0.78207236473023301
0.28909492459729957 0.73374897726452026 -0.24936703304862817
-0.58691584411013098 -0.68138843953352879 -0.32207260094279277
-0.87393817474790159 -0.57663460443060544 -0.27076463374041992
0.28076667908379926 0.45476986847956802 -0.34630300439424744
0.6173469291693805 -0.21104336054270512 0.34319484121559896
0.10175548822811553 0.86241150991694937 0.096859653513760691
-0.36605041941146155 -0.42371035299937621 0.64280815328057628
0.41052635575272167 -0.51501088279979346 0.67451810884451646
-0.036935937613707504 0.2369582582289036 0.74590953848237618
-0.8295923113716217 -0.57663910981419253 -0.27440836914463773
-0.93734501585071883 -0.074860615665162555 -0.26795070227667139
-0.15710554445916602 0.7328148774222818 0.43758561877519497
0.62469784108937221 -0.70012192184956312 0.61467833633878044
-0.029420924617280075 0.99809687397900149 -0.19255719745338595
0.65116280959559725 -0.0354145350146986 0.47763879177409052
0.24195804927321474 0.83040197702411156 -0.17677901306462118
0.36021148240233458 0.085987002404235291 0.27779774079016661
-0.3575225110589566 0.029764132546985955 0.77697311286321025
0.283631346500957 -0.052218162247696043 0.72271748618462794
0.10408934341767062 0.61226757943387078 0.67484223599090143
0.23229895572991111 -0.16433698080111725 0.75237850785500271
0.23411776595240741 0.051781870914171968 0.78473666601988512
-0.022813164852306667 0.16482498455949379 0.72146430629691949
0.018524314833527455 0.5022303586990482 0.78168800124060667
0.75348226165282095 -0.45718698914543854 0.67709232430244981
0.65282048073142174 -0.45161867602246542 0.62678754843308226
-0.23160300995514693 0.23238878326649282 0.7781255918956056
-0.76077112544309911 -0.92554698573428773 -0.44948312823375858
0.059019398054754202 -0.053214383263799014 0.7401421861015578
-0.047352923204508235 0.36070295342702519 0.77581907707639886
-0.064895411194840769 0.35972627457678374 0.82478487682249835
0.3110638350940762 0.050506126891490588 0.61463572014245571
0.019234285544253105 0.24785116834922594 0.77110960259021155
-0.099078453204468842 0.32093082009556184 -0.71491407198552537
0.12923259310905033 -0.35232843760062682 0.46587351967678003
0.19382609557880293 0.74969511791510079 -0.46394005201038269
-0.23721522599170064 -0.50842462746009343 0.30928990774889797
0.65447366976157495 -0.49814990284271943 0.66581003805901418
-0.32259779235304165 0.59935316222396828 0.39053970383461944
-0.79300936980078696 -0.55285766770774547 -0.20531336648984322
0.3549077395531578 1.1747632225353524 -0.36141108929070143
0.080163739074268436 -0.22761911547328673 0.79885446200628252
0.033752642277187661 0.21966985879580214 0.75544207645890538
0.24195881419396525 -0.34016368162530508 0.73163028744344061
0.26828341961116309 1.0895883573208902 -0.37818994117195004
0.56604563428782029 1.1074730456509538 -0.45051825772155496
0.86448724199857241 -0.16760356619059724 0.4852835177597008
0.35657258423094795 0.48894328574192514 -0.19044268711466827
-0.30128287247919683 0.38336729095594446 0.78019855338931876
0.26478362326505933 0.18027999657452831 0.47789676809620829
0.046496215731867352 -0.29708148252572641 0.58554152225368128
-0.74513638936159277 -0.59973838915906708 -0.28200337803564679
-0.36432836259904899 0.54355756130604416 0.80571532257543055
-0.20196979638896562 -0.35237221688487352 -0.61146859844297197
0.67409585363933799 -0.56570959389459397 0.64179462771151563
-0.62769562824575342 -0.96122404122223415 -0.38542982793818581
-0.6337218595389682 0.1646518352676436 0.77498224776065072
-0.93606885301138743 -0.24531939323227281 -0.034082066675736655
-0.035337220159319283 0.43770468340758928 0.85247994427664509
-0.050649201126865773 -0.042301805254242986 0.79009425831774394
-0.50709421295936485 -0.67201931518507596 -0.32166772142584676
0.64047289361067705 -0.38876885391648397 0.37352902588930093
0.74219348670622787 -0.096031539007474187 0.4008674373821961
0.11547754457905635 0.20393886842211728 0.63345417655138903
-0.051850717469968721 0.964724288211535 -0.43256243121346216
0.065519991249227139 0.83016904989739437 0.58131959687691648
-0.00508329545870434 -0.27954833391725131 0.52886530366725637
0.28949338118815815 1.0520272790954657 -0.43332373122532886
0.15330102571638304 0.80265358647134377 0.56245707287920155
-0.11739131144589798 0.24756938687965757 0.74704629344987694
0.76002805573564247 -0.18321497109345675 0.64085107652467244
0.40033674624582616 -0.13660685930140737 -0.038461676641933451
-0.28508458543028947 0.596880754428879 0.80776357727420844
0.33912835950621478 -0.32413561012509184 0.75946818687326356
0.78367251861490561 -0.4246168588146908 0.40115598785342854
-0.28500055358736209 -0.24266011346467575 0.75720747826924395
-0.79483932485506326 -0.55881591119606977 -0.21313138660054065
0.40485534367907294 0.66109814749592211 -0.25011124185118305
0.78691564377182432 -0.42836048778189717 0.65733601368918571
-0.64736089142488584 -0.76189151538412236 -0.37198593840047067
0.25958288976361299 -0.29962073869849792 0.73223111539273233
0.51859743981480866 0.95246188958133438 -0.39067821146902659
0.13737871220679643 0.34458422560281576 0.78182090910986091
-0.46994250450359676 -0.3618098477823235 0.65122387318904273
0.26886189288967266 1.1781342912978747 -0.4209631007630783
0.51899436735747495 0.92720707110238365 -0.43462551149713846
-0.10453373216471318 0.50163792577113764 0.79771249709062175
-0.022052483411606039 0.25375300478290264 0.76230579651993935
-0.45007820465171655 -0.73992283849038021 -0.27123578421232608
0.26593413910905106 -0.24803118294995929 0.72207554502610094
-0.16330458170123885 0.46971657324051996 0.72261696428447664
-0.40591803212064692 -0.73259584539764955 -0.19319536240072566
0.086087472313187474 -0.20886954142364278 0.64155501995498554
-0.37419935863037246 -0.057355971845609588 0.83026640226029613
-0.51012427631923629 -0.12301887136908185 0.81891841634699958
-0.34793550565356424 0.30320147405132758 0.64182635440783642
-0.34041679141291459 -0.51012138135096308 0.55570230966164402
-0.95237817708135075 -0.7593921448033889 -0.40730053328530147
0.80264729932132872 -0.47251738316351499 0.57905576141465076
-0.34953581424042768 0.2880834605720759 0.6942751638901612
0.78374041945163198 -0.3809624245060359 0.65942101032073452
-0.92162492823278463 -0.6791064508021023 -0.42386525184790358
-0.16816732822194824 0.01921186857153856 0.74110495398219456
0.56935756237053625 -0.68465262991070741 0.48968828674140497
0.16575298187190035 1.0694825977337175 -0.39086615400788105
-0.18090175617329551 0.51210081292202325 0.72052732414379506
-0.46137536565162862 -0.60080746659655748 -0.21697890253120988
0.23869119291869101 0.71570942305051943 -0.32108514342776928
-0.39598629667215901 -0.0085323658440215056 0.84723954919607891
0.027926638634673484 0.55428856305920604 0.68206069492390498
0.25348041706082602 0.54120415201562189 0.35125645981868558
0.20670567583810517 -0.061159883970721474 0.84046509036273065
0.15200299262229033 -0.24041234597251737 -0.50367852071779495
-0.58633602295790355 -0.94460512345504632 -0.382328181997039
-0.36461534965334663 -0.80986684123437591 -0.16303366402994612
-0.36345834511757324 -0.26348232180460496 0.78767741698136362
-0.62094656566761985 -0.021823010153118716 0.77777002886929125
0.86821035325678797 -0.38800717335836765 0.52682990132510099
0.69565688939172687 -0.32998554781602696 0.40455845395707613
-0.53707588299817388 -0.59981868833292129 -0.20816889819542794
0.12764339632000443 1.0890828096110745 -0.35051451057023542
0.71463835808602216 -0.44845139873434547 0.66967749354600414
-0.58004311999383762 -0.67937958726885128 -0.31862623078388097
-0.13780536011355515 0.48824303192566632 0.7705810753512381
0.1481433400346629 0.69379801296640675 0.61504218370852826
0.28153567194010876 1.2684359817413213 -0.42541841033904859
0.30815330802975849 -0.076734221918025369 0.7436716095276239
-0.71908596576904382 -0.95783868952584061 -0.44108635100113602
0.76520759798254445 -0.34461135378561814 0.39309615046430579
0.27093879430301626 1.0529512435940909 -0.4729812555027415
-0.22109687329027516 0.26995918052201517 0.71604189426736653
-0.05702295063220586 0.56781127368632234 0.69742924079980639
-0.75960859018025428 -0.36073220288791497 0.5829316885220166
0.042590364812577164 0.29836760713135657 0.78570162605083382
-0.94062000904398957 -0.70903991605529448 -0.36790975800180092
0.79927130578288441 -0.50642671397972538 0.65055713385076075
-0.40844821877343884 -0.078224623747813915 0.7972671069964008
-0.030962030730232404 0.78833712019383562 0.62014978862217873
0.090311779179227392 0.56783852458925033 0.67348830748745669
-0.65305586545610295 -0.33205957507301509 0.65136970188362042
-0.39957493361618734 0.05743287376416184 0.81763941955732733
0.19937450794642797 -0.24769784200889688 0.71573071924442999
0.12681839147845975 -0.19037762009404524 0.8099984949067931
0.33191095084540501 -0.18768514681412451 0.19564105188177194
0.40963133692523113 0.70768667019114062 -0.28872755675598683
0.064858184980958966 0.54108470494332472 0.74975295609641179
-0.00032291742475121232 0.42000633986997027 0.7751026368715479
0.77420658418779031 -0.58503581589306908 0.51310217121957535
-0.77776699015146278 -0.55026628557996204 -0.29998994974376458
0.069956470729321207 -0.12714479432379111 0.79856894155524571
-0.35429252442713888 -0.34194514683534294 0.7130853426806496
0.092861927806110467 0.89916170074682711 -0.31072367086652264
-0.49083117341545801 -0.70389859449879566 -0.34179128864828812
-0.33742507934379562 -0.39281588645192667 0.65970630309901068
-0.35707938696303798 0.35804986700026298 0.8408965439023568
-0.40111008514636293 0.36865352675602558 0.70315059767076704
-0.57537653995774285 -0.31438976578903421 0.6804087530609344
0.35709547557158094 -0.31177084449588044 0.22080932655127583
0.06909611433590257 -0.16594798694769786 0.77249948142803149
0.4120177462346184 0.71701650228774305 -0.29519487783739251
-0.74672319946502497 -0.61564130066127731 -0.24485898075072399
0.31801464086664022 0.030696500771703938 0.60318592974354246
0.0025036252532135705 0.29357827115798507 0.78756258782279787
-0.40171198322912227 -0.85595643766840368 -0.26505004818108802
0.075021403491036809 -0.1168319763530592 0.74834420355736597
-0.20804993676650474 -0.44925565651111565 -0.49756399586301825
-0.91838022323422908 -0.60672152238406341 -0.33744959938531238
0.59243434251186167 -0.24598408857482124 0.35708630952123244
-0.11623626374425866 0.75698539897313033 0.40677837454631316
-0.60478813772954876 0.23328980996382409 0.67708703355053501
0.52360277775775743 -0.47440114108437736 0.71360222146715913
0.50911188400371543 -0.03210861353115213 0.43938204376789258
-0.32316679595473663 -0.70594968960426829 -0.14564552850652035
-0.025859717949467953 -0.32778683460964508 0.46363427261364976
-0.075248892671018197 -0.43396994630346164 0.30124013852607945
0.12223398565598731 -0.020808340747569432 0.74083023040945761
0.27795448596248162 0.29552746795783147 0.50815671137883456
0.71183157639796524 -0.36225916039193695 0.64200471384324587
-0.58322378209727177 -0.28871763801447159 0.6621255156267658
-0.232005916805337 -0.25696271998284548 0.68904479397498974
-0.52861693546248623 0.034753998912924189 0.71242987314390405
-0.46345775219211238 -0.68083117612577926 -0.26525089069490448
-0.84028207487672069 -0.94346875921014473 -0.42567718161697954
-0.51298385334295438 -0.74864589547625027 -0.31525636491225129
0.68040327256844613 -0.46803929705243252 0.61917886214176576
0.29010064045855422 0.65203338245435916 -0.0048637284655583812
-0.79741857438572028 -0.38206556425155913 -0.07373308393085054
0.1376278295297616 1.0577706309785828 -0.23836119159684799
-0.32624455443306188 -0.26109149314482138 0.77039060928089853
0.40094751360000336 1.0371934213019269 -0.41541428883964571
-0.1733332296489889 0.34727986987235848 0.75252968847619073
-0.36813152850110975 0.32815438454399004 0.68820644492554095
0.012729430489797688 0.7038022244606168 0.61378301526427848
-0.48239590679416833 0.17066477038389039 0.66243717337476582
0.28593988807390047 1.1218083783010488 -0.41328161644491601
0.37498525193498811 0.75223908059742861 -0.26536954866315909
-0.37647827100178977 0.39024126141877957 0.66538766864425014
0.2255537206560938 -0.11633283176563936 0.79690626265538711
-0.20889620062879 -0.48064725364472149 0.54504423156449633
0.0015025409606630458 0.69123603057491856 0.6612974508355407
0.22039303730441717 -0.3411779926778058 -0.15838261847495971
-0.82156811501182703 -0.89419509059220914 -0.46410950108436566
0.34298350180699444 0.45713787174251586 0.39930240300005693
0.72114160885588974 -0.39468234063570584 0.68373657099461127
0.16735880095693223 -0.15140295118646563 0.82934572992396838
0.23230274730580858 -0.14217773504904851 0.80784035976832058
-0.44553611669257487 -0.30842681335584921 0.69873202917030497
0.45136691880024804 1.0669393441523631 -0.4556601325737617
-0.39408874068631161 -0.59649286759524944 0.23996258633976453
0.76878369708079441 -0.25359977849003368 0.67222327505665902
-0.21404855545435497 0.76929682845903269 0.58421578128001173
0.28176227049869473 0.34560326805581454 -0.47417472694066376
-0.61384082016292274 -0.68106590995212013 -0.30152005645792457
0.26373061496722661 0.93124324926246693 -0.25059980295919004
-0.77707913932645989 -0.65059757368075388 -0.23316907837359224
0.29606994372011242 0.75286465657869783 -0.31023737517137917
-0.87340675758942843 -0.87753821904268126 -0.45689904615530708
0.15368610597450205 0.37568060512532675 0.66136591067037287
-0.40883461049438607 0.14098989998776901 0.81479196656703223
0.20305939974076237 -0.02103033111791941 0.81667936342848435
0.57095274285907349 -0.0439829375304015 0.48889583139899173
0.10386243752932756 -0.37717005184773811 0.082953083809027106
-0.025348147431990986 0.19920631367882891 0.73206675124189502
0.24051404418971589 1.141988158835936 -0.42950081819280683
-0.47344786161907759 -0.41060204635887132 0.65436827616074922
-0.10468122593941964 0.60966216457613953 0.63091838997253902
-0.48759800489048999 -0.1298291255410291 0.73589263952123574
0.16853782202686385 -0.09243213497834013 0.76169050917681602
-0.8869614084203441 0.13567386954716021 0.11642942559081249
0.82518668679904961 -0.45495389451737456 0.65395541317768391
0.28540643682994649 0.69939480700754153 -0.20974051547763395
-0.35411809892794488 0.31116520580665608 -0.73404941665834755
-0.24257488006388528 0.68946482384994123 0.72486784182428821
0.2859604397501414 0.081487621809032795 0.58317099017352092
-0.64962452978187346 -1.0073885928254454 -0.37345492559704851
-0.52545377664436788 -0.26648998000581692 0.6704748297519636
0.46192179845460846 -0.077714544363824523 0.69100827734078862
0.37930475546593745 0.069466339905377872 0.43020774900485748
-0.47469846237384927 -0.41264760406617196 0.60311934092709407
-0.40279368523509751 -0.041780588490843762 0.77477614826597119
-0.50616806132048231 -0.68806348384451965 -0.30089396731669638
0.27742326365417891 0.49792583210156227 0.56819681977254888
0.70513813948612336 -0.3018497246624614 0.7043579837833569
0.41205463536131892 1.204303430239948 -0.52153399549148105
0.059955576399237875 0.57333493431019278 0.6885815606071759
0.37050686209890893 0.71038564181024277 -0.29121256877537149
-0.16555928247772611 0.95523870792736965 0.11878621434607695
0.30893529663143504 1.0942809438699967 -0.48895331513714524
-0.44084410967894061 -0.44312053329767576 -0.46777602013743902
-0.72367293101397057 -0.42628368649692217 0.53740797443693822
-0.51131650457210798 -0.30338767673252143 0.67745204388765856
0.56126236598228862 -0.68670715353734657 0.48716248796634432
0.38411585993511921 1.169652336089035 -0.4846803228221539
-0.1558387429603949 -0.34937435149028584 0.6249634967836819
0.13317056080643486 -0.012218866636604098 0.78000063728531899
-0.50020375189616162 -0.31277330057848207 0.6593661528929573
-0.73275936895618798 -0.37564750635233501 0.34999728531927587
-0.74503400602032188 0.33197586514018518 0.31102885580808604
-0.69916551064047938 -0.043542785437995057 0.75906706958673453
-0.31292072582791719 -0.23923102409836883 0.80497709364471959
0.30397537453778734 0.24343571461928892 0.57581996154220505
-0.46253404544488042 -0.47294176138907229 0.59389732484598312
0.012676464218056793 -0.016876056359720337 0.71672372810314755
0.12335655313754779 -0.11427901211126645 0.80410426873807594
0.23285626714577634 0.0046884439019159174 0.77871981706447713
-0.54000720755085652 -0.69695970404279528 -0.35504645275864632
-0.38804995052443481 0.23403394665582233 0.59122424815907948
-0.16386330046637332 0.50820170155405631 0.76091196344903977
0.33129556965714446 0.74721739704618706 -0.2777838870771987
-0.57949707265754224 -0.29254376393337544 0.68574718126256684
0.74603788012257688 -0.46668402993934333 0.73037816716951909
0.64861727184123796 -0.27972077394681172 0.64981262628453607
-0.28339137763746003 0.46734356479795469 0.80754746276553391
-0.51328379074297237 -0.78122402779876232 -0.33562385435496722
-0.35576386700272544 -0.052438270750242211 0.78034288278690411
-0.39999069377345053 0.58702947983386355 0.71630530553352045
-0.087925823954780657 0.98494105637937857 -0.21321222834854225
-0.59661546324473469 -0.66669630305760563 -0.34773627534227813
0.096640388652079245 0.46603486041513165 0.75710641961781988
0.17599873226900176 0.11282017154900448 0.70525421115884512
0.23456764717460499 0.43586773835325587 0.65563422365225676
-0.31046406091671841 0.025991048876283784 0.73985122983262031
-0.61957141311544106 -0.38925372170123307 -0.51896261898526319
-0.048615773995347 0.65646455819346183 0.73513765701908795
-0.36109251530771713 -0.19345671872567216 0.81541335452786612
-0.24431903029045576 0.88926687751016864 -0.44129080068427839
-0.76318228233011909 -0.37473436447826813 0.45529240043356012
-0.1063877503224584 -0.091665096674931057 0.7453454485498554
0.29946824300618391 0.61827559832659773 0.092751456084272377
0.67538774165264981 -0.63934936711064605 0.59432277885857943
0.38185618477321337 0.69606531326544108 -0.23568321506582635
-0.14490364367576958 0.40541269908718114 0.77187228647003892
0.46793716719610212 -0.23995901209324 0.28168161972093841
-0.36018418994543133 -0.2974131832126492 -0.57935593328998891
-0.75821343813844932 -0.25511817232617595 0.58579181910950595
0.47890913313985672 0.94840416774862035 -0.34541362763377137
-0.34932062134773956 -0.27956652214725253 0.73461753560581045
-0.768663494401569 -0.45995599829881595 0.55676151298776233
0.2067625496765082 -0.0084243407329420705 0.80718690871972498
0.2196257006916229 0.59260642019281562 -0.46481036460470548
-0.39509978517513589 -0.79817240348377627 -0.28298093814914438
-0.79134056454400281 -0.31314377484571931 0.25125867946571034
-0.40929830459141581 -0.13797718641823931 0.75397435064119733
0.025747935821416656 0.85750126323541487 0.35342462863181723
0.43192832485762644 0.74544549758183543 -0.27422887037158716
-0.61102007894094246 -0.45301724545833988 0.60087657951318718
-0.72472449013118145 -0.40264848908063211 0.40036552140227855
-0.53343357673135761 0.22689058061898493 0.66057001949963734
0.32869890326619089 0.8192818813047591 -0.3272249654578161
-0.42555496780103619 0.53203746580835443 0.67008877967964153
-0.50913978417430528 0.0032046845598134865 0.74297074918370143
0.6110644364378266 -0.36201637769284911 0.74625282264111092
0.038501701565844426 -0.031640953355572599 0.74408511844890413
0.41642413211737983 0.57530810199079951 -0.13985456264463281
-0.47795941540600628 -0.038534950096137166 0.79191494960588926
0.22903848114320713 0.039409129557434142 0.7389353395013849
0.14717135777491697 0.34648939246176091 0.71422515945555176
0.26934871368128799 0.54051750025173728 0.62407894107271389
0.18571111962271036 1.1315558941881445 -0.34173710199554819
0.36900253497625479 1.1905544525837239 -0.44490885499434896
-0.81539152454674513 -0.41435349590042492 0.020286359678379995
-0.78692366432560168 -0.96716298720345684 -0.49302668222210499
-0.56723343270449 -0.1220197170374675 0.75356009763641296
0.78269527802060135 -0.5442674270904142 0.57621942386438718
0.57915147695669034 -0.17859770300844868 0.35770863214436233
-0.2179156992955199 0.54982181614582437 0.73325163112797043
0.6889588935407378 -0.25637727698968948 0.71037765576409129
-0.53320090340151172 -0.34636059017752352 0.706615013874071
-0.054148003005676903 0.22426630746570719 0.69699728180862053
-0.41826774189961258 0.28533348134181136 0.53972085881303045
0.69095097050820353 -0.28596806646844453 0.6076058492355223
-0.24137747608951332 0.42698421353207383 0.70787877519980213
0.36171027075814255 -0.25577557228638259 0.22498071592831792
0.20303762839587158 0.61958640829256773 0.60157029218497371
-0.75161776785950374 -0.23693044996034907 0.60795453152207912
-0.66079387985080706 0.22931612255030398 0.73373282676558205
-0.088921847287588562 0.2741700115136112 0.74823636806560856
0.052920242502316972 -0.26837243482810091 0.52085197571780739
0.43076984077627301 0.7906618778384118 -0.32135441762623529
0.10174646063767834 -0.11539048425426301 0.82423697488740544
0.19893541578622975 0.73671117053176083 0.37104116545749122
-0.84642614962585838 -0.65951796293445586 -0.31754112179084615
0.047460323811069349 0.22228011009921911 0.76215779932300975
0.31344213814803812 0.1812515963682344 0.60550127810409293
0.04176197789375502 0.93501994122594922 -0.21915058739595139
-0.22053810554613285 0.31156621058288891 0.76014163549242042
0.2534302220405098 0.72022167668614578 0.37404923719046224
0.58594122739441179 -0.46217362038234189 0.71968361180242013
-0.61747534349875854 -1.028595691040934 -0.41722645897849731
-0.69042802207230636 -0.54965711815836116 -0.13419115910324564
-0.39315281488788845 0.54242337442149235 0.81495666414720702
0.18193048339000195 -0.21871773467491362 0.73645137105388869
0.024697565771667707 0.56531430935711935 0.75303767914967423
-0.58000552015863871 0.069208613291670495 0.80006218026875686
0.31219505000415637 0.012043141132049406 0.73476513063026871
0.5262447917538301 0.86328901755132748 -0.31993040750155188
-0.42874588224193277 -0.60907219437617677 -0.13001069005406407
-0.32432392596330606 0.47057577296400144 0.78258581646308301
0.41175133159680144 -0.5850746749113096 0.62077327947208616
0.37132876854570407 0.045656894967875061 0.5667380983860113
-0.71842845923290155 -0.43704332188952932 0.33159253654837428
0.47943951357122727 -0.010173317225024903 0.39280830788090881
-0.81892111721931748 0.19218869606820554 0.26735520887878295
-0.43689459677986453 0.040175061932600897 0.65123682273270234
0.089558020120058757 0.084345077013791681 0.76103596860516731
-0.47546498939663029 -0.17191379973630028 0.79001620721631838
0.41848229040057205 -0.59659586957189958 0.47182682695974165
-0.20588420805501073 -0.22774839891821941 0.81078889948270927
-0.33531023202662635 0.016015901473205751 0.76426924058914736
-0.31163302030976658 -0.39449040753866882 0.62087701538590068
-0.20457075038184702 -0.079027376204165556 0.75407831636411515
-0.014959984976676832 0.64667119489899783 0.65885274839862618
-0.9121289943293267 -0.93066204877261871 -0.45603000615213318
-0.42247403836582298 0.19664439173757131 0.74395139623873874
-0.44449551125797893 -0.70142711620530029 -0.27328753684690454
-0.058239852661159164 0.62830539361932747 0.69233805313149333
0.14537670547950654 -0.071997848175767487 0.78009986801295383
0.2594920629329367 -0.11066947871717758 0.75149250355013919
-0.71605004333616962 -0.42690501301610873 0.45857426020910808
-0.3471300937914048 0.24193768297016138 0.7150633915067317
0.055911802861244864 0.11557126683378449 -0.66178708760196869
-0.44842754517701988 -0.33406895852713081 0.662632873907814
0.38549413248151776 0.67294446100929584 -0.26611181262801864
0.22503843190752826 -0.094552794294522791 0.80680350661202027
0.54896240946622177 -0.45472777213358295 0.71667505285306987
0.38346114601928427 0.70059476170767354 -0.2636283016969827
-0.69978012172554083 -1.0552407490192506 -0.41814253894684583
0.28673717915201924 -0.078203857803666565 0.77258697759025097
-0.064964940408036131 0.69787708402648896 0.68775892425479412
0.81712170329479861 -0.51116068624294364 0.52753392495988294
0.34354943435330321 0.1616314855358425 0.42471362365348497
-0.22901475351635425 0.44383458618142768 0.62697675282553433
-0.10572157078240574 0.50628672135046404 0.76088776920506973
0.54522972824064542 0.97576773099155467 -0.34804550223509878
-0.93395568709396726 -0.80626762681042141 -0.4212310792401901
-0.24809217675712136 -0.096512232281258825 0.77066772552037577
-0.57142263670559523 -0.046589986147235862 0.74230995265851618
0.25901154009707117 0.14870867545136957 0.46333602876944013
0.22452131983497714 0.97527762729836631 -0.31215871793120797
0.62318558861550644 -0.48950258851141903 0.67176435901150455
0.28964047608402788 -0.32753966616331986 0.71943909613145607
-0.25309492417114421 -0.022489887764856498 0.77707288417385101
0.50184404731472676 0.72421912341097716 -0.36941010682351916
0.48806432349405227 -0.67265156272841509 0.58578330799513978
-0.54095047740574576 -0.62919813086066601 -0.28954902891657142
0.45871139606744893 0.020875604115845547 0.44904104014733548
-0.43413341648875026 -0.093483354351965531 0.79795618526897627
0.35113920263644927 0.33929869303456606 0.23434714331907713
0.63269854613910637 -0.30309847070505302 0.71461060426755552
-0.41174755006314223 -0.5746103804058933 0.10958305505482357
-0.25947465296729599 -0.075386117776579553 0.78005544067627852
-0.71192493792802858 -0.27179505576115748 0.66757126552077395
-0.069787292511428456 0.53599351369231929 0.69352440886148514
0.14187830303594651 -0.24976269125319828 0.76786044663299435
-0.69500151851418102 -0.5278467770573867 -0.36446990665427492
0.090443216070941856 -0.1942368145845057 0.73108380859424216
-0.71308645796158165 -0.66421916618507204 -0.30332039296413882
0.145639895635578 -0.081914449484440155 0.7229748951833912
0.0029698958359690719 0.6244396067059661 0.66456793961328131
0.3570941490557924 0.052101727553123034 0.53176536888608794
-0.165988621096957 -0.23959656303039978 0.76312910525214406
0.12904092432663128 -0.09350615858453537 0.84086584887828764
0.13119014680863939 0.80947326853596202 0.56571591280487965
-0.53059392350949341 -0.3807269245793945 0.62492802254044122
0.22057852143551937 0.51948339261252485 0.62848426892837495
0.32120654354425526 1.2530329683387809 -0.38218701589470783
0.15956255640789263 0.26740030448451968 0.63940116660377555
-0.36264347149070075 -0.67714610884956006 -0.15088283232626054
-0.58036030834062047 0.33016271497547045 -0.64593136380264227
0.15011664332303809 0.033317945448953168 -0.58425350116567998
-0.51320445754288313 0.032360213169498664 0.77257550349717974
-0.47290328332972353 -0.27315861285061871 0.73417176300255704
0.83045440472797116 -0.20952815783992751 0.61423509781691621
0.55364665170474925 0.94575442043893077 -0.44426717143692329
0.75752240852481179 -0.25117859006141341 0.70850499112595244
0.20601396486547752 -0.42603479827754587 0.63530931561824389
-0.63478372158132279 0.13607324190773884 0.78870881743149823
-0.084106419392554921 0.30924253144926084 0.75966189329355416
-0.7973650334297917 -0.17242337828563059 0.19968140642989596
-0.17007080049763501 0.14283132474160531 0.77244907403450114
0.39910481399276065 -0.32256211334779472 0.33853664510202819
0.68380027724045189 -0.28981464623443109 0.73403536396281766
-0.40238437665600113 -0.21497579515236698 0.76211488131954042
-0.64588971093872116 -0.75249776255059952 -0.3106569577189795
-0.016654714288974803 0.29699351604436064 0.79133333504582382
0.59215651751545884 -0.57963662841089736 0.62536385676345674
-0.090317202054536194 -0.37292076317387757 0.65223639435037128
0.58321587851797474 -0.71506417798642241 0.54411429491910113
0.35460183725847094 1.2252759657694625 -0.44783976650619195
-0.75596512793733961 -0.7879889119501895 -0.38692111005006069
0.099585293484963255 0.83346434490819377 -0.43351465339262418
0.084801410301906799 -0.23291422769096481 0.64758333007919333
-0.62262158734574524 -0.26280913912744897 0.73026679690130436
0.015865170138620099 0.28556098912561545 0.73517347346854223
0.39720648795006119 0.68294359639508961 -0.32180603308699673
-0.87505192382054742 -0.67226875387277829 -0.35277496434211386
0.44024008719354124 1.1796493137216473 -0.43493337515629804
-0.32830751412630965 0.10259130084094092 0.79001634743949012
0.068873126298414578 0.642211565489891 0.67808031080546982
0.11372041754672835 0.49531864639459933 0.79654699293792675
-0.43449766713916227 -0.62855159721340481 -0.26197904813044914
0.40518262920289394 -0.1616384006591236 0.73435868968283557
0.71757043290816902 -0.46749326298364302 0.69661907118621258
-0.42186757906989514 -0.68016218807500017 -0.20279187146893207
0.2070271371200223 0.96386264252786624 -0.27258697903913642
-0.082104885529622695 0.5221691045323702 0.79082294122051522
-0.72446774132159297 -0.75572381783706444 -0.3570057217761331
-0.42715119865623818 -0.28058398913959159 0.74535293877291053
-0.70243359665556038 -0.6964921526818566 -0.33485825609584552
-0.75176970478377703 -0.98996566328251312 -0.44235768712947632
-0.31625476572845446 -0.039812906383879465 0.71076868898865797
0.28739878819715581 0.068244197986142119 0.60991172572799002
-0.34563818694975579 0.21146633444853435 0.73625259833837475
-0.62326993083612048 0.01312876503513305 0.5544856746668394
0.33216618389342001 -0.28363820699232889 0.081391581520822598
0.77444569458145951 -0.42179056825921712 0.65903698753855622
0.4772134959988239 -0.54868568063660117 0.39511515646367812
-0.20761036695942092 0.47826416752659817 0.66623604540579962
-0.72397619008325331 -0.40039351931789824 -0.42066574717752303
-0.4704034775105701 0.0098874360469762834 0.7805055653573838
0.39666604305032149 -0.52897206930452967 0.41558926963645249
0.43682928852566483 0.802981698583217 -0.29019603015995443
0.37076524494325225 1.0512955188719477 -0.41040511883467801
-0.42962256780255026 -0.10277169394679841 0.82962621310108275
0.016977439088506907 0.40423296060786207 -0.58333251887334114
-0.71232547314301287 -0.50612164256000636 0.2794213271753101
-0.43218380410065893 -0.77369797556996911 -0.31826686547573502
-0.19493610793236438 0.27066679493038315 0.77611691102999458
-0.66180489480136384 -1.0519462891584705 -0.39819077668365566
-0.01347432788580627 0.30188361085187498 0.7615459662523989
0.34908487856499582 1.1046768789129757 -0.39968437730462369
0.083677041875700242 0.91065850354212863 -0.18325050419909772
-0.25376080381410482 -0.1266782477506343 0.76749305391836131
-0.47523800643574221 -0.052077732608442062 0.78799042246705042
0.32909656269793774 1.1105631018825406 -0.38041769164424011
0.18592807050885107 0.42768758188309697 0.64331709785812308
-0.77581807560925398 -0.87102809577800677 -0.42541584084711204
-0.21066130267290539 -0.20490869311057658 0.75396655408773583
0.74529367756790599 -0.47644348279852178 0.43906511051864783
0.57229744120697146 -0.60752806032133222 0.61914935470627341
-0.71198494609258556 -0.70758103723035948 -0.37051132197072789
0.9150381497215565 -0.34095936784609293 0.46045035131596279
0.46886011091683577 1.2207204587989171 -0.45926972947648181
-0.44756472103896305 -0.51162661630635498 0.5527827661833129
-0.078371092119609242 0.25158380262007984 0.76144930989593362
0.25353383910994998 0.82538189219106961 -0.27446921743813135
0.14329126638679957 0.74621196792426581 0.57429401758118459
-0.4195088148184889 0.23743251615508498 0.59011815479694718
-0.4936326770659839 -0.88457534613229694 -0.37488857622393468
-0.40022254751759134 -0.65256395396788403 -0.17881576846982483
0.25151475242581123 -0.3769773594882988 0.68400227034137018
-0.83892770089957813 -0.66121269127876925 -0.30014886085422887
-0.72721798216061495 -0.070234651339935894 0.39126580816382273
-0.018477419122196803 0.48004368361888261 0.8073107725196742
0.3046432858245165 0.71026213843109431 -0.30366201598556941
0.40702639189481671 1.2250010683274599 -0.41853927604933716
0.20596036046555088 -0.40339215376587578 0.33128413280676838
0.67978529696662526 -0.65693939849006089 0.55525208972057527
-0.488684558349335 -0.017814818642189145 0.76582529704195323
-0.36103426919879955 0.53360548738594105 0.75461851440514494
-0.5157562713067374 -0.55252180701611309 0.48103745443340884
-0.24052175127055464 0.45450451392848557 0.71148854819499618
0.20793669004106974 -0.17056221277039452 0.80178729264637383
-0.067680639832140121 -0.044874637069446166 0.76768523989634119
0.69573012050131788 -0.29850987871091927 0.72955231909896412
-0.39642991936995742 -0.078768177179687093 0.82492312495377362
0.19999168580619131 0.7236004620327865 0.44851839547896333
-0.67023431750308715 -0.6077886034369433 -0.22045189319280922
0.10006912114282684 -0.12172530613827082 0.77212697875054559
-0.42868065070228289 -0.6348047553959244 -0.22337829734935966
0.31940619754747623 1.1665304111302959 -0.48019261212917996
0.74246105959396347 -0.29415779761611027 0.71032887622197194
0.28924544811073027 0.54727922849372668 -0.39208044572444933
0.81425217456677879 -0.40476090937629383 0.45963737588611764
0.11949788476964862 0.63393042525040677 0.61943043557879207
-0.24241237703636398 -0.65106328040149464 -0.21722341111784615
-0.74613692837312184 -0.78682447919437148 -0.40110666579009546
0.04181496356463632 0.32678479106418923 0.76989708649281141
0.40158755038439686 0.012330300262586746 0.61210862461239302
0.7254044099523036 -0.13377402457412746 0.50678460639721123
-0.73617383197870623 -0.44334984587370929 0.45186432691454215
0.13250371380583714 -0.10973983701134848 0.8310786783557802
-0.59622183149187946 -0.93075880498780972 -0.42039566903556036
-0.56880977277781319 -0.59731839329393122 -0.36117608669027135
0.45601461623553452 -0.041671521122975896 0.67388880718584332
0.77865575209991555 -0.43864000925083246 0.66183364830207125
-0.26857167735770071 -0.38256713623047744 0.6905484223948406
0.22213322724036344 1.191330106050426 -0.43656556960672788
0.24871748565913832 0.89149909175882058 -0.31521225379559326
0.84454324178218021 -0.26900494763624838 0.57917794928990673
-0.11516436321078793 -0.27231924141743757 0.70201768512085749
0.21729941560496813 0.88325261125967813 -0.30497184761327034
-0.003370372472268679 0.34928633387927022 0.82893769455171906
-0.31639645373438618 -0.59190154568082676 0.22477521091678554
-0.73742786732617449 0.15010779250777695 0.69500088646637792
-0.34033751745135321 0.30677579153452683 0.73153054358602887
-0.8120952911692868 -1.0466933746051215 -0.52607989809608924
-0.18753861751176171 -0.41872517688515298 0.43009323033465208
0.22323825033242684 -0.45516033298486125 0.53228788327509591
-0.24578314419942426 0.43649216594456686 0.78758534259885238
0.47238557706159767 0.019067920364278734 0.56952591163209476
0.22079668178018741 -0.0043582466937648334 0.79088707860640639
-0.16557674064845029 -0.52824513638647641 -0.31782057944500508
0.29818024259819431 1.0442620015458086 -0.40698357234787252
0.27258615692187282 -0.30655249590633904 -0.056750554535902609
-0.15875842570469478 0.28209461248336076 0.78218631460121202
0.023212556696063702 0.56222601795458615 -0.629328069049091
-0.7547151364683371 -0.98978971633555091 -0.45238417267211517
-0.77855328447376237 -0.071441075399562237 -0.50311393609599264
-0.61527120487292042 -0.39848825097624019 0.66004258227812329
-0.42520117774267274 -0.036197641548881165 0.83513237494008763
-0.18048020393770714 -0.34137540321509974 -0.55593909919797824
-0.50776693483220636 0.039868324098573105 0.66987728340257036
-0.47659354039748625 -0.10229963246307072 0.79066891319321897
0.30049916845776936 -0.36754599659642118 0.25198641026040747
-0.83277853958524195 -0.60769631814332747 -0.29989260640612514
-0.13488805349198352 0.24115389438623502 -0.73908026350701306
-0.27043832435999837 -0.29276335735659487 -0.60342246906737174
-0.18766532845512174 0.17181276811548862 -0.72888286667123836
-0.4990619607723098 -0.37898274636917417 0.64355693910527023
-0.49304057347793362 -0.47243139985277427 0.56647205951875534
-0.8052883619353981 -0.94500517058411049 -0.50583056046903252
-0.80273826925572744 -0.9155637076545009 -0.44822450851624396
0.24276492041727393 -0.15929892149936009 0.77342543945303177
0.45984345265140281 0.61873841066348945 -0.21046134422865848
-0.021149644921452437 0.78650196032955488 0.65526099084500444
-0.90047435181749436 -0.22514385607055232 -0.30527222000599963
-0.43153482180517011 -0.72186033921265214 -0.30289034781513635
0.27191613670637982 0.84366479413148987 -0.31376907072177929
-0.060645262326865956 0.79901710146192073 0.6300279119170149
0.71821849481184263 -0.42804876755023979 0.7135325510162005
-0.82416699295574236 -0.77442078054398067 -0.44249251368371034
-0.58539610516002383 0.022279022564143602 0.75904659063640167
-0.48704611204348558 -0.34511707055690621 0.62759369299341117
-0.40690233505652351 0.42399558549682759 0.7130289662291176
-0.5636324896940712 -0.19856694481505865 0.72534782977806245
0.27487807841463163 0.41019818292303256 -0.41337184406153682
-0.11064087954793722 0.37814467075079605 0.76564197462135297
-0.60917273173797715 -0.34629798931844924 0.67217584794545004
0.17918818754800947 -0.38849546203968632 0.64671086453824955
-0.066815875817249237 0.52672040836193457 0.72898538766538579
0.6124074900771419 -0.39109309466810682 0.67343527456300833
-0.34304279941319793 0.50961072616015279 -0.73553636691068647
0.44904341755180766 0.55055320959832521 -0.18019528970113541
-0.013724399111361918 0.61065781994105706 0.65823531749550668
0.21287401972765307 -0.054173442199672017 0.81214225604168888
0.75488506702724423 -0.33424373736858115 0.71366127682339453
0.70397439931997152 -0.46550343884152756 0.66596553013364712
0.16793038379286473 0.71163018489103358 0.50757435463424017
-0.42112775568498928 -0.38707671628926832 0.63788387186433937
-0.44859196238995613 -0.68457793817163726 -0.30825557213764654
0.088121705592502542 -0.17872607732436041 0.75461118627879742
0.33038101624042659 0.71121457262026944 -0.28757346317199506
0.46755845093420512 1.0886290918907235 -0.45078312971956791
-1.0100698735281193 -0.92366289335895946 -0.49312217741735509
-0.57833805514776848 -0.094803710120950235 0.73360385683949403
0.15084661916862141 0.6909929613571073 0.62139719874930677
-0.89142219022226787 -0.87077643469250088 -0.40116357111011425
0.31973229774079004 -0.54825089949117878 0.46077566999149511
-0.18673434361031016 -0.37337148972545009 -0.55618360930857591
0.28609795564283669 0.38368571298917864 0.53354711285781775
-0.51646022456613327 -0.45512552468286849 0.59345204659720352
0.055583179352649448 0.84998408703069739 0.60837104214773063
-0.75589291983097562 -0.33730364185000816 0.4885145116403784
-0.16295633281589761 0.27080373155230753 0.78333543563987362
-0.81789058869672404 -0.82573512384046577 -0.37664409560771617
-0.26484584225817165 -0.42811260654794747 0.67461463484678319
0.26430923224073521 -0.48762308997308068 0.63301465059442918
-0.80881364176786597 -0.33161395296138441 0.55212238838891992
-0.49746966588914099 -0.01077795722920083 0.78914973446521941
0.61264279597984439 -0.46039344259764636 0.73049793053299439
