# XYZ point cloud file
0.85313455197548027 -0.39695835195355622 0.52255836064110639
0.67865657073388075 -0.34015163077482358 0.39951550313523043
-0.53812003585795987 -0.60070385585251485 -0.20455575416848859
0.14743241353735481 1.0950579110987464 -0.34480393699367706
0.70580935613953777 -0.4447443763108947 0.66851323366489623
-0.58101732911934612 -0.68131764895544711 -0.31535654037313954
-0.12817944510567081 0.48564302540562254 0.76595358483395248
0.1551134331340851 0.67417122159700305 0.61069464987813404
0.30022133677191665 1.2535967676701909 -0.42020434706338339
0.30357233815058571 -0.077725046734450576 0.73903942792452959
-0.72747130291826778 -0.95119518720358576 -0.4351103569444108
0.746783026940677 -0.35672906454497633 0.38736865698847822
0.27450831291610722 1.0493689094014069 -0.46708642596643468
-0.21213403230000427 0.27603472911388449 0.71341832812790607
-0.047312738298130874 0.56155358378598441 0.69311865226322311
-0.75839879749525885 -0.33460713073062598 0.58312009525776975
0.044956264982181082 0.29286555531263825 0.77973231437250945
-0.92867764976605338 -0.69503401070050908 -0.37755364207720277
0.78946047459673796 -0.50306266567359237 0.64988600040251754
-0.40438344500600198 -0.062171818688196545 0.79716239948264089
-0.016900871312325094 0.77706148606101277 0.61680768659594154
0.096225361077792115 0.55441651714500062 0.6684522153964112
-0.65301092113534498 -0.30796479536053845 0.65347320261980624
-0.39219132423300662 0.071183475551075848 0.81611838560649463
0.19303274980784124 -0.2408842527381081 0.71407576239691473
0.1226140395393891 -0.18238534467890544 0.80747990196194763
0.31893778346720403 -0.19822086537254013 0.19325357623707795
0.39755417700203388 0.69480880514227372 -0.28371101699247525
0.069869477120799495 0.52739688752217484 0.74346648866857912
0.0045236510848463141 0.41280171948145039 0.76922230086399956
0.75814515044115272 -0.58321910480730188 0.5118918691520431
-0.76613036452268091 -0.54289197196358163 -0.30456364749092391
0.066714403855118398 -0.12052753780693504 0.79568796923892826
-0.35886513959468092 -0.32322344268559533 0.71720270068180891
0.10628087023286614 0.90976090442051127 -0.30480441433743355
-0.49589342514084933 -0.7099474851149381 -0.33647290263354357
-0.34393089876578653 -0.37470803313931977 0.66488209225698824
-0.34417728472630582 0.36565129454991441 0.83755276721164584
-0.3841967481396491 0.38106345281472276 0.7014959881042282
-0.57596788298347468 -0.29205405516199745 0.68323426167456436
0.34124585317817235 -0.32139399653500789 0.21878169354192423
0.065131744779922229 -0.15843370539754087 0.77036694567752839
0.39977775631548784 0.70396320579683391 -0.29008970419779345
-0.74038117361261913 -0.60887376555485861 -0.24675773472205975
0.31322009631120995 0.024972072752440289 0.59894779691920519
0.005600254405758065 0.28970685832882048 0.78192120540941445
-0.42100380883419541 -0.86043061529887943 -0.25312250250119916
0.071576556380531287 -0.11132860542842815 0.74570306232195271
-0.21213800938147642 -0.46710424940997908 -0.49526186868693145
-0.90344509666672135 -0.59374041978564129 -0.34749711163958708
0.576551007546664 -0.25723650004617826 0.35226241399469593
-0.09520263413426644 0.76132414393559245 0.40747084933137945
-0.58485647580773037 0.25398243644220742 0.67514315499954058
0.51578148925412526 -0.46324001743929988 0.71407002607434933
0.4989035339393606 -0.04361665035823914 0.43510263854250653
-0.33815326194147932 -0.71161617434767077 -0.13655566347718917
-0.034240159032037809 -0.32232232057486288 0.46613752143220566
-0.086720025819216673 -0.43163006278247362 0.3059800152270693
0.11965428936447431 -0.019213650745323552 0.73686868797455851
0.27694833323105339 0.28511730639884636 0.50496226928289722
0.70222862813950382 -0.36352057016717465 0.63933428330331665
-0.58244756436821765 -0.26704867515197428 0.66439308657471763
-0.23535128580219578 -0.24323310182662539 0.69119377418019035
-0.51767435683202701 0.05265455987729073 0.71155904978915707
-0.47001600203825422 -0.68590342253625947 -0.2592709799437678
-0.84332863404364033 -0.93055534065383938 -0.42476254420738435
-0.52024674198136678 -0.75270770937880638 -0.30893191814870669
0.66957405086439437 -0.4643804549071926 0.61796921507886893
0.29113210020087799 0.64313817510764371 -0.0010224581487943141
-0.78280659846430156 -0.36787329482010689 -0.078941829495114746
0.15742963862734083 1.0595544252517903 -0.23240051203419299
-0.32858579755688089 -0.2435204088498466 0.77278807443524045
0.39650469891929152 1.0196744621040947 -0.40867415067027224
-0.16471662231903217 0.34966946420584311 0.74882190012571748
-0.35305185337911915 0.33976849348220117 0.68661843752855667
0.023981377244376212 0.69262709215643325 0.61025233309160232
-0.46773924666322886 0.18706760670002875 0.66140586522516909
0.29463369863187872 1.1125119576380456 -0.40712597354857571
0.36704734691588126 0.74093727750753968 -0.25987297964379508
-0.35918149358843987 0.4024377011010829 0.66402572198319021
0.22157798014657093 -0.11333811364494784 0.7927351054741365
-0.21999510432618141 -0.46633733194094962 0.55177425425947213
0.01194967114406964 0.67924641897716675 0.65697766246457689
0.20341596683314567 -0.36112114394384998 -0.15946381375206009
-0.82062632526123691 -0.88492082551724716 -0.46474369777302904
0.34251297520683721 0.44127684401322198 0.39792633884578876
0.71295266465066343 -0.39334217382012726 0.68185963695038332
0.16363814731475923 -0.14537657397848891 0.82578441869074659
0.22821490765794827 -0.13815893861303064 0.80387694473986571
-0.44780160964528193 -0.28896013803929099 0.70220442786266091
0.44311818825172455 1.0443814007868037 -0.44897717823969341
-0.40650640597095267 -0.58769807314670786 0.24858142583497056
0.760292335469269 -0.26085540447593369 0.66878901047128281
-0.19228684930891671 0.77243738845150167 0.58325991191932758
0.26476485823977747 0.33718745088242408 -0.47251554316246036
-0.61405693583550613 -0.68116860758982289 -0.29883469220416359
0.26933437223511358 0.92499585308190602 -0.24418197135412711
-0.77173180785998463 -0.6421599995492131 -0.23534482565875692
0.29138838126036148 0.74822188723894578 -0.3046661443509926
-0.86970734958384144 -0.86576034818419867 -0.46023030942894927
0.15584215981303373 0.36580857012053203 0.65647819919857575
-0.39908306204681088 0.15388844179354422 0.81277148919540831
0.20017329691601304 -0.020981791566879515 0.81139002129864757
0.56060968081041374 -0.056349370561189716 0.48430466089695301
0.090279809593462268 -0.38623203201348133 0.084733101089163654
-0.022502525241764104 0.19950350530742655 0.72790500541222158
0.2532546908905946 1.1373548646154465 -0.42376466700242066
-0.47915470232304536 -0.38942091883137309 0.65977083776574563
-0.091440527769986346 0.60736447195905252 0.62812963589064363
-0.48319704471713232 -0.11159150032423737 0.7365581712529643
0.16478391058200703 -0.089490290203445788 0.75791391042297285
-0.8526009767010807 0.16969111292632078 0.10743161187108985
0.81551193759432339 -0.45487982634520252 0.65245724461082233
0.28303836368906765 0.69409392660517366 -0.20466608714457912
-0.34395891158514758 0.33585449312457683 -0.73398188084203575
-0.22474924718721745 0.68968799995481045 0.72204299313834674
0.28211859613184842 0.075365649171495575 0.57912247185468324
-0.66738133486632734 -0.99994418847989186 -0.36190840997036577
-0.52476610657882894 -0.24651127699838504 0.67288016697233921
0.45586471306538101 -0.083173707765342941 0.68622782007385474
0.37256002062553506 0.059934449608105123 0.42679576020177201
-0.48019438736148867 -0.39302071577246611 0.60843363055711919
-0.39763482494270752 -0.026635519247828476 0.77439420252001501
-0.51075580756688099 -0.69247585606549 -0.29577951131237512
0.27907875380572555 0.48019876620703328 0.56451308927490373
0.69783780933655493 -0.30400238607940655 0.70146681766338403
0.41267316350320637 1.1812961213487281 -0.51595007213816846
0.066503860834491668 0.56087354921839871 0.68344936830173175
0.3607823402888819 0.70031970058403936 -0.28609368904060872
-0.13182708651030151 0.9730398773288923 0.12279551029857405
0.31145997112535095 1.086107304156372 -0.4831170217196723
-0.43551171656541676 -0.45095859449222697 -0.46671528652242955
-0.72553610083870668 -0.40153655662840038 0.53937808846700719
-0.51234866263289147 -0.28298778734331043 0.68056453062921562
0.54325645244664145 -0.67635521581815161 0.49071782284975107
0.38595621006596836 1.1502129421218932 -0.47870094858104828
-0.1628268873259815 -0.33655289628399032 0.62847113630648188
0.13072460948152997 -0.010935318525678195 0.77547679888429855
-0.50163022345047237 -0.29292970745503588 0.66268802114825043
-0.72832216040226472 -0.35585344663774077 0.34964109199206739
-0.71063530189410518 0.36533972048196972 0.30764499057248784
-0.6879076160642299 -0.019530537795830583 0.7569634957037934
-0.31477338305821778 -0.22171732222737095 0.80682240625853474
0.30188508172297723 0.23260421043784607 0.57166260529248447
-0.47075108208853012 -0.45242517068874921 0.60064100540955145
0.011448539918479383 -0.012899060887507918 0.71385200859239362
0.11996771890790736 -0.10911691088831654 0.80056965100674304
0.22974749960843166 0.0028650140355814813 0.77341748058652016
-0.5425227447531995 -0.70140189061439884 -0.35092324707438038
-0.37331681230659175 0.24807550306186021 0.59064273968389358
-0.15292256314126185 0.50669644207615727 0.75667972008497308
0.32541904308822112 0.73943530076949826 -0.27228975467368599
-0.57917426326790045 -0.27035841535118532 0.68816349516832176
0.73968119333769256 -0.4608002040108965 0.73014725197166808
0.63976381484124989 -0.28268907164472123 0.64639028832456269
-0.27011756432759437 0.47082007558940431 0.80386540580572685
-0.52189082481670468 -0.78543641151650645 -0.3286461150476363
-0.35185064764856033 -0.038343955188558265 0.77990895612912325
-0.3779733802283225 0.59756806259537298 0.71471839357795464
-0.057237917263657678 1.0083142228357906 -0.20795900603080764
-0.59565658048850745 -0.66866643572445117 -0.34541256334239634
0.10000082336772298 0.45327349250713267 0.75064886295921962
0.17439865872058924 0.10912921344881954 0.70038681934398994
0.23583082638433694 0.42034887477913907 0.65047989399032069
-0.30511375661141216 0.037571689883285853 0.73879774526804276
-0.60525791574148524 -0.38856136529535901 -0.52210451208384612
-0.038634980374272487 0.64567692490820283 0.7299487600758594
-0.36109982864422907 -0.17589329452514813 0.81665677442917506
-0.21215590847159671 0.9315340863827255 -0.43785355106092361
-0.76021502980646272 -0.35150289359338993 0.45479777382519337
-0.10737177233278494 -0.083056586214529826 0.74398832205432619
0.30088609054115611 0.60736230451890494 0.095629703112020792
0.66261821585791081 -0.62824466932338008 0.59654758444701983
0.37306996856238328 0.68445574996255842 -0.23074617900306649
-0.13639846044253723 0.40500051884133725 0.7674671757672229
0.45255417654629415 -0.2507269503925782 0.27791392924802061
-0.3544121704236165 -0.30535910882410278 -0.5788646895912759
-0.75198042410398491 -0.23010642590190189 0.58439378773504647
0.46787447628825607 0.92513697962992725 -0.33843946161180583
-0.35193087493738773 -0.26192885397705634 0.73750438925967821
-0.77205044196512151 -0.43246411282282482 0.55854472086332407
0.20389637969740271 -0.0089861494083165461 0.80185017640354772
0.21002535446200454 0.5941567956878856 -0.46039654655673168
-0.41045135265088373 -0.8048763035365516 -0.2731591276305938
-0.78046697863072145 -0.29302881701158778 0.24785420184986684
-0.40669663847306614 -0.12141501795610843 0.75476472265848393
0.044355037139196973 0.85160021447627243 0.3541897808957426
0.42001442137848954 0.73017933696563497 -0.2688498358543665
-0.61662127844913028 -0.4291103887951766 0.60583495570934964
-0.72281825215533768 -0.38182695180352777 0.40095151124567874
-0.51554625356714245 0.24519622252308437 0.65923459357524727
0.32345897865675788 0.81177315973086728 -0.32122507899050667
-0.402943218362247 0.54577242585191144 0.66897421936325507
-0.50004862527130545 0.020754692953843801 0.74227342191521295
0.60500085812189175 -0.35744921513822248 0.74442159679983178
0.036714344853461256 -0.027742097583376868 0.74086568435519418
0.40623204222523324 0.56116650233248822 -0.13651232479044317
-0.47135279040133993 -0.021217505673197579 0.79144323186757326
0.22608786213999466 0.036393961724850321 0.73381039655327918
0.14869333748837921 0.33669421955217893 0.7085540256526901
0.27131615597204739 0.51983735078045235 0.61942226574826975
0.20421476565707586 1.1299768208172365 -0.3358715983599927
0.37493916149210538 1.1702734737122098 -0.43875888953494169
-0.80364074700609311 -0.3983330763442261 0.015517854662691732
-0.79100801464943471 -0.95800996463547872 -0.49008600726100493
-0.5612740660134925 -0.10142302780039447 0.75370384506941246
0.76957432756872368 -0.54164863601732982 0.57518205948428758
0.56437536409485922 -0.19086577956462047 0.35284524292651653
-0.20388660307800421 0.55106311970264299 0.72996117125406279
0.68194478587988883 -0.26011189683973956 0.7070303652098513
-0.53586101848930534 -0.32374277857795875 0.71044524720899194
-0.049991382326085798 0.2254325976281697 0.69343229421216712
-0.40033936104619894 0.30149097689463611 0.53947940728493471
0.68061353771952238 -0.29098767814462367 0.60392757863206015
-0.22848275899447135 0.43205333649743882 0.70521493290999437
0.34706242461478798 -0.26581136598572641 0.22252557420463859
0.20775581135397125 0.60015350049049254 0.59740717158383561
-0.74505159165876522 -0.2118508580891354 0.60656868228121574
-0.64041423679438214 0.25133913267951469 0.73094260847792381
-0.083657576181264126 0.27485146697408425 0.7440746671376921
0.045398985648642309 -0.26358040156089801 0.52163249588048188
0.41832353162627367 0.77552787276407664 -0.3155839842122603
0.098631998638901486 -0.10948830148751831 0.82071541151542782
0.20802544952570479 0.72130404652247804 0.37111835406535576
-0.83681668089133288 -0.64959474693087937 -0.32321687938122068
0.049018855771297609 0.21919786830796917 0.7568657700067174
0.31053029061461146 0.17158927806075419 0.60097076784394865
0.061930517489501291 0.94718294964373195 -0.21340289870538065
-0.21136940125191117 0.31624598279414906 0.75684228458387182
0.26034076835831232 0.70154507377200803 0.3740698673242413
0.57867206290334794 -0.45272513219518373 0.71963217241261646
-0.63664181017652988 -1.0231398052488458 -0.40449411637121635
-0.68543355746721701 -0.5426785639490701 -0.1343913661692735
-0.37457447895525631 0.54962906460039473 0.8120951478652243
0.17630391181770921 -0.21215031659961481 0.73438924597505029
0.030972541690987399 0.55278472511014498 0.74695971315895449
-0.56793671369662224 0.088528996866661824 0.79833720263294161
0.30826564245151467 0.0076622357493798532 0.72948407527261239
0.50995035987508164 0.83844827995583993 -0.31344990354793367
-0.43541352254803201 -0.61162848249672042 -0.12396856272380852
-0.30912012400335787 0.47661160421313076 0.77958615359723282
0.39927007228973332 -0.57043639305726268 0.6243989335452671
0.36573367134881885 0.037773563803150001 0.56250113710492755
-0.71705214671749262 -0.41792366915260803 0.33245941353338893
0.4692494642328322 -0.021908715668200518 0.38880198760499063
-0.78670854644470989 0.22455215741120149 0.26146361779331961
-0.42723678621117767 0.055240708609865408 0.65090137777274126
0.08873673683036909 0.083825021944147426 0.75625419736270594
-0.47307042868320748 -0.15251195213841662 0.79112913743768054
0.40109616937258163 -0.58892595223777944 0.47476624730975381
-0.20854129127787591 -0.21253198742625434 0.81174666937954143
-0.32989391064957641 0.028460215022055202 0.76322570968869563
-0.31846029390541064 -0.37805845990407683 0.62603770930724423
-0.20383579129768847 -0.0683932228068036 0.75327309947109633
-0.0046167240039611812 0.63721045541029775 0.65476951370665137
-0.91025329313674996 -0.91496218636857263 -0.45939832351307519
-0.40999135449060997 0.21009611038322307 0.7422899229514055
-0.45266613188868066 -0.70730813667123105 -0.26663793385708345
-0.047457672240155624 0.62062279843361035 0.68806385270089887
0.14214947488240437 -0.069034865704954207 0.77610127474006951
0.25492648704545662 -0.10920855313218603 0.74740166027108401
-0.71666560628281495 -0.40461858974063425 0.46018547831158152
-0.33522429736565851 0.25281712897928532 0.71329123239930414
0.04427615621419978 0.10813325634581161 -0.66050659295025405
-0.45143470572053834 -0.31495691884645272 0.66656319546466936
0.37487311329961148 0.66173980682939848 -0.26140304738453679
0.221353385146279 -0.092274891131300496 0.80228885653108684
0.54144480593093158 -0.44497765874367046 0.71660457505915254
0.37371268535141589 0.68926519923733232 -0.25863232476173614
-0.71765172849336878 -1.0444094932113415 -0.4066556212123098
0.28256269217135799 -0.078333715453790198 0.76784224858875305
-0.052765516040034655 0.68873560642885989 0.68357712714401586
0.80191307715649884 -0.51323030741972531 0.52492257726127356
0.33880812891237433 0.15178469905722825 0.42173272173482168
-0.21479667250903489 0.45033607195760417 0.62525485222581345
-0.09662157934872706 0.50199742746441323 0.75605727860307681
0.53074514827612607 0.94525308370727557 -0.34071493458122948
-0.9253502283898043 -0.79215086126620005 -0.42897920663548383
-0.24712727430327952 -0.08435341598418189 0.77024097197919339
-0.56261623579869324 -0.026756946593663677 0.7416860713297968
0.25606917253491179 0.14202217232683068 0.46046457009605568
0.23280319818577677 0.9732646016060954 -0.30578716676652284
0.61418002925650184 -0.48133351114368672 0.67175077334777988
0.28228761897694099 -0.31903736052457576 0.71841360639370855
-0.2503268121603055 -0.011570415057819972 0.77582916245413891
0.48089692692828923 0.70563031853341229 -0.36455509077409243
0.47381205833273876 -0.65634839701482495 0.59089424901836729
-0.54158090751151367 -0.6320300725434993 -0.28618928694667733
0.45013105931183972 0.0099166356889024421 0.44505305295344044
-0.43005180198101467 -0.076480909743830594 0.7980545248445825
0.34716825890900793 0.32735811690914773 0.23370555086781231
0.62575820740587851 -0.3028825019488175 0.71176242916632937
-0.42095904046912036 -0.57026486445081348 0.11675026039321779
-0.25785182480527613 -0.063285069210698097 0.77939017306308145
-0.70852947764782392 -0.24644201740814076 0.66774280476193937
-0.060109366296816624 0.53135814267461567 0.68943649555508912
0.13638530242892788 -0.24066999879564399 0.76644525805973096
-0.68412505517539879 -0.52495253449638368 -0.36718557264541651
0.085573417299665167 -0.18697485933062952 0.72945738572040142
-0.70879069617748858 -0.66013947715694066 -0.30381543601335448
0.14193685094351238 -0.079241283085780267 0.71958684393400141
0.012303297089824028 0.61439503181838795 0.66025276840643876
0.35146106055963422 0.044291452405809562 0.52783133129224957
-0.16947885429278653 -0.22582153357169643 0.7642279244792789
0.12612950504122811 -0.088800975331021714 0.83668922787010125
0.14129668025823605 0.78807336855384968 0.5622698180770298
-0.53413393671094367 -0.35977687006190173 0.62926399977259084
0.22332449784037145 0.50222500464077213 0.62381199784907082
0.33708908024860484 1.2324162461776429 -0.37629754596903719
0.16033851148059597 0.2607043725001712 0.63498685173811964
-0.37467964835334522 -0.68211162821561588 -0.14284184509346431
-0.55531509152747383 0.36731268431640507 -0.65012970255954983
0.13552510366626969 0.01819553520836259 -0.5844142441462381
-0.50347137892662186 0.049853439648200659 0.7715219386577914
-0.4736965342521664 -0.25292010168649171 0.73694471774832593
0.81963937185370117 -0.22224156713694088 0.61026842682301563
0.53256491994595745 0.91834217985788291 -0.43772476964722795
0.75030028556361206 -0.25739465978785514 0.70528625873421902
0.19557242165981226 -0.41529770244556197 0.63708840482070173
-0.61908429037914159 0.15685475018987782 0.78624630952962704
-0.078539817762250053 0.30877954215419057 0.75516026547598969
-0.77905519240521937 -0.15070716480824542 0.19473765256267406
-0.16548384281355855 0.14848164545695308 0.7693295205293218
0.38420612134884458 -0.32864884270450578 0.33636057466432945
0.67750669317051315 -0.29120772111072801 0.73115354482537498
-0.40232524281442172 -0.1970108714052432 0.76395312729971021
-0.64849503163588951 -0.75086032314478812 -0.30722155205377444
-0.013152462771204299 0.2936792570288782 0.7857863655055457
0.58079366337317584 -0.56820734054520461 0.62718652759423144
-0.098371503628317036 -0.35959218036900076 0.65565378985942857
0.56732715200816308 -0.70051863277424986 0.54889618320766509
0.3639452914638257 1.2049162943470799 -0.44198574557940606
-0.75410269864641633 -0.78265623716134458 -0.38702475110516232
0.10619814806248051 0.84634081842817321 -0.42790377007767244
0.07860249498702121 -0.22625383222878614 0.64703945311166144
-0.62089952874379817 -0.23890610186305139 0.73183195231856057
0.019087496975739526 0.28233293639857782 0.73026421184975909
0.38401917577242006 0.67162668735788911 -0.3170362636136943
-0.86405936230822933 -0.66157401817825656 -0.35986468787067594
0.44059058581316712 1.1516513843129572 -0.42823901742737558
-0.32116359015511264 0.11360632586021779 0.78809412937966705
0.076253245314633844 0.6271474424829373 0.67297453942316388
0.11641791554098724 0.47934382901163186 0.78911089748614582
-0.43953994363241211 -0.63469751183829293 -0.25670670109543181
0.39947268997199092 -0.1617478514455466 0.73024843905445103
0.70978386295608997 -0.46192763768953493 0.69606803734603595
-0.43113184608748867 -0.68484628852170815 -0.19569999018804829
0.21702048822197018 0.96251708637098643 -0.26626991345884043
-0.074033871612937396 0.5152890114043216 0.78519663210221857
-0.72295901951111974 -0.75165299554804799 -0.35645430033454861
-0.42885175069757153 -0.2609780934276551 0.74832412668861537
-0.69929311930922688 -0.69345627547104582 -0.33469660894413167
-0.76109632665355154 -0.98036760363845277 -0.43625796798996674
-0.31226510965494203 -0.027401388150707362 0.71049552664728566
0.28350800815241062 0.062467337702421633 0.60564500721901915
-0.3348112129796732 0.22225372467570281 0.73436679566314211
-0.60832940233520949 0.033850755623182405 0.55328779492170099
0.31570318248937124 -0.29773200158785929 0.07912838848513104
0.76517928570290383 -0.42153063367669441 0.65721471621845495
0.4584279131065534 -0.5476567247773545 0.3955841942937024
-0.19405776403582742 0.48230202275485889 0.66382984618578789
-0.70694890974289804 -0.39435100403230505 -0.42601057773456219
-0.46239365289329282 0.026325625462365387 0.77966753016059176
0.37911098247926311 -0.52640497094321548 0.41690153333789226
0.42562639982811223 0.78650203645862771 -0.28427263953697768
0.36942496107381739 1.036019642341065 -0.40373920359601456
-0.42608421529999196 -0.085349418826325518 0.82970002081052385
0.012200218374722738 0.41267036478925956 -0.57982813243056874
-0.7136840372072113 -0.48804437687186919 0.28134464769028789
-0.44386879774174126 -0.78063558911468611 -0.3100220514435712
-0.18743494451244924 0.27479950887745153 0.77253204795131225
-0.68185163901578294 -1.042509434206083 -0.38525020310699354
-0.0096633795227658581 0.29887209281270843 0.75641486476644459
0.35269493934682838 1.0890262599922882 -0.39308918175666996
0.10086307581125897 0.91835292680257852 -0.17747198798379316
-0.25343648099814153 -0.11381186481869854 0.76749526387179579
-0.46906046253265199 -0.034680417758680804 0.78767118889429444
0.33515766845597561 1.0960649980102599 -0.37384141125039694
0.18819009932115716 0.41510510510766552 0.63853354701997667
-0.77671052717879618 -0.86386217337280113 -0.42438189944600335
-0.21285188815053946 -0.19140052559058685 0.75487159104401513
0.7274127149617815 -0.48170058379142455 0.43532048362134113
0.56041728590832784 -0.59453940093029733 0.62180605039646331
-0.70807441365392032 -0.70483981152559627 -0.37082265152305993
0.89685265720768914 -0.35576349164800813 0.45463233421756222
0.46896942982082201 1.187883482317861 -0.45276684958312874
-0.45749644833271352 -0.49187498514943639 0.56042931928152662
-0.073847782730101841 0.25216301904287208 0.75710151686767801
0.25498752167108307 0.82258838246704757 -0.26846815526279855
0.15186601391390653 0.72634031873870852 0.57072527200282153
-0.40368500821287068 0.25262528893520431 0.5895428937595506
-0.50846129380158267 -0.88861119142568201 -0.36472385378261052
-0.40920816935701199 -0.65740195954764724 -0.17193008653451969
0.24281434507029154 -0.36702281038060747 0.68428975062735553
-0.83014434493382749 -0.65129464597532882 -0.30527730800112085
-0.71001742804607826 -0.047643146672510017 0.38844923650735375
-0.012972136979355398 0.47082818251564684 0.80083665212191679
0.29846260151295745 0.70509278586917179 -0.2984255897247472
0.41354190397882107 1.1974242454849513 -0.41210265246840017
0.19148528373841955 -0.40496325810041389 0.33256504292404543
0.66517705542537087 -0.6470316293246936 0.55733881881026193
-0.48095923776266991 -0.00058847979729970135 0.76525867467229425
-0.34258818274569514 0.54142050314008916 0.75226221856489595
-0.52634011944058257 -0.53279182684016035 0.48892511446106557
-0.22716115954401506 0.45906270119070025 0.70874826484542641
0.20359175857995737 -0.16501438793938394 0.79842049258549608
-0.068315484380585545 -0.038015088543319919 0.76528880344431727
0.68928173618686461 -0.29992605421401253 0.72676701750558514
-0.39276498429714968 -0.06274712196636667 0.824659831204686
0.20816939490671338 0.70575299867581331 0.44725704064001981
-0.66674730723093223 -0.60372773207804897 -0.2198875597344756
0.096504256660923993 -0.11625591013466785 0.76914305723121501
-0.43495772428829893 -0.64006633522027512 -0.21757287445658058
0.32611156959838983 1.1541783160377954 -0.47450653822808952
0.73531438282420813 -0.29769748517970407 0.70746322444918697
0.27724151985925705 0.54305482505459313 -0.38828469796944987
0.79706129409459425 -0.41379546488764474 0.45478930621579927
0.12635939992329082 0.61833990422217933 0.6151936244443359
-0.25603281892179375 -0.66216030539284954 -0.20988400977243415
-0.74413791831768128 -0.78231727265617534 -0.40107218982990389
0.044678725107332617 0.32075804490836113 0.7640749143801191
0.39572126227340565 0.0047628274547140137 0.60752004591193831
0.71271579359021686 -0.14800500536903161 0.50184057958454886
-0.73718440618740688 -0.42037235940482898 0.45326847110753121
0.1293362227475372 -0.10460140545894259 0.82717932019968643
-0.60859990193805746 -0.93039351984384222 -0.41141924263112184
-0.56549234313492835 -0.6005109038346752 -0.35960750102815631
0.44999199841701643 -0.048501259937221874 0.66900085428038381
0.76946608027299268 -0.43758672001822907 0.66028107464826036
-0.27533090084156475 -0.36496963875101462 0.69526676517853225
0.23931980377327555 1.1872192028862227 -0.43125698365013942
0.25168341969839059 0.8891143600745961 -0.30894645216121042
0.83217798747175031 -0.28045351724080492 0.57503219153675644
-0.12015947918248671 -0.2599824616539399 0.70356657342468942
0.22226374439726548 0.88337351285635191 -0.29878706250817277
3.8102282332808102e-05 0.34309466640193564 0.82242157513495773
-0.32998732594607105 -0.58553895097225173 0.23350502795396721
-0.71706021441223333 0.17510678804444879 0.69127625847693963
-0.32733554373669627 0.31662041740277935 0.72940900792271979
-0.81948752977676032 -1.0335083121451043 -0.52136317849295999
-0.19667845523561933 -0.41020577759235266 0.43531738220229066
0.210258312033619 -0.44765406201834779 0.53450035486403991
-0.23395497713745605 0.43942172129865664 0.78386484201163142
0.46527613931026846 0.0088504382721446007 0.56497719730707452
0.21776933362643991 -0.0054945254252993792 0.78560330188274108
-0.175300754884403 -0.54450562151654314 -0.31358009176677015
0.30176103720377423 1.0362526959606146 -0.40059027840102779
0.25570881513397037 -0.3240417338638657 -0.05844093309203835
-0.15205769188065865 0.28458793234951596 0.77815261417570891
0.019161041216774422 0.57705020723504341 -0.62530767145128152
-0.76348552298431382 -0.9803331927692569 -0.44657648164237163
-0.75135886384280859 -0.050248367962115514 -0.51229101370766195
-0.61883917298496449 -0.37387520569546062 0.66402089087540972
-0.41991530696040336 -0.020115025980330881 0.8344095910342757
-0.18312368391750233 -0.35815518548851966 -0.55458539220042091
-0.49658877799369794 0.057094681012120674 0.66925203481384976
-0.47196431503569336 -0.084088391742541901 0.79088109933835327
0.28468631351399498 -0.37430327491525195 0.25138095486735246
-0.82172487604988431 -0.59813317573277169 -0.30571770979791513
-0.13798628313650596 0.24994654109831305 -0.73699318940225389
-0.26849450918763651 -0.304662709083243 -0.60249796614439077
-0.18801123259925401 0.17935321789454706 -0.72721913591150944
-0.50308465713358963 -0.35829042235384723 0.64812273397024533
-0.5007120875097093 -0.45220076991133551 0.5729191912417182
-0.80658779849167672 -0.93598615355550319 -0.50468206265954763
-0.80451060702041977 -0.90624606582520872 -0.4471106597722736
0.23806223635754442 -0.15535490520620421 0.76986722301931465
0.44578384407808169 0.60224999695746451 -0.20662635712886335
-0.0083117414211670848 0.77301707971076961 0.65116654862364509
-0.87341442469109021 -0.20498293209541285 -0.31751413478653312
-0.44065483240860015 -0.72894538739713788 -0.29586753713302372
0.27161647338345762 0.84005419181744279 -0.30765979254702192
-0.045531922231112354 0.78903398430572302 0.62679730221744379
0.71113324458286264 -0.42396294274667712 0.71246401689832517
-0.81722960604279971 -0.76709751471088605 -0.44631280277708818
-0.57417484767958804 0.042106631892756763 0.75773703969389228
-0.48972327703983476 -0.32583862932243779 0.6315345021374128
-0.38858310865962054 0.43611255218286304 0.71129353234667025
-0.56024252578159794 -0.17747700781485598 0.72649756193980508
0.26101876614807473 0.40402758242506098 -0.4109097977509748
-0.10341779115752114 0.37705033692196377 0.76107382145470481
-0.6105923426148574 -0.32263910838977061 0.67521140799041746
0.16963624789570808 -0.37841157594239183 0.64795111380538017
-0.058004542451574714 0.52100113033386064 0.72427668856274252
0.60383817533607242 -0.3874079410245419 0.67167316138173838
-0.32912139043995658 0.54593421149801247 -0.73554891345823492
0.43540171350219037 0.53492312140175702 -0.17724029927869012
-0.0039666121105508267 0.60222254268844311 0.65418945603454759
0.20962717815614695 -0.053126616639560975 0.807190201072995
0.74782301168366772 -0.33607785204353124 0.71128375587445092
0.69495667579490972 -0.46079108001345936 0.66509066808710138
0.17621368693164818 0.69418671537039822 0.50526956009162838
-0.42642949105198635 -0.3681287919133216 0.64291507626434807
-0.45498988667743934 -0.69141460535297083 -0.30240206174874018
0.083703250754002312 -0.17146590625124825 0.75262546749451431
0.3232307760191695 0.7039513926287404 -0.28237577564229177
0.45956863794742286 1.0632315448545162 -0.44398383717213274
-1.0025354556156825 -0.90325911512549295 -0.50245203727561805
-0.57097449457432203 -0.074408868857183119 0.73339729624220595
0.15759614159982682 0.6710547142858545 0.61691256487538304
-0.88877810623700571 -0.85691518828316804 -0.40469844998773574
0.30304809521590315 -0.54178120238637462 0.46375779237393822
-0.18973209057847207 -0.39099098725019599 -0.55470288564581693
0.28614890048901298 0.37019659826487605 0.53018828017311392
-0.523244320726997 -0.43384632977427584 0.5994210240511908
0.067896612999701844 0.83062817874105699 0.60442401827387648
-0.75182975384065021 -0.31382614745614035 0.48782806137963952
-0.15635650076521213 0.27365601657100003 0.77937012005302719
-0.81618380174536043 -0.81634553623212858 -0.37795795804827215
-0.27317737233262518 -0.40972730332309437 0.68036962896509223
0.25286617715859094 -0.47515256026393748 0.63562996006332639
-0.80483888703488171 -0.30493036970984067 0.55033124279492718
-0.48959018161027457 0.0067398969392948871 0.78840339528049874
0.60589253915720942 -0.45125775292078263 0.73039161720699397
0.21321945498504125 0.44146316405183472 0.63636613054455182
-0.35176758270999153 0.0018494359763954193 0.86662231116416155
-0.76681151717046792 0.45355579779876765 -0.31072308637812274
-0.5421772591870857 -0.29644921786162826 0.67000631023016854
-0.75020056101335353 -0.56585009677680054 -0.25286446946776131
-0.56007434119536459 -0.82556089422285783 -0.33580466560928812
-0.34985689202070436 0.10373174632153281 0.80268300274473958
0.72457051592703436 -0.29223107740850507 0.6463533347652124
0.069566325017590636 0.43906546744629726 0.76232450466658364
0.22854352080668328 0.75758754071247647 -0.2302327675066369
0.16661400842390428 0.87487850047504745 -0.29178303798175964
0.34554718941384266 0.66344432568149403 -0.21532424943574036
0.47157687348666322 -0.02986413791658693 0.39340288630717879
-0.62403334358101192 -0.52564504138581913 0.1837478194594766
-0.41138648040712544 -0.0009810920263122469 0.6995148496811403
-0.086186044193301115 0.39320761652451619 0.80824056134550037
0.18289813061260229 -0.23760103635674756 0.72251627916511119
-0.86036318321289418 -0.80515974145865421 -0.45091887062902369
0.13847242944207405 0.013686858802813617 0.78204001544454904
0.25735680510220771 -0.014120971163382734 0.79463642826116043
0.079997593599459016 0.84080970807666233 0.54957772103134772
0.2033261347286679 0.058091684040425307 0.74474498887771112
0.15299790734212326 0.80869503905634776 0.50950452890961984
-0.70245121227005036 0.035712117819344691 0.71362816812303986
0.41707558296876268 0.017302533783721818 0.55562580444688869
0.076625232609242921 0.30160987162889241 0.70145036691707219
-0.28833698421864629 -0.58774958733988258 0.15723810871622845
-0.73519714806950009 -0.44133688932347059 -0.22385210062018679
-0.40271921275121647 -0.62470584984989319 -0.096500633533382896
-0.70444504236897387 0.073048263018653969 0.63547502442163939
-0.15028697429245241 0.28427316673433767 0.75149437067205227
0.71335410132433896 -0.56201513200479436 0.61876390289661209
0.45432894466599194 -0.5533893063337747 0.37693330689999982
-0.056766767445042277 -0.42056420369209446 0.38259000152852174
0.51370003694043032 -0.59275348683846474 0.44457430568905387
0.65392902355604754 -0.47040743239616889 0.56370673757443335
-0.18185781030053771 -0.57246856003879398 -0.15801494637098656
-0.61363210803950752 -0.091609031911457528 0.7276109182942383
0.82033036571954243 -0.42175552518858672 0.6349932660611568
0.68237542960037345 -0.61974498393393374 0.44685737278896909
0.28179775892269188 -0.36368427525841796 0.30500425956189758
-0.61122011962371214 -0.30042548470329189 0.70508242846196545
0.75503252596765913 -0.41333640554513007 0.68067633461046206
-0.20218472641775964 0.66082092007094184 0.57704247731990854
-0.8743381880900869 -0.19171428765281906 0.078659642582251443
0.33501872905683072 0.16780326941476686 -0.26245426329916022
-0.2689901834714945 0.31626330910907674 0.75309925067389116
-0.22088123248505465 -0.040156717950390775 0.78783377849702951
-0.23641140912622749 0.46975611967833819 0.78213020211817685
0.24366613610290777 0.75645162459650517 -0.085665436444021026
0.32461806695158479 1.0572945870094825 -0.45671981648179205
-0.22690717675336369 0.22606888768533784 0.76148982796322784
0.058810938264834967 -0.30581956538708388 0.43816957388440159
-0.44624826228009029 0.031981233222960981 0.74090193471231558
-0.58610710764491047 -0.26514656455832508 0.69249620327533279
0.39368140730060919 0.74906192724613274 -0.35433923553741842
0.26258311976890791 0.94379808423970069 -0.37158356590852293
0.26118102085980244 0.87691575367226526 -0.23157776301506416
0.55509774357638175 -0.35713481178902406 0.75047694510519314
-0.083789853374842238 0.46727992737213953 0.76627223503408715
-0.44067006673915499 -0.5609178170250595 0.24030876376767907
0.41420695619174364 0.50706217917418528 -0.14988544742124432
0.71357222533926734 -0.57930228371331127 0.596174633150655
-0.59998969563440552 -0.41003636018431067 0.61855936343131912
-0.40085922220711057 0.064525881882022684 0.76841691855019789
-0.12078671471685087 0.78280517454506482 0.35621178283605381
-0.99866445200403886 -0.67041788600685281 -0.43778083761124797
-0.49180089121771386 -0.3249417974285036 0.65551474550856348
0.2062398831501433 0.0447589535255557 0.74593105053203423
0.62897855265134117 -0.42350989363306946 0.69915500116537288
0.69668520382304866 -0.49439646700159878 0.42621018945741262
-0.58075848268738062 -0.65068670271892959 -0.26032348149819384
-0.18500921906565093 0.68970594978203081 0.71560348344041369
0.67690185728413521 -0.46475706909106052 0.3442982394852443
0.24283944159390991 0.76498170305551083 0.45114938150624617
-0.15955629153723994 0.47172089898207314 0.70550945599432602
-0.92752325148080672 -0.11754443861079777 -0.16480303250342487
-0.59591566337597213 -0.8651981604014547 -0.34503743579265667
-0.26287766330502293 0.23046928114272136 0.77802323243128058
-0.57556250504832684 0.099261886364324425 0.52381108885261529
0.17243112350896084 -0.11413244142601142 0.82252985703975767
0.22115221165987453 0.87359589609311039 -0.25119484909625722
0.16318559764389029 0.53024035329078312 0.66496413326794368
-0.23839055336912018 0.59791630703540299 0.77913345876500006
0.51114609675487088 -0.30357461734755575 0.32973706863587005
-0.29835956676506736 0.21169603423994143 0.8225128278393079
0.69315209172794257 -0.3911369648945755 0.66359427205454935
0.43597558586304519 0.74992624821352694 -0.28646746399373146
-0.19963387573024161 -0.52158083687225409 -0.46693905149332515
-0.85458133336908837 -0.13060598955011038 -0.00051032536732442679
-0.33170671367697091 -0.29234762181526763 0.74199287234027
-0.63850899484570878 -0.62098277237758115 -0.26793103351303493
-0.50972057417264383 0.20348153428401528 0.71719538873362865
0.67690748951229995 -0.64911395802573857 0.52358662601677253
-0.18941162998580463 -0.2240317725041443 0.70036661773844422
-0.9270063925751022 -0.86127047445764493 -0.45914664014390105
0.31000104024529485 0.66613896804765127 -0.20718517181475349
0.63326399132749378 -0.50580961193834484 0.68977332777748224
-0.87125015469587996 -0.84011651275844113 -0.41579520061395403
-0.50642972765616578 -0.03453278172657992 0.7775027131466139
-0.92761640312582871 -0.61381909032099813 -0.37579412941219026
-0.30656805660516184 -0.5898619737570181 -0.36209573528793371
0.47210459335553523 0.58304853095598586 -0.21527333928217018
-0.11864653091817967 0.43273007964161914 0.73426288308793453
-0.71578936316830033 -0.24764312076774475 0.54978598406041712
0.57677758617991692 -0.21895143039539144 0.72447791033627418
-0.57228541718393089 -0.73615256097788162 -0.33787376295066096
0.85327331212206392 -0.29099205987757837 0.4555648510624426
0.05877232033990154 -0.25846573031552911 -0.58563907394611725
0.28893124675380566 0.076137807000990598 0.48035973359406725
-0.0462197118754748 0.5388097642259404 0.7854305697448547
0.24416707731478837 -0.011586974569317565 0.73275550152541946
0.43130291707468515 -0.45816821758122428 0.67226853526009656
-0.15216601787147344 -0.16675866491623115 0.76282742643244639
-0.58248149711146846 -0.86826527082362714 -0.34809426737497695
-0.50143241399457494 -0.0023039718685122779 0.71074388252560539
-0.48382534408873745 -0.62267279462291159 -0.24478699479666588
0.56026591348788646 -0.037527538871534372 0.62501603127723371
0.5259730688462998 -0.64486928432538315 0.41312491941959983
0.45087265228619522 0.70740468352415908 -0.23789097381516378
-0.67321990811503918 0.14084133303727153 0.59716970018547144
0.29363738445214782 -0.024374352829282575 0.69959800842559439
0.6529785619352908 -0.37229394892410927 0.7570813398089058
0.38968391208124586 -0.61033633988191571 0.47722169318005747
0.344693192221186 0.40402323028950571 0.31835933716203257
-0.20955286736833934 0.50513546228902362 0.76902667101334821
-0.72202658699751776 -0.7631609666279231 -0.35452714187608869
-0.0052188441718881151 -0.2407862092690225 0.62660376949166441
0.23688412586731822 0.85181115059296286 -0.27349774283632833
0.2124181348947678 0.70659253298305058 -0.44557239907424417
-0.14988648801003723 1.0151928475857757 -0.25269438762583807
-0.024720030754633804 0.55734172647089508 0.72664067052362036
0.57057336985744822 -0.68501265021204394 0.49200153591052143
0.27983672656135727 -0.12893869628987531 0.73899245881399978
-0.401417483879833 0.071693333299183593 0.76831803573309987
0.6568232294064793 -0.47107226732499985 0.64334169902641669
0.74925202835590676 -0.32331294896314278 0.72799470987746773
-0.6752770547844813 -0.90226981306521026 -0.32482635483235534
0.32352062663793202 0.97052809980193788 -0.31540673572105504
-0.50032758811705769 -0.046910284287982051 0.7327683619510772
0.83112697931052404 -0.44771024606147902 0.60310767985951408
-0.45809465558472962 -0.90122795486239227 -0.26854723669909042
-0.14056429940422532 0.68352392342426715 0.44691299997772482
-0.12705207216240932 0.71424638168291232 0.61683927924813808
0.20065825966937822 0.35755140234798044 0.65659808737101244
-0.26272394419248801 0.02895236983305427 0.66583952549663294
0.023114205285339473 0.26895997028484353 0.7454744418527941
0.62280933570973795 -0.67517393456702224 0.41416443016702864
-0.36431198025473188 -0.62655338560791929 -0.3301307547056016
-0.50126466625597565 0.21120752125975129 0.80016689558906684
0.59872439188814841 -0.35029245561856248 0.70439167093460142
-0.69637072833706348 -0.58841452921093707 -0.17323496062389143
-0.6609312720248699 -0.50729020827891236 -0.30592998416894801
0.16266361493350701 -0.018452632082870402 0.77555517502358384
-0.081370791450890323 0.40794769961364841 0.83747116104565933
0.071487968335978813 -0.11191366176389472 0.81552163732032312
0.17817782808714444 0.93810786510628252 -0.29912486900393276
0.34385163319719414 -0.27878651156099155 0.22494029316172082
-0.1778107549147343 0.55880266951769864 0.7216042800870035
0.56058437064266098 -0.21889270053181442 0.76764974788988027
-0.49052531893356477 0.046960615006008233 0.74591636525980576
-0.18997240627611944 0.91648228882873972 -0.47791312456630308
0.23006964270433183 -0.35698778134343279 0.686863195485655
-0.65182125598299789 -0.56666542947724929 -0.12598487014745885
0.1754103346703948 -0.036971696546478139 0.82013416660038096
0.55628841658674766 -0.27207339074750481 0.36672718558887851
-0.75685281201111421 0.1237164488361806 0.69470655976105
0.17713616767852791 -0.19194598522242101 0.73812360818038236
0.27383474023578547 0.021037609198484297 0.6541569945782868
-0.20401592655246414 -0.22737057992232446 0.66010878333931444
-0.13260251970856007 -0.52418656305829048 0.0017208031603903606
-0.89548952375032531 0.10841076605297939 -0.11335236873132093
-0.094025436037455279 0.22582954499496877 0.76680587785853938
0.21354205078822641 -0.040364081074891978 0.79514067809927091
0.4990323558316847 -0.25189819725596463 0.76579340240998128
-0.7204163140420965 -0.62179341504168528 -0.21523607730750083
-0.10251137502134533 0.34636665899654218 0.76083660661172026
-0.23357819855745277 0.17043907820188808 0.73424402029299429
-0.52322503432702705 0.0086707721913610314 0.7609941467600212
0.17345384253627039 -0.17386368203158309 0.77448069150047516
0.34585830354452174 0.61468646064224108 -0.14306378558089605
0.75508573996883932 -0.22482906795181057 0.36970951859593804
-0.42619619793597829 -0.22120640834703131 0.76944525471092629
0.53768108421323557 -0.50596536119830082 0.4071237200271085
-0.40634566120482685 0.78749942741962031 0.24740048003685633
-0.87046244600516554 -0.16423735340507584 0.054197264801571166
-0.39268001732427349 -0.73961498109821244 -0.20177720320619841
-0.36120196172974328 0.26410889274984228 0.60613789812287777
0.0057907060442339287 -0.2847047671270988 0.61813710425857238
0.30511369273715783 0.46717774616445307 0.49391242107942901
0.30431632023363697 0.6449849134097424 -0.20417130786404414
-0.27144703260084091 -0.21796979782861836 0.75551971587319855
-0.24862406721792984 -0.23225655607086182 0.78160803631607934
0.75647215457930495 -0.47777952551070579 0.62648155256289506
-0.7246683679292909 -0.31627045518861463 0.69047661556536433
0.28968867768915274 -0.070263621998881032 0.76958905866174021
-0.12024490111975261 0.43108077610706541 0.77962059983355303
0.30190417895954269 0.49586955701012814 0.26690543643524833
-0.050283909431455776 0.89551489483116264 0.19879134793928444
-0.33149920918870368 -0.664210250942042 -0.17239387338311118
-0.038792776895053116 -0.36600022369791496 0.46620375234474132
0.25834331553121626 0.32993896598076411 0.61733060139197171
-0.82048229716520149 -0.81797979149478106 -0.41119317685784917
0.73798067343767171 -0.43982725019790081 0.65446516308425551
-0.26683669518754449 -0.27903337892697877 0.74944560140634664
-0.12171737099388658 0.44178462646522831 0.78640640364005776
-0.17702643149638231 -0.10214221886975272 0.6777429901386931
-0.57541924034860514 0.18686438433376207 0.79589840963812186
-0.29341817762268851 -0.76743113161513321 -0.18620269462287276
-0.67857173543819949 -0.73396691344709764 -0.34359055044848219
0.13424133310286646 0.49527129924156821 0.6473282737606052
0.070621355079311776 0.71863140124864555 -0.47671478659691147
0.079060529931282986 0.44384972630425246 0.75246547621127746
-0.94185289143468021 -0.79079968706665849 -0.43631726319607989
-0.78356630799415949 -0.3296463698051646 0.60170507741865453
-0.33544841570166728 -0.20063557277342592 -0.68490330999736848
0.43638357054883858 1.218329684715002 -0.5030426344986294
-0.36743587905120334 -0.078594811001583498 0.74805345055987971
0.08866093346807169 0.94286523478084172 -0.035617428767135806
-0.57020458507861127 -0.59491064160862006 -0.015589630444187819
-0.61617619216251907 -0.70594109570301189 -0.2922116216009929
-0.43597027495338025 0.23057114133401502 0.67085114134641266
-0.44437026639953681 0.28573618077824614 0.74433210962603624
-0.47118145288960234 -0.65110869136217886 -0.25231925701057456
-0.53727072838812662 -0.62674837345295398 -0.25787629710732851
0.12726129743284975 0.59197805716598539 0.59578002953005083
0.41895265041443785 0.97529208635250897 -0.46063925206846168
0.25670923336558982 -0.028995289546089875 0.78685834566778823
0.33508039388844502 0.69138903726543266 -0.25206060851797574
0.43894738422529844 0.99149855628929251 -0.37823853975973254
0.17455978535539973 -0.0098108855425995678 0.80014518320550998
0.23987205212317164 0.96841902054228413 -0.31677975036179262
-0.75996688780794308 -0.59689727237276324 -0.33777469753958744
-0.59097273382327487 -0.90579839886432945 -0.36888429188033722
-0.4081993886059827 0.0098024927717594856 0.76577897167136211
-0.9648956541084126 -0.92904475960078337 -0.49217264436867936
0.12538389958040597 0.36218232432085995 0.70690270569092561
0.0038184945355226318 0.73315358716184487 0.63278385771897483
0.32907470818828788 1.1994298428384509 -0.36836296580542971
0.36673230354837472 -0.17432254499306588 0.73823330788147246
0.050761324822619081 -0.17411974768682548 0.73128216257064516
0.18839060392734286 1.0797851019420563 -0.32810101028579552
0.45226563690482013 0.73057268332929626 -0.27370763653399344
0.67239917523874571 -0.57472019348381465 0.69537750957860389
0.082567929241279536 -0.28467858137328772 0.53079196994821487
-0.31598318387668067 -0.19801386534996013 0.79297928425204667
0.17182882905537866 0.90168396603492751 -0.14077012730953875
0.076742436885935739 -0.053124926636813452 0.76990935169724395
-0.48997998757967931 -0.054786687291416669 0.7515544633889375
0.60690519928152442 -0.64726307118383897 0.61227669592210887
-0.94868125520196056 -0.70803048262324042 -0.39167404024472141
-0.38790596631874852 0.57977106801749234 0.63494617965368327
-0.21127826564478891 -0.42777080984305416 0.56320479359563791
0.1169283578843805 0.82694893638967448 0.57682107575143693
-0.071482268060155896 0.46183206565531609 0.77809095989645272
0.59972371296106441 -0.44088655367347696 0.68388262083260898
-0.70326508916674868 -0.56505889218980299 -0.17745733338603209
-0.19634186777587104 0.062438063428867263 0.73166454547197013
0.28153148592991251 0.27715224389136717 0.43851626990770498
0.11136641178160733 0.49030371499088177 0.6957569360229563
-0.011699913249120009 0.4880514816514494 0.74369996652307258
0.69260137590554915 -0.3478907076796014 0.63695258329212123
0.55861759137108891 0.92989179240893005 -0.40874331657384655
0.43856344861429619 -0.070371632070420187 0.38704674224715774
0.17090174379424106 -0.30233421098478086 0.6677120157355656
0.17171776423117535 -0.071895758111752528 0.80035210782138044
0.44538826035150159 -0.15317239137118444 0.71753455276768285
0.050815653769441305 0.26104666954370503 0.73082554801753474
