# XYZ point cloud file
-0.066802978515625 -0.0352020263671875 0.6512451171875
-0.0482635498046875 -0.05707550048828125 0.6566162109375
0.0810546875 0.02503204345703125 0.622314453125
0.072723388671875 0.036319732666015625 0.617431640625
0.0817718505859375 0.028696060180664062 0.6290283203125
0.087066650390625 0.012426376342773438 0.6265869140625
0.0806884765625 0.02169036865234375 0.6168212890625
0.072235107421875 0.034112930297851562 0.6124267578125
0.0732269287109375 0.040079116821289062 0.6236572265625
0.0878448486328125 0.016391754150390625 0.6337890625
0.087127685546875 0.0086231231689453125 0.6214599609375
-0.0748443603515625 0.0068225860595703125 0.6405029296875
-0.0741119384765625 0.010498046875 0.6461181640625
-0.072784423828125 0.018407821655273438 0.6328125
-0.0753173828125 0.0036468505859375 0.63525390625
-0.0736541748046875 -0.0055141448974609375 0.647216796875
-0.0734710693359375 -0.0018901824951171875 0.6533203125
-0.072998046875 0.022172927856445312 0.6392822265625
-0.0728302001953125 0.016084671020507812 0.6295166015625
-0.074920654296875 -0.0095424652099609375 0.6412353515625
0.036590576171875 0.052249908447265625 0.611083984375
0.0238189697265625 0.051401138305664062 0.611328125
0.0400238037109375 0.055719375610351562 0.6170654296875
0.049468994140625 0.050960540771484375 0.6121826171875
0.03289794921875 0.051540374755859375 0.6053466796875
0.0177764892578125 0.049686431884765625 0.6065673828125
0.0284881591796875 0.055194854736328125 0.6173095703125
0.0513916015625 0.05422210693359375 0.6173095703125
0.0472564697265625 0.049448013305664062 0.60791015625
-0.048248291015625 0.041032791137695312 0.6197509765625
-0.0505523681640625 0.043659210205078125 0.626220703125
-0.03619384765625 0.042730331420898438 0.617431640625
-0.045928955078125 0.040674209594726562 0.6136474609375
-0.0589599609375 0.03617095947265625 0.6226806640625
-0.060516357421875 0.039480209350585938 0.628662109375
-0.0396881103515625 0.04534149169921875 0.6243896484375
-0.031494140625 0.042600631713867188 0.611328125
-0.05804443359375 0.035449981689453125 0.6181640625
0.0055694580078125 0.0332489013671875 0.624755859375
0.0035247802734375 0.02800750732421875 0.6275634765625
0.0087738037109375 0.03780364990234375 0.6297607421875
0.0086669921875 0.040233612060546875 0.61962890625
0.0016632080078125 0.0308685302734375 0.61962890625
0.0012664794921875 0.02750396728515625 0.6243896484375
0.00555419921875 0.031614303588867188 0.634033203125
0.012969970703125 0.044353485107421875 0.6256103515625
0.00225830078125 0.037294387817382812 0.61474609375
-0.008148193359375 0.031332015991210938 0.62548828125
-0.010528564453125 0.03466796875 0.632080078125
-0.00274658203125 0.027395248413085938 0.629150390625
-0.005462646484375 0.029439926147460938 0.6204833984375
-0.0148162841796875 0.0372467041015625 0.62109375
-0.0183868408203125 0.040174484252929688 0.627685546875
-0.0034637451171875 0.030132293701171875 0.634033203125
-0.0018463134765625 0.026838302612304688 0.62451171875
-0.0099334716796875 0.035747528076171875 0.6151123046875
0.0538330078125 -0.067121505737304688 0.6551513671875
0.0547027587890625 -0.07582855224609375 0.6524658203125
0.0659332275390625 -0.058423995971679688 0.6502685546875
0.0539093017578125 -0.0599365234375 0.66015625
0.040374755859375 -0.073698043823242188 0.659912109375
0.041015625 -0.082250595092773438 0.6566162109375
0.0669708251953125 -0.067523956298828125 0.6473388671875
0.0657806396484375 -0.051664352416992188 0.655517578125
0.0406951904296875 -0.06630706787109375 0.66357421875
-0.0052642822265625 -0.072618484497070312 0.6636962890625
-0.0208587646484375 -0.066617965698242188 0.6639404296875
-0.0042572021484375 -0.08148193359375 0.66064453125
0.0107269287109375 -0.076295852661132812 0.66357421875
-0.0054168701171875 -0.06557464599609375 0.6685791015625
-0.0211181640625 -0.059873580932617188 0.6693115234375
-0.0205078125 -0.075733184814453125 0.660400390625
0.0113067626953125 -0.08489227294921875 0.66015625
0.0102386474609375 -0.069284439086914062 0.6683349609375
0.0518798828125 -0.040966033935546875 0.6705322265625
0.0530242919921875 -0.047750473022460938 0.6676025390625
0.063018798828125 -0.033349990844726562 0.66748046875
0.0502777099609375 -0.033435821533203125 0.6734619140625
0.038848876953125 -0.046903610229492188 0.6741943359375
0.0395965576171875 -0.054088592529296875 0.6715087890625
0.064697265625 -0.039464950561523438 0.6641845703125
0.0607757568359375 -0.027471542358398438 0.6700439453125
0.0379180908203125 -0.038770675659179688 0.6759033203125
-0.004791259765625 -0.046346664428710938 0.6796875
-0.0193023681640625 -0.040622711181640625 0.6796875
-0.0052337646484375 -0.05303192138671875 0.6767578125
0.010009765625 -0.049966812133789062 0.678955078125
-0.005126953125 -0.03863525390625 0.681640625
-0.0180511474609375 -0.034582138061523438 0.68212890625
-0.02001953125 -0.047086715698242188 0.6768798828125
0.0102691650390625 -0.056108474731445312 0.6759033203125
0.009185791015625 -0.041429519653320312 0.6802978515625
0.0178985595703125 0.043544769287109375 0.6495361328125
0.012359619140625 0.037517547607421875 0.654296875
0.021636962890625 0.042894363403320312 0.654296875
0.023162841796875 0.050708770751953125 0.6444091796875
0.0148468017578125 0.043260574340820312 0.6434326171875
0.00994873046875 0.036787033081054688 0.6478271484375
0.015380859375 0.035549163818359375 0.660400390625
0.0265960693359375 0.049486160278320312 0.648681640625
0.0198211669921875 0.049810409545898438 0.6385498046875
-0.01312255859375 0.0394134521484375 0.65234375
-0.014312744140625 0.037933349609375 0.658935546875
-0.0031280517578125 0.035003662109375 0.6556396484375
-0.0128936767578125 0.039171218872070312 0.645263671875
-0.0229034423828125 0.043912887573242188 0.6485595703125
-0.0237274169921875 0.042894363403320312 0.654296875
-0.0031280517578125 0.03265380859375 0.66162109375
-0.00384521484375 0.03476715087890625 0.6490478515625
-0.0219268798828125 0.0440826416015625 0.64208984375
0.0455169677734375 0.060571670532226562 0.6351318359375
0.036895751953125 0.059675216674804688 0.635986328125
0.0467529296875 0.058254241943359375 0.6416015625
0.0549163818359375 0.058818817138671875 0.635986328125
0.0443878173828125 0.0608978271484375 0.6285400390625
0.034637451171875 0.059881210327148438 0.630859375
0.03875732421875 0.05771636962890625 0.6422119140625
0.055145263671875 0.056428909301757812 0.640869140625
0.0547027587890625 0.059129714965820312 0.62939453125
-0.050628662109375 0.04864501953125 0.6461181640625
-0.048431396484375 0.046480178833007812 0.652099609375
-0.0419769287109375 0.049715042114257812 0.6455078125
-0.052215576171875 0.048557281494140625 0.6397705078125
-0.05859375 0.04463958740234375 0.6475830078125
-0.055267333984375 0.0426483154296875 0.65380859375
-0.0407562255859375 0.047418594360351562 0.65185546875
-0.0425262451171875 0.049472808837890625 0.638427734375
-0.0604705810546875 0.044755935668945312 0.640869140625
0.079681396484375 0.035295486450195312 0.6478271484375
0.072479248046875 0.046056747436523438 0.64306640625
0.07586669921875 0.035991668701171875 0.6534423828125
0.0851287841796875 0.023815155029296875 0.6529541015625
0.08154296875 0.034051895141601562 0.6424560546875
0.07373046875 0.045482635498046875 0.636474609375
0.069793701171875 0.045261383056640625 0.6485595703125
0.0803375244140625 0.025556564331054688 0.65869140625
0.08746337890625 0.022493362426757812 0.646728515625
-0.0674285888671875 0.018787384033203125 0.665283203125
-0.06207275390625 0.020948410034179688 0.668701171875
-0.066925048828125 0.029369354248046875 0.6571044921875
-0.071014404296875 0.016904830932617188 0.6583251953125
-0.06610107421875 0.007472991943359375 0.6712646484375
-0.0604400634765625 0.010303497314453125 0.674560546875
-0.06231689453125 0.029333114624023438 0.6612548828125
-0.070220947265625 0.027570724487304688 0.652099609375
-0.0699310302734375 0.00492095947265625 0.6658935546875
0.0848846435546875 -0.006038665771484375 0.661376953125
0.0877227783203125 0.002689361572265625 0.66064453125
0.0798492431640625 -0.003498077392578125 0.6654052734375
0.0797119140625 -0.015773773193359375 0.662353515625
0.0880584716796875 -0.010538101196289062 0.65771484375
0.0908660888671875 -0.000186920166015625 0.654541015625
0.0822296142578125 0.005565643310546875 0.6646728515625
0.075531005859375 -0.012018203735351562 0.665771484375
0.0825653076171875 -0.02024078369140625 0.6588134765625
-0.051177978515625 -0.021337509155273438 0.6800537109375
-0.0457611083984375 -0.0168914794921875 0.6826171875
-0.0577392578125 -0.012670516967773438 0.67919921875
-0.054534912109375 -0.025598526000976562 0.67578125
-0.0425872802734375 -0.028314590454101562 0.679443359375
-0.0384979248046875 -0.024013519287109375 0.6820068359375
-0.05181884765625 -0.009288787841796875 0.68212890625
-0.0615997314453125 -0.017101287841796875 0.675048828125
-0.045166015625 -0.0330810546875 0.6759033203125
0.0485687255859375 0.038858413696289062 0.6610107421875
0.0484619140625 0.028982162475585938 0.6666259765625
0.0597381591796875 0.037919998168945312 0.66015625
0.0480804443359375 0.047817230224609375 0.654541015625
0.03717041015625 0.040746688842773438 0.6612548828125
0.0345611572265625 0.03058624267578125 0.6669921875
0.061981201171875 0.027950286865234375 0.6654052734375
0.0572509765625 0.045970916748046875 0.654541015625
0.0389862060546875 0.04775238037109375 0.654541015625
-0.0359039306640625 0.029468536376953125 0.67041015625
-0.046173095703125 0.025987625122070312 0.6712646484375
-0.029296875 0.020681381225585938 0.6768798828125
-0.025787353515625 0.032840728759765625 0.668701171875
-0.040618896484375 0.036588668823242188 0.664306640625
-0.0490264892578125 0.033437728881835938 0.666015625
-0.0419158935546875 0.016538619995117188 0.6781005859375
-0.0163421630859375 0.024625778198242188 0.6744384765625
-0.032989501953125 0.039165496826171875 0.662109375
0.0487518310546875 -0.00384521484375 0.675048828125
0.0342254638671875 -0.0060825347900390625 0.677490234375
0.04901123046875 -0.014432907104492188 0.675048828125
0.0615997314453125 -0.0022296905517578125 0.671875
0.0487823486328125 0.007808685302734375 0.6737060546875
0.0323028564453125 0.0070018768310546875 0.675537109375
0.0355987548828125 -0.018030166625976562 0.6773681640625
0.0597991943359375 -0.011533737182617188 0.672119140625
0.0624542236328125 0.007350921630859375 0.67138671875
-0.013031005859375 -0.011219024658203125 0.6851806640625
-0.0091552734375 -0.021366119384765625 0.6842041015625
0.0020751953125 -0.0094356536865234375 0.6824951171875
-0.017578125 0.000118255615234375 0.68359375
-0.0265960693359375 -0.012243270874023438 0.6844482421875
-0.0219268798828125 -0.02075958251953125 0.6849365234375
0.005523681640625 -0.021238327026367188 0.68212890625
-0.0020599365234375 0.0032825469970703125 0.680908203125
-0.0315399169921875 -0.0030727386474609375 0.684326171875
0.02337646484375 0.085910797119140625 0.5928955078125
0.025634765625 0.067760467529296875 0.597412109375
0.0441131591796875 0.07659149169921875 0.60009765625
0.02313232421875 0.10828208923339844 0.58740234375
0.0009307861328125 0.0905914306640625 0.5869140625
0.0057220458984375 0.068670272827148438 0.5950927734375
0.043701171875 0.062139511108398438 0.6019287109375
0.0481719970703125 0.094959259033203125 0.5977783203125
-0.0034332275390625 0.11760902404785156 0.5765380859375
-0.0547332763671875 0.0745697021484375 0.599365234375
-0.0682220458984375 0.061231613159179688 0.61083984375
-0.0482177734375 0.057214736938476562 0.60400390625
-0.0380859375 0.084897994995117188 0.59033203125
-0.0648651123046875 0.095846176147460938 0.5921630859375
-0.0799407958984375 0.076213836669921875 0.6072998046875
-0.0615386962890625 0.047815322875976562 0.6123046875
-0.0315704345703125 0.063350677490234375 0.5987548828125
-0.0482177734375 0.11158180236816406 0.578125
0.0874481201171875 0.022735595703125 0.6087646484375
0.0835723876953125 0.021211624145507812 0.612060546875
0.095672607421875 0.0032558441162109375 0.607421875
0.0930023193359375 0.022756576538085938 0.60302734375
0.0769500732421875 0.04436492919921875 0.608642578125
0.0735321044921875 0.038087844848632812 0.6092529296875
0.0912017822265625 0.004581451416015625 0.612548828125
0.1015472412109375 -0.0005474090576171875 0.599609375
0.08392333984375 0.050876617431640625 0.6053466796875
-0.086151123046875 0.00292205810546875 0.6279296875
-0.087005615234375 -0.017597198486328125 0.6307373046875
-0.080810546875 0.0025234222412109375 0.6297607421875
-0.0839691162109375 0.023805618286132812 0.6253662109375
-0.094512939453125 0.0010395050048828125 0.62353515625
-0.095001220703125 -0.022638320922851562 0.6246337890625
-0.081146240234375 -0.01485443115234375 0.634521484375
-0.077545166015625 0.019105911254882812 0.625244140625
-0.0941925048828125 0.027364730834960938 0.62353515625
0.1086273193359375 -0.0474700927734375 0.6134033203125
0.0994720458984375 -0.04277801513671875 0.62109375
0.110809326171875 -0.063276290893554688 0.617431640625
0.1181793212890625 -0.053834915161132812 0.6026611328125
0.105499267578125 -0.032642364501953125 0.60986328125
0.098785400390625 -0.027452468872070312 0.6173095703125
0.09930419921875 -0.057065963745117188 0.625
0.1226348876953125 -0.070207595825195312 0.6051025390625
0.113922119140625 -0.038326263427734375 0.599853515625
-0.0795135498046875 -0.066432952880859375 0.639404296875
-0.0747528076171875 -0.081441879272460938 0.645263671875
-0.0695037841796875 -0.058950424194335938 0.644775390625
-0.083343505859375 -0.052320480346679688 0.6358642578125
-0.0911865234375 -0.075870513916015625 0.6329345703125
-0.0888519287109375 -0.090703964233398438 0.6385498046875
-0.0620269775390625 -0.073141098022460938 0.6490478515625
-0.075225830078125 -0.04584503173828125 0.6402587890625
-0.093505859375 -0.060779571533203125 0.6292724609375
0.127105712890625 -0.12743568420410156 0.63427734375
0.1103515625 -0.12451362609863281 0.6434326171875
0.1364288330078125 -0.15541267395019531 0.64208984375
0.143035888671875 -0.130889892578125 0.6207275390625
0.119476318359375 -0.103485107421875 0.6285400390625
0.1039581298828125 -0.099309921264648438 0.6368408203125
0.1187591552734375 -0.15286636352539062 0.6522216796875
0.1534881591796875 -0.15974617004394531 0.628173828125
0.135101318359375 -0.10768318176269531 0.6158447265625
-0.060821533203125 -0.14280891418457031 0.67041015625
-0.056488037109375 -0.17122840881347656 0.6817626953125
-0.0422515869140625 -0.13686370849609375 0.6728515625
-0.0650482177734375 -0.11923027038574219 0.66015625
-0.0800933837890625 -0.15049934387207031 0.6651611328125
-0.0767974853515625 -0.17803955078125 0.6768798828125
-0.03643798828125 -0.16567802429199219 0.683349609375
-0.0474700927734375 -0.11207008361816406 0.6632080078125
-0.082794189453125 -0.12751007080078125 0.654541015625
0.1818695068359375 -0.15528297424316406 0.5595703125
0.187591552734375 -0.16461944580078125 0.5330810546875
0.171478271484375 -0.13240623474121094 0.5548095703125
0.1715850830078125 -0.14577674865722656 0.5823974609375
0.192962646484375 -0.182586669921875 0.5650634765625
0.19818115234375 -0.191070556640625 0.53759765625
0.1766815185546875 -0.14302444458007812 0.5283203125
0.1618804931640625 -0.12237739562988281 0.577880859375
0.1826629638671875 -0.17346382141113281 0.589599609375
-0.1377410888671875 -0.18252182006835938 0.6209716796875
-0.136383056640625 -0.16070938110351562 0.6092529296875
-0.1529693603515625 -0.19323158264160156 0.5972900390625
-0.1378021240234375 -0.2079620361328125 0.6357421875
-0.1193389892578125 -0.17049407958984375 0.6416015625
-0.118927001953125 -0.14861679077148438 0.630126953125
-0.1515960693359375 -0.17292404174804688 0.585693359375
-0.1541900634765625 -0.21829986572265625 0.612548828125
-0.1190032958984375 -0.19742012023925781 0.6551513671875
0.1465911865234375 -0.08453369140625 0.5419921875
0.1524658203125 -0.09590911865234375 0.517333984375
0.1406707763671875 -0.069746017456054688 0.541015625
0.1382904052734375 -0.073486328125 0.5654296875
0.1533660888671875 -0.099941253662109375 0.546142578125
0.1593780517578125 -0.11058807373046875 0.5198974609375
0.1463775634765625 -0.08139801025390625 0.514404296875
0.132232666015625 -0.05777740478515625 0.564208984375
0.1450042724609375 -0.088405609130859375 0.568603515625
-0.133819580078125 -0.11267280578613281 0.5833740234375
-0.1319122314453125 -0.098598480224609375 0.57861328125
-0.1461944580078125 -0.12607574462890625 0.5609130859375
-0.1344451904296875 -0.12780952453613281 0.5902099609375
-0.119415283203125 -0.099658966064453125 0.6046142578125
-0.1191864013671875 -0.084150314331054688 0.5992431640625
-0.1445770263671875 -0.111968994140625 0.5562744140625
-0.1479034423828125 -0.13997268676757812 0.567138671875
-0.11932373046875 -0.11405563354492188 0.611328125
0.120513916015625 -0.014978408813476562 0.5418701171875
0.119537353515625 0.004962921142578125 0.5418701171875
0.1104583740234375 0.003406524658203125 0.569580078125
0.126190185546875 -0.03485107421875 0.541748046875
0.1286468505859375 -0.034200668334960938 0.5162353515625
0.1297149658203125 -0.017610549926757812 0.513916015625
0.1064300537109375 0.029911041259765625 0.5721435546875
0.1177520751953125 -0.019817352294921875 0.566650390625
0.1331634521484375 -0.051301956176757812 0.515869140625
-0.12982177734375 -0.044385910034179688 0.57177734375
-0.1173248291015625 -0.022668838500976562 0.595947265625
-0.1363372802734375 -0.025213241577148438 0.570556640625
-0.14105224609375 -0.065549850463867188 0.5474853515625
-0.1295928955078125 -0.064107894897460938 0.572998046875
-0.1168365478515625 -0.045989990234375 0.5965576171875
-0.1226654052734375 0.001522064208984375 0.59423828125
-0.1474761962890625 -0.051080703735351562 0.5450439453125
-0.1407012939453125 -0.081789016723632812 0.5504150390625
0.128662109375 -0.40428543090820312 0.7266845703125
0.1298065185546875 -0.39869499206542969 0.727294921875
0.11322021484375 -0.40693283081054688 0.7337646484375
0.1267852783203125 -0.40904998779296875 0.725341796875
0.142242431640625 -0.40332603454589844 0.7216796875
0.145111083984375 -0.398773193359375 0.719970703125
0.1136016845703125 -0.40152740478515625 0.7342529296875
0.112091064453125 -0.41181755065917969 0.73095703125
0.1392822265625 -0.40788459777832031 0.71923828125
0.0643463134765625 -0.40456390380859375 0.7501220703125
0.080078125 -0.40738296508789062 0.7454833984375
0.0625762939453125 -0.39949607849121094 0.7515869140625
0.049835205078125 -0.40374374389648438 0.755126953125
0.06494140625 -0.40974807739257812 0.748046875
0.07977294921875 -0.4120635986328125 0.7421875
0.0793304443359375 -0.40168380737304688 0.745849609375
0.04608154296875 -0.39916610717773438 0.7572021484375
0.0517578125 -0.40835189819335938 0.752685546875
0.164337158203125 -0.43124008178710938 0.7147216796875
0.1703338623046875 -0.43395614624023438 0.7113037109375
0.1601104736328125 -0.41610336303710938 0.71435546875
0.1603546142578125 -0.43176841735839844 0.713623046875
0.165863037109375 -0.44786262512207031 0.71533203125
0.171966552734375 -0.45235633850097656 0.7120361328125
0.165740966796875 -0.41566848754882812 0.711669921875
0.156402587890625 -0.418243408203125 0.714111328125
0.161224365234375 -0.44755172729492188 0.714599609375
0.03240966796875 -0.43045616149902344 0.7640380859375
0.0336151123046875 -0.41609954833984375 0.7615966796875
0.0260467529296875 -0.43239593505859375 0.7666015625
0.0347747802734375 -0.44667625427246094 0.765625
0.035614013671875 -0.43101882934570312 0.7608642578125
0.036651611328125 -0.4187774658203125 0.7586669921875
0.02764892578125 -0.41552162170410156 0.7645263671875
0.0288543701171875 -0.450225830078125 0.7684326171875
0.0377655029296875 -0.44619560241699219 0.761962890625
0.1546630859375 -0.48869514465332031 0.721435546875
0.1605072021484375 -0.49386978149414062 0.720703125
0.1606597900390625 -0.47760581970214844 0.718994140625
0.1504364013671875 -0.48718643188476562 0.7200927734375
0.1474151611328125 -0.49782943725585938 0.725341796875
0.1529388427734375 -0.50246810913085938 0.7237548828125
0.1667938232421875 -0.48310279846191406 0.7171630859375
0.1561737060546875 -0.47591781616210938 0.7176513671875
0.1428375244140625 -0.49535942077636719 0.7237548828125
0.05316162109375 -0.48631668090820312 0.7623291015625
0.0456390380859375 -0.47536468505859375 0.76513671875
0.048187255859375 -0.49090766906738281 0.765869140625
0.0612335205078125 -0.49556541442871094 0.7586669921875
0.054901123046875 -0.4844970703125 0.758544921875
0.04803466796875 -0.47405624389648438 0.7607421875
0.040252685546875 -0.48004722595214844 0.7674560546875
0.0570526123046875 -0.49991035461425781 0.76171875
0.0628662109375 -0.4931488037109375 0.7547607421875
0.1225738525390625 -0.51177787780761719 0.7347412109375
0.1253204345703125 -0.51581001281738281 0.7347412109375
0.1312408447265625 -0.50876045227050781 0.7303466796875
0.119659423828125 -0.50975227355957031 0.7327880859375
0.1137237548828125 -0.51373100280761719 0.73828125
0.115325927734375 -0.517822265625 0.738525390625
0.1351318359375 -0.512847900390625 0.7303466796875
0.127593994140625 -0.50671577453613281 0.7298583984375
0.11181640625 -0.51189994812011719 0.7364501953125
0.0872650146484375 -0.51179885864257812 0.74951171875
0.078582763671875 -0.50833320617675781 0.7523193359375
0.08544921875 -0.51572608947753906 0.7508544921875
0.095703125 -0.51322174072265625 0.7452392578125
0.0871429443359375 -0.50952529907226562 0.745361328125
0.079437255859375 -0.50622177124023438 0.7476806640625
0.075653076171875 -0.5126800537109375 0.755126953125
0.094940185546875 -0.5176239013671875 0.7464599609375
0.0953216552734375 -0.51108932495117188 0.741943359375
0.1101837158203125 -0.50980567932128906 0.712890625
0.1135101318359375 -0.50934028625488281 0.7215576171875
0.1171417236328125 -0.50665664672851562 0.709716796875
0.1072845458984375 -0.50761222839355469 0.704833984375
0.1027984619140625 -0.51070213317871094 0.716064453125
0.1062469482421875 -0.51092910766601562 0.724365234375
0.121002197265625 -0.50661087036132812 0.71875
0.114837646484375 -0.505157470703125 0.701416015625
0.099945068359375 -0.50906181335449219 0.708251953125
0.080291748046875 -0.50888824462890625 0.724853515625
0.072784423828125 -0.5055389404296875 0.7275390625
0.083465576171875 -0.50919532775878906 0.7322998046875
0.0880584716796875 -0.51090240478515625 0.722412109375
0.07647705078125 -0.50592613220214844 0.7178955078125
0.0685272216796875 -0.50338554382324219 0.72021484375
0.07623291015625 -0.50597763061523438 0.7353515625
0.0910491943359375 -0.51090431213378906 0.7301025390625
0.084564208984375 -0.50796890258789062 0.7152099609375
0.1383819580078125 -0.48922920227050781 0.700927734375
0.142059326171875 -0.48801422119140625 0.7088623046875
0.143798828125 -0.47934913635253906 0.6981201171875
0.1351470947265625 -0.48904037475585938 0.6923828125
0.1315765380859375 -0.4967498779296875 0.702880859375
0.1355133056640625 -0.49640083312988281 0.7117919921875
0.1478118896484375 -0.47700309753417969 0.7064208984375
0.14013671875 -0.48011207580566406 0.6907958984375
0.128753662109375 -0.49594879150390625 0.6944580078125
0.049896240234375 -0.48691368103027344 0.7359619140625
0.043548583984375 -0.47844886779785156 0.7384033203125
0.0527801513671875 -0.48563575744628906 0.7451171875
0.057281494140625 -0.49463081359863281 0.73291015625
0.04644775390625 -0.48768234252929688 0.7274169921875
0.041015625 -0.47949790954589844 0.7301025390625
0.0462646484375 -0.47579193115234375 0.7467041015625
0.0608367919921875 -0.49373245239257812 0.7421875
0.053070068359375 -0.49459457397460938 0.7259521484375
0.149200439453125 -0.44364738464355469 0.6959228515625
0.1534881591796875 -0.43833160400390625 0.703125
0.14599609375 -0.43325042724609375 0.69677734375
0.145263671875 -0.44970321655273438 0.688232421875
0.1496124267578125 -0.4565582275390625 0.6959228515625
0.15350341796875 -0.45224380493164062 0.704345703125
0.149444580078125 -0.42715835571289062 0.704833984375
0.1419830322265625 -0.44084930419921875 0.6890869140625
0.1458892822265625 -0.46040153503417969 0.6888427734375
0.032196044921875 -0.44368934631347656 0.739013671875
0.0336761474609375 -0.43363761901855469 0.739501953125
0.0341949462890625 -0.43837356567382812 0.7484130859375
0.0343017578125 -0.45560836791992188 0.740478515625
0.0304412841796875 -0.44948005676269531 0.731201171875
0.0321044921875 -0.441314697265625 0.731201171875
0.03564453125 -0.427520751953125 0.7469482421875
0.0364227294921875 -0.45116806030273438 0.748779296875
0.0323944091796875 -0.45990943908691406 0.732666015625
0.1185302734375 -0.4267120361328125 0.7066650390625
0.121673583984375 -0.41975021362304688 0.714599609375
0.1049041748046875 -0.42947196960449219 0.7119140625
0.115264892578125 -0.43620109558105469 0.6988525390625
0.130706787109375 -0.42517280578613281 0.7021484375
0.1340179443359375 -0.41825675964355469 0.709228515625
0.1077880859375 -0.42222213745117188 0.720458984375
0.10223388671875 -0.43857955932617188 0.7047119140625
0.1269683837890625 -0.43437957763671875 0.694580078125
0.060211181640625 -0.4278411865234375 0.7288818359375
0.074188232421875 -0.4299163818359375 0.7230224609375
0.0623016357421875 -0.42068862915039062 0.7366943359375
0.04833984375 -0.42601966857910156 0.7333984375
0.058746337890625 -0.43659782409667969 0.720703125
0.072418212890625 -0.43905067443847656 0.71533203125
0.076690673828125 -0.42274665832519531 0.730712890625
0.0504302978515625 -0.41901588439941406 0.7412109375
0.046478271484375 -0.43473434448242188 0.7259521484375
0.1072540283203125 -0.47658348083496094 0.6905517578125
0.097015380859375 -0.47842788696289062 0.6949462890625
0.105987548828125 -0.48972129821777344 0.6937255859375
0.1162261962890625 -0.47431182861328125 0.6864013671875
0.109283447265625 -0.46245956420898438 0.691650390625
0.097808837890625 -0.46455574035644531 0.696533203125
0.0967864990234375 -0.491180419921875 0.697021484375
0.114471435546875 -0.48759651184082031 0.689697265625
0.1194915771484375 -0.46022605895996094 0.6864013671875
0.063201904296875 -0.47765541076660156 0.7086181640625
0.067169189453125 -0.49016189575195312 0.7088623046875
0.07421875 -0.47822380065917969 0.7044677734375
0.0601043701171875 -0.46244239807128906 0.7103271484375
0.0536346435546875 -0.47531890869140625 0.7117919921875
0.0582427978515625 -0.48778533935546875 0.71240234375
0.077362060546875 -0.49167251586914062 0.705322265625
0.0722198486328125 -0.46448135375976562 0.7064208984375
0.04901123046875 -0.46024322509765625 0.7144775390625
0.13348388671875 -0.47293853759765625 0.6806640625
0.13018798828125 -0.47278404235839844 0.6810302734375
0.1327362060546875 -0.479827880859375 0.6822509765625
0.13714599609375 -0.46599578857421875 0.6800537109375
0.133697509765625 -0.46131706237792969 0.6800537109375
0.1279449462890625 -0.48315238952636719 0.68310546875
0.137451171875 -0.47264862060546875 0.68212890625
0.036651611328125 -0.47290420532226562 0.718505859375
0.0388031005859375 -0.47978401184082031 0.7186279296875
0.039215087890625 -0.472991943359375 0.7166748046875
0.03265380859375 -0.46584510803222656 0.7205810546875
0.034454345703125 -0.47308158874511719 0.721923828125
0.0442047119140625 -0.48363494873046875 0.716796875
0.0351104736328125 -0.46132850646972656 0.719970703125
0.044403076171875 0.29092025756835938 0.5299072265625
0.036407470703125 0.28425407409667969 0.528564453125
0.0523223876953125 0.27981948852539062 0.5341796875
0.0503082275390625 0.2955169677734375 0.53125
0.037567138671875 0.30350112915039062 0.52685546875
0.0287322998046875 0.296783447265625 0.52392578125
0.0447845458984375 0.27259445190429688 0.532470703125
0.0572662353515625 0.2848052978515625 0.5355224609375
0.0438385009765625 0.30789947509765625 0.5279541015625
-0.177581787109375 0.24571990966796875 0.5140380859375
-0.178741455078125 0.23397254943847656 0.5181884765625
-0.1675872802734375 0.2431488037109375 0.5137939453125
-0.1773834228515625 0.25838470458984375 0.5089111328125
-0.184234619140625 0.24737930297851562 0.5146484375
-0.185089111328125 0.236572265625 0.5189208984375
-0.169036865234375 0.22942543029785156 0.518310546875
-0.1671295166015625 0.25712394714355469 0.5089111328125
-0.1846466064453125 0.25954055786132812 0.509765625
0.0221405029296875 0.34533119201660156 0.5120849609375
0.01165771484375 0.3426055908203125 0.5086669921875
0.0262603759765625 0.33005905151367188 0.51708984375
0.0298004150390625 0.34727668762207031 0.514404296875
0.0186920166015625 0.36104011535644531 0.5069580078125
0.00830078125 0.35988426208496094 0.50390625
0.016571044921875 0.32708168029785156 0.5142822265625
0.03375244140625 0.33293914794921875 0.5198974609375
0.0272674560546875 0.36220359802246094 0.5098876953125
-0.18438720703125 0.29969215393066406 0.4915771484375
-0.1805267333984375 0.28584480285644531 0.498046875
-0.1737518310546875 0.30293464660644531 0.490966796875
-0.189300537109375 0.31464385986328125 0.4847412109375
-0.19207763671875 0.29864501953125 0.4918212890625
-0.188385009765625 0.28537750244140625 0.498779296875
-0.1701202392578125 0.28764915466308594 0.4979248046875
-0.1788482666015625 0.31839942932128906 0.483642578125
-0.197479248046875 0.3125 0.4857177734375
0.01776123046875 0.41133689880371094 0.492919921875
0.0069732666015625 0.41276359558105469 0.4915771484375
0.016632080078125 0.39375495910644531 0.498046875
0.02655029296875 0.40946769714355469 0.495849609375
0.020721435546875 0.42718124389648438 0.4892578125
0.0104522705078125 0.430694580078125 0.487060546875
0.0055694580078125 0.39491081237792969 0.4959716796875
0.025299072265625 0.39405059814453125 0.5009765625
0.029022216796875 0.42455863952636719 0.491455078125
-0.2126617431640625 0.35624504089355469 0.460693359375
-0.2034912109375 0.34368896484375 0.468505859375
-0.2045440673828125 0.363311767578125 0.459716796875
-0.2234344482421875 0.36875534057617188 0.4500732421875
-0.2196502685546875 0.35094070434570312 0.4610595703125
-0.210968017578125 0.33894920349121094 0.4698486328125
-0.1943817138671875 0.34926986694335938 0.4693603515625
-0.2164306640625 0.37598991394042969 0.44873046875
-0.2298736572265625 0.36253738403320312 0.451416015625
0.0782012939453125 0.25316429138183594 0.542724609375
0.073089599609375 0.24318885803222656 0.543212890625
0.0915374755859375 0.24549102783203125 0.5452880859375
0.081787109375 0.25973892211914062 0.5450439453125
0.0682373046875 0.26160812377929688 0.5404052734375
0.06231689453125 0.25240516662597656 0.5396728515625
0.087799072265625 0.23452377319335938 0.544677734375
0.0945892333984375 0.252593994140625 0.5462646484375
0.0721282958984375 0.26708602905273438 0.54248046875
-0.1886749267578125 0.20073127746582031 0.530517578125
-0.1971893310546875 0.19039344787597656 0.533447265625
-0.1796112060546875 0.19474411010742188 0.531494140625
-0.183807373046875 0.21160125732421875 0.526611328125
-0.194915771484375 0.20500755310058594 0.531005859375
-0.20294189453125 0.19457626342773438 0.5341796875
-0.188995361328125 0.18259620666503906 0.5350341796875
-0.17413330078125 0.20597267150878906 0.527099609375
-0.18994140625 0.21593856811523438 0.527587890625
0.1571807861328125 0.22158622741699219 0.541259765625
0.15692138671875 0.2093963623046875 0.5391845703125
0.1832122802734375 0.21537399291992188 0.5364990234375
0.157470703125 0.23018264770507812 0.543212890625
0.1317596435546875 0.22858238220214844 0.5440673828125
0.1303558349609375 0.21788406372070312 0.54296875
0.18438720703125 0.20311737060546875 0.533447265625
0.1825408935546875 0.22492408752441406 0.54052734375
0.133209228515625 0.23697280883789062 0.5460205078125
-0.24810791015625 0.14693069458007812 0.536376953125
-0.2707977294921875 0.13372421264648438 0.5343017578125
-0.2433013916015625 0.13804435729980469 0.5362548828125
-0.22711181640625 0.162811279296875 0.537109375
-0.2515106201171875 0.15446662902832031 0.53759765625
-0.2734375 0.14164352416992188 0.5341796875
-0.26763916015625 0.12394332885742188 0.534423828125
-0.2205657958984375 0.15455245971679688 0.5377197265625
-0.2315216064453125 0.16852378845214844 0.5384521484375
0.250701904296875 0.22174835205078125 0.51806640625
0.255340576171875 0.21235275268554688 0.51416015625
0.267974853515625 0.23182868957519531 0.5123291015625
0.2472381591796875 0.23060798645019531 0.5230712890625
0.2314605712890625 0.21443557739257812 0.5245361328125
0.235076904296875 0.2042236328125 0.520263671875
0.274261474609375 0.22318267822265625 0.5074462890625
0.263092041015625 0.24078559875488281 0.5166015625
0.228363037109375 0.22465705871582031 0.528076171875
-0.3370361328125 0.11455154418945312 0.5145263671875
-0.358367919921875 0.11644744873046875 0.5028076171875
-0.3392791748046875 0.10412979125976562 0.51171875
-0.315643310546875 0.11655426025390625 0.52392578125
-0.3368988037109375 0.12420272827148438 0.5155029296875
-0.356903076171875 0.125274658203125 0.5042724609375
-0.361419677734375 0.106048583984375 0.499755859375
-0.3158721923828125 0.10636138916015625 0.5208740234375
-0.3163909912109375 0.12516593933105469 0.524658203125
0.315185546875 0.28381729125976562 0.49169921875
0.323638916015625 0.2798309326171875 0.4859619140625
0.32720947265625 0.30496788024902344 0.4853515625
0.3081207275390625 0.28853416442871094 0.495361328125
0.3005828857421875 0.26398277282714844 0.49853515625
0.3083343505859375 0.25809860229492188 0.4927978515625
0.3362579345703125 0.30176353454589844 0.4805908203125
0.319549560546875 0.30781936645507812 0.4888916015625
0.2949371337890625 0.26986312866210938 0.50244140625
-0.424560546875 0.13635635375976562 0.4569091796875
-0.4454498291015625 0.14640235900878906 0.43798828125
-0.4314727783203125 0.12896728515625 0.4517822265625
-0.4036102294921875 0.1283111572265625 0.474365234375
-0.41986083984375 0.14340400695800781 0.46044921875
-0.4394073486328125 0.15284919738769531 0.442138671875
-0.4532470703125 0.1401519775390625 0.4327392578125
-0.4092254638671875 0.12007331848144531 0.46923828125
-0.3997802734375 0.1359405517578125 0.476806640625
0.3412017822265625 0.36796951293945312 0.471923828125
0.350738525390625 0.36966323852539062 0.4674072265625
0.338592529296875 0.38764381408691406 0.468505859375
0.332000732421875 0.36787033081054688 0.4752197265625
0.340179443359375 0.34745216369628906 0.4747314453125
0.3500213623046875 0.3477935791015625 0.4705810546875
0.3482818603515625 0.39013481140136719 0.46630859375
0.330047607421875 0.38674736022949219 0.4718017578125
0.3319549560546875 0.34834480285644531 0.4776611328125
-0.4827880859375 0.18653678894042969 0.392333984375
-0.4878387451171875 0.20073509216308594 0.3807373046875
-0.4922637939453125 0.18306922912597656 0.3856201171875
-0.4747314453125 0.17147445678710938 0.4049072265625
-0.4746246337890625 0.19005775451660156 0.3975830078125
-0.4793243408203125 0.20363998413085938 0.3863525390625
-0.4982147216796875 0.19833946228027344 0.3734130859375
-0.4837799072265625 0.16754913330078125 0.3994140625
-0.46734619140625 0.17634010314941406 0.410888671875
0.3184051513671875 0.4368133544921875 0.4659423828125
0.326995849609375 0.44109535217285156 0.4639892578125
0.306304931640625 0.44914627075195312 0.4661865234375
0.31121826171875 0.43268394470214844 0.4696044921875
0.327301025390625 0.42189407348632812 0.4666748046875
0.3366851806640625 0.42579269409179688 0.464599609375
0.313873291015625 0.45431900024414062 0.4637451171875
0.2999420166015625 0.44535064697265625 0.4686279296875
0.319366455078125 0.41901779174804688 0.469482421875
-0.4884490966796875 0.24357986450195312 0.3577880859375
-0.482818603515625 0.25723838806152344 0.3533935546875
-0.4982757568359375 0.24277687072753906 0.3511962890625
-0.4907989501953125 0.22910881042480469 0.3638916015625
-0.4804229736328125 0.24412155151367188 0.36279296875
-0.4747467041015625 0.25767707824707031 0.3603515625
-0.4917144775390625 0.25699615478515625 0.34814453125
-0.501068115234375 0.22844505310058594 0.356689453125
-0.482330322265625 0.230194091796875 0.3681640625
0.24114990234375 0.47945594787597656 0.47119140625
0.244415283203125 0.4864654541015625 0.4686279296875
0.2133636474609375 0.48723983764648438 0.4749755859375
0.238189697265625 0.47435379028320312 0.4764404296875
0.267242431640625 0.4704132080078125 0.468505859375
0.2722930908203125 0.47678565979003906 0.4658203125
0.2150726318359375 0.49491691589355469 0.47021484375
0.2115631103515625 0.4829254150390625 0.4808349609375
0.2628326416015625 0.46630859375 0.4736328125
-0.4392547607421875 0.30887413024902344 0.36376953125
-0.419342041015625 0.32680130004882812 0.36962890625
-0.4449005126953125 0.311492919921875 0.3548583984375
-0.4575347900390625 0.29115104675292969 0.3568115234375
-0.434783935546875 0.3073272705078125 0.371826171875
-0.4158172607421875 0.32386589050292969 0.379638671875
-0.4234771728515625 0.33051490783691406 0.361572265625
-0.4642486572265625 0.29313468933105469 0.3485107421875
-0.4517974853515625 0.28999710083007812 0.364501953125
0.1448822021484375 0.50294113159179688 0.475830078125
0.142242431640625 0.51301956176757812 0.47119140625
0.12799072265625 0.50527572631835938 0.4725341796875
0.1466522216796875 0.49584579467773438 0.481201171875
0.1644744873046875 0.49938392639160156 0.4766845703125
0.1629486083984375 0.50829505920410156 0.471923828125
0.124053955078125 0.51506423950195312 0.46826171875
0.130462646484375 0.49749565124511719 0.478759765625
0.1648101806640625 0.49324417114257812 0.4825439453125
-0.3670654296875 0.36896324157714844 0.3807373046875
-0.3519287109375 0.37738037109375 0.3826904296875
-0.368927001953125 0.37758064270019531 0.373046875
-0.382781982421875 0.3573150634765625 0.379638671875
-0.3654022216796875 0.36321830749511719 0.388671875
-0.351043701171875 0.37120246887207031 0.3887939453125
-0.3539886474609375 0.38856124877929688 0.37451171875
-0.3854522705078125 0.3644866943359375 0.370361328125
-0.3807525634765625 0.35242843627929688 0.38818359375
0.0857086181640625 0.50056076049804688 0.4686279296875
0.0792694091796875 0.51209068298339844 0.465087890625
0.0732879638671875 0.49646377563476562 0.4710693359375
0.0902557373046875 0.49311447143554688 0.4727783203125
0.0985565185546875 0.50361824035644531 0.468994140625
0.0928192138671875 0.51428031921386719 0.4649658203125
0.066162109375 0.50646591186523438 0.4671630859375
0.0785980224609375 0.48881912231445312 0.4754638671875
0.1025543212890625 0.49558830261230469 0.4730224609375
-0.3138275146484375 0.39435577392578125 0.392822265625
-0.301300048828125 0.39655685424804688 0.3985595703125
-0.313629150390625 0.40578269958496094 0.3876953125
-0.326202392578125 0.39081192016601562 0.3885498046875
-0.3142242431640625 0.38657379150390625 0.3978271484375
-0.302490234375 0.38833999633789062 0.4041748046875
-0.3005523681640625 0.40760421752929688 0.3939208984375
-0.3270263671875 0.40262222290039062 0.38330078125
-0.32598876953125 0.38307952880859375 0.3948974609375
0.0413818359375 0.4695587158203125 0.4788818359375
0.03216552734375 0.47772026062011719 0.47509765625
0.0326080322265625 0.4571075439453125 0.481689453125
0.0482940673828125 0.46421432495117188 0.4818115234375
0.050933837890625 0.48057174682617188 0.475830078125
0.04296875 0.48967170715332031 0.471923828125
0.0230712890625 0.46335411071777344 0.4788818359375
0.040374755859375 0.45248794555664062 0.484619140625
0.058258056640625 0.47401237487792969 0.4796142578125
-0.2620391845703125 0.39216804504394531 0.4234619140625
-0.2487945556640625 0.3863983154296875 0.4332275390625
-0.2581024169921875 0.40215301513671875 0.420166015625
-0.275848388671875 0.39581871032714844 0.4140625
-0.2654876708984375 0.38400077819824219 0.4263916015625
-0.2532501220703125 0.37910652160644531 0.434814453125
-0.2437896728515625 0.39545822143554688 0.430908203125
-0.273101806640625 0.40547752380371094 0.410400390625
-0.278839111328125 0.38776969909667969 0.41845703125
0.065032958984375 0.45041084289550781 0.4862060546875
0.060546875 0.45471000671386719 0.486328125
0.0585174560546875 0.44060707092285156 0.4886474609375
0.06939697265625 0.44640922546386719 0.4864501953125
0.0722198486328125 0.45952606201171875 0.485107421875
0.0685272216796875 0.46392440795898438 0.484619140625
0.053131103515625 0.44432258605957031 0.4884033203125
0.0629730224609375 0.43711662292480469 0.4869384765625
0.0762481689453125 0.45503616333007812 0.485107421875
-0.27362060546875 0.36612129211425781 0.4305419921875
-0.262481689453125 0.36137008666992188 0.436767578125
-0.2714385986328125 0.37168502807617188 0.4305419921875
-0.2839508056640625 0.36962699890136719 0.4248046875
-0.2751617431640625 0.36117362976074219 0.4298095703125
-0.2644805908203125 0.35615921020507812 0.4354248046875
-0.259918212890625 0.36682701110839844 0.4378662109375
-0.2828826904296875 0.3749847412109375 0.423828125
-0.2850799560546875 0.36472511291503906 0.424072265625
0.0995941162109375 0.47643089294433594 0.4794921875
0.0970001220703125 0.48153305053710938 0.4794921875
0.0897369384765625 0.47281074523925781 0.48095703125
0.1019287109375 0.47170639038085938 0.4803466796875
0.1100616455078125 0.48004341125488281 0.480712890625
0.1078338623046875 0.48449516296386719 0.4798583984375
0.0867919921875 0.47746086120605469 0.480712890625
0.0924072265625 0.46769523620605469 0.48095703125
0.1117401123046875 0.47538375854492188 0.4803466796875
-0.3150177001953125 0.37075996398925781 0.408447265625
-0.304595947265625 0.37237930297851562 0.4141845703125
-0.3150177001953125 0.37537193298339844 0.4058837890625
-0.3256683349609375 0.36753082275390625 0.405517578125
-0.3144378662109375 0.36604881286621094 0.4090576171875
-0.30419921875 0.36728668212890625 0.415283203125
-0.304168701171875 0.37707138061523438 0.4114990234375
-0.325927734375 0.37195968627929688 0.4029541015625
-0.32476806640625 0.36384010314941406 0.4063720703125
0.1484832763671875 0.48229217529296875 0.4869384765625
0.1478424072265625 0.48663520812988281 0.4876708984375
0.1345367431640625 0.48251914978027344 0.4852294921875
0.148956298828125 0.47804832458496094 0.4853515625
0.164764404296875 0.4812774658203125 0.48779296875
0.1649322509765625 0.4854278564453125 0.4891357421875
0.1335601806640625 0.48736381530761719 0.4853515625
0.1354217529296875 0.47780227661132812 0.4844970703125
0.1650848388671875 0.47727203369140625 0.4862060546875
-0.3612060546875 0.35166549682617188 0.4000244140625
-0.348297119140625 0.35832595825195312 0.4002685546875
-0.3626708984375 0.35550689697265625 0.3990478515625
-0.375 0.34278678894042969 0.3988037109375
-0.359283447265625 0.34840202331542969 0.3990478515625
-0.346923828125 0.3541107177734375 0.4014892578125
-0.3494873046875 0.3621368408203125 0.399169921875
-0.3771514892578125 0.34601020812988281 0.39794921875
-0.372772216796875 0.33942794799804688 0.3980712890625
0.2296142578125 0.46283149719238281 0.480712890625
0.2322540283203125 0.46780967712402344 0.482177734375
0.2060394287109375 0.47126007080078125 0.48583984375
0.2272491455078125 0.45840644836425781 0.478515625
0.2513275146484375 0.45437240600585938 0.476318359375
0.2546844482421875 0.45849990844726562 0.47705078125
0.2074432373046875 0.47504425048828125 0.4873046875
0.20477294921875 0.46667861938476562 0.4833984375
0.248626708984375 0.44981002807617188 0.47314453125
-0.4223480224609375 0.30069923400878906 0.383544921875
-0.40631103515625 0.31687736511230469 0.391357421875
-0.4263153076171875 0.30361175537109375 0.382568359375
-0.43731689453125 0.28455924987792969 0.376220703125
-0.418182373046875 0.29793167114257812 0.384033203125
-0.40289306640625 0.31371879577636719 0.3902587890625
-0.409912109375 0.31976509094238281 0.3900146484375
-0.442230224609375 0.28670120239257812 0.3753662109375
-0.4326324462890625 0.28162765502929688 0.37646484375
0.2939605712890625 0.42159843444824219 0.4697265625
0.299102783203125 0.425689697265625 0.4716796875
0.283599853515625 0.43240165710449219 0.4693603515625
0.288909912109375 0.41729736328125 0.4659423828125
0.30108642578125 0.40971183776855469 0.4693603515625
0.3062896728515625 0.41327667236328125 0.4710693359375
0.2885589599609375 0.43754386901855469 0.4720458984375
0.279296875 0.42832565307617188 0.466796875
0.29583740234375 0.406036376953125 0.4666748046875
-0.4609832763671875 0.24275970458984375 0.3739013671875
-0.456573486328125 0.25475502014160156 0.3707275390625
-0.466827392578125 0.24375152587890625 0.37158203125
-0.4625701904296875 0.2318267822265625 0.379150390625
-0.455322265625 0.24163436889648438 0.3741455078125
-0.451263427734375 0.25332832336425781 0.37158203125
-0.4625701904296875 0.25687026977539062 0.369140625
-0.4684600830078125 0.23123931884765625 0.3765869140625
-0.456939697265625 0.23058700561523438 0.3792724609375
0.3120269775390625 0.3664398193359375 0.4749755859375
0.3178558349609375 0.36768341064453125 0.476806640625
0.309783935546875 0.38226699829101562 0.47216796875
0.3061676025390625 0.36517906188964844 0.472412109375
0.31182861328125 0.3499908447265625 0.47802734375
0.3176116943359375 0.34985923767089844 0.4794921875
0.315521240234375 0.38452339172363281 0.4736328125
0.304412841796875 0.38003921508789062 0.469482421875
0.3061981201171875 0.34964561462402344 0.4754638671875
-0.456298828125 0.19703483581542969 0.4036865234375
-0.4603424072265625 0.20940017700195312 0.3941650390625
-0.462127685546875 0.19610595703125 0.4036865234375
-0.449371337890625 0.18482780456542969 0.4156494140625
-0.4510345458984375 0.19756317138671875 0.403076171875
-0.4550933837890625 0.20942115783691406 0.39404296875
-0.46600341796875 0.20858573913574219 0.392578125
-0.4549407958984375 0.18318748474121094 0.416259765625
-0.4445953369140625 0.18688583374023438 0.413330078125
0.2924957275390625 0.29789924621582031 0.4969482421875
0.2972564697265625 0.29565048217773438 0.497802734375
0.3017730712890625 0.3151702880859375 0.4898681640625
0.288116455078125 0.29961967468261719 0.494384765625
0.28106689453125 0.28241157531738281 0.503173828125
0.285491943359375 0.27990150451660156 0.5057373046875
0.30718994140625 0.31380271911621094 0.4918212890625
0.29693603515625 0.31662750244140625 0.4866943359375
0.27691650390625 0.28420257568359375 0.5001220703125
-0.408905029296875 0.15674972534179688 0.4595947265625
-0.4252166748046875 0.1657257080078125 0.443115234375
-0.412506103515625 0.15427780151367188 0.4609375
-0.3913421630859375 0.15048599243164062 0.4752197265625
-0.40545654296875 0.15948104858398438 0.4569091796875
-0.4210662841796875 0.16808509826660156 0.4410400390625
-0.4293670654296875 0.16240501403808594 0.444580078125
-0.3941497802734375 0.14706611633300781 0.4771728515625
-0.388580322265625 0.15282249450683594 0.4713134765625
0.239471435546875 0.24780464172363281 0.5238037109375
0.2417144775390625 0.24361610412597656 0.5257568359375
0.25421142578125 0.25640869140625 0.5174560546875
0.237030029296875 0.25026702880859375 0.5208740234375
0.222686767578125 0.24116325378417969 0.5291748046875
0.224365234375 0.23715782165527344 0.5313720703125
0.2570648193359375 0.25268173217773438 0.5196533203125
0.25140380859375 0.25892829895019531 0.5146484375
0.2210235595703125 0.24431800842285156 0.525634765625
-0.336273193359375 0.14023208618164062 0.5101318359375
-0.354034423828125 0.14130020141601562 0.5009765625
-0.3367767333984375 0.13647842407226562 0.5142822265625
-0.3182830810546875 0.14133453369140625 0.518798828125
-0.3359832763671875 0.14276885986328125 0.506591796875
-0.35321044921875 0.14325141906738281 0.4969482421875
-0.35528564453125 0.13782119750976562 0.5037841796875
-0.3175811767578125 0.13768577575683594 0.5225830078125
-0.31842041015625 0.14407539367675781 0.5142822265625
0.158721923828125 0.24489593505859375 0.5418701171875
0.158233642578125 0.24150466918945312 0.54443359375
0.18182373046875 0.24145889282226562 0.539306640625
0.159088134765625 0.24768638610839844 0.5380859375
0.1371612548828125 0.2504425048828125 0.5439453125
0.1358795166015625 0.24749565124511719 0.54638671875
0.1820831298828125 0.23747634887695312 0.5418701171875
0.1815948486328125 0.24439048767089844 0.5355224609375
0.138153076171875 0.25304794311523438 0.5399169921875
-0.2592620849609375 0.16595840454101562 0.5321044921875
-0.278778076171875 0.155059814453125 0.5286865234375
