# XYZ point cloud file
0.71044921875 -0.4970703125 0.7255859375
0.70068359375 -0.496337890625 0.7313232421875
0.6806640625 -0.501220703125 0.74609375
0.6669921875 -0.514404296875 0.74365234375
0.66552734375 -0.54736328125 0.7427978515625
0.6552734375 -0.583984375 0.7491455078125
0.77587890625 -0.25 0.5921630859375
0.759765625 -0.26171875 0.6419677734375
0.7294921875 -0.27490234375 0.661865234375
0.73388671875 -0.296630859375 0.67919921875
0.75537109375 -0.298095703125 0.6614990234375
0.77197265625 -0.3203125 0.64501953125
0.64306640625 -0.491943359375 0.747802734375
0.62548828125 -0.473876953125 0.7681884765625
0.60595703125 -0.45556640625 0.7674560546875
0.580078125 -0.46728515625 0.779296875
0.5791015625 -0.511962890625 0.779541015625
0.5751953125 -0.549560546875 0.78173828125
0.494140625 -0.094482421875 0.7056884765625
0.4921875 -0.107666015625 0.724609375
0.47705078125 -0.127685546875 0.734130859375
0.50927734375 -0.176513671875 0.7510986328125
0.55517578125 -0.2099609375 0.7137451171875
0.5986328125 -0.229736328125 0.71728515625
0.64697265625 -0.21826171875 0.6680908203125
0.66064453125 -0.205322265625 0.6402587890625
0.68603515625 -0.19384765625 0.6265869140625
0.4833984375 -0.488525390625 0.8043212890625
0.50146484375 -0.456298828125 0.802734375
0.5166015625 -0.426025390625 0.7962646484375
0.49609375 -0.367919921875 0.78857421875
0.4638671875 -0.348388671875 0.7874755859375
0.42041015625 -0.31982421875 0.7894287109375
0.36181640625 -0.305419921875 0.79638671875
0.3359375 -0.322509765625 0.7880859375
0.32470703125 -0.359619140625 0.7821044921875
0.66162109375 -0.253173828125 0.678955078125
0.685546875 -0.268310546875 0.676025390625
0.69921875 -0.27490234375 0.68798828125
0.57861328125 -0.43505859375 0.7734375
0.56689453125 -0.430419921875 0.77099609375
0.54638671875 -0.418212890625 0.7784423828125
0.416015625 -0.13134765625 0.7508544921875
0.3984375 -0.116455078125 0.738525390625
0.36572265625 -0.092041015625 0.7403564453125
0.33203125 -0.093017578125 0.7562255859375
0.3310546875 -0.11767578125 0.7625732421875
0.322265625 -0.1318359375 0.7625732421875
0.32666015625 -0.166748046875 0.7706298828125
0.35595703125 -0.181396484375 0.7657470703125
0.3955078125 -0.202880859375 0.7701416015625
0.43896484375 -0.2021484375 0.7701416015625
0.43994140625 -0.17919921875 0.758056640625
0.45361328125 -0.157958984375 0.7576904296875
0.3916015625 -0.26220703125 0.78955078125
0.4033203125 -0.25048828125 0.7855224609375
0.41748046875 -0.2353515625 0.779052734375
0.294921875 -0.165283203125 0.78564453125
0.27978515625 -0.17919921875 0.795166015625
0.259765625 -0.189453125 0.7999267578125
0.27587890625 -0.217041015625 0.78955078125
0.306640625 -0.236328125 0.7901611328125
0.33447265625 -0.2578125 0.800048828125
0.59619140625 -0.298828125 0.7415771484375
0.61669921875 -0.271728515625 0.73193359375
0.62744140625 -0.2578125 0.718017578125
0.46435546875 -0.24560546875 0.78076171875
0.50390625 -0.270263671875 0.7633056640625
0.55126953125 -0.293212890625 0.7584228515625
0.54541015625 -0.368896484375 0.775390625
0.5556640625 -0.350830078125 0.7657470703125
0.578125 -0.336669921875 0.7557373046875
0.6171875 -0.331298828125 0.7481689453125
0.63818359375 -0.340087890625 0.7431640625
0.64892578125 -0.3525390625 0.73779296875
0.66748046875 -0.33349609375 0.7144775390625
0.67724609375 -0.318359375 0.7052001953125
0.6865234375 -0.29345703125 0.6934814453125
0.6025390625 -0.41943359375 0.7657470703125
0.62353515625 -0.3896484375 0.755859375
0.6357421875 -0.37060546875 0.7362060546875
0.3271484375 -0.043212890625 0.7437744140625
0.31494140625 -0.030517578125 0.7359619140625
0.302734375 -0.017578125 0.7381591796875
0.28759765625 -0.002685546875 0.7513427734375
0.287109375 -0.002685546875 0.7623291015625
0.287109375 -0.000732421875 0.7669677734375
0.29296875 -0.013427734375 0.7841796875
0.3046875 -0.02392578125 0.7796630859375
0.3076171875 -0.035400390625 0.7823486328125
0.31103515625 -0.048828125 0.777099609375
0.31884765625 -0.05908203125 0.7645263671875
0.32568359375 -0.0634765625 0.7529296875
0.23095703125 -0.18310546875 0.8128662109375
0.22509765625 -0.177001953125 0.81201171875
0.22705078125 -0.16845703125 0.826171875
0.20751953125 -0.171875 0.84375
0.19384765625 -0.173095703125 0.8458251953125
0.17431640625 -0.177978515625 0.8538818359375
0.16357421875 -0.172119140625 0.83935546875
0.16552734375 -0.17822265625 0.8267822265625
0.16748046875 -0.177978515625 0.8172607421875
0.18212890625 -0.190185546875 0.80712890625
0.19482421875 -0.196044921875 0.80615234375
0.21728515625 -0.19482421875 0.8028564453125
0.26708984375 -0.000732421875 0.748046875
0.2431640625 0.0126953125 0.7545166015625
0.224609375 0.01611328125 0.7650146484375
0.2001953125 0.009765625 0.7767333984375
0.205078125 0.010498046875 0.783935546875
0.20703125 0.015380859375 0.7974853515625
0.22900390625 0.0185546875 0.7974853515625
0.248046875 0.01416015625 0.790771484375
0.26611328125 0.003662109375 0.7835693359375
0.1484375 -0.157470703125 0.85107421875
0.13623046875 -0.158203125 0.8477783203125
0.13037109375 -0.140869140625 0.839599609375
0.11279296875 -0.126708984375 0.8197021484375
0.1142578125 -0.126953125 0.806640625
0.11572265625 -0.13037109375 0.8033447265625
0.1162109375 -0.146240234375 0.8079833984375
0.12890625 -0.162353515625 0.8134765625
0.14892578125 -0.165283203125 0.8104248046875
0.1806640625 0.00048828125 0.7784423828125
0.16650390625 -0.005615234375 0.7884521484375
0.15380859375 -0.02392578125 0.779541015625
0.154296875 -0.039306640625 0.787353515625
0.166015625 -0.03076171875 0.7923583984375
0.16552734375 -0.019775390625 0.8009033203125
0.17333984375 -0.006103515625 0.8038330078125
0.18310546875 0.004638671875 0.8045654296875
0.193359375 0.01416015625 0.807861328125
0.115234375 -0.116455078125 0.8262939453125
0.11328125 -0.107421875 0.822021484375
0.12451171875 -0.0927734375 0.82275390625
0.138671875 -0.080810546875 0.8150634765625
0.14208984375 -0.0751953125 0.8092041015625
0.14111328125 -0.069091796875 0.7947998046875
0.12939453125 -0.064697265625 0.800048828125
0.11669921875 -0.08935546875 0.7962646484375
0.10986328125 -0.110107421875 0.7939453125
0.15625 -0.0595703125 0.790771484375
0.16748046875 -0.065185546875 0.7979736328125
0.17333984375 -0.061279296875 0.8062744140625
0.1748046875 -0.061279296875 0.8065185546875
0.1806640625 -0.06396484375 0.8082275390625
0.17822265625 -0.0615234375 0.8133544921875
0.1767578125 -0.05029296875 0.824462890625
0.17626953125 -0.043212890625 0.81982421875
0.169921875 -0.0263671875 0.814453125
0.14892578125 -0.077392578125 0.82421875
0.15625 -0.06884765625 0.826904296875
0.17333984375 -0.0625 0.8265380859375
0.2919921875 -0.13134765625 0.8011474609375
0.298828125 -0.1357421875 0.7874755859375
0.302734375 -0.14453125 0.7838134765625
0.310546875 -0.06982421875 0.7884521484375
0.30615234375 -0.087890625 0.7916259765625
0.30029296875 -0.107421875 0.7957763671875
0.271484375 -0.142822265625 0.8173828125
0.2451171875 -0.155517578125 0.8275146484375
0.234375 -0.158935546875 0.8243408203125
0.2734375 -0.11083984375 0.8218994140625
0.2783203125 -0.1181640625 0.8192138671875
0.28564453125 -0.123046875 0.816162109375
0.2998046875 -0.046630859375 0.79052734375
0.29541015625 -0.04736328125 0.792236328125
0.2919921875 -0.0458984375 0.797119140625
0.2880859375 -0.058837890625 0.8067626953125
0.2841796875 -0.07275390625 0.8133544921875
0.27392578125 -0.090087890625 0.8248291015625
0.24755859375 -0.11962890625 0.83447265625
0.23095703125 -0.1318359375 0.83642578125
0.2197265625 -0.14208984375 0.8477783203125
0.21533203125 -0.155029296875 0.84814453125
0.21533203125 -0.1591796875 0.845458984375
0.21923828125 -0.16064453125 0.8397216796875
0.17919921875 -0.061767578125 0.8345947265625
0.18310546875 -0.06201171875 0.843017578125
0.19384765625 -0.067626953125 0.85107421875
0.2021484375 -0.041748046875 0.847412109375
0.1982421875 -0.028076171875 0.8353271484375
0.1943359375 -0.01953125 0.833251953125
0.18798828125 -0.017822265625 0.829345703125
0.1728515625 -0.017333984375 0.8216552734375
0.169921875 -0.017822265625 0.8179931640625
0.13232421875 -0.080810546875 0.833251953125
0.138671875 -0.0830078125 0.8387451171875
0.1376953125 -0.08837890625 0.8465576171875
0.1552734375 -0.086181640625 0.84521484375
0.16162109375 -0.080810546875 0.852783203125
0.18408203125 -0.08056640625 0.8529052734375
0.19140625 -0.00927734375 0.826904296875
0.2021484375 0.00048828125 0.8270263671875
0.21630859375 0.005615234375 0.824951171875
0.220703125 0.01123046875 0.819580078125
0.21630859375 0.014404296875 0.808837890625
0.21337890625 0.021240234375 0.8023681640625
0.12353515625 -0.131103515625 0.83642578125
0.12744140625 -0.127197265625 0.84716796875
0.13671875 -0.1220703125 0.85546875
0.13671875 -0.115478515625 0.8548583984375
0.140625 -0.1064453125 0.8531494140625
0.138671875 -0.09814453125 0.84912109375
0.23681640625 0.007080078125 0.8226318359375
0.24658203125 0.005126953125 0.81396484375
0.26220703125 -0.006103515625 0.81298828125
0.279296875 -0.00830078125 0.8048095703125
0.2783203125 -0.00439453125 0.796630859375
0.2861328125 -0.001953125 0.7930908203125
0.16357421875 -0.167236328125 0.86083984375
0.17041015625 -0.161376953125 0.866943359375
0.173828125 -0.154296875 0.8758544921875
0.1640625 -0.135009765625 0.8804931640625
0.15478515625 -0.1337890625 0.8682861328125
0.1396484375 -0.125 0.8614501953125
0.27685546875 -0.021728515625 0.810302734375
0.28125 -0.0361328125 0.8048095703125
0.28466796875 -0.042724609375 0.8001708984375
0.21044921875 -0.1513671875 0.8597412109375
0.19970703125 -0.149658203125 0.8636474609375
0.19140625 -0.145263671875 0.8702392578125
0.22607421875 -0.043212890625 0.84228515625
0.24560546875 -0.034912109375 0.83740234375
0.25244140625 -0.027587890625 0.82080078125
0.18505859375 -0.1318359375 0.872802734375
0.1875 -0.1171875 0.8682861328125
0.1923828125 -0.09521484375 0.8570556640625
0.22119140625 -0.080810546875 0.8443603515625
0.234375 -0.089111328125 0.8394775390625
0.25 -0.098876953125 0.8408203125
0.056640625 0.00341796875 0.778076171875
0.0908203125 -0.016845703125 0.7877197265625
0.11962890625 -0.03759765625 0.7938232421875
0.18994140625 0.014892578125 0.7686767578125
0.1884765625 0.02685546875 0.7750244140625
0.1884765625 0.04931640625 0.7767333984375
0.06591796875 -0.128662109375 0.815673828125
0.0849609375 -0.128173828125 0.813720703125
0.103515625 -0.125732421875 0.8006591796875
0.29296875 -0.00146484375 0.7261962890625
0.29443359375 0.00439453125 0.717529296875
0.2978515625 0.007568359375 0.7041015625
0.28271484375 0.023681640625 0.6956787109375
0.24951171875 0.037109375 0.7183837890625
0.21923828125 0.051025390625 0.73974609375
0.07470703125 -0.166748046875 0.801025390625
0.10205078125 -0.186279296875 0.7857666015625
0.119140625 -0.212646484375 0.779296875
0.1435546875 -0.214599609375 0.789306640625
0.1474609375 -0.197265625 0.803955078125
0.16259765625 -0.187255859375 0.8031005859375
0.3564453125 -0.05615234375 0.729736328125
0.3701171875 -0.041259765625 0.7181396484375
0.37158203125 -0.033203125 0.7021484375
0.3642578125 -0.016357421875 0.6702880859375
0.34619140625 -0.004150390625 0.6702880859375
0.3212890625 -0.000732421875 0.6728515625
0.15283203125 -0.2451171875 0.7734375
0.1708984375 -0.257080078125 0.771728515625
0.18994140625 -0.274169921875 0.7706298828125
0.220703125 -0.267578125 0.80126953125
0.23095703125 -0.244384765625 0.8023681640625
0.23828125 -0.225341796875 0.8082275390625
0.470703125 -0.063720703125 0.6800537109375
0.4326171875 -0.04736328125 0.6787109375
0.408203125 -0.035400390625 0.6849365234375
0.22607421875 -0.30126953125 0.7845458984375
0.24755859375 -0.32763671875 0.7698974609375
0.27685546875 -0.35107421875 0.7747802734375
0.4677734375 -0.034912109375 0.517578125
0.4384765625 -0.020751953125 0.5184326171875
0.41259765625 -0.014892578125 0.5322265625
0.39697265625 -0.01220703125 0.5682373046875
0.3955078125 -0.01171875 0.6033935546875
0.39306640625 -0.01611328125 0.63916015625
0.1923828125 -0.309326171875 0.7640380859375
0.18310546875 -0.33447265625 0.72509765625
0.1767578125 -0.353271484375 0.7021484375
0.1806640625 -0.385986328125 0.6707763671875
0.19677734375 -0.41162109375 0.6727294921875
0.21142578125 -0.44384765625 0.67822265625
0.36962890625 0.0068359375 0.5299072265625
0.3515625 0.010009765625 0.52685546875
0.33056640625 0.01611328125 0.53662109375
0.31884765625 0.019775390625 0.5858154296875
0.310546875 0.0166015625 0.6170654296875
0.3125 0.014404296875 0.64697265625
0.1318359375 -0.248291015625 0.752685546875
0.12646484375 -0.267333984375 0.7294921875
0.123046875 -0.283935546875 0.701171875
0.126953125 -0.31640625 0.671142578125
0.13623046875 -0.33154296875 0.671875
0.15087890625 -0.35205078125 0.672119140625
0.3056640625 0.028076171875 0.55029296875
0.2861328125 0.037109375 0.555419921875
0.27490234375 0.047119140625 0.554931640625
0.06494140625 -0.26708984375 0.6602783203125
0.08447265625 -0.27587890625 0.6640625
0.09912109375 -0.2880859375 0.66455078125
0.69921875 -0.30712890625 0.6915283203125
0.70361328125 -0.30078125 0.6966552734375
0.70654296875 -0.296630859375 0.6942138671875
0.66064453125 -0.35400390625 0.7171630859375
0.66650390625 -0.36279296875 0.7132568359375
0.66552734375 -0.365966796875 0.7115478515625
0.68017578125 -0.358642578125 0.701904296875
0.68408203125 -0.340087890625 0.692626953125
0.69091796875 -0.3203125 0.686279296875
0.6298828125 -0.416015625 0.73876953125
0.6396484375 -0.3984375 0.7374267578125
0.65185546875 -0.38427734375 0.7149658203125
0.609375 -0.427734375 0.7647705078125
0.6201171875 -0.423095703125 0.75732421875
0.62353515625 -0.42236328125 0.759521484375
0.755859375 -0.341796875 0.66455078125
0.7646484375 -0.33740234375 0.6690673828125
0.7744140625 -0.3359375 0.6500244140625
0.71923828125 -0.3154296875 0.6912841796875
0.72900390625 -0.323486328125 0.6802978515625
0.7431640625 -0.32568359375 0.6629638671875
0.6455078125 -0.45947265625 0.7315673828125
0.63330078125 -0.44873046875 0.739013671875
0.6279296875 -0.4365234375 0.7540283203125
0.6591796875 -0.477294921875 0.737060546875
0.66064453125 -0.470947265625 0.7315673828125
0.65771484375 -0.465087890625 0.7239990234375
0.77783203125 -0.4013671875 0.65673828125
0.77978515625 -0.395263671875 0.657470703125
0.78515625 -0.3935546875 0.6522216796875
0.755859375 -0.36376953125 0.6573486328125
0.76611328125 -0.378662109375 0.6541748046875
0.76611328125 -0.3857421875 0.6473388671875
0.69189453125 -0.46533203125 0.70947265625
0.681640625 -0.45947265625 0.70947265625
0.66796875 -0.46875 0.71044921875
0.71826171875 -0.4755859375 0.708984375
0.71630859375 -0.468994140625 0.708740234375
0.7109375 -0.4677734375 0.701416015625
0.75048828125 -0.4423828125 0.6846923828125
0.7578125 -0.447021484375 0.6844482421875
0.76123046875 -0.45068359375 0.680908203125
0.763671875 -0.41748046875 0.657958984375
0.75732421875 -0.42919921875 0.6624755859375
0.74658203125 -0.435302734375 0.6654052734375
0.732421875 -0.451416015625 0.6806640625
0.724609375 -0.45361328125 0.68310546875
0.7197265625 -0.4580078125 0.6884765625
0.72412109375 -0.43798828125 0.6497802734375
0.72509765625 -0.44091796875 0.6495361328125
0.7333984375 -0.44287109375 0.663330078125
0.76318359375 -0.405029296875 0.6490478515625
0.751953125 -0.402099609375 0.635986328125
0.73876953125 -0.403564453125 0.62548828125
0.7333984375 -0.408203125 0.6280517578125
0.7333984375 -0.416748046875 0.6370849609375
0.72119140625 -0.425537109375 0.638916015625
0.7021484375 -0.445068359375 0.6536865234375
0.6923828125 -0.449951171875 0.6539306640625
0.6865234375 -0.451416015625 0.6591796875
0.6806640625 -0.463134765625 0.6768798828125
0.6884765625 -0.462646484375 0.687255859375
0.69970703125 -0.467041015625 0.6943359375
0.75 -0.3447265625 0.6544189453125
0.74365234375 -0.345703125 0.6424560546875
0.7373046875 -0.3515625 0.6268310546875
0.734375 -0.36767578125 0.6219482421875
0.7353515625 -0.37890625 0.6214599609375
0.7353515625 -0.387939453125 0.6241455078125
0.67138671875 -0.470703125 0.6702880859375
0.662109375 -0.4765625 0.6683349609375
0.65625 -0.47802734375 0.6832275390625
0.650390625 -0.4775390625 0.6923828125
0.65625 -0.471923828125 0.701904296875
0.658203125 -0.466552734375 0.7047119140625
0.7001953125 -0.31982421875 0.6746826171875
0.7001953125 -0.32861328125 0.66845703125
0.697265625 -0.337158203125 0.6622314453125
0.70751953125 -0.34619140625 0.6439208984375
0.71337890625 -0.34765625 0.634765625
0.724609375 -0.346435546875 0.6351318359375
0.63916015625 -0.47509765625 0.6927490234375
0.62841796875 -0.46630859375 0.68896484375
0.62744140625 -0.456787109375 0.6942138671875
0.61962890625 -0.438232421875 0.7078857421875
0.62109375 -0.4326171875 0.7232666015625
0.623046875 -0.425048828125 0.73291015625
0.66796875 -0.373046875 0.694091796875
0.66650390625 -0.38134765625 0.6839599609375
0.6708984375 -0.392578125 0.6734619140625
0.68310546875 -0.382568359375 0.6644287109375
0.681640625 -0.373291015625 0.652587890625
0.6943359375 -0.353759765625 0.6507568359375
0.63037109375 -0.43408203125 0.690673828125
0.6474609375 -0.427734375 0.6790771484375
0.6640625 -0.416748046875 0.673095703125
0.68115234375 -0.41015625 0.6527099609375
0.68994140625 -0.41357421875 0.6446533203125
0.70361328125 -0.4248046875 0.6435546875
0.72607421875 -0.389892578125 0.6278076171875
0.71142578125 -0.370361328125 0.6298828125
0.7001953125 -0.360107421875 0.642822265625
0.63427734375 -0.45654296875 0.679443359375
0.654296875 -0.46435546875 0.6685791015625
0.66796875 -0.46630859375 0.6578369140625
-0.07861328125 0.244384765625 0.7894287109375
-0.083984375 0.240478515625 0.782958984375
-0.0810546875 0.230224609375 0.7823486328125
-0.005859375 0.212158203125 0.7847900390625
-0.00439453125 0.225341796875 0.794921875
-0.00537109375 0.235107421875 0.798095703125
-0.02099609375 0.24462890625 0.790771484375
-0.03466796875 0.24609375 0.7900390625
-0.04638671875 0.25048828125 0.7916259765625
-0.2255859375 -0.02099609375 0.7828369140625
-0.2158203125 -0.03271484375 0.7828369140625
-0.20361328125 -0.0458984375 0.79052734375
-0.19287109375 -0.0595703125 0.792724609375
-0.18310546875 -0.054931640625 0.7869873046875
-0.169921875 -0.04248046875 0.7762451171875
-0.2275390625 0.00634765625 0.774658203125
-0.23291015625 -0.001953125 0.77880859375
-0.236328125 -0.010986328125 0.779052734375
-0.134765625 0.291748046875 0.79345703125
-0.1494140625 0.286376953125 0.8001708984375
-0.158203125 0.278564453125 0.800048828125
-0.0908203125 0.262451171875 0.7899169921875
-0.1044921875 0.26806640625 0.7894287109375
-0.11962890625 0.28173828125 0.7833251953125
-0.2919921875 0.009765625 0.7879638671875
-0.27783203125 0.004150390625 0.7841796875
-0.25341796875 -0.005126953125 0.7855224609375
-0.29833984375 0.052978515625 0.7734375
-0.30078125 0.04443359375 0.7750244140625
-0.3056640625 0.029541015625 0.78173828125
-0.19091796875 0.357177734375 0.7864990234375
-0.19873046875 0.35302734375 0.78564453125
-0.21337890625 0.34912109375 0.8050537109375
-0.1474609375 0.3154296875 0.7923583984375
-0.16162109375 0.328857421875 0.78369140625
-0.1708984375 0.34375 0.782958984375
-0.35791015625 0.037353515625 0.746826171875
-0.34033203125 0.033447265625 0.75537109375
-0.32763671875 0.028564453125 0.767333984375
-0.38623046875 0.063720703125 0.74755859375
-0.38427734375 0.053955078125 0.745361328125
-0.38232421875 0.045166015625 0.7435302734375
0.0771484375 0.23046875 0.7747802734375
0.0732421875 0.23828125 0.7762451171875
0.07275390625 0.24658203125 0.7894287109375
0.0478515625 0.240234375 0.7960205078125
0.02978515625 0.229736328125 0.8016357421875
0.00927734375 0.234619140625 0.7991943359375
-0.18505859375 -0.068359375 0.7965087890625
-0.17822265625 -0.083984375 0.8043212890625
-0.17822265625 -0.09814453125 0.8062744140625
-0.173828125 -0.119384765625 0.8033447265625
-0.16845703125 -0.118408203125 0.7884521484375
-0.14453125 -0.1142578125 0.791015625
0.1875 0.295654296875 0.7120361328125
0.17919921875 0.30322265625 0.721435546875
0.17138671875 0.31103515625 0.7313232421875
0.14453125 0.295654296875 0.7427978515625
0.1162109375 0.28564453125 0.7640380859375
0.09130859375 0.262451171875 0.7713623046875
-0.18603515625 -0.147216796875 0.8043212890625
-0.19677734375 -0.169921875 0.8089599609375
-0.2109375 -0.20654296875 0.8023681640625
-0.216796875 -0.23681640625 0.78369140625
-0.21044921875 -0.247314453125 0.7806396484375
-0.203125 -0.259033203125 0.773681640625
0.2099609375 0.428466796875 0.689697265625
0.19677734375 0.42724609375 0.698974609375
0.19287109375 0.426513671875 0.711181640625
0.1953125 0.39794921875 0.7227783203125
0.18701171875 0.369384765625 0.7276611328125
0.17919921875 0.33935546875 0.7310791015625
-0.2412109375 -0.259033203125 0.7852783203125
-0.26904296875 -0.2705078125 0.7769775390625
-0.27880859375 -0.290283203125 0.77099609375
-0.298828125 -0.31689453125 0.7542724609375
-0.298828125 -0.32666015625 0.7454833984375
-0.29736328125 -0.3359375 0.7376708984375
0.17919921875 0.56005859375 0.667236328125
0.17333984375 0.549560546875 0.6824951171875
0.16796875 0.54345703125 0.6888427734375
0.169921875 0.510986328125 0.6986083984375
0.171875 0.486083984375 0.7081298828125
0.18310546875 0.45751953125 0.7052001953125
-0.33544921875 -0.314697265625 0.7471923828125
-0.37060546875 -0.3251953125 0.7239990234375
-0.400390625 -0.33935546875 0.7135009765625
-0.42578125 -0.339599609375 0.7060546875
-0.43408203125 -0.348876953125 0.705322265625
-0.43896484375 -0.359375 0.6990966796875
0.1103515625 0.630615234375 0.686767578125
0.0947265625 0.616455078125 0.69775390625
0.091796875 0.608154296875 0.6947021484375
0.10107421875 0.589599609375 0.6961669921875
0.123046875 0.57275390625 0.6961669921875
0.146484375 0.5576171875 0.689453125
-0.4541015625 -0.32275390625 0.70703125
-0.47509765625 -0.312255859375 0.6944580078125
-0.49853515625 -0.30859375 0.685546875
-0.5244140625 -0.30712890625 0.6669921875
-0.53271484375 -0.315673828125 0.663330078125
-0.544921875 -0.327880859375 0.64990234375
0.017578125 0.628662109375 0.721435546875
0.02099609375 0.6162109375 0.7266845703125
0.015625 0.60595703125 0.730224609375
0.037109375 0.6005859375 0.72021484375
0.05712890625 0.608642578125 0.711181640625
0.07177734375 0.607666015625 0.709716796875
-0.52880859375 -0.290283203125 0.671142578125
-0.54296875 -0.27294921875 0.6734619140625
-0.55078125 -0.255859375 0.6680908203125
-0.56591796875 -0.236572265625 0.668701171875
-0.57275390625 -0.238037109375 0.6663818359375
-0.58251953125 -0.246826171875 0.6605224609375
-0.10791015625 0.565673828125 0.76953125
-0.10107421875 0.55126953125 0.773681640625
-0.0947265625 0.54443359375 0.787109375
-0.0654296875 0.550537109375 0.76904296875
-0.03662109375 0.5634765625 0.765625
-0.01318359375 0.588134765625 0.7476806640625
-0.5498046875 -0.2080078125 0.6746826171875
-0.54052734375 -0.182373046875 0.6978759765625
-0.5283203125 -0.151611328125 0.715576171875
-0.533203125 -0.12451171875 0.71875
-0.544921875 -0.121337890625 0.7081298828125
-0.55810546875 -0.11865234375 0.700927734375
-0.18896484375 0.49755859375 0.7872314453125
-0.171875 0.489501953125 0.7900390625
-0.16015625 0.4853515625 0.7960205078125
-0.13916015625 0.492431640625 0.7900390625
-0.12451171875 0.50341796875 0.796142578125
-0.1064453125 0.51708984375 0.79296875
-0.51953125 -0.09716796875 0.7374267578125
-0.52001953125 -0.0751953125 0.7293701171875
-0.51416015625 -0.0576171875 0.736083984375
-0.51806640625 -0.031494140625 0.7198486328125
-0.5244140625 -0.02490234375 0.7169189453125
-0.533203125 -0.016845703125 0.71533203125
-0.2216796875 0.4326171875 0.7730712890625
-0.2041015625 0.43701171875 0.7724609375
-0.19091796875 0.43212890625 0.7742919921875
-0.17919921875 0.44384765625 0.7891845703125
-0.1728515625 0.460205078125 0.791015625
-0.16455078125 0.474853515625 0.7958984375
-0.4970703125 -0.024658203125 0.7135009765625
-0.48388671875 -0.009033203125 0.7276611328125
-0.47265625 0.00439453125 0.73583984375
-0.462890625 0.01708984375 0.7401123046875
-0.47314453125 0.026123046875 0.734130859375
-0.4794921875 0.04052734375 0.7384033203125
-0.18701171875 0.37548828125 0.777587890625
-0.19189453125 0.392822265625 0.7828369140625
-0.18603515625 0.413330078125 0.7791748046875
-0.43408203125 0.01708984375 0.7431640625
-0.42431640625 0.026123046875 0.734619140625
-0.39990234375 0.02783203125 0.7371826171875
-0.16650390625 0.421630859375 0.783935546875
-0.1708984375 0.423583984375 0.7904052734375
-0.17626953125 0.428955078125 0.7882080078125
-0.17333984375 0.358642578125 0.77685546875
-0.16552734375 0.3642578125 0.777099609375
-0.16064453125 0.368896484375 0.7723388671875
-0.15673828125 0.38232421875 0.77685546875
-0.15771484375 0.392333984375 0.7763671875
-0.16015625 0.408203125 0.7823486328125
-0.43115234375 -0.006591796875 0.743408203125
-0.41552734375 -0.002685546875 0.7354736328125
-0.4013671875 0.001220703125 0.728515625
-0.3779296875 0.013916015625 0.735107421875
-0.3779296875 0.020751953125 0.740478515625
-0.375 0.028076171875 0.7388916015625
-0.44775390625 0 0.74267578125
-0.44384765625 -0.005615234375 0.7451171875
-0.43994140625 -0.0087890625 0.737060546875
-0.1396484375 0.467041015625 0.793701171875
-0.14404296875 0.4736328125 0.7967529296875
-0.1533203125 0.473388671875 0.7926025390625
-0.15771484375 0.433349609375 0.791259765625
-0.15380859375 0.444091796875 0.7918701171875
-0.1484375 0.455810546875 0.7926025390625
-0.474609375 -0.0400390625 0.718017578125
-0.47265625 -0.029541015625 0.726806640625
-0.45361328125 -0.021240234375 0.7396240234375
-0.5009765625 -0.042724609375 0.7259521484375
-0.4912109375 -0.04248046875 0.721435546875
-0.4873046875 -0.04443359375 0.7254638671875
-0.07958984375 0.517578125 0.78369140625
-0.087890625 0.5234375 0.7880859375
-0.0859375 0.533447265625 0.78759765625
-0.12548828125 0.47607421875 0.78271484375
-0.10693359375 0.486572265625 0.7841796875
-0.09326171875 0.5 0.7816162109375
-0.50244140625 -0.104248046875 0.728515625
-0.5048828125 -0.080810546875 0.7252197265625
-0.4931640625 -0.062255859375 0.7236328125
-0.5166015625 -0.12646484375 0.731201171875
-0.51220703125 -0.123046875 0.7296142578125
-0.50927734375 -0.12646484375 0.7259521484375
0.00927734375 0.573974609375 0.7298583984375
0.01318359375 0.581787109375 0.7342529296875
0.01611328125 0.59326171875 0.73681640625
-0.05810546875 0.5361328125 0.7584228515625
-0.0380859375 0.548583984375 0.74072265625
-0.01123046875 0.557861328125 0.7183837890625
-0.521484375 -0.193359375 0.6832275390625
-0.515625 -0.1689453125 0.692626953125
-0.5126953125 -0.150390625 0.707275390625
-0.54345703125 -0.23095703125 0.678955078125
-0.53369140625 -0.226806640625 0.6749267578125
-0.52880859375 -0.2255859375 0.671875
0.080078125 0.574462890625 0.6917724609375
0.08349609375 0.583251953125 0.6988525390625
0.08349609375 0.589599609375 0.7047119140625
0.02783203125 0.573486328125 0.7059326171875
0.044921875 0.573974609375 0.694091796875
0.05859375 0.5703125 0.6971435546875
-0.49658203125 -0.260986328125 0.6741943359375
-0.5068359375 -0.2509765625 0.6695556640625
-0.5107421875 -0.237548828125 0.6658935546875
-0.51220703125 -0.2919921875 0.677001953125
-0.501953125 -0.28271484375 0.678955078125
-0.4921875 -0.27294921875 0.6741943359375
0.13427734375 0.521240234375 0.6890869140625
0.1455078125 0.527099609375 0.6953125
0.14794921875 0.53173828125 0.6968994140625
0.0888671875 0.558837890625 0.689697265625
0.1005859375 0.544677734375 0.6865234375
0.119140625 0.53369140625 0.6820068359375
-0.43994140625 -0.2998046875 0.697998046875
-0.45947265625 -0.286376953125 0.6839599609375
-0.47216796875 -0.277587890625 0.677001953125
-0.43017578125 -0.32421875 0.702392578125
-0.43017578125 -0.32080078125 0.7010498046875
-0.427734375 -0.3115234375 0.703369140625
0.16943359375 0.4248046875 0.722412109375
0.17529296875 0.42724609375 0.724365234375
0.18212890625 0.42626953125 0.7227783203125
0.138671875 0.4912109375 0.6998291015625
0.14599609375 0.4736328125 0.699462890625
0.15869140625 0.4443359375 0.7109375
-0.3427734375 -0.29443359375 0.7415771484375
-0.3720703125 -0.298095703125 0.715576171875
-0.39404296875 -0.30615234375 0.7086181640625
-0.30810546875 -0.302490234375 0.7576904296875
-0.30908203125 -0.294921875 0.757080078125
-0.3115234375 -0.291015625 0.747314453125
0.1494140625 0.333251953125 0.744873046875
0.1552734375 0.330078125 0.7501220703125
0.16064453125 0.32373046875 0.7447509765625
0.1689453125 0.401611328125 0.72802734375
0.16650390625 0.3701171875 0.728515625
0.16552734375 0.347900390625 0.7298583984375
-0.26123046875 -0.2421875 0.7763671875
-0.27685546875 -0.25732421875 0.7696533203125
-0.2939453125 -0.27392578125 0.7529296875
-0.23388671875 -0.230224609375 0.786865234375
-0.240234375 -0.22705078125 0.78515625
-0.2431640625 -0.2255859375 0.78173828125
0.0595703125 0.265380859375 0.788818359375
0.06640625 0.26025390625 0.792724609375
0.0693359375 0.25830078125 0.796875
0.12158203125 0.318115234375 0.7452392578125
0.09716796875 0.2978515625 0.7608642578125
0.08154296875 0.28125 0.767578125
-0.212890625 -0.144287109375 0.7904052734375
-0.22119140625 -0.164794921875 0.7877197265625
-0.22607421875 -0.1923828125 0.78759765625
-0.18798828125 -0.11962890625 0.8092041015625
-0.1953125 -0.117919921875 0.804443359375
-0.201171875 -0.1162109375 0.7999267578125
-0.0107421875 0.251953125 0.7861328125
-0.0126953125 0.247802734375 0.791015625
-0.01318359375 0.243896484375 0.79296875
0.04345703125 0.26025390625 0.783447265625
0.02099609375 0.255615234375 0.78515625
0.00390625 0.254638671875 0.7818603515625
-0.21484375 -0.068115234375 0.7796630859375
-0.21044921875 -0.0849609375 0.7841796875
-0.20654296875 -0.09765625 0.7872314453125
-0.19970703125 -0.059326171875 0.78759765625
-0.20751953125 -0.05859375 0.7845458984375
-0.21337890625 -0.060302734375 0.7757568359375
-0.1328125 0.305419921875 0.78515625
-0.1279296875 0.31298828125 0.7808837890625
-0.126953125 0.31640625 0.7735595703125
-0.1396484375 0.326416015625 0.76806640625
-0.1474609375 0.3447265625 0.7713623046875
-0.1494140625 0.35400390625 0.7701416015625
-0.35791015625 0.011962890625 0.732421875
-0.3408203125 0.008056640625 0.74658203125
-0.3291015625 0.005859375 0.75146484375
-0.314453125 0.006591796875 0.7764892578125
-0.31689453125 0.01123046875 0.7799072265625
-0.31591796875 0.014892578125 0.781494140625
-0.06396484375 0.259521484375 0.7838134765625
-0.0654296875 0.26708984375 0.777587890625
-0.06591796875 0.27197265625 0.771240234375
-0.08056640625 0.288330078125 0.7637939453125
-0.0947265625 0.291015625 0.762939453125
-0.1103515625 0.30322265625 0.7568359375
-0.30126953125 -0.0029296875 0.7655029296875
-0.28955078125 -0.01123046875 0.7608642578125
-0.2734375 -0.015625 0.7559814453125
-0.25634765625 -0.019775390625 0.77001953125
-0.25146484375 -0.0205078125 0.7769775390625
-0.24755859375 -0.020263671875 0.7847900390625
-0.02490234375 0.261962890625 0.7734375
-0.033203125 0.26416015625 0.7735595703125
-0.048828125 0.271484375 0.7640380859375
-0.24853515625 -0.03173828125 0.7667236328125
-0.2412109375 -0.043701171875 0.7681884765625
-0.2314453125 -0.050048828125 0.7679443359375
-0.32470703125 0.22265625 0.630615234375
-0.3369140625 0.224609375 0.656005859375
-0.3369140625 0.221435546875 0.6866455078125
-0.349609375 0.320556640625 0.7049560546875
-0.3388671875 0.329345703125 0.6766357421875
-0.32958984375 0.340576171875 0.649169921875
-0.326171875 0.3095703125 0.6080322265625
-0.3232421875 0.279296875 0.6181640625
-0.32177734375 0.2529296875 0.6083984375
-0.34375 0.207763671875 0.5977783203125
-0.36572265625 0.199462890625 0.6002197265625
-0.39404296875 0.18310546875 0.5863037109375
-0.427734375 0.177978515625 0.60302734375
-0.42724609375 0.18896484375 0.6241455078125
-0.42529296875 0.190185546875 0.655517578125
-0.44482421875 0.46875 0.715087890625
-0.43017578125 0.47216796875 0.6883544921875
-0.41259765625 0.4794921875 0.667236328125
-0.38232421875 0.4541015625 0.6434326171875
-0.3623046875 0.4365234375 0.63623046875
-0.333984375 0.40625 0.62841796875
-0.4931640625 0.160888671875 0.572265625
-0.53369140625 0.15087890625 0.568115234375
-0.5703125 0.15478515625 0.5802001953125
-0.59912109375 0.185791015625 0.601318359375
-0.6142578125 0.1923828125 0.627197265625
-0.6142578125 0.198974609375 0.6519775390625
-0.39208984375 0.59326171875 0.7310791015625
-0.37548828125 0.59765625 0.6910400390625
-0.36279296875 0.591064453125 0.6795654296875
-0.373046875 0.56884765625 0.6566162109375
-0.37890625 0.538818359375 0.6434326171875
-0.39208984375 0.509765625 0.6466064453125
-0.626953125 0.153564453125 0.5723876953125
-0.65234375 0.134765625 0.56103515625
-0.66943359375 0.108154296875 0.55859375
-0.70703125 0.094970703125 0.568603515625
-0.732421875 0.1025390625 0.5894775390625
-0.73583984375 0.10107421875 0.6156005859375
-0.2041015625 0.681396484375 0.6956787109375
-0.19921875 0.68505859375 0.6617431640625
-0.18994140625 0.66845703125 0.6300048828125
-0.2392578125 0.621337890625 0.62548828125
-0.28515625 0.602294921875 0.637451171875
-0.3271484375 0.5908203125 0.6580810546875
-0.69091796875 0.064697265625 0.5364990234375
-0.68359375 0.029052734375 0.529541015625
-0.67138671875 -0.007080078125 0.5072021484375
-0.69873046875 -0.076171875 0.5123291015625
-0.71435546875 -0.07861328125 0.5487060546875
-0.7265625 -0.078125 0.5672607421875
-0.015625 0.781982421875 0.6614990234375
-0.01123046875 0.777587890625 0.6304931640625
-0.01171875 0.771728515625 0.58837890625
-0.052734375 0.741943359375 0.568115234375
-0.087890625 0.72021484375 0.558837890625
-0.1396484375 0.685791015625 0.5855712890625
-0.68603515625 -0.129150390625 0.4703369140625
-0.6943359375 -0.192626953125 0.450927734375
-0.7021484375 -0.242431640625 0.42138671875
-0.71728515625 -0.30078125 0.4552001953125
-0.72265625 -0.306640625 0.485107421875
-0.72900390625 -0.305419921875 0.5142822265625
0.125 0.81103515625 0.60498046875
0.12255859375 0.808837890625 0.5802001953125
0.11376953125 0.802490234375 0.5528564453125
0.0830078125 0.801025390625 0.5330810546875
0.048828125 0.788330078125 0.5430908203125
0.0234375 0.77685546875 0.54248046875
-0.724609375 -0.332763671875 0.40771484375
-0.72607421875 -0.361083984375 0.3941650390625
-0.71435546875 -0.391845703125 0.394287109375
-0.712890625 -0.42724609375 0.414306640625
-0.7138671875 -0.434814453125 0.4420166015625
-0.71728515625 -0.43896484375 0.473388671875
0.28466796875 0.6728515625 0.4388427734375
0.2822265625 0.66796875 0.412109375
0.2705078125 0.661376953125 0.3905029296875
0.2294921875 0.70751953125 0.3917236328125
0.1875 0.74560546875 0.4288330078125
0.162109375 0.77783203125 0.47216796875
-0.67138671875 -0.45751953125 0.371826171875
-0.634765625 -0.488525390625 0.3851318359375
-0.5888671875 -0.514404296875 0.385009765625
-0.5361328125 -0.528564453125 0.4378662109375
-0.5380859375 -0.53076171875 0.4609375
-0.53662109375 -0.532958984375 0.4915771484375
0.34521484375 0.44921875 0.464111328125
0.33642578125 0.43896484375 0.4254150390625
0.33056640625 0.436767578125 0.3955078125
0.314453125 0.497802734375 0.34228515625
0.30419921875 0.5556640625 0.328857421875
0.28759765625 0.609130859375 0.331298828125
-0.4912109375 -0.540283203125 0.4058837890625
-0.4345703125 -0.536376953125 0.4287109375
-0.37158203125 -0.5283203125 0.4635009765625
-0.30859375 -0.499755859375 0.537353515625
-0.3095703125 -0.49951171875 0.566650390625
-0.306640625 -0.49951171875 0.6024169921875
0.32568359375 0.24462890625 0.4774169921875
0.3251953125 0.2431640625 0.4620361328125
0.3134765625 0.235595703125 0.4451904296875
0.326171875 0.287841796875 0.393310546875
0.3271484375 0.332763671875 0.3681640625
0.33642578125 0.3857421875 0.3624267578125
-0.27490234375 -0.493408203125 0.4969482421875
-0.224609375 -0.47705078125 0.50146484375
-0.173828125 -0.4443359375 0.5203857421875
-0.12109375 -0.40234375 0.576171875
-0.12158203125 -0.400634765625 0.604736328125
-0.11669921875 -0.399169921875 0.632568359375
0.4677734375 -0.31982421875 0.338623046875
0.45654296875 -0.35400390625 0.3438720703125
0.44775390625 -0.38232421875 0.356689453125
0.4052734375 -0.390380859375 0.3504638671875
0.3857421875 -0.368896484375 0.3316650390625
0.36962890625 -0.362060546875 0.3187255859375
0.36962890625 -0.324462890625 0.2908935546875
0.36962890625 -0.287109375 0.2789306640625
0.3798828125 -0.254150390625 0.268310546875
0.40234375 -0.225830078125 0.291748046875
0.42041015625 -0.242431640625 0.3060302734375
0.44921875 -0.264892578125 0.3189697265625
0.3349609375 -0.46533203125 0.404052734375
0.2958984375 -0.44677734375 0.40185546875
0.26513671875 -0.441162109375 0.3907470703125
0.26025390625 -0.427001953125 0.3580322265625
0.29150390625 -0.412353515625 0.3326416015625
0.326171875 -0.389892578125 0.3251953125
0.4140625 -0.4306640625 0.3896484375
0.40576171875 -0.4462890625 0.3941650390625
0.390625 -0.4609375 0.4014892578125
0.623046875 -0.41845703125 0.3583984375
0.615234375 -0.44775390625 0.365478515625
0.61376953125 -0.4794921875 0.3836669921875
0.56201171875 -0.47412109375 0.38720703125
0.51123046875 -0.4521484375 0.3790283203125
0.46875 -0.42529296875 0.3756103515625
0.51318359375 -0.314453125 0.3458251953125
0.5458984375 -0.3349609375 0.357421875
0.59326171875 -0.365234375 0.3546142578125
0.4755859375 -0.55859375 0.4530029296875
0.43603515625 -0.532470703125 0.460693359375
0.39501953125 -0.501708984375 0.4317626953125
0.5830078125 -0.5283203125 0.4150390625
0.56201171875 -0.55419921875 0.434326171875
0.53466796875 -0.56494140625 0.44921875
0.80029296875 -0.487548828125 0.4227294921875
0.78369140625 -0.5146484375 0.443115234375
0.7666015625 -0.539794921875 0.468505859375
0.72119140625 -0.5556640625 0.4635009765625
0.69091796875 -0.55078125 0.432861328125
0.634765625 -0.532470703125 0.4129638671875
0.69091796875 -0.416015625 0.364501953125
0.73193359375 -0.4306640625 0.3931884765625
0.77197265625 -0.443359375 0.3848876953125
0.6171875 -0.64501953125 0.526611328125
0.576171875 -0.63525390625 0.5067138671875
0.54345703125 -0.6103515625 0.485107421875
0.72412109375 -0.59375 0.5084228515625
0.70166015625 -0.617431640625 0.5140380859375
0.6796875 -0.643310546875 0.5364990234375
0.814453125 -0.461669921875 0.4078369140625
0.8408203125 -0.453857421875 0.4185791015625
0.85595703125 -0.448486328125 0.4521484375
0.78076171875 -0.552001953125 0.559326171875
0.77197265625 -0.562255859375 0.5335693359375
0.76123046875 -0.570068359375 0.5079345703125
0.689453125 -0.66064453125 0.6239013671875
0.685546875 -0.660888671875 0.60107421875
0.67578125 -0.667724609375 0.5611572265625
0.83544921875 -0.355224609375 0.343994140625
0.85888671875 -0.3486328125 0.3642578125
0.875 -0.349365234375 0.38427734375
0.8056640625 -0.428466796875 0.36865234375
0.81591796875 -0.405029296875 0.3507080078125
0.81396484375 -0.378173828125 0.3438720703125
0.5654296875 -0.724853515625 0.5843505859375
0.59033203125 -0.712890625 0.5703125
0.62158203125 -0.68896484375 0.5552978515625
0.59326171875 -0.7373046875 0.6754150390625
0.5654296875 -0.742431640625 0.6417236328125
0.5546875 -0.73828125 0.611328125
0.7431640625 -0.26953125 0.352783203125
0.767578125 -0.270751953125 0.3646240234375
0.8056640625 -0.263671875 0.3863525390625
0.798828125 -0.354248046875 0.330322265625
0.7744140625 -0.33935546875 0.3355712890625
0.75048828125 -0.310302734375 0.3431396484375
0.47216796875 -0.693603515625 0.5645751953125
0.50830078125 -0.7119140625 0.5628662109375
0.53173828125 -0.72705078125 0.57861328125
0.4873046875 -0.6982421875 0.65966796875
0.47216796875 -0.6953125 0.620361328125
0.45556640625 -0.6787109375 0.5872802734375
0.57958984375 -0.160888671875 0.3670654296875
0.6142578125 -0.152587890625 0.408935546875
0.66259765625 -0.141845703125 0.4254150390625
0.6669921875 -0.253662109375 0.344970703125
0.615234375 -0.225341796875 0.3438720703125
0.576171875 -0.197265625 0.352783203125
0.341796875 -0.564208984375 0.524658203125
0.375 -0.595703125 0.5263671875
0.40576171875 -0.631103515625 0.5352783203125
0.36181640625 -0.59716796875 0.65283203125
0.33740234375 -0.579833984375 0.59814453125
0.32177734375 -0.557373046875 0.555908203125
0.6865234375 -0.303955078125 0.3385009765625
0.6640625 -0.3271484375 0.33544921875
0.662109375 -0.3603515625 0.34228515625
0.4873046875 -0.253662109375 0.3270263671875
0.4921875 -0.2236328125 0.3365478515625
0.5068359375 -0.19140625 0.3458251953125
0.3212890625 -0.520751953125 0.4921875
0.32861328125 -0.51123046875 0.4630126953125
0.3359375 -0.49755859375 0.4361572265625
0.4892578125 -0.599609375 0.48974609375
0.46484375 -0.61669921875 0.5029296875
0.4462890625 -0.6396484375 0.513916015625
0.39306640625 -0.180419921875 0.2919921875
0.40087890625 -0.140869140625 0.3087158203125
0.41259765625 -0.110595703125 0.3447265625
0.44482421875 -0.108642578125 0.380859375
0.46875 -0.135009765625 0.3677978515625
0.5048828125 -0.148193359375 0.3680419921875
0.28466796875 -0.514404296875 0.51904296875
0.244140625 -0.484375 0.5107421875
0.21533203125 -0.467529296875 0.5020751953125
0.18701171875 -0.451904296875 0.468505859375
0.19482421875 -0.443603515625 0.4183349609375
0.2236328125 -0.439208984375 0.388916015625
0.435546875 -0.0712890625 0.421142578125
0.46875 -0.06005859375 0.4517822265625
0.4912109375 -0.060302734375 0.4697265625
0.2275390625 -0.4697265625 0.629638671875
0.2138671875 -0.463623046875 0.611572265625
0.2021484375 -0.456298828125 0.56201171875
0.37890625 -0.0087890625 0.506591796875
0.37109375 -0.01708984375 0.4771728515625
0.35595703125 -0.026123046875 0.432373046875
0.33984375 -0.00244140625 0.39892578125
0.330078125 0.0166015625 0.4156494140625
0.31689453125 0.0302734375 0.43212890625
0.3095703125 0.015380859375 0.4676513671875
0.3154296875 0.012451171875 0.4833984375
0.31982421875 0.015625 0.5125732421875
0.0986328125 -0.3095703125 0.6341552734375
0.0859375 -0.316162109375 0.6124267578125
0.07666015625 -0.318359375 0.587158203125
0.0615234375 -0.34130859375 0.55517578125
0.07421875 -0.35302734375 0.54296875
0.08154296875 -0.37060546875 0.528076171875
0.11767578125 -0.378662109375 0.552734375
0.138671875 -0.379638671875 0.5906982421875
0.1484375 -0.3740234375 0.63623046875
0.39990234375 -0.076904296875 0.3748779296875
0.38525390625 -0.06640625 0.3797607421875
0.37158203125 -0.04736328125 0.38427734375
0.12744140625 -0.406982421875 0.4969482421875
0.1494140625 -0.416748046875 0.5052490234375
0.17333984375 -0.429443359375 0.5101318359375
0.27978515625 0.068359375 0.482666015625
0.2841796875 0.064208984375 0.4996337890625
0.27880859375 0.06494140625 0.512451171875
0.2890625 0.03662109375 0.4617919921875
0.28369140625 0.0390625 0.472900390625
0.28076171875 0.05908203125 0.475341796875
0.0263671875 -0.30224609375 0.584716796875
0.03466796875 -0.3037109375 0.5797119140625
0.04345703125 -0.313232421875 0.5736083984375
0.03076171875 -0.284423828125 0.6304931640625
0.029296875 -0.29443359375 0.6160888671875
0.01904296875 -0.3017578125 0.59765625
0.2822265625 0.0986328125 0.465576171875
0.287109375 0.128662109375 0.4610595703125
0.2998046875 0.16748046875 0.44384765625
-0.076171875 -0.373291015625 0.5584716796875
-0.02734375 -0.336181640625 0.5718994140625
0.00341796875 -0.314453125 0.58447265625
-0.01025390625 -0.247802734375 -0.638427734375
-0.04736328125 -0.19482421875 -0.6663818359375
-0.08544921875 -0.13671875 -0.7122802734375
-0.072265625 0.0029296875 -0.73974609375
-0.025390625 0.063720703125 -0.7216796875
0.01806640625 0.1220703125 -0.6917724609375
0.09326171875 0.099365234375 -0.645263671875
0.12060546875 0.04931640625 -0.627685546875
0.14306640625 0.009033203125 -0.578125
0.1494140625 -0.0810546875 -0.5604248046875
0.1025390625 -0.15234375 -0.5611572265625
0.06982421875 -0.229248046875 -0.5875244140625
-0.0244140625 -0.349365234375 -0.568359375
-0.06689453125 -0.41015625 -0.5283203125
-0.109375 -0.441650390625 -0.4801025390625
-0.166015625 -0.43994140625 -0.4951171875
-0.21044921875 -0.395751953125 -0.534912109375
-0.24462890625 -0.354248046875 -0.5799560546875
-0.2578125 -0.250244140625 -0.6624755859375
-0.22314453125 -0.1884765625 -0.7197265625
-0.177734375 -0.1201171875 -0.7364501953125
0.12841796875 -0.382080078125 -0.324951171875
0.09619140625 -0.35498046875 -0.429443359375
0.05810546875 -0.3203125 -0.5126953125
0.2060546875 -0.044921875 -0.474609375
0.2314453125 -0.088623046875 -0.417236328125
0.25732421875 -0.118896484375 -0.34130859375
0.2646484375 -0.197021484375 -0.2474365234375
0.23681640625 -0.254150390625 -0.2447509765625
0.2021484375 -0.327880859375 -0.2301025390625
0.119140625 -0.43212890625 -0.2012939453125
0.07177734375 -0.468505859375 -0.179931640625
0.0380859375 -0.505126953125 -0.1497802734375
-0.03759765625 -0.53466796875 -0.2191162109375
-0.07666015625 -0.5107421875 -0.3177490234375
-0.10595703125 -0.489013671875 -0.4091796875
0.2509765625 -0.37939453125 0.09228515625
0.2275390625 -0.38623046875 -0.002197265625
0.19873046875 -0.387451171875 -0.101318359375
0.29736328125 -0.1435546875 -0.162841796875
0.3173828125 -0.1552734375 -0.041259765625
0.34521484375 -0.15234375 0.051513671875
0.35400390625 -0.21875 0.14111328125
0.33154296875 -0.277587890625 0.1357421875
0.30615234375 -0.325439453125 0.1436767578125
0.2568359375 -0.408203125 0.177734375
0.22314453125 -0.432861328125 0.19189453125
0.18701171875 -0.4619140625 0.2115478515625
0.10888671875 -0.496826171875 0.162841796875
0.078125 -0.507080078125 0.05224609375
0.04052734375 -0.522216796875 -0.0311279296875
0.33203125 -0.3583984375 0.2901611328125
0.31787109375 -0.362060546875 0.26611328125
0.3037109375 -0.35888671875 0.2255859375
0.365234375 -0.18994140625 0.201171875
0.376953125 -0.196533203125 0.2362060546875
0.3740234375 -0.2099609375 0.2528076171875
0.22412109375 -0.4365234375 0.35205078125
0.208984375 -0.436767578125 0.330322265625
0.18359375 -0.4560546875 0.30078125
0.35546875 -0.123046875 0.2139892578125
0.34765625 -0.08154296875 0.263671875
0.35498046875 -0.050537109375 0.3204345703125
0.10986328125 -0.413818359375 0.4334716796875
0.123046875 -0.43505859375 0.3851318359375
0.13232421875 -0.45263671875 0.3238525390625
0.2587890625 0.69140625 0.1875
0.2578125 0.674560546875 0.2611083984375
0.2626953125 0.6708984375 0.31298828125
0.33642578125 0.440673828125 0.2974853515625
0.341796875 0.44384765625 0.2113037109375
0.3564453125 0.439453125 0.1436767578125
0.33984375 0.526611328125 0.061767578125
0.31298828125 0.592041015625 0.09716796875
0.2841796875 0.654541015625 0.131103515625
-0.54736328125 -0.5751953125 0.1505126953125
-0.48828125 -0.602783203125 0.1588134765625
-0.43017578125 -0.619140625 0.184326171875
-0.3466796875 -0.59130859375 0.2625732421875
-0.34326171875 -0.564208984375 0.3385009765625
-0.33740234375 -0.53857421875 0.4293212890625
-0.55126953125 -0.5390625 0.341552734375
-0.5712890625 -0.545166015625 0.2796630859375
-0.580078125 -0.550537109375 0.205322265625
-0.17578125 0.025390625 -0.7684326171875
-0.220703125 0.119140625 -0.7684326171875
-0.267578125 0.222900390625 -0.77490234375
-0.2587890625 0.407470703125 -0.7374267578125
-0.20458984375 0.470947265625 -0.70703125
-0.14404296875 0.52099609375 -0.670166015625
-0.04833984375 0.4599609375 -0.653076171875
0.001953125 0.357177734375 -0.6702880859375
0.02783203125 0.26171875 -0.6771240234375
-0.3388671875 -0.24853515625 -0.66015625
-0.3916015625 -0.181884765625 -0.67724609375
-0.44921875 -0.112548828125 -0.7003173828125
-0.48876953125 0.052734375 -0.7269287109375
-0.4423828125 0.14697265625 -0.7501220703125
-0.39501953125 0.2412109375 -0.7598876953125
-0.65673828125 0.595703125 -0.0384521484375
-0.654296875 0.575439453125 0.048095703125
-0.634765625 0.546630859375 0.135498046875
-0.56982421875 0.593505859375 0.2442626953125
-0.5048828125 0.672607421875 0.2630615234375
-0.4453125 0.747314453125 0.2584228515625
-0.39892578125 0.830810546875 0.2052001953125
-0.41552734375 0.859130859375 0.1451416015625
-0.42138671875 0.890380859375 0.0614013671875
-0.4580078125 0.839111328125 -0.0323486328125
-0.521484375 0.7763671875 -0.0533447265625
-0.59033203125 0.70361328125 -0.0897216796875
-0.6982421875 0.541015625 -0.1624755859375
-0.7470703125 0.447998046875 -0.171142578125
-0.791015625 0.3583984375 -0.1934814453125
-0.833984375 0.263916015625 -0.1595458984375
-0.8359375 0.230224609375 -0.0892333984375
-0.818359375 0.185791015625 -0.029296875
-0.765625 0.24072265625 0.099609375
