# XYZ point cloud file
0.2303466796875 -0.03271484375 0.7857666015625
0.23297119140625 -0.00927734375 0.79278564453125
0.220947265625 -0.0238037109375 0.797698974609375
0.2200927734375 -0.0467529296875 0.792144775390625
0.22509765625 -0.0523681640625 0.786895751953125
0.23577880859375 -0.013916015625 0.7862548828125
0.2271728515625 -0.00634765625 0.79620361328125
0.21551513671875 -0.041259765625 0.800689697265625
0.18414306640625 -0.089111328125 0.804779052734375
0.16912841796875 -0.096923828125 0.81243896484375
0.1861572265625 -0.095458984375 0.801055908203125
0.19732666015625 -0.0780029296875 0.805267333984375
0.1785888671875 -0.083984375 0.810272216796875
0.16595458984375 -0.090087890625 0.815521240234375
0.1689453125 -0.1038818359375 0.805877685546875
0.20220947265625 -0.08349609375 0.79937744140625
0.1937255859375 -0.0709228515625 0.809478759765625
0.1356201171875 0.0203857421875 0.797821044921875
0.13751220703125 0.0074462890625 0.800537109375
0.14410400390625 0.02197265625 0.8046875
0.1361083984375 0.0335693359375 0.789398193359375
0.13116455078125 0.01904296875 0.7904052734375
0.1329345703125 0.00537109375 0.792999267578125
0.14361572265625 0.00927734375 0.806915283203125
0.1436767578125 0.036376953125 0.799530029296875
0.13079833984375 0.0316162109375 0.782623291015625
0.11309814453125 -0.013671875 0.802337646484375
0.11505126953125 -0.01611328125 0.810699462890625
0.12432861328125 -0.006103515625 0.805267333984375
0.11016845703125 -0.0126953125 0.794036865234375
0.1002197265625 -0.0164794921875 0.803253173828125
0.10107421875 -0.01904296875 0.809539794921875
0.12799072265625 -0.010498046875 0.810302734375
0.12200927734375 -0.0069580078125 0.797393798828125
0.09844970703125 -0.0159912109375 0.793365478515625
0.150390625 0.0689697265625 0.779083251953125
0.14215087890625 0.057861328125 0.782318115234375
0.1549072265625 0.0650634765625 0.786956787109375
0.1591796875 0.0733642578125 0.779205322265625
0.14385986328125 0.06591796875 0.7738037109375
0.13714599609375 0.0567626953125 0.777130126953125
0.14697265625 0.0582275390625 0.788238525390625
0.162109375 0.0718994140625 0.786407470703125
0.156982421875 0.074462890625 0.771392822265625
0.07415771484375 -0.0364990234375 0.806884765625
0.0811767578125 -0.037841796875 0.811309814453125
0.0828857421875 -0.0263671875 0.803375244140625
0.0682373046875 -0.03564453125 0.801788330078125
0.0697021484375 -0.0491943359375 0.810333251953125
0.0780029296875 -0.0474853515625 0.81390380859375
0.08642578125 -0.02783203125 0.809326171875
0.0775146484375 -0.0263671875 0.794342041015625
0.0645751953125 -0.0517578125 0.803253173828125
0.197265625 0.069580078125 0.7861328125
0.18023681640625 0.0738525390625 0.78326416015625
0.19512939453125 0.0667724609375 0.79205322265625
0.208984375 0.06591796875 0.789764404296875
0.1966552734375 0.0721435546875 0.77734375
0.1806640625 0.0770263671875 0.7763671875
0.1820068359375 0.0692138671875 0.79339599609375
0.2064208984375 0.062255859375 0.791656494140625
0.21063232421875 0.0677490234375 0.77923583984375
0.08209228515625 -0.081298828125 0.81890869140625
0.088134765625 -0.07666015625 0.825836181640625
0.07342529296875 -0.072021484375 0.81982421875
0.07501220703125 -0.0869140625 0.8138427734375
0.09228515625 -0.091552734375 0.823150634765625
0.0977783203125 -0.085205078125 0.826263427734375
0.07977294921875 -0.0667724609375 0.820709228515625
0.06817626953125 -0.0743408203125 0.812255859375
0.087646484375 -0.0966796875 0.816253662109375
0.23321533203125 0.032958984375 0.78594970703125
0.22723388671875 0.045166015625 0.7891845703125
0.228515625 0.0318603515625 0.792144775390625
0.2357177734375 0.02197265625 0.786346435546875
0.23577880859375 0.0355224609375 0.77777099609375
0.22967529296875 0.046875 0.781494140625
0.22357177734375 0.04248046875 0.7957763671875
0.2303466796875 0.02197265625 0.793701171875
0.2388916015625 0.02197265625 0.780029296875
0.1251220703125 -0.1038818359375 0.825042724609375
0.12835693359375 -0.096435546875 0.8280029296875
0.113037109375 -0.103515625 0.82586669921875
0.1224365234375 -0.10986328125 0.8194580078125
0.1370849609375 -0.103759765625 0.82183837890625
0.13970947265625 -0.098876953125 0.82537841796875
0.11700439453125 -0.0958251953125 0.8299560546875
0.10968017578125 -0.108642578125 0.820770263671875
0.13751220703125 -0.111572265625 0.816009521484375
0.17462158203125 0.0428466796875 0.80499267578125
0.18218994140625 0.0322265625 0.811767578125
0.18438720703125 0.052490234375 0.805755615234375
0.16693115234375 0.0523681640625 0.79840087890625
0.16143798828125 0.0345458984375 0.80645751953125
0.16766357421875 0.02099609375 0.812255859375
0.1959228515625 0.0452880859375 0.81011962890625
0.176025390625 0.05908203125 0.79571533203125
0.1591796875 0.0435791015625 0.801361083984375
0.1046142578125 -0.046142578125 0.824371337890625
0.099853515625 -0.058837890625 0.829742431640625
0.1170654296875 -0.04931640625 0.8294677734375
0.111328125 -0.0322265625 0.819854736328125
0.09619140625 -0.0445556640625 0.823455810546875
0.09246826171875 -0.0537109375 0.82220458984375
0.1097412109375 -0.0633544921875 0.830596923828125
0.12322998046875 -0.0301513671875 0.8214111328125
0.100830078125 -0.0335693359375 0.81744384765625
0.20440673828125 -0.0003662109375 0.81488037109375
0.19586181640625 -0.015869140625 0.816162109375
0.20855712890625 -0.0101318359375 0.808013916015625
0.21368408203125 0.0159912109375 0.81024169921875
0.1976318359375 0.01123046875 0.817138671875
0.1861572265625 -0.007568359375 0.817626953125
0.2049560546875 -0.0245361328125 0.813079833984375
0.21832275390625 0.0068359375 0.80596923828125
0.20635986328125 0.0242919921875 0.81085205078125
0.1514892578125 -0.0631103515625 0.822601318359375
0.1624755859375 -0.0701904296875 0.82318115234375
0.1661376953125 -0.0465087890625 0.825439453125
0.13946533203125 -0.0582275390625 0.826080322265625
0.141357421875 -0.0760498046875 0.82818603515625
0.14788818359375 -0.08056640625 0.8218994140625
0.178955078125 -0.05615234375 0.82415771484375
0.154296875 -0.0389404296875 0.824859619140625
0.13055419921875 -0.0731201171875 0.834442138671875
0.09991455078125 0.07275390625 0.739898681640625
0.1143798828125 0.057861328125 0.734039306640625
0.1273193359375 0.0826416015625 0.7415771484375
0.081298828125 0.095947265625 0.737762451171875
0.075439453125 0.0626220703125 0.736663818359375
0.09454345703125 0.0440673828125 0.73760986328125
0.1351318359375 0.0699462890625 0.739410400390625
0.11865234375 0.1033935546875 0.744140625
0.0494384765625 0.0811767578125 0.737091064453125
0.0357666015625 -0.00732421875 0.762603759765625
0.0350341796875 -0.0350341796875 0.77435302734375
0.054931640625 -0.0194091796875 0.763427734375
0.0443115234375 0.0185546875 0.749725341796875
0.01007080078125 0.00439453125 0.767303466796875
0.01434326171875 -0.0323486328125 0.7794189453125
0.0517578125 -0.0408935546875 0.77069091796875
0.06573486328125 0.0020751953125 0.755889892578125
0.01318359375 0.0360107421875 0.7508544921875
0.1954345703125 0.071044921875 0.729217529296875
0.19384765625 0.0650634765625 0.733123779296875
0.21435546875 0.0606689453125 0.720123291015625
0.199462890625 0.0780029296875 0.719970703125
0.1785888671875 0.08056640625 0.7401123046875
0.17755126953125 0.0712890625 0.73797607421875
0.21234130859375 0.058349609375 0.727294921875
0.2186279296875 0.062744140625 0.709686279296875
0.1800537109375 0.0921630859375 0.73455810546875
0.0614013671875 -0.10888671875 0.77374267578125
0.0703125 -0.127685546875 0.77093505859375
0.0653076171875 -0.10498046875 0.774749755859375
0.0509033203125 -0.0863037109375 0.7801513671875
0.053466796875 -0.1173095703125 0.771728515625
0.066162109375 -0.1378173828125 0.7650146484375
0.07598876953125 -0.1209716796875 0.77386474609375
0.05914306640625 -0.085205078125 0.77838134765625
0.037841796875 -0.0909423828125 0.7835693359375
0.2623291015625 0.0230712890625 0.717041015625
0.2532958984375 0.0189208984375 0.7276611328125
0.27423095703125 0.0108642578125 0.721588134765625
0.2711181640625 0.0264892578125 0.701446533203125
0.2498779296875 0.0338134765625 0.71588134765625
0.2430419921875 0.0325927734375 0.725311279296875
0.2628173828125 0.00634765625 0.73193359375
0.28448486328125 0.0159912109375 0.701751708984375
0.25689697265625 0.037353515625 0.70135498046875
0.1112060546875 -0.1650390625 0.761932373046875
0.123779296875 -0.17822265625 0.761871337890625
0.1170654296875 -0.1519775390625 0.766693115234375
0.0953369140625 -0.155029296875 0.76409912109375
0.0992431640625 -0.185302734375 0.75628662109375
0.1143798828125 -0.1953125 0.753936767578125
0.1331787109375 -0.158935546875 0.76715087890625
0.10345458984375 -0.1441650390625 0.770050048828125
0.0892333984375 -0.1708984375 0.756195068359375
0.33245849609375 -0.0296630859375 0.709991455078125
0.32159423828125 -0.0433349609375 0.726043701171875
0.35565185546875 -0.0516357421875 0.712249755859375
0.34429931640625 -0.019287109375 0.696929931640625
0.30816650390625 -0.0162353515625 0.71337890625
0.297607421875 -0.03173828125 0.72918701171875
0.34515380859375 -0.0675048828125 0.7255859375
0.367919921875 -0.0396728515625 0.6934814453125
0.3243408203125 -0.0047607421875 0.694610595703125
0.18731689453125 -0.22265625 0.776641845703125
0.213134765625 -0.2503662109375 0.77685546875
0.20318603515625 -0.203369140625 0.77459716796875
0.16192626953125 -0.2025146484375 0.7720947265625
0.17376708984375 -0.2462158203125 0.769500732421875
0.1983642578125 -0.2725830078125 0.775787353515625
0.22772216796875 -0.22900390625 0.77783203125
0.179443359375 -0.1820068359375 0.775299072265625
0.14862060546875 -0.2259521484375 0.761505126953125
0.3739013671875 0.0003662109375 0.601470947265625
0.37396240234375 0.001708984375 0.562255859375
0.34796142578125 0.0115966796875 0.6029052734375
0.36334228515625 -0.002197265625 0.63702392578125
0.401123046875 -0.01318359375 0.59375
0.39923095703125 -0.013916015625 0.556549072265625
0.34735107421875 0.015625 0.56585693359375
0.34033203125 0.0103759765625 0.63958740234375
0.3948974609375 -0.02099609375 0.634368896484375
0.12188720703125 -0.3201904296875 0.7196044921875
0.10125732421875 -0.297119140625 0.709136962890625
0.10247802734375 -0.337646484375 0.691619873046875
0.14801025390625 -0.3466796875 0.731842041015625
0.1397705078125 -0.2977294921875 0.7451171875
0.11883544921875 -0.27392578125 0.73480224609375
0.0880126953125 -0.3175048828125 0.682708740234375
0.12677001953125 -0.3636474609375 0.702545166015625
0.16571044921875 -0.3226318359375 0.750885009765625
0.296875 0.035400390625 0.611572265625
0.2965087890625 0.036865234375 0.572784423828125
0.2823486328125 0.0406494140625 0.615997314453125
0.2884521484375 0.0343017578125 0.647003173828125
0.30908203125 0.0303955078125 0.60614013671875
0.3114013671875 0.0330810546875 0.569305419921875
0.2840576171875 0.0440673828125 0.579132080078125
0.273681640625 0.0418701171875 0.646636962890625
0.3040771484375 0.0302734375 0.645416259765625
0.06500244140625 -0.2469482421875 0.689727783203125
0.058349609375 -0.2330322265625 0.688262939453125
0.05560302734375 -0.270751953125 0.6617431640625
0.076416015625 -0.263671875 0.6947021484375
0.0782470703125 -0.2266845703125 0.718292236328125
0.069580078125 -0.2093505859375 0.71795654296875
0.048828125 -0.2559814453125 0.659454345703125
0.0626220703125 -0.285888671875 0.667938232421875
0.09051513671875 -0.2388916015625 0.721832275390625
0.2242431640625 0.0767822265625 0.633087158203125
0.21240234375 0.0950927734375 0.640869140625
0.21429443359375 0.0784912109375 0.669952392578125
0.245361328125 0.06201171875 0.62939453125
0.23748779296875 0.07080078125 0.594573974609375
0.22442626953125 0.08837890625 0.5950927734375
0.19683837890625 0.0994873046875 0.684478759765625
0.23394775390625 0.062255859375 0.66156005859375
0.2540283203125 0.0577392578125 0.591339111328125
0.0350341796875 -0.1829833984375 0.70062255859375
0.04339599609375 -0.155029296875 0.736114501953125
0.0181884765625 -0.1712646484375 0.711456298828125
0.03076171875 -0.2071533203125 0.664031982421875
0.04443359375 -0.1961669921875 0.694915771484375
0.051025390625 -0.173095703125 0.723663330078125
0.024658203125 -0.1363525390625 0.750762939453125
0.0167236328125 -0.197021484375 0.6754150390625
0.0362548828125 -0.2225341796875 0.660491943359375
0.541015625 -0.3021240234375 0.735687255859375
0.539306640625 -0.296630859375 0.737701416015625
0.53045654296875 -0.319091796875 0.744537353515625
0.5426025390625 -0.3065185546875 0.7333984375
0.552001953125 -0.289794921875 0.725189208984375
0.552001953125 -0.28271484375 0.725677490234375
0.5283203125 -0.3128662109375 0.744659423828125
0.5322265625 -0.323486328125 0.741851806640625
0.55169677734375 -0.2952880859375 0.723052978515625
0.4921875 -0.3685302734375 0.770172119140625
0.50677490234375 -0.3560791015625 0.758880615234375
0.487060546875 -0.3646240234375 0.773193359375
0.479736328125 -0.377197265625 0.781463623046875
0.49395751953125 -0.370849609375 0.76611328125
0.50946044921875 -0.3599853515625 0.755157470703125
0.50213623046875 -0.3509521484375 0.761260986328125
0.474853515625 -0.3775634765625 0.7806396484375
0.4832763671875 -0.3812255859375 0.773284912109375
0.58905029296875 -0.29150390625 0.703887939453125
0.5947265625 -0.287109375 0.695648193359375
0.57373046875 -0.2825927734375 0.711029052734375
0.583984375 -0.29443359375 0.704498291015625
0.600830078125 -0.2998046875 0.694061279296875
0.608154296875 -0.2950439453125 0.6893310546875
0.5771484375 -0.2760009765625 0.70458984375
0.5733642578125 -0.287353515625 0.7095947265625
0.595458984375 -0.30322265625 0.695343017578125
0.48553466796875 -0.4189453125 0.786224365234375
0.47607421875 -0.4053955078125 0.79254150390625
0.4842529296875 -0.4276123046875 0.79241943359375
0.4998779296875 -0.432861328125 0.7860107421875
0.48712158203125 -0.4169921875 0.784881591796875
0.47930908203125 -0.4041748046875 0.78643798828125
0.470947265625 -0.4122314453125 0.79449462890625
0.497802734375 -0.4417724609375 0.791595458984375
0.50146484375 -0.429931640625 0.781494140625
0.6131591796875 -0.3487548828125 0.689544677734375
0.621337890625 -0.348876953125 0.681915283203125
0.61114501953125 -0.3328857421875 0.69122314453125
0.60736083984375 -0.34912109375 0.689605712890625
0.61175537109375 -0.3641357421875 0.6904296875
0.6201171875 -0.36328125 0.684906005859375
0.61944580078125 -0.333251953125 0.684967041015625
0.60699462890625 -0.333984375 0.69281005859375
0.6068115234375 -0.36474609375 0.690643310546875
0.53765869140625 -0.4522705078125 0.7733154296875
0.5228271484375 -0.447265625 0.779449462890625
0.53546142578125 -0.4617919921875 0.774383544921875
0.54571533203125 -0.4544677734375 0.763824462890625
0.53582763671875 -0.44677734375 0.76934814453125
0.52264404296875 -0.4429931640625 0.777130126953125
0.52374267578125 -0.4554443359375 0.783660888671875
0.5450439453125 -0.461669921875 0.765380859375
0.54510498046875 -0.4481201171875 0.761566162109375
0.6011962890625 -0.406005859375 0.70196533203125
0.60540771484375 -0.4049072265625 0.697845458984375
0.60443115234375 -0.393798828125 0.694915771484375
0.59710693359375 -0.4051513671875 0.700408935546875
0.596435546875 -0.4154052734375 0.708526611328125
0.5994873046875 -0.416015625 0.70806884765625
0.61328125 -0.3939208984375 0.689605712890625
0.60223388671875 -0.3951416015625 0.6983642578125
0.591796875 -0.4134521484375 0.705108642578125
0.57623291015625 -0.4375 0.725860595703125
0.5679931640625 -0.444580078125 0.739410400390625
0.57806396484375 -0.4427490234375 0.727752685546875
0.58428955078125 -0.4315185546875 0.720550537109375
0.5743408203125 -0.43359375 0.7259521484375
0.56390380859375 -0.4395751953125 0.736785888671875
0.56732177734375 -0.450439453125 0.741912841796875
0.58544921875 -0.433837890625 0.716949462890625
0.58123779296875 -0.4296875 0.7164306640625
0.58404541015625 -0.4095458984375 0.67877197265625
0.59051513671875 -0.40771484375 0.6868896484375
0.588134765625 -0.3994140625 0.674407958984375
0.57647705078125 -0.40869140625 0.676788330078125
0.5802001953125 -0.41796875 0.685791015625
0.58477783203125 -0.416748046875 0.691680908203125
0.593017578125 -0.395751953125 0.68408203125
0.5814208984375 -0.399169921875 0.67041015625
0.5699462890625 -0.4146728515625 0.681793212890625
0.5595703125 -0.437744140625 0.71136474609375
0.5517578125 -0.4423828125 0.7161865234375
0.5643310546875 -0.4356689453125 0.718475341796875
0.56439208984375 -0.431640625 0.704986572265625
0.5517578125 -0.4390869140625 0.705169677734375
0.545166015625 -0.4449462890625 0.70721435546875
0.55413818359375 -0.4429931640625 0.726043701171875
0.57135009765625 -0.4283447265625 0.7088623046875
0.55804443359375 -0.431884765625 0.700286865234375
0.59259033203125 -0.3612060546875 0.668975830078125
0.59649658203125 -0.35546875 0.677764892578125
0.59393310546875 -0.348388671875 0.667144775390625
0.58917236328125 -0.36572265625 0.659271240234375
0.591796875 -0.3740234375 0.67120361328125
0.596923828125 -0.369140625 0.6776123046875
0.599853515625 -0.3421630859375 0.677276611328125
0.5887451171875 -0.3521728515625 0.66064453125
0.58660888671875 -0.377197265625 0.662017822265625
0.52520751953125 -0.4473876953125 0.740478515625
0.5162353515625 -0.44580078125 0.749176025390625
0.52972412109375 -0.44482421875 0.751190185546875
0.53668212890625 -0.447998046875 0.73309326171875
0.5177001953125 -0.4471435546875 0.733184814453125
0.509033203125 -0.4483642578125 0.74005126953125
0.51806640625 -0.444580078125 0.758544921875
0.541259765625 -0.4456787109375 0.74169921875
0.52911376953125 -0.4490966796875 0.72479248046875
0.57293701171875 -0.3138427734375 0.68267822265625
0.577392578125 -0.3052978515625 0.69232177734375
0.5635986328125 -0.308837890625 0.689239501953125
0.5694580078125 -0.3211669921875 0.671661376953125
0.5845947265625 -0.322509765625 0.6766357421875
0.5877685546875 -0.3143310546875 0.683990478515625
0.56719970703125 -0.30224609375 0.696014404296875
0.56256103515625 -0.3189697265625 0.6773681640625
0.57861328125 -0.329833984375 0.668365478515625
0.4852294921875 -0.42724609375 0.754364013671875
0.477783203125 -0.4154052734375 0.756134033203125
0.48779296875 -0.420654296875 0.766387939453125
0.49462890625 -0.4354248046875 0.75469970703125
0.4840087890625 -0.432861328125 0.741058349609375
0.4759521484375 -0.4210205078125 0.742950439453125
0.47711181640625 -0.40966796875 0.76678466796875
0.49725341796875 -0.4298095703125 0.767364501953125
0.492919921875 -0.4385986328125 0.7425537109375
0.54107666015625 -0.329833984375 0.7073974609375
0.541015625 -0.3211669921875 0.718902587890625
0.53326416015625 -0.3447265625 0.71380615234375
0.54107666015625 -0.341552734375 0.698486328125
0.547607421875 -0.31591796875 0.70050048828125
0.54931640625 -0.306884765625 0.709320068359375
0.53167724609375 -0.3348388671875 0.72540283203125
0.53125 -0.35302734375 0.70367431640625
0.547607421875 -0.327880859375 0.690216064453125
0.49444580078125 -0.383544921875 0.739166259765625
0.50640869140625 -0.3746337890625 0.73150634765625
0.49560546875 -0.37841796875 0.749114990234375
0.48388671875 -0.394775390625 0.7467041015625
0.4940185546875 -0.3924560546875 0.72564697265625
0.50726318359375 -0.3831787109375 0.722076416015625
0.5072021484375 -0.3687744140625 0.739013671875
0.4852294921875 -0.387451171875 0.757965087890625
0.48388671875 -0.4034423828125 0.73541259765625
0.55224609375 -0.3795166015625 0.673309326171875
0.5457763671875 -0.3919677734375 0.680694580078125
0.56024169921875 -0.390869140625 0.674072265625
0.5592041015625 -0.369384765625 0.667266845703125
0.54791259765625 -0.3671875 0.677093505859375
0.53814697265625 -0.378173828125 0.686859130859375
0.55645751953125 -0.404541015625 0.67901611328125
0.56597900390625 -0.3804931640625 0.670196533203125
0.555419921875 -0.354736328125 0.67230224609375
0.51824951171875 -0.4219970703125 0.705841064453125
0.53125 -0.42919921875 0.700958251953125
0.52764892578125 -0.4127197265625 0.700469970703125
0.509033203125 -0.4111328125 0.71014404296875
0.50970458984375 -0.4290771484375 0.708465576171875
0.521728515625 -0.435546875 0.709686279296875
0.54132080078125 -0.424072265625 0.6917724609375
0.5191650390625 -0.4014892578125 0.704345703125
0.5009765625 -0.42138671875 0.713958740234375
0.5723876953125 -0.350830078125 0.658447265625
0.56854248046875 -0.353515625 0.659820556640625
0.57501220703125 -0.3565673828125 0.65673828125
0.57012939453125 -0.341552734375 0.656982421875
0.56396484375 -0.34033203125 0.660430908203125
0.57501220703125 -0.36474609375 0.65789794921875
0.5753173828125 -0.3466796875 0.657684326171875
0.4962158203125 -0.4443359375 0.719451904296875
0.5015869140625 -0.447998046875 0.719085693359375
0.4970703125 -0.443115234375 0.7183837890625
0.49090576171875 -0.4449462890625 0.72412109375
0.496826171875 -0.44677734375 0.726776123046875
0.50689697265625 -0.447509765625 0.716827392578125
0.48919677734375 -0.4375 0.72467041015625
-0.0350341796875 0.29345703125 0.729522705078125
-0.03936767578125 0.279052734375 0.722930908203125
-0.01788330078125 0.28662109375 0.729278564453125
-0.0296630859375 0.30029296875 0.730712890625
-0.04876708984375 0.2987060546875 0.72698974609375
-0.05548095703125 0.2864990234375 0.727508544921875
-0.0220947265625 0.27685546875 0.724609375
-0.01806640625 0.295654296875 0.73095703125
-0.044677734375 0.3082275390625 0.73040771484375
-0.2147216796875 0.0550537109375 0.745941162109375
-0.20587158203125 0.0408935546875 0.749420166015625
-0.20465087890625 0.0615234375 0.7412109375
-0.22589111328125 0.066650390625 0.741302490234375
-0.22406005859375 0.050537109375 0.746795654296875
-0.2137451171875 0.0379638671875 0.74957275390625
-0.19183349609375 0.0462646484375 0.7421875
-0.2144775390625 0.0751953125 0.73834228515625
-0.23284912109375 0.061279296875 0.74517822265625
-0.09619140625 0.3260498046875 0.73583984375
-0.10498046875 0.3138427734375 0.735595703125
-0.0794677734375 0.3148193359375 0.734222412109375
-0.08953857421875 0.3360595703125 0.738006591796875
-0.112548828125 0.33935546875 0.732147216796875
-0.12274169921875 0.3291015625 0.729949951171875
-0.08734130859375 0.3045654296875 0.73492431640625
-0.0758056640625 0.326171875 0.738128662109375
-0.10614013671875 0.349365234375 0.7344970703125
-0.2630615234375 0.102294921875 0.737579345703125
-0.248779296875 0.0911865234375 0.73876953125
-0.25469970703125 0.112060546875 0.7325439453125
-0.276611328125 0.11328125 0.7376708984375
-0.26806640625 0.0928955078125 0.736541748046875
-0.25555419921875 0.0826416015625 0.7421875
-0.242919921875 0.1016845703125 0.7364501953125
-0.27191162109375 0.1246337890625 0.736480712890625
-0.28228759765625 0.10400390625 0.73663330078125
-0.15283203125 0.386962890625 0.73406982421875
-0.16473388671875 0.379150390625 0.7322998046875
-0.14031982421875 0.370849609375 0.729888916015625
-0.14544677734375 0.39306640625 0.7325439453125
-0.15924072265625 0.4052734375 0.731903076171875
-0.17303466796875 0.4005126953125 0.731658935546875
-0.153076171875 0.359619140625 0.728546142578125
-0.1336669921875 0.3787841796875 0.731231689453125
-0.1527099609375 0.4110107421875 0.73077392578125
-0.33880615234375 0.133544921875 0.725341796875
-0.3193359375 0.12939453125 0.72674560546875
-0.33380126953125 0.1441650390625 0.72808837890625
-0.35821533203125 0.1373291015625 0.72027587890625
-0.34161376953125 0.1214599609375 0.724029541015625
-0.32196044921875 0.120849609375 0.72845458984375
-0.3111572265625 0.1419677734375 0.729766845703125
-0.3580322265625 0.1510009765625 0.71929931640625
-0.357666015625 0.1258544921875 0.71795654296875
0.030517578125 0.28173828125 0.7237548828125
0.02984619140625 0.267333984375 0.718536376953125
0.04656982421875 0.284912109375 0.719970703125
0.02716064453125 0.29052734375 0.7276611328125
0.0130615234375 0.281005859375 0.727630615234375
0.01470947265625 0.2679443359375 0.725433349609375
0.05035400390625 0.271484375 0.7177734375
0.0439453125 0.2919921875 0.724945068359375
0.01483154296875 0.291259765625 0.72998046875
-0.18438720703125 0.001953125 0.754669189453125
-0.1834716796875 -0.015869140625 0.7586669921875
-0.17254638671875 0.0013427734375 0.749114990234375
-0.18939208984375 0.014892578125 0.753875732421875
-0.19317626953125 0.0015869140625 0.760833740234375
-0.1923828125 -0.01611328125 0.762786865234375
-0.16925048828125 -0.017578125 0.749267578125
-0.17657470703125 0.018310546875 0.747802734375
-0.19512939453125 0.01513671875 0.7562255859375
0.1138916015625 0.322265625 0.7012939453125
0.11962890625 0.3114013671875 0.698089599609375
0.13800048828125 0.3431396484375 0.689300537109375
0.11151123046875 0.33251953125 0.705810546875
0.09124755859375 0.3089599609375 0.70849609375
0.09405517578125 0.297607421875 0.70684814453125
0.14544677734375 0.3345947265625 0.682037353515625
0.1322021484375 0.3492431640625 0.69317626953125
0.08935546875 0.316162109375 0.71307373046875
-0.20452880859375 -0.09765625 0.750946044921875
-0.21710205078125 -0.128173828125 0.750762939453125
-0.193359375 -0.102783203125 0.74530029296875
-0.19378662109375 -0.0689697265625 0.757598876953125
-0.21044921875 -0.0941162109375 0.755523681640625
-0.2225341796875 -0.1220703125 0.752777099609375
-0.20849609375 -0.1356201171875 0.74658203125
-0.182861328125 -0.071533203125 0.7484130859375
-0.200439453125 -0.0653076171875 0.759490966796875
0.19195556640625 0.4088134765625 0.668487548828125
0.19989013671875 0.40283203125 0.6588134765625
0.20025634765625 0.4351806640625 0.65802001953125
0.18646240234375 0.411865234375 0.6761474609375
0.18133544921875 0.3829345703125 0.674957275390625
0.1917724609375 0.37890625 0.663787841796875
0.2100830078125 0.434814453125 0.6431884765625
0.19610595703125 0.43896484375 0.66680908203125
0.1746826171875 0.388427734375 0.68365478515625
-0.280517578125 -0.2010498046875 0.723602294921875
-0.3035888671875 -0.2198486328125 0.711700439453125
-0.2740478515625 -0.21240234375 0.716552734375
-0.25286865234375 -0.1839599609375 0.729736328125
-0.2835693359375 -0.1923828125 0.725921630859375
-0.307861328125 -0.211669921875 0.718292236328125
-0.30126953125 -0.2318115234375 0.707489013671875
-0.24224853515625 -0.194091796875 0.726806640625
-0.26031494140625 -0.177490234375 0.732940673828125
0.20538330078125 0.526611328125 0.630218505859375
0.21539306640625 0.531005859375 0.61993408203125
0.199951171875 0.5599365234375 0.625732421875
0.1956787109375 0.5257568359375 0.6368408203125
0.2066650390625 0.4945068359375 0.633392333984375
0.2144775390625 0.495849609375 0.62286376953125
0.20733642578125 0.56640625 0.6182861328125
0.1912841796875 0.5546875 0.632568359375
0.197998046875 0.4949951171875 0.644134521484375
-0.39349365234375 -0.25537109375 0.679840087890625
-0.4237060546875 -0.260009765625 0.66009521484375
-0.396728515625 -0.266357421875 0.67071533203125
-0.3602294921875 -0.25 0.69244384765625
-0.39410400390625 -0.2452392578125 0.688262939453125
-0.42047119140625 -0.2491455078125 0.667755126953125
-0.43035888671875 -0.2723388671875 0.65264892578125
-0.36260986328125 -0.26220703125 0.68585205078125
-0.36346435546875 -0.240478515625 0.700469970703125
0.1612548828125 0.632568359375 0.630126953125
0.1683349609375 0.6461181640625 0.623565673828125
0.14508056640625 0.646484375 0.630340576171875
0.1580810546875 0.6243896484375 0.634918212890625
0.173828125 0.6134033203125 0.62628173828125
0.18212890625 0.6226806640625 0.618438720703125
0.14898681640625 0.662353515625 0.625030517578125
0.1400146484375 0.6380615234375 0.639801025390625
0.16888427734375 0.6072998046875 0.6326904296875
-0.50152587890625 -0.2469482421875 0.632904052734375
-0.515380859375 -0.2349853515625 0.629669189453125
-0.508544921875 -0.25732421875 0.627197265625
-0.47662353515625 -0.2579345703125 0.63787841796875
-0.49066162109375 -0.238525390625 0.63519287109375
-0.509765625 -0.2286376953125 0.633209228515625
-0.52642822265625 -0.246826171875 0.6234130859375
-0.48541259765625 -0.2664794921875 0.6326904296875
-0.47015380859375 -0.2445068359375 0.642425537109375
0.0897216796875 0.6751708984375 0.6458740234375
0.0966796875 0.6875 0.642242431640625
0.07122802734375 0.675048828125 0.651947021484375
0.08624267578125 0.666259765625 0.648101806640625
0.10870361328125 0.672119140625 0.638519287109375
0.11260986328125 0.6842041015625 0.6368408203125
0.0755615234375 0.6865234375 0.652801513671875
0.06890869140625 0.667236328125 0.6553955078125
0.1048583984375 0.66064453125 0.643310546875
-0.5584716796875 -0.1968994140625 0.612823486328125
-0.5631103515625 -0.1776123046875 0.6087646484375
-0.5667724609375 -0.2012939453125 0.60308837890625
-0.55108642578125 -0.2105712890625 0.616607666015625
-0.5498046875 -0.1885986328125 0.61700439453125
-0.5555419921875 -0.173828125 0.616943359375
-0.57244873046875 -0.181884765625 0.6029052734375
-0.558837890625 -0.2181396484375 0.607635498046875
-0.537109375 -0.2047119140625 0.62237548828125
-0.0008544921875 0.6436767578125 0.6820068359375
-0.003662109375 0.6541748046875 0.680145263671875
-0.03192138671875 0.62939453125 0.692047119140625
0.00042724609375 0.63525390625 0.6881103515625
0.0267333984375 0.6605224609375 0.674285888671875
0.0260009765625 0.6707763671875 0.6712646484375
-0.03619384765625 0.637939453125 0.691131591796875
-0.0262451171875 0.6207275390625 0.696014404296875
0.02764892578125 0.653076171875 0.677398681640625
-0.550537109375 -0.090576171875 0.63433837890625
-0.54193115234375 -0.0582275390625 0.641021728515625
-0.55914306640625 -0.092041015625 0.62445068359375
-0.5595703125 -0.1258544921875 0.6236572265625
-0.542236328125 -0.09033203125 0.641021728515625
-0.53387451171875 -0.061279296875 0.64959716796875
-0.5511474609375 -0.0567626953125 0.631805419921875
-0.568359375 -0.128173828125 0.615142822265625
-0.5498046875 -0.121337890625 0.628875732421875
-0.09844970703125 0.585693359375 0.7110595703125
-0.1121826171875 0.5941162109375 0.704498291015625
-0.11822509765625 0.56884765625 0.70635986328125
-0.08905029296875 0.5799560546875 0.716644287109375
-0.0770263671875 0.5992431640625 0.710113525390625
-0.0859375 0.6060791015625 0.704010009765625
-0.13311767578125 0.57666015625 0.70849609375
-0.10894775390625 0.564697265625 0.71142578125
-0.07281494140625 0.5943603515625 0.715179443359375
-0.51544189453125 0.023681640625 0.65826416015625
-0.506103515625 0.0467529296875 0.66766357421875
-0.5247802734375 0.0286865234375 0.65386962890625
-0.52093505859375 -0.0015869140625 0.649627685546875
-0.5045166015625 0.01806640625 0.66619873046875
-0.49603271484375 0.0400390625 0.67218017578125
-0.5177001953125 0.0537109375 0.660614013671875
-0.5299072265625 0.003662109375 0.645355224609375
-0.51251220703125 -0.0062255859375 0.6568603515625
-0.15838623046875 0.528564453125 0.718231201171875
-0.17071533203125 0.534912109375 0.71795654296875
-0.16351318359375 0.5147705078125 0.717926025390625
-0.14404296875 0.5250244140625 0.721282958984375
-0.14654541015625 0.539794921875 0.713653564453125
-0.1605224609375 0.5460205078125 0.715667724609375
-0.1778564453125 0.5150146484375 0.717041015625
-0.15081787109375 0.513916015625 0.724029541015625
-0.13128662109375 0.5347900390625 0.71527099609375
-0.4737548828125 0.0927734375 0.683258056640625
-0.46112060546875 0.1048583984375 0.686309814453125
-0.48431396484375 0.10400390625 0.68255615234375
-0.48431396484375 0.0804443359375 0.67718505859375
-0.46630859375 0.08349609375 0.68609619140625
-0.45452880859375 0.0958251953125 0.692169189453125
-0.46905517578125 0.1163330078125 0.688690185546875
-0.49957275390625 0.09130859375 0.673614501953125
-0.47833251953125 0.072509765625 0.68243408203125
-0.17266845703125 0.4637451171875 0.726776123046875
-0.18768310546875 0.4637451171875 0.72821044921875
-0.1702880859375 0.4461669921875 0.72918701171875
-0.15997314453125 0.4635009765625 0.725128173828125
-0.17144775390625 0.4813232421875 0.72369384765625
-0.18829345703125 0.4822998046875 0.721954345703125
-0.18499755859375 0.4405517578125 0.728729248046875
-0.159423828125 0.444580078125 0.7318115234375
-0.1597900390625 0.4813232421875 0.723846435546875
-0.41595458984375 0.132080078125 0.70867919921875
-0.4007568359375 0.1376953125 0.711883544921875
-0.4168701171875 0.146728515625 0.706695556640625
-0.4285888671875 0.12548828125 0.701080322265625
-0.41156005859375 0.1204833984375 0.708282470703125
-0.39971923828125 0.12451171875 0.709136962890625
-0.39990234375 0.1507568359375 0.71295166015625
-0.436279296875 0.13916015625 0.69976806640625
-0.42510986328125 0.114990234375 0.7034912109375
-0.13580322265625 0.466552734375 0.7242431640625
-0.1435546875 0.4661865234375 0.72576904296875
-0.13623046875 0.4521484375 0.723175048828125
-0.1319580078125 0.4669189453125 0.720428466796875
-0.13433837890625 0.480712890625 0.727020263671875
-0.13983154296875 0.480712890625 0.728607177734375
-0.14056396484375 0.4503173828125 0.72454833984375
-0.132568359375 0.453369140625 0.71820068359375
-0.13018798828125 0.479248046875 0.724151611328125
-0.40985107421875 0.096923828125 0.70526123046875
-0.39385986328125 0.0997314453125 0.705108642578125
-0.40966796875 0.1043701171875 0.71075439453125
-0.41961669921875 0.09375 0.70556640625
-0.40740966796875 0.0906982421875 0.701202392578125
-0.39337158203125 0.093994140625 0.6998291015625
-0.395263671875 0.1080322265625 0.7083740234375
-0.4205322265625 0.099609375 0.7069091796875
-0.4189453125 0.086181640625 0.70574951171875
-0.12322998046875 0.515869140625 0.720855712890625
-0.12738037109375 0.51806640625 0.721832275390625
-0.1307373046875 0.506103515625 0.727294921875
-0.11669921875 0.513916015625 0.717437744140625
-0.115478515625 0.527099609375 0.717376708984375
-0.1192626953125 0.528564453125 0.71563720703125
-0.13720703125 0.5078125 0.72845458984375
-0.122802734375 0.504638671875 0.724456787109375
-0.10784912109375 0.524658203125 0.717315673828125
-0.4522705078125 0.0673828125 0.693359375
-0.44012451171875 0.07666015625 0.697021484375
-0.45599365234375 0.072021484375 0.692291259765625
-0.46234130859375 0.05810546875 0.685394287109375
-0.44775390625 0.0633544921875 0.694061279296875
-0.4375 0.07275390625 0.69586181640625
-0.44720458984375 0.08251953125 0.69671630859375
-0.46575927734375 0.061767578125 0.68487548828125
-0.45965576171875 0.0548095703125 0.687896728515625
-0.08026123046875 0.5701904296875 0.7161865234375
-0.08203125 0.5728759765625 0.717071533203125
-0.093505859375 0.5543212890625 0.714813232421875
-0.07696533203125 0.565673828125 0.71142578125
-0.06292724609375 0.5831298828125 0.71722412109375
-0.06390380859375 0.58642578125 0.71844482421875
-0.0975341796875 0.557861328125 0.718414306640625
-0.0911865234375 0.55078125 0.71221923828125
-0.06085205078125 0.5792236328125 0.714752197265625
-0.48760986328125 0.0111083984375 0.677276611328125
-0.47869873046875 0.027099609375 0.677520751953125
-0.492431640625 0.0123291015625 0.676422119140625
-0.49517822265625 -0.011474609375 0.670074462890625
-0.4837646484375 0.0091552734375 0.6746826171875
-0.47406005859375 0.0250244140625 0.678741455078125
-0.4827880859375 0.03076171875 0.6806640625
-0.49920654296875 -0.008544921875 0.668975830078125
-0.49200439453125 -0.01171875 0.669342041015625
0.00067138671875 0.617919921875 0.68804931640625
0.00177001953125 0.6229248046875 0.6920166015625
-0.02093505859375 0.6068115234375 0.697662353515625
0.000732421875 0.614501953125 0.683563232421875
0.02508544921875 0.632080078125 0.67852783203125
0.02728271484375 0.6390380859375 0.68145751953125
-0.0213623046875 0.612060546875 0.7001953125
-0.0225830078125 0.603759765625 0.693328857421875
0.02532958984375 0.623779296875 0.67425537109375
-0.51727294921875 -0.084716796875 0.64727783203125
-0.51177978515625 -0.059326171875 0.657745361328125
-0.5245361328125 -0.088134765625 0.649627685546875
-0.52716064453125 -0.1112060546875 0.644195556640625
-0.513916015625 -0.0830078125 0.643402099609375
-0.504150390625 -0.05859375 0.655670166015625
-0.51751708984375 -0.0582275390625 0.6583251953125
-0.5328369140625 -0.1141357421875 0.642822265625
-0.5206298828125 -0.108642578125 0.6380615234375
0.07940673828125 0.6395263671875 0.6514892578125
0.0792236328125 0.6483154296875 0.651580810546875
0.061767578125 0.6412353515625 0.656707763671875
0.076416015625 0.6326904296875 0.64788818359375
0.09332275390625 0.6337890625 0.6455078125
0.0968017578125 0.643798828125 0.6470947265625
0.06304931640625 0.6488037109375 0.657501220703125
0.058349609375 0.634765625 0.6571044921875
0.09027099609375 0.6258544921875 0.643157958984375
-0.52203369140625 -0.1741943359375 0.6273193359375
-0.5267333984375 -0.1573486328125 0.628875732421875
-0.53070068359375 -0.1795654296875 0.627044677734375
-0.51177978515625 -0.1859130859375 0.630218505859375
-0.511474609375 -0.1666259765625 0.62890625
-0.51739501953125 -0.1514892578125 0.6309814453125
-0.53631591796875 -0.1630859375 0.62835693359375
-0.5225830078125 -0.1925048828125 0.6304931640625
-0.5040283203125 -0.1787109375 0.63201904296875
0.13800048828125 0.607177734375 0.643585205078125
0.14300537109375 0.611572265625 0.6436767578125
0.125244140625 0.6209716796875 0.643798828125
0.131591796875 0.600830078125 0.643524169921875
0.14837646484375 0.5914306640625 0.64031982421875
0.15472412109375 0.5958251953125 0.638336181640625
0.1300048828125 0.6263427734375 0.645111083984375
0.12042236328125 0.612548828125 0.640960693359375
0.1412353515625 0.5865478515625 0.63916015625
-0.4749755859375 -0.2154541015625 0.645538330078125
-0.488037109375 -0.2061767578125 0.63787841796875
-0.4788818359375 -0.2213134765625 0.643310546875
-0.45819091796875 -0.220703125 0.651153564453125
-0.47039794921875 -0.2100830078125 0.644622802734375
-0.480712890625 -0.2008056640625 0.638427734375
-0.4947509765625 -0.213134765625 0.63543701171875
-0.46173095703125 -0.226318359375 0.655181884765625
-0.4561767578125 -0.21240234375 0.648223876953125
0.17559814453125 0.5228271484375 0.645355224609375
0.18194580078125 0.5242919921875 0.645660400390625
0.16668701171875 0.5467529296875 0.6412353515625
0.1715087890625 0.521728515625 0.646514892578125
0.17822265625 0.497314453125 0.655517578125
0.1837158203125 0.498046875 0.653076171875
0.1728515625 0.5496826171875 0.639862060546875
0.16094970703125 0.54345703125 0.64056396484375
0.17340087890625 0.495361328125 0.652252197265625
-0.39166259765625 -0.224365234375 0.683929443359375
-0.416259765625 -0.2274169921875 0.67236328125
-0.3917236328125 -0.230712890625 0.68817138671875
-0.36322021484375 -0.2191162109375 0.69940185546875
-0.39068603515625 -0.21826171875 0.681884765625
-0.41595458984375 -0.22314453125 0.669281005859375
-0.4173583984375 -0.232666015625 0.674652099609375
-0.3631591796875 -0.2261962890625 0.701446533203125
-0.364501953125 -0.2135009765625 0.695281982421875
0.1710205078125 0.421630859375 0.679046630859375
0.17596435546875 0.41943359375 0.679534912109375
0.17437744140625 0.4439697265625 0.669830322265625
0.16522216796875 0.4224853515625 0.677154541015625
0.16162109375 0.39990234375 0.68731689453125
0.16583251953125 0.39599609375 0.688690185546875
0.1800537109375 0.443359375 0.670867919921875
0.17193603515625 0.4429931640625 0.669952392578125
0.15850830078125 0.40185546875 0.681915283203125
-0.29315185546875 -0.1773681640625 0.723419189453125
-0.31353759765625 -0.195068359375 0.717803955078125
-0.29144287109375 -0.1812744140625 0.72674560546875
-0.27783203125 -0.16259765625 0.73406982421875
-0.2978515625 -0.17236328125 0.720001220703125
-0.315673828125 -0.191162109375 0.71240234375
-0.31158447265625 -0.1982421875 0.7196044921875
-0.27471923828125 -0.166259765625 0.736114501953125
-0.2799072265625 -0.1602783203125 0.730255126953125
0.1055908203125 0.3472900390625 0.706268310546875
0.11029052734375 0.3431396484375 0.7100830078125
0.1226806640625 0.361572265625 0.699371337890625
0.102783203125 0.349609375 0.70166015625
0.085205078125 0.3314208984375 0.714996337890625
0.0858154296875 0.32763671875 0.717559814453125
0.1258544921875 0.35986328125 0.70208740234375
0.1201171875 0.365966796875 0.694732666015625
0.08197021484375 0.3355712890625 0.713409423828125
-0.224853515625 -0.087158203125 0.752044677734375
-0.24017333984375 -0.1162109375 0.74676513671875
-0.2220458984375 -0.08837890625 0.755340576171875
-0.2164306640625 -0.0604248046875 0.757354736328125
-0.23077392578125 -0.0849609375 0.74560546875
-0.24737548828125 -0.113037109375 0.7430419921875
-0.23394775390625 -0.117919921875 0.7518310546875
-0.2119140625 -0.0625 0.75921630859375
-0.220703125 -0.0609130859375 0.750030517578125
0.024169921875 0.3067626953125 0.72332763671875
0.02508544921875 0.3023681640625 0.726470947265625
0.04290771484375 0.3094482421875 0.721771240234375
0.02288818359375 0.31103515625 0.718841552734375
0.01348876953125 0.307861328125 0.724822998046875
0.0133056640625 0.302734375 0.728546142578125
0.04339599609375 0.303955078125 0.725128173828125
0.0408935546875 0.3140869140625 0.71722412109375
0.013427734375 0.310791015625 0.71844482421875
-0.2100830078125 -0.003173828125 0.756134033203125
-0.20770263671875 -0.01904296875 0.756500244140625
-0.2041015625 -0.001220703125 0.758544921875
-0.2166748046875 0.0111083984375 0.74847412109375
-0.21728515625 -0.005126953125 0.74908447265625
-0.21405029296875 -0.019287109375 0.751953125
-0.2020263671875 -0.017822265625 0.759979248046875
-0.20867919921875 0.0115966796875 0.75616455078125
-0.22222900390625 0.0079345703125 0.74224853515625
-0.122802734375 0.4051513671875 0.720611572265625
-0.12896728515625 0.4027099609375 0.721588134765625
-0.1163330078125 0.3924560546875 0.72198486328125
-0.119384765625 0.409912109375 0.712921142578125
-0.130126953125 0.4215087890625 0.722076416015625
-0.135009765625 0.4173583984375 0.72760009765625
-0.11956787109375 0.388916015625 0.72607421875
-0.113525390625 0.3944091796875 0.716888427734375
-0.12603759765625 0.424072265625 0.717437744140625
-0.3463134765625 0.0994873046875 0.716522216796875
-0.3311767578125 0.099609375 0.721343994140625
-0.345458984375 0.107177734375 0.721649169921875
-0.361328125 0.1014404296875 0.716278076171875
-0.3477783203125 0.09423828125 0.711883544921875
-0.33319091796875 0.0941162109375 0.714996337890625
-0.32965087890625 0.10546875 0.72552490234375
-0.360107421875 0.1097412109375 0.7171630859375
-0.36083984375 0.096435546875 0.711151123046875
-0.07611083984375 0.352294921875 0.728302001953125
-0.07977294921875 0.3477783203125 0.73492431640625
-0.06304931640625 0.3428955078125 0.7275390625
-0.07476806640625 0.3560791015625 0.723785400390625
-0.09197998046875 0.36376953125 0.726043701171875
-0.09613037109375 0.36083984375 0.72894287109375
-0.06500244140625 0.337890625 0.732177734375
-0.0609130859375 0.3472900390625 0.72064208984375
-0.08831787109375 0.367431640625 0.72015380859375
-0.28338623046875 0.0797119140625 0.733184814453125
-0.26812744140625 0.070068359375 0.73321533203125
-0.2777099609375 0.082275390625 0.737884521484375
-0.2987060546875 0.088134765625 0.73345947265625
-0.2862548828125 0.0740966796875 0.72857666015625
-0.2723388671875 0.06640625 0.7264404296875
-0.2652587890625 0.0738525390625 0.7364501953125
-0.29364013671875 0.0938720703125 0.73858642578125
-0.301513671875 0.08349609375 0.726348876953125
-0.02496337890625 0.316650390625 0.723236083984375
-0.0277099609375 0.3128662109375 0.7271728515625
-0.01495361328125 0.3116455078125 0.72552490234375
-0.0238037109375 0.32080078125 0.716278076171875
-0.037109375 0.323486328125 0.723388671875
-0.04071044921875 0.31884765625 0.728271484375
-0.01513671875 0.30810546875 0.731689453125
-0.016357421875 0.315673828125 0.7191162109375
-0.03619384765625 0.3280029296875 0.713287353515625
-0.23846435546875 0.041748046875 0.73944091796875
-0.22955322265625 0.031005859375 0.740234375
-0.2333984375 0.0438232421875 0.7435302734375
-0.2467041015625 0.0518798828125 0.737091064453125
-0.24176025390625 0.0401611328125 0.73284912109375
-0.23681640625 0.028564453125 0.733612060546875
-0.2249755859375 0.0355224609375 0.744354248046875
-0.24169921875 0.052734375 0.7413330078125
-0.25164794921875 0.048828125 0.73162841796875
-0.28765869140625 0.3355712890625 0.61962890625
-0.289794921875 0.3350830078125 0.649871826171875
-0.29022216796875 0.363037109375 0.620941162109375
-0.28680419921875 0.33740234375 0.592620849609375
-0.29351806640625 0.31396484375 0.621734619140625
-0.293701171875 0.314208984375 0.649261474609375
-0.29571533203125 0.361328125 0.6514892578125
-0.2833251953125 0.368896484375 0.593963623046875
-0.2928466796875 0.3148193359375 0.59368896484375
-0.33306884765625 0.2728271484375 0.61376953125
-0.36053466796875 0.2669677734375 0.613800048828125
-0.33099365234375 0.2745361328125 0.64801025390625
-0.3133544921875 0.2816162109375 0.61627197265625
-0.3338623046875 0.2672119140625 0.587890625
-0.36370849609375 0.258056640625 0.580902099609375
-0.36029052734375 0.2728271484375 0.6478271484375
-0.314453125 0.2845458984375 0.64666748046875
-0.31475830078125 0.2813720703125 0.585662841796875
-0.32757568359375 0.4769287109375 0.629486083984375
-0.33740234375 0.4727783203125 0.658447265625
-0.34088134765625 0.5208740234375 0.62921142578125
-0.314208984375 0.4893798828125 0.60198974609375
-0.31268310546875 0.4337158203125 0.623992919921875
-0.3194580078125 0.43212890625 0.65606689453125
-0.3516845703125 0.5157470703125 0.66015625
-0.32427978515625 0.5260009765625 0.60479736328125
-0.30126953125 0.443115234375 0.596160888671875
-0.47967529296875 0.27783203125 0.595550537109375
-0.52178955078125 0.283447265625 0.580108642578125
-0.47967529296875 0.2874755859375 0.62554931640625
-0.43310546875 0.267822265625 0.60882568359375
-0.48291015625 0.26025390625 0.5684814453125
-0.51983642578125 0.2703857421875 0.555908203125
-0.52105712890625 0.29248046875 0.6102294921875
-0.43133544921875 0.2784423828125 0.64166259765625
-0.43804931640625 0.2518310546875 0.578094482421875
-0.3468017578125 0.626220703125 0.628143310546875
-0.35589599609375 0.62646484375 0.65509033203125
-0.32623291015625 0.654296875 0.629852294921875
-0.32666015625 0.623291015625 0.604949951171875
-0.35089111328125 0.59326171875 0.631622314453125
-0.36676025390625 0.5947265625 0.65087890625
-0.33502197265625 0.6591796875 0.652008056640625
-0.31158447265625 0.6512451171875 0.611724853515625
-0.334716796875 0.59326171875 0.60577392578125
-0.6180419921875 0.2564697265625 0.533538818359375
-0.640869140625 0.228759765625 0.52392578125
-0.6251220703125 0.264892578125 0.560211181640625
-0.590576171875 0.274169921875 0.54736328125
-0.6107177734375 0.242919921875 0.513885498046875
-0.6279296875 0.220703125 0.49945068359375
-0.648681640625 0.236572265625 0.546630859375
-0.5950927734375 0.2847900390625 0.575469970703125
-0.58282470703125 0.2601318359375 0.525634765625
-0.2239990234375 0.7125244140625 0.619293212890625
-0.2314453125 0.7139892578125 0.650299072265625
-0.17822265625 0.725830078125 0.615142822265625
-0.21527099609375 0.6990966796875 0.596771240234375
-0.26885986328125 0.69775390625 0.629608154296875
-0.27593994140625 0.696533203125 0.65350341796875
-0.18603515625 0.7330322265625 0.645599365234375
-0.17486572265625 0.7071533203125 0.588470458984375
-0.25469970703125 0.685791015625 0.610565185546875
-0.66357421875 0.11865234375 0.490936279296875
-0.659912109375 0.0701904296875 0.488677978515625
-0.6710205078125 0.1212158203125 0.51751708984375
-0.66046142578125 0.1619873046875 0.50079345703125
-0.64556884765625 0.119140625 0.47283935546875
-0.64630126953125 0.069091796875 0.4647216796875
-0.6689453125 0.0733642578125 0.51226806640625
-0.6654052734375 0.1636962890625 0.524017333984375
-0.64373779296875 0.1578369140625 0.482421875
-0.04083251953125 0.774169921875 0.589935302734375
-0.042724609375 0.783203125 0.6201171875
0.00238037109375 0.795654296875 0.5799560546875
-0.03546142578125 0.7640380859375 0.558380126953125
-0.08837890625 0.75537109375 0.60150146484375
-0.09136962890625 0.7591552734375 0.63201904296875
-0.00164794921875 0.8018798828125 0.609954833984375
0.000732421875 0.78857421875 0.539276123046875
-0.08258056640625 0.74267578125 0.567108154296875
-0.67578125 -0.0908203125 0.4566650390625
-0.684326171875 -0.1435546875 0.450103759765625
-0.68048095703125 -0.0904541015625 0.484161376953125
-0.6673583984375 -0.0380859375 0.464813232421875
-0.66473388671875 -0.0902099609375 0.431976318359375
-0.6724853515625 -0.1417236328125 0.4197998046875
