# XYZ point cloud file
-0.5103759765625 -0.1488037109375 0.5796051025390625
0.2454833984375 0.5692138671875 0.568450927734375
0.2454833984375 0.53564453125 0.57189178466796875
0.241943359375 0.5 0.57938385009765625
0.248046875 0.47265625 0.575042724609375
0.2642822265625 0.480712890625 0.56189727783203125
0.2757568359375 0.4869384765625 0.54839324951171875
-0.3565673828125 -0.2305908203125 0.6486663818359375
-0.3475341796875 -0.20849609375 0.6569366455078125
-0.33935546875 -0.18994140625 0.662109375
-0.3604736328125 -0.1824951171875 0.656707763671875
-0.390625 -0.18603515625 0.6455078125
-0.4227294921875 -0.1856689453125 0.6324310302734375
0.2314453125 0.435791015625 0.597808837890625
0.22412109375 0.4063720703125 0.60494232177734375
0.208984375 0.37939453125 0.6166229248046875
0.1971435546875 0.347900390625 0.6232452392578125
0.2088623046875 0.336669921875 0.61602783203125
0.2225341796875 0.3277587890625 0.60565185546875
-0.2081298828125 -0.14453125 0.7032623291015625
-0.216796875 -0.125732421875 0.70652008056640625
-0.2225341796875 -0.112060546875 0.7078399658203125
-0.251708984375 -0.124267578125 0.69724273681640625
-0.275634765625 -0.1435546875 0.69104766845703125
-0.3033447265625 -0.16015625 0.68233489990234375
0.1656494140625 0.338134765625 0.64794921875
0.1416015625 0.3184814453125 0.66278076171875
0.1102294921875 0.30322265625 0.67449951171875
0.0916748046875 0.2685546875 0.689910888671875
0.1026611328125 0.238525390625 0.69854736328125
0.11328125 0.20361328125 0.7103729248046875
-0.0723876953125 -0.0006103515625 0.7521820068359375
-0.103759765625 0.012451171875 0.74002838134765625
-0.1336669921875 0.0228271484375 0.7285003662109375
-0.166015625 -0.0047607421875 0.72174072265625
-0.18408203125 -0.03759765625 0.71973419189453125
-0.2049560546875 -0.0697021484375 0.7162628173828125
0.0631103515625 0.2845458984375 0.68711090087890625
0.042724609375 0.2801513671875 0.68552398681640625
0.0247802734375 0.2847900390625 0.68846893310546875
0.0054931640625 0.2625732421875 0.687103271484375
-0.0018310546875 0.229736328125 0.69002532958984375
-0.0096435546875 0.1917724609375 0.69316864013671875
0.023193359375 0.150390625 0.7110137939453125
0.056396484375 0.15625 0.71807098388671875
0.0880126953125 0.1600341796875 0.72539520263671875
-0.0306396484375 0.027099609375 0.75420379638671875
-0.031005859375 0.06298828125 0.74041748046875
-0.0291748046875 0.096923828125 0.72330474853515625
-0.06396484375 0.1290283203125 0.7045135498046875
-0.0989990234375 0.1221923828125 0.7052764892578125
-0.132080078125 0.1119384765625 0.704254150390625
-0.1434326171875 0.0885009765625 0.71006011962890625
-0.14599609375 0.0706787109375 0.71327972412109375
-0.1488037109375 0.05126953125 0.7185516357421875
-0.1019287109375 0.395751953125 0.6796417236328125
-0.1072998046875 0.418212890625 0.67858123779296875
-0.1124267578125 0.441650390625 0.67850494384765625
-0.1500244140625 0.3460693359375 0.6986083984375
-0.1297607421875 0.358642578125 0.6894683837890625
-0.1126708984375 0.3680419921875 0.6837921142578125
-0.2171630859375 0.2464599609375 0.682342529296875
-0.2060546875 0.2685546875 0.6892852783203125
-0.1934814453125 0.2952880859375 0.6968231201171875
-0.27880859375 0.2462158203125 0.66576385498046875
-0.262451171875 0.2421875 0.67066192626953125
-0.243896484375 0.2373046875 0.6765594482421875
-0.0560302734375 0.3326416015625 0.68369293212890625
-0.0692138671875 0.3470458984375 0.6842498779296875
-0.0853271484375 0.3614501953125 0.6823577880859375
-0.1590576171875 0.30712890625 0.69452667236328125
-0.1416015625 0.284423828125 0.69264984130859375
-0.1246337890625 0.2646484375 0.6938323974609375
-0.089599609375 0.2637939453125 0.691650390625
-0.070068359375 0.285400390625 0.6872100830078125
-0.0579833984375 0.3048095703125 0.68764495849609375
-0.1668701171875 0.1846923828125 0.69234466552734375
-0.1485595703125 0.2005615234375 0.690399169921875
-0.12548828125 0.2235107421875 0.69244384765625
-0.212890625 0.2139892578125 0.67938232421875
-0.2039794921875 0.1993408203125 0.682464599609375
-0.190673828125 0.1849365234375 0.6855316162109375
-0.0888671875 0.2198486328125 0.6884918212890625
-0.07080078125 0.1993408203125 0.6893310546875
-0.050537109375 0.1739501953125 0.69380950927734375
-0.0068359375 0.2923583984375 0.68578338623046875
-0.0191650390625 0.299560546875 0.687164306640625
-0.0306396484375 0.3104248046875 0.6844024658203125
-0.170654296875 0.152099609375 0.693023681640625
-0.161376953125 0.13671875 0.69686126708984375
-0.154052734375 0.1202392578125 0.70159149169921875
0.4876708984375 -0.4127197265625 0.66715240478515625
0.4776611328125 -0.405517578125 0.68585205078125
0.469970703125 -0.3978271484375 0.7064056396484375
0.45068359375 -0.4068603515625 0.72350311279296875
0.44091796875 -0.418212890625 0.72967529296875
0.4344482421875 -0.4290771484375 0.7369232177734375
0.42578125 -0.4483642578125 0.7403564453125
0.42724609375 -0.4588623046875 0.73287200927734375
0.427490234375 -0.4730224609375 0.72332000732421875
0.4097900390625 -0.447265625 0.75543212890625
0.4017333984375 -0.456298828125 0.7646942138671875
0.392822265625 -0.4627685546875 0.7732086181640625
0.3778076171875 -0.4881591796875 0.7810516357421875
0.370361328125 -0.5072021484375 0.77988433837890625
0.361572265625 -0.5306396484375 0.77466583251953125
0.5106201171875 -0.351318359375 0.6385955810546875
0.49462890625 -0.3448486328125 0.66440582275390625
0.47900390625 -0.3388671875 0.6869964599609375
0.4678955078125 -0.353271484375 0.70577239990234375
0.463134765625 -0.3668212890625 0.70789337158203125
0.4605712890625 -0.3800048828125 0.71257781982421875
0.3690185546875 -0.4705810546875 0.78958892822265625
0.3604736328125 -0.472412109375 0.7991485595703125
0.351806640625 -0.468505859375 0.80365753173828125
0.3370361328125 -0.481689453125 0.808258056640625
0.3248291015625 -0.510498046875 0.80681610107421875
0.3115234375 -0.54248046875 0.80364990234375
0.4866943359375 -0.27197265625 0.64051055908203125
0.466552734375 -0.264892578125 0.670928955078125
0.4437255859375 -0.26611328125 0.693267822265625
0.4376220703125 -0.283203125 0.70886993408203125
0.4501953125 -0.298828125 0.70428466796875
0.4586181640625 -0.3170166015625 0.704376220703125
0.330322265625 -0.4468994140625 0.8080596923828125
0.320068359375 -0.4296875 0.80841827392578125
0.3089599609375 -0.4102783203125 0.80869293212890625
0.292236328125 -0.4224853515625 0.81479644775390625
0.280517578125 -0.45703125 0.81816864013671875
0.264892578125 -0.4931640625 0.82233428955078125
0.31689453125 -0.0654296875 0.67359161376953125
0.3026123046875 -0.0748291015625 0.6920623779296875
0.2896728515625 -0.0858154296875 0.7074737548828125
0.303466796875 -0.131103515625 0.72347259521484375
0.3316650390625 -0.1650390625 0.71952056884765625
0.358154296875 -0.1920166015625 0.7178802490234375
0.4022216796875 -0.207275390625 0.69757080078125
0.42041015625 -0.199951171875 0.6771087646484375
0.434326171875 -0.19140625 0.6540679931640625
0.2132568359375 -0.4100341796875 0.8105316162109375
0.231201171875 -0.3817138671875 0.812408447265625
0.247314453125 -0.3580322265625 0.8122711181640625
0.2459716796875 -0.305908203125 0.79443359375
0.2232666015625 -0.2703857421875 0.79006195068359375
0.2060546875 -0.23681640625 0.79009246826171875
0.1669921875 -0.2181396484375 0.7866973876953125
0.1485595703125 -0.23974609375 0.78314971923828125
0.12890625 -0.2596435546875 0.78128814697265625
0.40234375 -0.236572265625 0.71477508544921875
0.414306640625 -0.25048828125 0.71514129638671875
0.4207763671875 -0.26171875 0.71753692626953125
0.295654296875 -0.380859375 0.8090667724609375
0.28857421875 -0.373046875 0.80865478515625
0.276123046875 -0.3597412109375 0.80438995361328125
0.2545166015625 -0.0738525390625 0.72245025634765625
0.23486328125 -0.0499267578125 0.72519683837890625
0.21875 -0.0250244140625 0.7237396240234375
0.20166015625 -0.024658203125 0.734375
0.193115234375 -0.0426025390625 0.74304962158203125
0.1842041015625 -0.05810546875 0.7473602294921875
0.184326171875 -0.087158203125 0.752532958984375
0.1959228515625 -0.1043701171875 0.75177001953125
0.21142578125 -0.12451171875 0.75518798828125
0.24072265625 -0.1385498046875 0.75469207763671875
0.252685546875 -0.1275634765625 0.7447967529296875
0.262451171875 -0.1126708984375 0.733123779296875
0.1961669921875 -0.1873779296875 0.7785491943359375
0.2105712890625 -0.174560546875 0.773712158203125
0.2236328125 -0.1602783203125 0.766387939453125
0.156494140625 -0.085693359375 0.75958251953125
0.1395263671875 -0.09619140625 0.76259613037109375
0.12255859375 -0.103271484375 0.7675933837890625
0.1195068359375 -0.128662109375 0.76982879638671875
0.1407470703125 -0.150146484375 0.7721710205078125
0.1600341796875 -0.17333984375 0.7774810791015625
0.3365478515625 -0.256103515625 0.75566864013671875
0.3505859375 -0.24267578125 0.74152374267578125
0.3709716796875 -0.22705078125 0.72991180419921875
0.25341796875 -0.1796875 0.75951385498046875
0.27783203125 -0.2130126953125 0.75988006591796875
0.300537109375 -0.24560546875 0.76543426513671875
0.2786865234375 -0.3170166015625 0.79703521728515625
0.293701171875 -0.302490234375 0.78759002685546875
0.30859375 -0.286865234375 0.7772064208984375
0.337158203125 -0.291015625 0.76454925537109375
0.3526611328125 -0.30712890625 0.763671875
0.362060546875 -0.31640625 0.769561767578125
0.3795166015625 -0.3118896484375 0.7586517333984375
0.392578125 -0.2935791015625 0.7474365234375
0.4071044921875 -0.281494140625 0.734130859375
0.3173828125 -0.3619384765625 0.79779052734375
0.3336181640625 -0.34716796875 0.78699493408203125
0.349853515625 -0.3360595703125 0.77931976318359375
0.2037353515625 0.01806640625 0.7201690673828125
0.200439453125 0.034912109375 0.72170257568359375
0.1964111328125 0.0489501953125 0.72147369384765625
0.1859130859375 0.063720703125 0.7319183349609375
0.1844482421875 0.0693359375 0.7398529052734375
0.185546875 0.072998046875 0.748260498046875
0.188232421875 0.064453125 0.755950927734375
0.1910400390625 0.05078125 0.757415771484375
0.19189453125 0.0355224609375 0.75586700439453125
0.1929931640625 0.0162353515625 0.7494354248046875
0.1953125 0.010009765625 0.7408905029296875
0.1981201171875 0.0050048828125 0.73236083984375
0.098388671875 -0.094482421875 0.78031158447265625
0.09619140625 -0.085693359375 0.78488922119140625
0.0948486328125 -0.079345703125 0.794189453125
0.0823974609375 -0.0745849609375 0.80483245849609375
0.07080078125 -0.0733642578125 0.8065338134765625
0.0592041015625 -0.07080078125 0.80755615234375
0.0484619140625 -0.0677490234375 0.7981719970703125
0.0479736328125 -0.071044921875 0.78807830810546875
0.0482177734375 -0.0772705078125 0.77710723876953125
0.057373046875 -0.0909423828125 0.77231597900390625
0.06982421875 -0.0970458984375 0.7750091552734375
0.0810546875 -0.1036376953125 0.7760772705078125
0.177001953125 0.074951171875 0.72663116455078125
0.1611328125 0.0848388671875 0.72692108154296875
0.1455078125 0.091552734375 0.7265167236328125
0.12890625 0.0921630859375 0.72808074951171875
0.131103515625 0.093017578125 0.7347259521484375
0.1318359375 0.09814453125 0.74129486083984375
0.1495361328125 0.0986328125 0.75150299072265625
0.1619873046875 0.0943603515625 0.75554656982421875
0.175048828125 0.08642578125 0.754852294921875
0.041259765625 -0.0540771484375 0.80139923095703125
0.0330810546875 -0.0438232421875 0.79583740234375
0.0263671875 -0.0311279296875 0.78704071044921875
0.0242919921875 -0.0184326171875 0.7725677490234375
0.0250244140625 -0.0205078125 0.7650299072265625
0.0244140625 -0.0211181640625 0.75807952880859375
0.02197265625 -0.0364990234375 0.76122283935546875
0.028564453125 -0.052978515625 0.76558685302734375
0.0357666015625 -0.068603515625 0.76827239990234375
0.1090087890625 0.0909423828125 0.72841644287109375
0.093505859375 0.0823974609375 0.72735595703125
0.0799560546875 0.0687255859375 0.731048583984375
0.0830078125 0.0545654296875 0.7410888671875
0.0888671875 0.0616455078125 0.74553680419921875
0.0928955078125 0.067626953125 0.75445556640625
0.1025390625 0.084228515625 0.75630950927734375
0.1107177734375 0.09228515625 0.7516021728515625
0.122314453125 0.0989990234375 0.74846649169921875
0.0281982421875 -0.00390625 0.774078369140625
0.03515625 0.0084228515625 0.7732391357421875
0.0419921875 0.0166015625 0.772857666015625
0.052978515625 0.0245361328125 0.76251220703125
0.0587158203125 0.0260009765625 0.7539825439453125
0.0615234375 0.03173828125 0.74510955810546875
0.048828125 0.03271484375 0.7374725341796875
0.03515625 0.0159912109375 0.74395751953125
0.0263671875 -0.0009765625 0.75025177001953125
0.076904296875 0.0380859375 0.74437713623046875
0.0804443359375 0.032958984375 0.75020599365234375
0.0848388671875 0.03271484375 0.75446319580078125
0.0855712890625 0.030517578125 0.756988525390625
0.0877685546875 0.0302734375 0.75922393798828125
0.08935546875 0.0322265625 0.7650604248046875
0.09375 0.042236328125 0.7722625732421875
0.09326171875 0.0517578125 0.7703399658203125
0.0933837890625 0.0634765625 0.7646484375
0.0633544921875 0.0262451171875 0.77269744873046875
0.072509765625 0.0289306640625 0.77481842041015625
0.08203125 0.03173828125 0.777252197265625
0.1614990234375 -0.0517578125 0.769561767578125
0.1634521484375 -0.05810546875 0.76207733154296875
0.1651611328125 -0.0638427734375 0.757598876953125
0.18603515625 0.0029296875 0.7619171142578125
0.1820068359375 -0.013427734375 0.76691436767578125
0.1737060546875 -0.0311279296875 0.77037811279296875
0.144287109375 -0.0582275390625 0.78205108642578125
0.1292724609375 -0.06787109375 0.78993988037109375
0.111572265625 -0.0733642578125 0.79586029052734375
0.1529541015625 -0.028564453125 0.79611968994140625
0.1561279296875 -0.0364990234375 0.79000091552734375
0.15771484375 -0.0423583984375 0.78350067138671875
0.187255859375 0.02490234375 0.7657012939453125
0.1829833984375 0.02880859375 0.77081298828125
0.17919921875 0.030029296875 0.777099609375
0.1737060546875 0.0224609375 0.7852020263671875
0.1707763671875 0.0081787109375 0.79225921630859375
0.1597900390625 -0.006103515625 0.7941131591796875
0.1346435546875 -0.0335693359375 0.80515289306640625
0.1195068359375 -0.0416259765625 0.810150146484375
0.1068115234375 -0.047607421875 0.81392669677734375
0.0972900390625 -0.0570068359375 0.8134002685546875
0.0965576171875 -0.0621337890625 0.81109619140625
0.0947265625 -0.068115234375 0.8066253662109375
0.0916748046875 0.035400390625 0.7845001220703125
0.095458984375 0.0355224609375 0.791961669921875
0.100830078125 0.0325927734375 0.80023956298828125
0.1151123046875 0.045654296875 0.80017852783203125
0.1151123046875 0.0594482421875 0.79407501220703125
0.1114501953125 0.0701904296875 0.78708648681640625
0.1090087890625 0.076904296875 0.779571533203125
0.104736328125 0.078125 0.77520751953125
0.101318359375 0.07666015625 0.76732635498046875
0.0516357421875 0.0216064453125 0.7793731689453125
0.05224609375 0.020263671875 0.78723907470703125
0.05419921875 0.018310546875 0.7932281494140625
0.0648193359375 0.0172119140625 0.802978515625
0.07421875 0.01611328125 0.8095703125
0.09033203125 0.0189208984375 0.8106689453125
0.1175537109375 0.082275390625 0.782012939453125
0.125732421875 0.0887451171875 0.7810516357421875
0.134033203125 0.0924072265625 0.78003692626953125
0.140869140625 0.098876953125 0.77259063720703125
0.1390380859375 0.10107421875 0.76570892333984375
0.1357421875 0.101806640625 0.75740814208984375
0.0279541015625 -0.0155029296875 0.79058837890625
0.0316162109375 -0.01318359375 0.79878997802734375
0.03662109375 -0.0107421875 0.8053131103515625
0.04345703125 -0.00390625 0.806488037109375
0.047119140625 0.0035400390625 0.80364227294921875
0.05322265625 0.0106201171875 0.80059051513671875
0.1473388671875 0.09228515625 0.78134918212890625
0.154052734375 0.088623046875 0.78456878662109375
0.1624755859375 0.080810546875 0.78801727294921875
0.1773681640625 0.0755615234375 0.782562255859375
0.1807861328125 0.077392578125 0.77480316162109375
0.1829833984375 0.0782470703125 0.76557159423828125
0.0509033203125 -0.061279296875 0.8161163330078125
0.05322265625 -0.0548095703125 0.820068359375
0.05908203125 -0.047119140625 0.8251800537109375
0.0574951171875 -0.0302734375 0.826019287109375
0.05078125 -0.02294921875 0.8181915283203125
0.045166015625 -0.0155029296875 0.812347412109375
0.175048828125 0.0599365234375 0.7875518798828125
0.17724609375 0.05029296875 0.78363037109375
0.177490234375 0.0391845703125 0.78351593017578125
0.091796875 -0.0501708984375 0.817657470703125
0.0821533203125 -0.046875 0.82231903076171875
0.0736083984375 -0.0418701171875 0.82491302490234375
0.1331787109375 0.040283203125 0.8047027587890625
0.1490478515625 0.0523681640625 0.79851531982421875
0.1614990234375 0.063720703125 0.7934417724609375
0.0760498046875 -0.0257568359375 0.8260955810546875
0.0845947265625 -0.0120849609375 0.8232574462890625
0.095947265625 0.0028076171875 0.81916046142578125
0.12353515625 0.0101318359375 0.8098297119140625
0.133056640625 -0.00146484375 0.80687713623046875
0.141357421875 -0.010986328125 0.80506134033203125
0.012939453125 0.1048583984375 0.71378326416015625
0.0340576171875 0.082275390625 0.72149658203125
0.052734375 0.0626220703125 0.72690582275390625
0.12451171875 0.1002197265625 0.7260284423828125
0.1241455078125 0.1116943359375 0.72986602783203125
0.1226806640625 0.1287841796875 0.72722625732421875
-0.0035400390625 -0.0089111328125 0.7620391845703125
0.009765625 -0.01123046875 0.76010894775390625
0.017822265625 -0.016357421875 0.75736236572265625
0.19140625 0.0621337890625 0.7144012451171875
0.19580078125 0.0633544921875 0.70627593994140625
0.2015380859375 0.0654296875 0.69208526611328125
0.1932373046875 0.080810546875 0.6813507080078125
0.17236328125 0.0994873046875 0.69570159912109375
0.1544189453125 0.124267578125 0.70618438720703125
-0.0086669921875 -0.0533447265625 0.7550811767578125
0.0010986328125 -0.0797119140625 0.7481536865234375
0.0126953125 -0.1031494140625 0.7392730712890625
0.0301513671875 -0.11083984375 0.7519989013671875
0.0369873046875 -0.0970458984375 0.7596282958984375
0.04150390625 -0.087890625 0.765106201171875
0.21923828125 0.0057373046875 0.7111968994140625
0.230224609375 0.010498046875 0.6994476318359375
0.2421875 0.0162353515625 0.68181610107421875
0.2431640625 0.0318603515625 0.6619873046875
0.23046875 0.04296875 0.66432952880859375
0.2188720703125 0.053466796875 0.66429901123046875
0.029541015625 -0.1427001953125 0.737457275390625
0.0394287109375 -0.1580810546875 0.73975372314453125
0.0479736328125 -0.1729736328125 0.7442474365234375
0.0704345703125 -0.16455078125 0.7617950439453125
0.0799560546875 -0.1446533203125 0.76903533935546875
0.091064453125 -0.1265869140625 0.7740478515625
0.3026123046875 -0.03076171875 0.65038299560546875
0.281982421875 -0.0123291015625 0.653472900390625
0.2672119140625 0.00634765625 0.6578521728515625
0.0673828125 -0.20166015625 0.7585296630859375
0.07861328125 -0.2235107421875 0.762420654296875
0.093505859375 -0.2520751953125 0.7654266357421875
0.3125 -0.026123046875 0.52420806884765625
0.2921142578125 -0.007080078125 0.522735595703125
0.2794189453125 0.00634765625 0.52388763427734375
0.268310546875 0.0216064453125 0.56400299072265625
0.2626953125 0.0240478515625 0.59841156005859375
0.2601318359375 0.0233154296875 0.63006591796875
0.0406494140625 -0.207275390625 0.72922515869140625
0.027099609375 -0.2293701171875 0.7054443359375
0.0108642578125 -0.247802734375 0.67678070068359375
0.00732421875 -0.2811279296875 0.6531524658203125
0.0145263671875 -0.30322265625 0.66089630126953125
0.029052734375 -0.32666015625 0.6728363037109375
0.2529296875 0.0269775390625 0.5301513671875
0.23828125 0.0367431640625 0.5275421142578125
0.2296142578125 0.04541015625 0.5330657958984375
0.22021484375 0.0570068359375 0.571563720703125
0.21728515625 0.0611572265625 0.607666015625
0.212646484375 0.0654296875 0.639495849609375
0.0107421875 -0.1456298828125 0.71221923828125
-0.00048828125 -0.166015625 0.68547821044921875
-0.01318359375 -0.18505859375 0.6558990478515625
-0.016357421875 -0.21484375 0.6311492919921875
-0.0091552734375 -0.23095703125 0.63581085205078125
-0.0054931640625 -0.24462890625 0.64145660400390625
0.2086181640625 0.0628662109375 0.543304443359375
0.1983642578125 0.0736083984375 0.544647216796875
0.1954345703125 0.0888671875 0.54650115966796875
-0.0450439453125 -0.16357421875 0.6281890869140625
-0.033203125 -0.1697998046875 0.6286773681640625
-0.0284423828125 -0.183837890625 0.626953125
0.4122314453125 -0.296142578125 0.7305908203125
0.41552734375 -0.29052734375 0.73052215576171875
0.417724609375 -0.2835693359375 0.72888946533203125
0.3702392578125 -0.3323974609375 0.76731109619140625
0.3721923828125 -0.3360595703125 0.76529693603515625
0.3739013671875 -0.3411865234375 0.76202392578125
0.3843994140625 -0.3331298828125 0.74695587158203125
0.3946533203125 -0.318359375 0.73664093017578125
0.402587890625 -0.3072509765625 0.72900390625
0.3328857421875 -0.3724365234375 0.78099822998046875
0.346435546875 -0.364501953125 0.77392578125
0.360107421875 -0.356689453125 0.7647247314453125
0.3170166015625 -0.3780517578125 0.8018646240234375
0.32177734375 -0.3785400390625 0.79840850830078125
0.3253173828125 -0.3792724609375 0.79267120361328125
0.44287109375 -0.337646484375 0.71588897705078125
0.44921875 -0.335693359375 0.71707916259765625
0.455810546875 -0.3348388671875 0.71320343017578125
0.4210205078125 -0.3038330078125 0.71961212158203125
0.4268798828125 -0.311279296875 0.7156982421875
0.4317626953125 -0.324462890625 0.7130584716796875
0.339111328125 -0.4190673828125 0.78954315185546875
0.3310546875 -0.4066162109375 0.78875732421875
0.3253173828125 -0.3946533203125 0.78931427001953125
0.3485107421875 -0.4434814453125 0.803375244140625
0.3502197265625 -0.4334716796875 0.800537109375
0.3515625 -0.4296875 0.79470062255859375
0.43603515625 -0.392578125 0.72727203369140625
0.444580078125 -0.390625 0.72956085205078125
0.4490966796875 -0.392822265625 0.72554779052734375
0.4400634765625 -0.3555908203125 0.71236419677734375
0.43896484375 -0.369873046875 0.7162628173828125
0.4375 -0.3839111328125 0.71955108642578125
0.375732421875 -0.4451904296875 0.77191925048828125
0.3695068359375 -0.44287109375 0.77736663818359375
0.3602294921875 -0.437255859375 0.782623291015625
0.3875732421875 -0.4556884765625 0.77947235107421875
0.388427734375 -0.4478759765625 0.7755126953125
0.3856201171875 -0.4454345703125 0.7709503173828125
0.416259765625 -0.42724609375 0.74561309814453125
0.41845703125 -0.4285888671875 0.74959564208984375
0.419677734375 -0.431396484375 0.749908447265625
0.4281005859375 -0.404541015625 0.7274017333984375
0.421630859375 -0.4127197265625 0.7315673828125
0.4176025390625 -0.419921875 0.733245849609375
0.406005859375 -0.4337158203125 0.74518585205078125
0.39892578125 -0.4383544921875 0.749603271484375
0.39208984375 -0.44189453125 0.75829315185546875
0.39599609375 -0.4320068359375 0.71851348876953125
0.4012451171875 -0.431396484375 0.7252044677734375
0.4056396484375 -0.428955078125 0.73236083984375
0.4273681640625 -0.396484375 0.71685791015625
0.423583984375 -0.3990478515625 0.704681396484375
0.4168701171875 -0.3995361328125 0.69182586669921875
0.40869140625 -0.40478515625 0.69138336181640625
0.40478515625 -0.4122314453125 0.70047760009765625
0.3980712890625 -0.4212646484375 0.70648956298828125
0.3839111328125 -0.433837890625 0.7182464599609375
0.3773193359375 -0.4400634765625 0.72383880615234375
0.3699951171875 -0.445068359375 0.72650909423828125
0.3697509765625 -0.4501953125 0.736083984375
0.3756103515625 -0.449462890625 0.7472686767578125
0.37939453125 -0.445068359375 0.75655364990234375
0.433837890625 -0.3448486328125 0.70465087890625
0.4278564453125 -0.35009765625 0.69672393798828125
0.4232177734375 -0.353515625 0.6885223388671875
0.421875 -0.3660888671875 0.68061065673828125
0.4205322265625 -0.377197265625 0.6792449951171875
0.4161376953125 -0.38720703125 0.68068695068359375
0.358154296875 -0.448974609375 0.73381805419921875
0.3480224609375 -0.447265625 0.738372802734375
0.340087890625 -0.444091796875 0.7438812255859375
0.3370361328125 -0.4385986328125 0.75505828857421875
0.3394775390625 -0.43505859375 0.76468658447265625
0.3446044921875 -0.4327392578125 0.77541351318359375
0.4095458984375 -0.3089599609375 0.71686553955078125
0.4083251953125 -0.3175048828125 0.7070159912109375
0.406005859375 -0.3289794921875 0.6965484619140625
0.4097900390625 -0.3394775390625 0.68267822265625
0.413818359375 -0.343505859375 0.6817626953125
0.4166259765625 -0.3492431640625 0.6803131103515625
0.331298828125 -0.4356689453125 0.75022125244140625
0.32666015625 -0.4302978515625 0.749298095703125
0.3250732421875 -0.4222412109375 0.7462005615234375
0.3248291015625 -0.4041748046875 0.7540740966796875
0.322998046875 -0.3953857421875 0.766632080078125
0.3251953125 -0.3875732421875 0.77776336669921875
0.3721923828125 -0.3531494140625 0.74654388427734375
0.3692626953125 -0.35986328125 0.73415374755859375
0.3680419921875 -0.371337890625 0.7244415283203125
0.3800048828125 -0.3697509765625 0.707855224609375
0.3895263671875 -0.3563232421875 0.70001983642578125
0.3983154296875 -0.34716796875 0.69440460205078125
0.3365478515625 -0.40576171875 0.73911285400390625
0.3453369140625 -0.399169921875 0.73294830322265625
0.358154296875 -0.388916015625 0.72481536865234375
0.3731689453125 -0.394775390625 0.70845794677734375
0.3785400390625 -0.4080810546875 0.705718994140625
0.3857421875 -0.419677734375 0.70616912841796875
0.407470703125 -0.38671875 0.68140411376953125
0.4044189453125 -0.3719482421875 0.68310546875
0.4033203125 -0.356201171875 0.68302154541015625
0.333984375 -0.4234619140625 0.736480712890625
0.34326171875 -0.4322509765625 0.72893524169921875
0.3538818359375 -0.4404296875 0.72779083251953125
-0.025146484375 0.35205078125 0.693450927734375
-0.029541015625 0.34326171875 0.68975830078125
-0.03662109375 0.3341064453125 0.6891632080078125
0.01318359375 0.3060302734375 0.6890106201171875
0.0155029296875 0.3179931640625 0.69091796875
0.0194091796875 0.32666015625 0.693206787109375
0.0093994140625 0.337158203125 0.69448089599609375
-0.0010986328125 0.3416748046875 0.69310760498046875
-0.011474609375 0.34912109375 0.6946868896484375
-0.2034912109375 0.1331787109375 0.7055816650390625
-0.1978759765625 0.121826171875 0.7073974609375
-0.193603515625 0.110107421875 0.71186065673828125
-0.182373046875 0.0982666015625 0.71091461181640625
-0.1767578125 0.098876953125 0.71042633056640625
-0.1636962890625 0.1005859375 0.7066650390625
-0.19140625 0.1583251953125 0.6944122314453125
-0.198974609375 0.15283203125 0.69789886474609375
-0.2061767578125 0.1478271484375 0.6994476318359375
-0.063720703125 0.4000244140625 0.6826019287109375
-0.0732421875 0.39208984375 0.68103790283203125
-0.082275390625 0.3856201171875 0.68172454833984375
-0.0299072265625 0.368408203125 0.6899261474609375
-0.0380859375 0.3797607421875 0.689605712890625
-0.04833984375 0.3927001953125 0.68761444091796875
-0.242431640625 0.173583984375 0.6838836669921875
-0.23193359375 0.1634521484375 0.68787384033203125
-0.22412109375 0.1534423828125 0.6941680908203125
-0.2362060546875 0.21240234375 0.67781829833984375
-0.2430419921875 0.1998291015625 0.6826934814453125
-0.2510986328125 0.189208984375 0.6826171875
-0.0833740234375 0.4691162109375 0.67809295654296875
-0.0919189453125 0.468017578125 0.67523956298828125
-0.101806640625 0.4677734375 0.67401885986328125
-0.0640869140625 0.419677734375 0.68377685546875
-0.070556640625 0.4366455078125 0.683563232421875
-0.073486328125 0.4521484375 0.67987060546875
-0.2918701171875 0.197021484375 0.66629791259765625
-0.2803955078125 0.193603515625 0.67205047607421875
-0.2662353515625 0.18994140625 0.679046630859375
-0.299072265625 0.232177734375 0.6563262939453125
-0.3018798828125 0.21923828125 0.6572723388671875
-0.3046875 0.208251953125 0.65904998779296875
0.081787109375 0.308349609375 0.679107666015625
0.0777587890625 0.3204345703125 0.68230438232421875
0.07861328125 0.3297119140625 0.685943603515625
0.060791015625 0.3314208984375 0.69281005859375
0.0430908203125 0.3291015625 0.69664764404296875
0.03173828125 0.330078125 0.6948394775390625
-0.184326171875 0.083984375 0.71634674072265625
-0.1826171875 0.072021484375 0.719818115234375
-0.1829833984375 0.0546875 0.72554779052734375
-0.1826171875 0.0328369140625 0.7242889404296875
-0.176025390625 0.032470703125 0.7210693359375
-0.1676025390625 0.0306396484375 0.71723175048828125
0.1810302734375 0.36767578125 0.64013671875
0.1756591796875 0.3751220703125 0.64769744873046875
0.1697998046875 0.3822021484375 0.65380096435546875
0.1474609375 0.3721923828125 0.66925048828125
0.1273193359375 0.3570556640625 0.67816925048828125
0.1021728515625 0.3477783203125 0.681732177734375
-0.19775390625 0.008544921875 0.726898193359375
-0.2105712890625 -0.01708984375 0.72841644287109375
-0.227294921875 -0.0445556640625 0.722564697265625
-0.2393798828125 -0.073974609375 0.71734619140625
-0.23486328125 -0.080078125 0.71378326416015625
-0.2298583984375 -0.087890625 0.71187591552734375
0.2274169921875 0.4625244140625 0.5970306396484375
0.220703125 0.4625244140625 0.61042022705078125
0.214599609375 0.46630859375 0.6160125732421875
0.20556640625 0.4464111328125 0.6296844482421875
0.1993408203125 0.4241943359375 0.6370391845703125
0.1864013671875 0.40625 0.646453857421875
-0.264892578125 -0.087158203125 0.7115631103515625
-0.2861328125 -0.1043701171875 0.70499420166015625
-0.3076171875 -0.1162109375 0.6979827880859375
-0.32763671875 -0.1370849609375 0.685302734375
-0.326416015625 -0.1458740234375 0.68280029296875
-0.32763671875 -0.1583251953125 0.6763763427734375
0.2322998046875 0.59130859375 0.574249267578125
0.2232666015625 0.58544921875 0.58392333984375
0.2158203125 0.580078125 0.59149932861328125
0.2117919921875 0.5528564453125 0.6019287109375
0.2108154296875 0.52783203125 0.6077880859375
0.2105712890625 0.4981689453125 0.61299896240234375
-0.3524169921875 -0.137451171875 0.6762237548828125
-0.3739013671875 -0.143310546875 0.66507720947265625
-0.4002685546875 -0.1456298828125 0.6537017822265625
-0.42822265625 -0.15185546875 0.63427734375
-0.43359375 -0.161865234375 0.6279144287109375
-0.4420166015625 -0.171875 0.6203460693359375
0.1953125 0.6710205078125 0.58715057373046875
0.189208984375 0.661376953125 0.59149169921875
0.1824951171875 0.6539306640625 0.59824371337890625
0.1866455078125 0.63427734375 0.59886932373046875
0.1973876953125 0.6181640625 0.595367431640625
0.2069091796875 0.5987548828125 0.59354400634765625
-0.4427490234375 -0.138427734375 0.6232757568359375
-0.4583740234375 -0.1297607421875 0.61463165283203125
-0.4708251953125 -0.1202392578125 0.60456085205078125
-0.487548828125 -0.1142578125 0.59403228759765625
-0.497314453125 -0.1209716796875 0.5884857177734375
-0.50634765625 -0.126708984375 0.5824432373046875
0.130615234375 0.69091796875 0.60700225830078125
0.1263427734375 0.6810302734375 0.60992431640625
0.124755859375 0.6732177734375 0.612762451171875
0.140869140625 0.6646728515625 0.61045074462890625
0.1551513671875 0.66357421875 0.60474395751953125
0.1656494140625 0.656494140625 0.60118865966796875
-0.4892578125 -0.09423828125 0.5939178466796875
-0.4920654296875 -0.0811767578125 0.5899658203125
-0.4903564453125 -0.0650634765625 0.5876617431640625
-0.49658203125 -0.0482177734375 0.58457183837890625
-0.50537109375 -0.0516357421875 0.576812744140625
-0.518310546875 -0.052978515625 0.570526123046875
0.0302734375 0.64794921875 0.6459808349609375
0.0347900390625 0.63818359375 0.6490020751953125
0.0379638671875 0.6322021484375 0.65545654296875
0.0609130859375 0.6378173828125 0.65239715576171875
0.08251953125 0.6495361328125 0.6412811279296875
0.1055908203125 0.661376953125 0.6301727294921875
-0.478515625 -0.0206298828125 0.59954833984375
-0.4710693359375 0.0050048828125 0.6104583740234375
-0.4583740234375 0.034423828125 0.62115478515625
-0.449951171875 0.06298828125 0.6179351806640625
-0.4539794921875 0.0657958984375 0.609588623046875
-0.4627685546875 0.0694580078125 0.600830078125
-0.05029296875 0.60302734375 0.657562255859375
-0.0380859375 0.5963134765625 0.659637451171875
-0.0301513671875 0.5906982421875 0.66323089599609375
-0.01318359375 0.595947265625 0.66359710693359375
0.000732421875 0.60693359375 0.66629791259765625
0.0177001953125 0.6171875 0.663848876953125
-0.4345703125 0.087890625 0.6286163330078125
-0.4248046875 0.1085205078125 0.6278533935546875
-0.4173583984375 0.1278076171875 0.62543487548828125
-0.41357421875 0.1463623046875 0.621612548828125
-0.418701171875 0.1549072265625 0.617828369140625
-0.423583984375 0.165771484375 0.60973358154296875
-0.0928955078125 0.5474853515625 0.6679840087890625
-0.0775146484375 0.5419921875 0.6672515869140625
-0.06787109375 0.5399169921875 0.67041778564453125
-0.0555419921875 0.5501708984375 0.6689605712890625
-0.0478515625 0.5635986328125 0.66638946533203125
-0.037841796875 0.57470703125 0.665557861328125
-0.397705078125 0.1563720703125 0.62762451171875
-0.3895263671875 0.16796875 0.62979888916015625
-0.3782958984375 0.1776123046875 0.6338348388671875
-0.3675537109375 0.1939697265625 0.6340179443359375
-0.3702392578125 0.2037353515625 0.62964630126953125
-0.3746337890625 0.215087890625 0.62886810302734375
-0.0728759765625 0.48828125 0.676788330078125
-0.0709228515625 0.5068359375 0.67730712890625
-0.0673828125 0.5228271484375 0.67548370361328125
-0.3529052734375 0.1883544921875 0.64501953125
-0.3359375 0.1927490234375 0.6508331298828125
-0.3193359375 0.1971435546875 0.6525421142578125
-0.04736328125 0.53076171875 0.6698150634765625
-0.0517578125 0.5338134765625 0.671051025390625
-0.056884765625 0.5357666015625 0.67230224609375
-0.068603515625 0.4725341796875 0.67722320556640625
-0.0616455078125 0.4722900390625 0.6749420166015625
-0.057373046875 0.472900390625 0.6708221435546875
-0.0523681640625 0.4891357421875 0.6674346923828125
-0.048828125 0.5030517578125 0.66854095458984375
-0.0472412109375 0.517578125 0.6674652099609375
-0.3486328125 0.1640625 0.64495086669921875
-0.3345947265625 0.168212890625 0.6458587646484375
-0.3233642578125 0.1707763671875 0.6493072509765625
-0.308349609375 0.17724609375 0.65590667724609375
-0.3065185546875 0.1834716796875 0.659271240234375
-0.3060302734375 0.1904296875 0.6611480712890625
-0.364013671875 0.1787109375 0.63907623291015625
-0.3619384765625 0.171875 0.6417388916015625
-0.361083984375 0.1661376953125 0.6412811279296875
-0.015869140625 0.5751953125 0.66204071044921875
-0.018798828125 0.5777587890625 0.66451263427734375
-0.0242919921875 0.5828857421875 0.66515350341796875
-0.036865234375 0.53955078125 0.66595458984375
-0.0318603515625 0.5513916015625 0.663421630859375
-0.0230712890625 0.561767578125 0.661529541015625
-0.387451171875 0.1397705078125 0.6302642822265625
-0.3782958984375 0.14892578125 0.6343231201171875
-0.3714599609375 0.1556396484375 0.637054443359375
-0.40380859375 0.137451171875 0.62703704833984375
-0.40185546875 0.134521484375 0.62703704833984375
-0.3985595703125 0.13134765625 0.62482452392578125
0.0433349609375 0.6131591796875 0.6551971435546875
0.0428466796875 0.61669921875 0.65933990478515625
0.0406494140625 0.6217041015625 0.66182708740234375
-0.004150390625 0.580078125 0.659637451171875
0.0076904296875 0.5906982421875 0.65753936767578125
0.0218505859375 0.5999755859375 0.6560211181640625
-0.4227294921875 0.080810546875 0.6223907470703125
-0.412353515625 0.0982666015625 0.62439727783203125
-0.40478515625 0.11474609375 0.62451934814453125
-0.439697265625 0.0615234375 0.62906646728515625
-0.4373779296875 0.060302734375 0.6272735595703125
-0.4344482421875 0.061279296875 0.62418365478515625
0.118408203125 0.6444091796875 0.614959716796875
0.12158203125 0.6510009765625 0.61846923828125
0.1234130859375 0.658203125 0.61821746826171875
0.05712890625 0.61962890625 0.64575958251953125
0.078857421875 0.6287841796875 0.634429931640625
0.1004638671875 0.6346435546875 0.620697021484375
-0.4566650390625 -0.0172119140625 0.6000518798828125
-0.4486083984375 0.0103759765625 0.6082000732421875
-0.4393310546875 0.0357666015625 0.61444091796875
-0.4810791015625 -0.0419921875 0.59576416015625
-0.4736328125 -0.0394287109375 0.59481048583984375
-0.466552734375 -0.037353515625 0.5923919677734375
0.1676025390625 0.623291015625 0.5970916748046875
0.1671142578125 0.6324462890625 0.600128173828125
0.170166015625 0.639404296875 0.60196685791015625
0.131103515625 0.636474609375 0.60213470458984375
0.1419677734375 0.6314697265625 0.5944976806640625
0.154052734375 0.626220703125 0.59430694580078125
-0.4588623046875 -0.081298828125 0.58800506591796875
-0.4610595703125 -0.0699462890625 0.58518218994140625
-0.461669921875 -0.054931640625 0.58573150634765625
-0.4718017578125 -0.1024169921875 0.5984954833984375
-0.4664306640625 -0.0977783203125 0.5977325439453125
-0.459716796875 -0.094482421875 0.5930938720703125
0.1923828125 0.5667724609375 0.595123291015625
0.1971435546875 0.5712890625 0.5984344482421875
0.20166015625 0.5728759765625 0.59726715087890625
0.168701171875 0.6077880859375 0.5903778076171875
0.1771240234375 0.5965576171875 0.59017181396484375
0.18408203125 0.5810546875 0.59262847900390625
-0.427978515625 -0.1162109375 0.61528778076171875
-0.437744140625 -0.10888671875 0.6057586669921875
-0.44677734375 -0.10107421875 0.5980682373046875
-0.4188232421875 -0.1376953125 0.63590240478515625
-0.4154052734375 -0.1317138671875 0.63584136962890625
-0.412841796875 -0.1258544921875 0.63417816162109375
0.1968994140625 0.4722900390625 0.62139129638671875
0.19970703125 0.4713134765625 0.62115478515625
0.20458984375 0.47119140625 0.6204071044921875
0.190673828125 0.542724609375 0.5991363525390625
0.1929931640625 0.519287109375 0.603424072265625
0.195556640625 0.4951171875 0.6110076904296875
-0.3514404296875 -0.116455078125 0.66510772705078125
-0.3701171875 -0.119384765625 0.655242919921875
-0.3895263671875 -0.1212158203125 0.64426422119140625
-0.3275146484375 -0.122314453125 0.68563079833984375
-0.3275146484375 -0.11767578125 0.68370819091796875
-0.3262939453125 -0.1134033203125 0.68035125732421875
0.15625 0.399169921875 0.65448760986328125
0.1590576171875 0.3968505859375 0.65612030029296875
0.1612548828125 0.393310546875 0.6587677001953125
0.1883544921875 0.4503173828125 0.62404632568359375
0.1837158203125 0.4327392578125 0.63330078125
0.1715087890625 0.4166259765625 0.641021728515625
-0.276123046875 -0.0738525390625 0.69721221923828125
-0.2939453125 -0.089111328125 0.692901611328125
-0.310302734375 -0.100341796875 0.6851806640625
-0.2491455078125 -0.064208984375 0.71598052978515625
-0.2509765625 -0.0614013671875 0.71424102783203125
-0.2550048828125 -0.0589599609375 0.70723724365234375
0.0792236328125 0.3505859375 0.68108367919921875
0.079833984375 0.346435546875 0.68675994873046875
0.0787353515625 0.342041015625 0.6875152587890625
0.14111328125 0.386474609375 0.66004180908203125
0.1209716796875 0.375 0.667205810546875
0.0986328125 0.364501953125 0.6687164306640625
-0.2186279296875 0.0115966796875 0.7130126953125
-0.2301025390625 -0.013427734375 0.7098236083984375
-0.2430419921875 -0.0367431640625 0.70452880859375
-0.1920166015625 0.033447265625 0.724273681640625
-0.196533203125 0.0325927734375 0.72031402587890625
-0.20166015625 0.03271484375 0.71596527099609375
0.022705078125 0.344970703125 0.68314361572265625
0.0211181640625 0.3419189453125 0.690277099609375
0.0208740234375 0.337646484375 0.6932373046875
0.0587158203125 0.34912109375 0.6772308349609375
0.0458984375 0.345458984375 0.67900848388671875
0.033203125 0.345703125 0.678009033203125
-0.20458984375 0.0767822265625 0.6992645263671875
-0.2034912109375 0.064697265625 0.702392578125
-0.202880859375 0.04833984375 0.706695556640625
-0.193115234375 0.094482421875 0.70958709716796875
-0.197998046875 0.093505859375 0.707000732421875
-0.202880859375 0.0909423828125 0.701141357421875
-0.052734375 0.41064453125 0.6845550537109375
-0.0479736328125 0.4132080078125 0.68143463134765625
-0.044677734375 0.4150390625 0.67540740966796875
-0.0482177734375 0.431396484375 0.67095184326171875
-0.0501708984375 0.44384765625 0.66979217529296875
-0.0523681640625 0.4576416015625 0.66973114013671875
-0.29736328125 0.171630859375 0.65575408935546875
-0.2879638671875 0.16796875 0.66135406494140625
-0.275390625 0.165283203125 0.66645050048828125
-0.2628173828125 0.1661376953125 0.6751556396484375
-0.2613525390625 0.1710205078125 0.67864227294921875
-0.257080078125 0.1771240234375 0.68202972412109375
-0.0177001953125 0.3634033203125 0.6922149658203125
-0.0167236328125 0.367919921875 0.6860809326171875
-0.0118408203125 0.3720703125 0.68065643310546875
-0.0189208984375 0.3853759765625 0.67008209228515625
-0.027099609375 0.3946533203125 0.67014312744140625
-0.0386962890625 0.40625 0.67153167724609375
-0.254150390625 0.156005859375 0.67243194580078125
-0.2471923828125 0.146484375 0.6732635498046875
-0.239013671875 0.13623046875 0.67472076416015625
-0.22900390625 0.13037109375 0.68475341796875
-0.2227783203125 0.135009765625 0.69012451171875
-0.2176513671875 0.1395263671875 0.6943817138671875
0.0159912109375 0.35205078125 0.67559051513671875
0.0050048828125 0.3597412109375 0.67256927490234375
-0.00341796875 0.367431640625 0.6721954345703125
-0.2236328125 0.1185302734375 0.68359375
-0.215087890625 0.1080322265625 0.6873321533203125
-0.2113037109375 0.0989990234375 0.6914520263671875
-0.2193603515625 0.3585205078125 0.5370025634765625
-0.2183837890625 0.362548828125 0.56310272216796875
-0.219970703125 0.365478515625 0.590484619140625
-0.20947265625 0.4566650390625 0.586944580078125
-0.20458984375 0.4569091796875 0.560394287109375
-0.192626953125 0.4642333984375 0.53130340576171875
-0.1881103515625 0.4315185546875 0.51351165771484375
-0.199462890625 0.401611328125 0.5157623291015625
-0.20751953125 0.37841796875 0.51615142822265625
-0.2333984375 0.3468017578125 0.5124053955078125
-0.253662109375 0.334228515625 0.50665283203125
-0.27880859375 0.3245849609375 0.5028533935546875
-0.30712890625 0.326171875 0.51758575439453125
-0.2999267578125 0.341064453125 0.54755401611328125
-0.2974853515625 0.3494873046875 0.57382965087890625
-0.2388916015625 0.61474609375 0.58066558837890625
-0.2303466796875 0.612060546875 0.556854248046875
-0.2166748046875 0.611083984375 0.53546905517578125
-0.1942138671875 0.5909423828125 0.52085113525390625
-0.1806640625 0.55908203125 0.5150299072265625
-0.1678466796875 0.52099609375 0.5110626220703125
-0.357177734375 0.306396484375 0.4819793701171875
-0.389892578125 0.3175048828125 0.46921539306640625
-0.414306640625 0.3275146484375 0.46163177490234375
-0.430908203125 0.349853515625 0.467010498046875
-0.4339599609375 0.3641357421875 0.4880828857421875
-0.436279296875 0.37451171875 0.51334381103515625
-0.1748046875 0.728271484375 0.577545166015625
-0.1650390625 0.72412109375 0.54848480224609375
-0.152587890625 0.7122802734375 0.53131866455078125
-0.1614990234375 0.684326171875 0.51902008056640625
-0.17724609375 0.65966796875 0.51508331298828125
-0.1939697265625 0.633544921875 0.51663970947265625
-0.446533203125 0.3228759765625 0.441192626953125
-0.4696044921875 0.3060302734375 0.424774169921875
-0.4912109375 0.28662109375 0.4171600341796875
-0.513916015625 0.2769775390625 0.42086029052734375
-0.52880859375 0.28515625 0.43506622314453125
-0.5350341796875 0.2933349609375 0.46027374267578125
-0.0191650390625 0.76904296875 0.5719451904296875
-0.0137939453125 0.760498046875 0.5435638427734375
-0.0130615234375 0.7437744140625 0.5094451904296875
-0.0596923828125 0.7064208984375 0.5003662109375
-0.095458984375 0.7027587890625 0.5103759765625
-0.124267578125 0.7008056640625 0.5169830322265625
-0.5072021484375 0.2457275390625 0.4087677001953125
-0.5091552734375 0.210205078125 0.40441131591796875
-0.5137939453125 0.1690673828125 0.39665985107421875
-0.55029296875 0.1097412109375 0.39764404296875
-0.5626220703125 0.1083984375 0.42662811279296875
-0.56884765625 0.1148681640625 0.4518890380859375
0.142578125 0.8253173828125 0.535797119140625
0.14306640625 0.817626953125 0.50640106201171875
0.1422119140625 0.8077392578125 0.47576904296875
0.108154296875 0.7786865234375 0.45159149169921875
0.0716552734375 0.7606201171875 0.46247100830078125
0.029541015625 0.7432861328125 0.47054290771484375
-0.553955078125 0.0537109375 0.3682403564453125
-0.57373046875 -0.0018310546875 0.35778045654296875
-0.592529296875 -0.044677734375 0.345062255859375
-0.619384765625 -0.0814208984375 0.36867523193359375
-0.62841796875 -0.07958984375 0.40053558349609375
-0.6337890625 -0.0777587890625 0.4289398193359375
0.260009765625 0.83203125 0.4870452880859375
0.255859375 0.8240966796875 0.457672119140625
0.2496337890625 0.8104248046875 0.42917633056640625
0.22412109375 0.8082275390625 0.40892791748046875
0.1990966796875 0.810546875 0.423187255859375
0.1724853515625 0.8046875 0.42964935302734375
-0.62744140625 -0.1192626953125 0.33686065673828125
-0.6368408203125 -0.1461181640625 0.334442138671875
-0.64013671875 -0.180419921875 0.331024169921875
-0.642578125 -0.213134765625 0.36554718017578125
-0.6512451171875 -0.2152099609375 0.39424896240234375
-0.6561279296875 -0.2169189453125 0.42273712158203125
0.3421630859375 0.65283203125 0.388427734375
0.3382568359375 0.646240234375 0.36334228515625
0.3336181640625 0.63916015625 0.3345489501953125
0.313720703125 0.685791015625 0.31760406494140625
0.2886962890625 0.732421875 0.3444366455078125
0.2662353515625 0.7703857421875 0.37353515625
-0.624755859375 -0.2470703125 0.33936309814453125
-0.604248046875 -0.2811279296875 0.34322357177734375
-0.5784912109375 -0.3138427734375 0.35428619384765625
-0.54296875 -0.337158203125 0.4071044921875
-0.54541015625 -0.3380126953125 0.435272216796875
-0.54638671875 -0.3372802734375 0.46212005615234375
0.3321533203125 0.4359130859375 0.41451263427734375
0.3282470703125 0.4290771484375 0.3866119384765625
0.3253173828125 0.4241943359375 0.35315704345703125
0.3333740234375 0.46923828125 0.297119140625
0.3341064453125 0.525634765625 0.2904510498046875
0.3359375 0.580810546875 0.293609619140625
-0.505126953125 -0.3553466796875 0.38198089599609375
-0.4637451171875 -0.3651123046875 0.40755462646484375
-0.418212890625 -0.3602294921875 0.43560028076171875
-0.3702392578125 -0.340576171875 0.49280548095703125
-0.3670654296875 -0.33154296875 0.52911376953125
-0.36669921875 -0.3302001953125 0.55370330810546875
0.270263671875 0.2545166015625 0.45644378662109375
0.2674560546875 0.248046875 0.43325042724609375
0.2611083984375 0.239990234375 0.41303253173828125
0.27587890625 0.269775390625 0.35543060302734375
0.29638671875 0.3187255859375 0.3331298828125
0.3109130859375 0.367919921875 0.32048797607421875
-0.339599609375 -0.3392333984375 0.467254638671875
-0.29541015625 -0.3243408203125 0.48458099365234375
-0.2540283203125 -0.30517578125 0.50116729736328125
-0.20751953125 -0.272216796875 0.54723358154296875
-0.2042236328125 -0.2679443359375 0.5724334716796875
-0.20263671875 -0.2633056640625 0.59496307373046875
0.24755859375 -0.3134765625 0.39330291748046875
0.236083984375 -0.3424072265625 0.40030670166015625
0.219482421875 -0.3668212890625 0.40702056884765625
0.1834716796875 -0.363525390625 0.3981475830078125
0.17041015625 -0.3458251953125 0.3835906982421875
0.1639404296875 -0.332763671875 0.36919403076171875
0.1697998046875 -0.2998046875 0.333770751953125
0.1866455078125 -0.2718505859375 0.31742095947265625
0.20458984375 -0.2386474609375 0.31279754638671875
0.22509765625 -0.2181396484375 0.333740234375
0.23583984375 -0.2357177734375 0.35312652587890625
0.248291015625 -0.2596435546875 0.37126922607421875
0.111083984375 -0.40673828125 0.4527435302734375
0.0906982421875 -0.393798828125 0.43688201904296875
0.0692138671875 -0.384765625 0.42227935791015625
0.0762939453125 -0.3775634765625 0.38718414306640625
0.1031494140625 -0.3687744140625 0.37326812744140625
0.1295166015625 -0.349365234375 0.36067962646484375
0.1832275390625 -0.4031982421875 0.4198760986328125
0.1649169921875 -0.412841796875 0.43578338623046875
0.147216796875 -0.421142578125 0.4511566162109375
0.341064453125 -0.4454345703125 0.43396759033203125
0.3199462890625 -0.469482421875 0.44744873046875
0.3048095703125 -0.4930419921875 0.46063995361328125
0.26953125 -0.4771728515625 0.45709228515625
0.2471923828125 -0.4481201171875 0.44040679931640625
