# XYZ point cloud file
-0.6368408203125 -0.63134765625 -0.28272247314453125
0.3626708984375 0.5615234375 -0.3259124755859375
0.36962890625 0.5584716796875 -0.33111572265625
0.3623046875 0.585205078125 -0.329345703125
0.352783203125 0.56201171875 -0.3190155029296875
0.3575439453125 0.543212890625 -0.3253021240234375
0.3699951171875 0.54150390625 -0.3290863037109375
0.3721923828125 0.58056640625 -0.33349609375
0.3533935546875 0.5872802734375 -0.3233795166015625
0.348876953125 0.5416259765625 -0.3200836181640625
-0.5643310546875 -0.6097412109375 -0.2385406494140625
-0.576171875 -0.6103515625 -0.24603271484375
-0.566162109375 -0.626220703125 -0.23284912109375
-0.548095703125 -0.6080322265625 -0.229522705078125
-0.5606689453125 -0.5933837890625 -0.241607666015625
-0.574951171875 -0.5943603515625 -0.24968719482421875
-0.5771484375 -0.62841796875 -0.242462158203125
-0.5501708984375 -0.6239013671875 -0.22605133056640625
-0.5458984375 -0.5931396484375 -0.23339080810546875
0.4208984375 0.4901123046875 -0.34033203125
0.42333984375 0.477783203125 -0.3343658447265625
0.4320068359375 0.5045166015625 -0.346527099609375
0.41845703125 0.5037841796875 -0.3465118408203125
0.41455078125 0.4774169921875 -0.340362548828125
0.413818359375 0.46826171875 -0.3375396728515625
0.4293212890625 0.4930419921875 -0.338165283203125
0.4296875 0.5245361328125 -0.3539276123046875
0.4129638671875 0.4910888671875 -0.3421630859375
-0.5423583984375 -0.7130126953125 -0.1703338623046875
-0.55322265625 -0.7239990234375 -0.17247772216796875
-0.5264892578125 -0.712890625 -0.154876708984375
-0.5279541015625 -0.703369140625 -0.16710662841796875
-0.5501708984375 -0.7105712890625 -0.1826629638671875
-0.5623779296875 -0.7178955078125 -0.1946258544921875
-0.5439453125 -0.72607421875 -0.15628814697265625
-0.520263671875 -0.7061767578125 -0.15436553955078125
-0.5401611328125 -0.700439453125 -0.17803955078125
0.454345703125 0.576416015625 -0.379791259765625
0.46630859375 0.6044921875 -0.40277099609375
0.4482421875 0.5950927734375 -0.3754425048828125
0.449462890625 0.552490234375 -0.362457275390625
0.462646484375 0.559814453125 -0.3813934326171875
0.474609375 0.5885009765625 -0.406585693359375
0.4569091796875 0.622314453125 -0.39251708984375
0.4403076171875 0.571533203125 -0.3626251220703125
0.454345703125 0.5362548828125 -0.361297607421875
-0.60498046875 -0.7623291015625 -0.2220001220703125
-0.6134033203125 -0.7445068359375 -0.23859405517578125
-0.6290283203125 -0.77685546875 -0.24584197998046875
-0.594970703125 -0.775634765625 -0.20848846435546875
-0.58642578125 -0.751220703125 -0.205718994140625
-0.5933837890625 -0.7371826171875 -0.2222137451171875
-0.6356201171875 -0.7528076171875 -0.252838134765625
-0.6202392578125 -0.7952880859375 -0.236419677734375
-0.5765380859375 -0.7607421875 -0.1871490478515625
0.490966796875 0.6962890625 -0.44464111328125
0.490234375 0.730712890625 -0.44873046875
0.47021484375 0.7083740234375 -0.4206695556640625
0.479736328125 0.6650390625 -0.4334716796875
0.505126953125 0.685791015625 -0.46337890625
0.5091552734375 0.723388671875 -0.47467041015625
0.4781494140625 0.7371826171875 -0.42315673828125
0.4644775390625 0.67919921875 -0.4156951904296875
0.49560546875 0.6517333984375 -0.4459991455078125
-0.6920166015625 -0.8089599609375 -0.301483154296875
-0.6883544921875 -0.771240234375 -0.30584716796875
-0.715576171875 -0.8104248046875 -0.3141937255859375
-0.697509765625 -0.839111328125 -0.29792022705078125
-0.673583984375 -0.798828125 -0.28588104248046875
-0.6707763671875 -0.7679443359375 -0.2922210693359375
-0.70361328125 -0.77734375 -0.31900787353515625
-0.718505859375 -0.8460693359375 -0.31763458251953125
-0.673583984375 -0.8287353515625 -0.275848388671875
0.5 0.830322265625 -0.448516845703125
0.5048828125 0.860107421875 -0.4467010498046875
0.4793701171875 0.8221435546875 -0.4212799072265625
0.500244140625 0.7969970703125 -0.4533843994140625
0.5233154296875 0.8389892578125 -0.4726104736328125
0.5186767578125 0.8690185546875 -0.4644775390625
0.48291015625 0.84619140625 -0.4216766357421875
0.478515625 0.7923583984375 -0.4239044189453125
0.5218505859375 0.804931640625 -0.4778900146484375
-0.756103515625 -0.8011474609375 -0.3698577880859375
-0.74853515625 -0.7730712890625 -0.35007476806640625
-0.7744140625 -0.789794921875 -0.3846282958984375
-0.7772216796875 -0.8250732421875 -0.37793731689453125
-0.7437744140625 -0.80810546875 -0.34967041015625
-0.7410888671875 -0.7752685546875 -0.34099578857421875
-0.7606201171875 -0.7652587890625 -0.37023162841796875
-0.7877197265625 -0.810791015625 -0.3966827392578125
-0.7525634765625 -0.8389892578125 -0.35906219482421875
0.47509765625 0.9163818359375 -0.4168701171875
0.4617919921875 0.9232177734375 -0.408294677734375
0.4625244140625 0.8883056640625 -0.404327392578125
0.489013671875 0.900634765625 -0.4221649169921875
0.4827880859375 0.935791015625 -0.432281494140625
0.4649658203125 0.9464111328125 -0.4200439453125
0.450927734375 0.894775390625 -0.400299072265625
0.4742431640625 0.8807373046875 -0.412628173828125
0.496337890625 0.9200439453125 -0.4426116943359375
-0.78955078125 -0.7330322265625 -0.41977691650390625
-0.7777099609375 -0.7205810546875 -0.39649200439453125
-0.7864990234375 -0.709228515625 -0.427947998046875
-0.80712890625 -0.7388916015625 -0.4404754638671875
-0.7889404296875 -0.755126953125 -0.41057586669921875
-0.774658203125 -0.740478515625 -0.38983154296875
-0.7781982421875 -0.701171875 -0.40484619140625
-0.8087158203125 -0.7130126953125 -0.44989013671875
-0.803466796875 -0.764404296875 -0.4260711669921875
0.425537109375 0.9180908203125 -0.39190673828125
0.4188232421875 0.9019775390625 -0.3839263916015625
0.4354248046875 0.9232177734375 -0.3992462158203125
0.4232177734375 0.9281005859375 -0.39398193359375
0.4132080078125 0.9083251953125 -0.3838348388671875
0.4287109375 0.9017333984375 -0.3866729736328125
0.4393310546875 0.9417724609375 -0.4011077880859375
-0.782470703125 -0.6534423828125 -0.43991851806640625
-0.78564453125 -0.6683349609375 -0.44158935546875
-0.770751953125 -0.6470947265625 -0.4229736328125
-0.7872314453125 -0.6492919921875 -0.44887542724609375
-0.7891845703125 -0.669189453125 -0.4538726806640625
-0.773193359375 -0.6619873046875 -0.41759490966796875
-0.771728515625 -0.6363525390625 -0.4312591552734375
0.48486328125 0.41064453125 -0.3895721435546875
0.4937744140625 0.407958984375 -0.3602752685546875
0.460693359375 0.3682861328125 -0.3548126220703125
0.46923828125 0.4288330078125 -0.4155120849609375
0.5018310546875 0.4591064453125 -0.419281005859375
0.509033203125 0.4566650390625 -0.3938140869140625
0.4622802734375 0.37158203125 -0.3174285888671875
0.4468994140625 0.3870849609375 -0.380859375
0.4915771484375 0.47998046875 -0.446380615234375
-0.511962890625 -0.8333740234375 -0.1183013916015625
-0.473876953125 -0.7841796875 -0.0949554443359375
-0.506103515625 -0.8277587890625 -0.0764923095703125
-0.5556640625 -0.87109375 -0.15920257568359375
-0.524658203125 -0.821533203125 -0.171295166015625
-0.4906005859375 -0.7763671875 -0.138397216796875
-0.4654541015625 -0.7850341796875 -0.0609130859375
-0.55029296875 -0.8709716796875 -0.121734619140625
-0.5706787109375 -0.8582763671875 -0.20548248291015625
0.5731201171875 0.643310546875 -0.512542724609375
0.579833984375 0.643310546875 -0.493438720703125
0.54931640625 0.5706787109375 -0.494476318359375
0.5638427734375 0.660888671875 -0.5294647216796875
0.59130859375 0.7218017578125 -0.5168609619140625
0.5899658203125 0.7158203125 -0.494049072265625
0.5552978515625 0.5692138671875 -0.4667510986328125
0.54296875 0.587890625 -0.51348876953125
0.5865478515625 0.738525390625 -0.536224365234375
-0.694580078125 -0.9578857421875 -0.2625579833984375
-0.65234375 -0.9398193359375 -0.21710968017578125
-0.6905517578125 -0.9576416015625 -0.2276153564453125
-0.740966796875 -0.970703125 -0.28985595703125
-0.7049560546875 -0.9442138671875 -0.29468536376953125
-0.6669921875 -0.9281005859375 -0.26084136962890625
-0.6434326171875 -0.939697265625 -0.1903076171875
-0.73291015625 -0.968017578125 -0.26634979248046875
-0.7452392578125 -0.9635009765625 -0.32535552978515625
0.5931396484375 0.9383544921875 -0.487945556640625
0.5863037109375 0.935546875 -0.4676361083984375
0.600341796875 0.8699951171875 -0.5078582763671875
0.593505859375 0.9447021484375 -0.5090179443359375
0.5826416015625 1.0029296875 -0.4722137451171875
0.5775146484375 1.0018310546875 -0.452606201171875
0.596435546875 0.8642578125 -0.487396240234375
0.595947265625 0.8804931640625 -0.521575927734375
0.58203125 1.00244140625 -0.488189697265625
-0.8521728515625 -0.91943359375 -0.38903045654296875
-0.8192138671875 -0.9495849609375 -0.3516998291015625
-0.8502197265625 -0.9102783203125 -0.3713226318359375
-0.87646484375 -0.87646484375 -0.425018310546875
-0.8551025390625 -0.91748046875 -0.4109344482421875
-0.82470703125 -0.9439697265625 -0.37668609619140625
-0.8082275390625 -0.945068359375 -0.3350982666015625
-0.874267578125 -0.871826171875 -0.40936279296875
-0.8717041015625 -0.8765869140625 -0.4401702880859375
0.5107421875 1.12451171875 -0.418487548828125
0.5010986328125 1.129638671875 -0.395538330078125
0.5357666015625 1.0966796875 -0.433258056640625
0.5174560546875 1.1099853515625 -0.4434967041015625
0.4759521484375 1.1358642578125 -0.4041900634765625
0.466064453125 1.1429443359375 -0.3818817138671875
0.531982421875 1.0997314453125 -0.4191436767578125
0.541015625 1.0869140625 -0.4512786865234375
0.4913330078125 1.1195068359375 -0.4298553466796875
-0.9083251953125 -0.7283935546875 -0.53022003173828125
-0.9033203125 -0.781005859375 -0.4983367919921875
-0.9012451171875 -0.716552734375 -0.51531982421875
-0.900390625 -0.6766357421875 -0.5500946044921875
-0.9068603515625 -0.7440185546875 -0.53968048095703125
-0.9013671875 -0.7916259765625 -0.5095367431640625
-0.898193359375 -0.770751953125 -0.48151397705078125
-0.8974609375 -0.661865234375 -0.5367584228515625
-0.894775390625 -0.6968994140625 -0.55983734130859375
0.3897705078125 1.076416015625 -0.356109619140625
0.3785400390625 1.084716796875 -0.32196044921875
0.413818359375 1.1097412109375 -0.3741607666015625
0.404296875 1.05126953125 -0.3909454345703125
0.3612060546875 1.0330810546875 -0.3371734619140625
0.357421875 1.046142578125 -0.3008575439453125
0.4071044921875 1.1168212890625 -0.3446502685546875
0.428466796875 1.086181640625 -0.41021728515625
0.3746337890625 1.0072021484375 -0.3737640380859375
-0.8504638671875 -0.5484619140625 -0.53630828857421875
-0.867919921875 -0.5849609375 -0.56229400634765625
-0.8509521484375 -0.5352783203125 -0.51670074462890625
-0.82177734375 -0.5184326171875 -0.506103515625
-0.8404541015625 -0.57568359375 -0.54761505126953125
-0.8602294921875 -0.61376953125 -0.566253662109375
-0.868896484375 -0.571044921875 -0.53566741943359375
-0.8270263671875 -0.5045166015625 -0.48876953125
-0.8106689453125 -0.5447998046875 -0.51659393310546875
0.3089599609375 0.9163818359375 -0.2931365966796875
0.30224609375 0.9312744140625 -0.2614288330078125
0.320556640625 0.9508056640625 -0.3076324462890625
0.3187255859375 0.8812255859375 -0.331573486328125
0.2901611328125 0.8779296875 -0.286376953125
0.288330078125 0.8934326171875 -0.254364013671875
0.3177490234375 0.9686279296875 -0.274169921875
0.3341064453125 0.9193115234375 -0.3438720703125
0.3026123046875 0.841796875 -0.3228759765625
-0.739013671875 -0.4495849609375 -0.427886962890625
-0.7625732421875 -0.468994140625 -0.4516754150390625
-0.748779296875 -0.4395751953125 -0.40444183349609375
-0.72021484375 -0.4317626953125 -0.40191650390625
-0.726806640625 -0.4720458984375 -0.4408111572265625
-0.746826171875 -0.497314453125 -0.4646453857421875
-0.7742919921875 -0.4564208984375 -0.43012237548828125
-0.72998046875 -0.42529296875 -0.3765869140625
-0.7081298828125 -0.452880859375 -0.411590576171875
0.3885498046875 0.642822265625 -0.4129180908203125
0.41796875 0.688232421875 -0.4401092529296875
0.422119140625 0.5516357421875 -0.428558349609375
0.3739013671875 0.6046142578125 -0.3959197998046875
0.3614501953125 0.738037109375 -0.3951416015625
0.382568359375 0.7825927734375 -0.41448974609375
0.4423828125 0.592529296875 -0.45819091796875
0.406494140625 0.5084228515625 -0.4008331298828125
0.34521484375 0.701416015625 -0.373931884765625
-0.6285400390625 -0.6549072265625 -0.35459136962890625
-0.5877685546875 -0.7294921875 -0.28981781005859375
-0.660888671875 -0.6875 -0.37937164306640625
-0.6722412109375 -0.5797119140625 -0.40644073486328125
-0.59716796875 -0.624267578125 -0.327178955078125
-0.5556640625 -0.692138671875 -0.26800537109375
-0.6265869140625 -0.7642822265625 -0.31821441650390625
-0.69775390625 -0.607177734375 -0.425384521484375
-0.646240234375 -0.5498046875 -0.3780059814453125
0.487060546875 0.85107421875 -0.498260498046875
0.4481201171875 0.935546875 -0.4612884521484375
0.5030517578125 0.90185546875 -0.5037384033203125
0.5211181640625 0.7698974609375 -0.5237274169921875
0.4578857421875 0.7958984375 -0.4879150390625
0.4222412109375 0.8873291015625 -0.4498443603515625
0.474609375 0.974853515625 -0.4792633056640625
0.540771484375 0.8310546875 -0.527496337890625
0.494140625 0.7049560546875 -0.5162353515625
-0.7706298828125 -0.773193359375 -0.4496917724609375
-0.8067626953125 -0.7969970703125 -0.47045135498046875
-0.7984619140625 -0.6875 -0.5005340576171875
-0.7305908203125 -0.7513427734375 -0.4290313720703125
-0.7384033203125 -0.85302734375 -0.39473724365234375
-0.7852783203125 -0.871826171875 -0.41812896728515625
-0.8282470703125 -0.7222900390625 -0.5215301513671875
-0.76220703125 -0.6646728515625 -0.4828033447265625
-0.704345703125 -0.8243408203125 -0.3701324462890625
0.5518798828125 1.00341796875 -0.5058135986328125
0.54638671875 1.0445556640625 -0.489105224609375
0.5736083984375 0.9853515625 -0.5177459716796875
0.5487060546875 0.9896240234375 -0.5157623291015625
0.5240478515625 1.040771484375 -0.492095947265625
0.5609130859375 1.0274658203125 -0.4953765869140625
0.5704345703125 0.940185546875 -0.530670166015625
-0.8682861328125 -0.83544921875 -0.494110107421875
-0.86376953125 -0.8680419921875 -0.4717254638671875
-0.8818359375 -0.8067626953125 -0.51633453369140625
-0.8560791015625 -0.83154296875 -0.4939117431640625
-0.8406982421875 -0.88134765625 -0.4532012939453125
-0.87890625 -0.837890625 -0.4930877685546875
-0.8702392578125 -0.77734375 -0.529876708984375
0.272216796875 0.772705078125 -0.2845611572265625
0.26904296875 0.75537109375 -0.287628173828125
0.2733154296875 0.7940673828125 -0.2458953857421875
0.2745361328125 0.8040771484375 -0.2762298583984375
0.2764892578125 0.734375 -0.3180694580078125
0.267578125 0.7161865234375 -0.3241729736328125
0.2685546875 0.7764892578125 -0.239532470703125
0.2747802734375 0.822509765625 -0.2465362548828125
0.2801513671875 0.7667236328125 -0.3091278076171875
-0.6588134765625 -0.4205322265625 -0.34906005859375
-0.667236328125 -0.4156494140625 -0.31687164306640625
-0.6436767578125 -0.4158935546875 -0.3403167724609375
-0.6396484375 -0.439453125 -0.3739166259765625
-0.674072265625 -0.42724609375 -0.36399078369140625
-0.6844482421875 -0.4195556640625 -0.33811187744140625
-0.6549072265625 -0.4107666015625 -0.30661773681640625
-0.625244140625 -0.429931640625 -0.37108612060546875
-0.6593017578125 -0.4439697265625 -0.38062286376953125
0.3165283203125 0.5162353515625 -0.37872314453125
0.2998046875 0.6036376953125 -0.3712158203125
0.3375244140625 0.5416259765625 -0.3727569580078125
0.3349609375 0.4300537109375 -0.3832244873046875
0.299560546875 0.494140625 -0.4032745361328125
0.2840576171875 0.5809326171875 -0.3865966796875
0.3109130859375 0.6351318359375 -0.36712646484375
0.3580322265625 0.45263671875 -0.376800537109375
0.3162841796875 0.414306640625 -0.3958740234375
-0.5335693359375 -0.554443359375 -0.32262420654296875
-0.5504150390625 -0.574951171875 -0.31473541259765625
-0.573486328125 -0.5103759765625 -0.35889434814453125
-0.51220703125 -0.534423828125 -0.34172821044921875
-0.4849853515625 -0.600830078125 -0.26776123046875
-0.501220703125 -0.6326904296875 -0.2482757568359375
-0.592041015625 -0.526123046875 -0.35265350341796875
-0.55908203125 -0.4940185546875 -0.369476318359375
-0.46826171875 -0.576416015625 -0.29351043701171875
0.3699951171875 0.292724609375 -0.3034820556640625
0.344482421875 0.268310546875 -0.308746337890625
0.3641357421875 0.3133544921875 -0.3470916748046875
0.4014892578125 0.312255859375 -0.3092041015625
0.373779296875 0.286376953125 -0.268798828125
0.3453369140625 0.2628173828125 -0.26568603515625
0.33544921875 0.2928466796875 -0.35430908203125
0.3934326171875 0.3309326171875 -0.350433349609375
0.404541015625 0.309814453125 -0.2762298583984375
-0.4005126953125 -0.66650390625 -0.1028289794921875
-0.417236328125 -0.6607666015625 -0.1569061279296875
-0.3822021484375 -0.6370849609375 -0.11920166015625
-0.3841552734375 -0.66650390625 -0.05312347412109375
-0.4132080078125 -0.7073974609375 -0.086181640625
-0.4315185546875 -0.69921875 -0.13774871826171875
-0.3990478515625 -0.6278076171875 -0.185546875
-0.3643798828125 -0.63671875 -0.0719757080078125
-0.407958984375 -0.7049560546875 -0.04370880126953125
0.1263427734375 0.590576171875 0.65869140625
0.1129150390625 0.5809326171875 0.67572784423828125
0.10546875 0.574462890625 0.6881866455078125
0.1121826171875 0.553466796875 0.704193115234375
0.1248779296875 0.536865234375 0.7011871337890625
0.13037109375 0.5185546875 0.69950103759765625
0.1439208984375 0.49609375 0.687744140625
0.158447265625 0.49267578125 0.67086029052734375
0.1717529296875 0.4891357421875 0.651458740234375
0.181640625 0.5201416015625 0.62822723388671875
0.1724853515625 0.5509033203125 0.630218505859375
0.1583251953125 0.5784912109375 0.6327972412109375
-0.4207763671875 -0.1807861328125 0.65579986572265625
-0.394775390625 -0.1907958984375 0.66596221923828125
-0.372802734375 -0.195556640625 0.67761993408203125
-0.344970703125 -0.1728515625 0.70616912841796875
-0.3448486328125 -0.1541748046875 0.72350311279296875
-0.3443603515625 -0.1358642578125 0.73470306396484375
-0.3662109375 -0.1270751953125 0.73636627197265625
-0.37744140625 -0.1275634765625 0.72811126708984375
-0.3968505859375 -0.119140625 0.72347259521484375
-0.4219970703125 -0.1190185546875 0.6999359130859375
-0.4278564453125 -0.133544921875 0.68631744384765625
-0.4376220703125 -0.1494140625 0.6676025390625
0.1656494140625 0.626220703125 0.5592803955078125
0.1558837890625 0.6192626953125 0.5852813720703125
0.14794921875 0.6104736328125 0.6105499267578125
0.2020263671875 0.48291015625 0.6100921630859375
0.21435546875 0.480224609375 0.5821075439453125
0.2235107421875 0.477294921875 0.553192138671875
0.232421875 0.5203857421875 0.523101806640625
0.2198486328125 0.5595703125 0.5222625732421875
0.199951171875 0.598876953125 0.524932861328125
-0.4486083984375 -0.2471923828125 0.562530517578125
-0.4136962890625 -0.259765625 0.57578277587890625
-0.383056640625 -0.2645263671875 0.58914947509765625
-0.3424072265625 -0.2440185546875 0.62860870361328125
-0.3408203125 -0.2266845703125 0.6491241455078125
-0.3427734375 -0.210693359375 0.67186737060546875
-0.4554443359375 -0.1783447265625 0.62522125244140625
-0.465576171875 -0.1943359375 0.5935516357421875
-0.474853515625 -0.2069091796875 0.57049560546875
0.185791015625 0.4515380859375 0.63686370849609375
0.1834716796875 0.4210205078125 0.64363861083984375
0.1705322265625 0.396484375 0.64715576171875
0.1636962890625 0.3565673828125 0.63237762451171875
0.1751708984375 0.340576171875 0.60955810546875
0.1845703125 0.3255615234375 0.5877685546875
0.2135009765625 0.347412109375 0.5538177490234375
0.232666015625 0.3883056640625 0.543304443359375
0.2349853515625 0.4334716796875 0.5347137451171875
-0.3023681640625 -0.251953125 0.625518798828125
-0.2581787109375 -0.232666015625 0.63634490966796875
-0.223876953125 -0.208984375 0.64055633544921875
-0.20361328125 -0.162841796875 0.6767120361328125
-0.2117919921875 -0.1513671875 0.6900177001953125
-0.2205810546875 -0.1373291015625 0.7102813720703125
-0.247802734375 -0.1519775390625 0.72119140625
-0.2733154296875 -0.171875 0.713836669921875
-0.305908203125 -0.1842041015625 0.70416259765625
0.13330078125 0.4761962890625 0.7013702392578125
0.1309814453125 0.4542236328125 0.7071533203125
0.124755859375 0.4359130859375 0.71294403076171875
0.1209716796875 0.4093017578125 0.703216552734375
0.1307373046875 0.3992919921875 0.6896514892578125
0.140625 0.3878173828125 0.672393798828125
-0.23876953125 -0.1142578125 0.740753173828125
-0.2508544921875 -0.1029052734375 0.74973297119140625
-0.2657470703125 -0.090087890625 0.760772705078125
-0.2913818359375 -0.095703125 0.765472412109375
-0.3050537109375 -0.1044921875 0.75862884521484375
-0.32421875 -0.118408203125 0.7501983642578125
0.1002197265625 0.4039306640625 0.723358154296875
0.0831298828125 0.3905029296875 0.73123931884765625
0.0631103515625 0.38134765625 0.73468780517578125
0.0479736328125 0.3651123046875 0.7307891845703125
0.0499267578125 0.347412109375 0.71614837646484375
0.0518798828125 0.3267822265625 0.6999664306640625
0.07861328125 0.3138427734375 0.674591064453125
0.107421875 0.327392578125 0.66754150390625
0.1348876953125 0.3465576171875 0.660186767578125
-0.21337890625 -0.0965576171875 0.7281951904296875
-0.19921875 -0.0634765625 0.7284088134765625
-0.189697265625 -0.0306396484375 0.72650146484375
-0.204345703125 0.0025634765625 0.7342529296875
-0.2203369140625 0.0028076171875 0.748077392578125
-0.236572265625 0.000732421875 0.758819580078125
-0.248046875 -0.0225830078125 0.77313232421875
-0.252197265625 -0.042724609375 0.7714691162109375
-0.2633056640625 -0.0643310546875 0.772308349609375
0.052978515625 0.2894287109375 0.66538238525390625
0.05029296875 0.2728271484375 0.64810943603515625
0.0506591796875 0.2548828125 0.6270599365234375
0.0899658203125 0.248779296875 0.59592437744140625
0.1256103515625 0.262939453125 0.579376220703125
0.158935546875 0.2847900390625 0.5720367431640625
-0.172119140625 -0.134033203125 0.650665283203125
-0.1527099609375 -0.092041015625 0.6508026123046875
-0.1414794921875 -0.04931640625 0.64888763427734375
-0.151611328125 -0.0013427734375 0.66546630859375
-0.1619873046875 0.0032958984375 0.691253662109375
-0.17431640625 0.003662109375 0.704010009765625
0.025634765625 0.3074951171875 0.6879730224609375
-0.005859375 0.3140869140625 0.6960601806640625
-0.0338134765625 0.32861328125 0.6931304931640625
-0.0711669921875 0.326904296875 0.6721038818359375
-0.0804443359375 0.3111572265625 0.6542816162109375
-0.086669921875 0.29931640625 0.6347503662109375
-0.06201171875 0.260986328125 0.6116180419921875
-0.0228271484375 0.2445068359375 0.61402130126953125
0.0145263671875 0.239013671875 0.61183929443359375
-0.1451416015625 0.03857421875 0.6384429931640625
-0.1617431640625 0.0802001953125 0.6341400146484375
-0.181640625 0.1141357421875 0.624237060546875
-0.218994140625 0.1351318359375 0.63910675048828125
-0.227783203125 0.1314697265625 0.65851593017578125
-0.23583984375 0.1219482421875 0.677764892578125
-0.2232666015625 0.08935546875 0.70243072509765625
-0.205810546875 0.063720703125 0.70842742919921875
-0.196044921875 0.03369140625 0.713348388671875
0.0277099609375 0.3775634765625 0.7377777099609375
0.0086669921875 0.3829345703125 0.7404937744140625
-0.00927734375 0.39111328125 0.743072509765625
-0.0347900390625 0.3917236328125 0.73193359375
-0.0408935546875 0.3804931640625 0.718902587890625
-0.0513916015625 0.3656005859375 0.71021270751953125
-0.2557373046875 0.1015625 0.7086639404296875
-0.2677001953125 0.0887451171875 0.7216033935546875
-0.2806396484375 0.0767822265625 0.734222412109375
-0.27490234375 0.056396484375 0.75140380859375
-0.263427734375 0.04052734375 0.75878143310546875
-0.254638671875 0.0213623046875 0.763946533203125
-0.0401611328125 0.41748046875 0.73989105224609375
-0.0550537109375 0.43505859375 0.737030029296875
-0.0631103515625 0.453857421875 0.734649658203125
-0.0750732421875 0.47216796875 0.7215423583984375
-0.087890625 0.4676513671875 0.70725250244140625
-0.1005859375 0.4637451171875 0.68975830078125
-0.109375 0.42626953125 0.6797027587890625
-0.101806640625 0.39599609375 0.68540191650390625
-0.0833740234375 0.3663330078125 0.6844940185546875
-0.2718505859375 0.13037109375 0.68532562255859375
-0.3018798828125 0.1361083984375 0.6828460693359375
-0.3250732421875 0.1385498046875 0.67244720458984375
-0.360107421875 0.1204833984375 0.686676025390625
-0.3594970703125 0.102783203125 0.7040557861328125
-0.3583984375 0.0904541015625 0.7195281982421875
-0.3388671875 0.0838623046875 0.73439788818359375
-0.321044921875 0.080322265625 0.741363525390625
-0.299560546875 0.0777587890625 0.74495697021484375
-0.1336669921875 0.45166015625 0.6613922119140625
-0.14453125 0.4464111328125 0.64215850830078125
-0.1556396484375 0.4410400390625 0.6182861328125
-0.16162109375 0.3931884765625 0.59881591796875
-0.14599609375 0.351318359375 0.6023712158203125
-0.1248779296875 0.31591796875 0.60553741455078125
-0.2415771484375 0.1649169921875 0.60720062255859375
-0.282958984375 0.182373046875 0.59873199462890625
-0.316650390625 0.189208984375 0.58548736572265625
-0.3592529296875 0.1722412109375 0.5989227294921875
-0.360107421875 0.1591796875 0.6220245361328125
-0.3587646484375 0.149169921875 0.64643096923828125
-0.1171875 0.4891357421875 0.6771697998046875
-0.109130859375 0.5223388671875 0.67267608642578125
-0.0972900390625 0.552734375 0.6671295166015625
-0.0882568359375 0.5867919921875 0.6407623291015625
-0.096923828125 0.5966796875 0.62021636962890625
-0.107666015625 0.603271484375 0.59757232666015625
-0.138916015625 0.57080078125 0.5795135498046875
-0.1591796875 0.528076171875 0.58281707763671875
-0.1656494140625 0.48291015625 0.58966064453125
-0.397216796875 0.1744384765625 0.55655670166015625
-0.435302734375 0.15625 0.54305267333984375
-0.4639892578125 0.1298828125 0.5230865478515625
-0.488525390625 0.0892333984375 0.5396881103515625
-0.479248046875 0.08349609375 0.56977081298828125
-0.4736328125 0.075927734375 0.596160888671875
-0.4422607421875 0.0941162109375 0.6373291015625
-0.4146728515625 0.11083984375 0.64388275146484375
-0.3876953125 0.1251220703125 0.65506744384765625
-0.0643310546875 0.494384765625 0.72817230224609375
-0.05908203125 0.514404296875 0.72576141357421875
-0.051513671875 0.532958984375 0.720794677734375
-0.0494384765625 0.5537109375 0.7092132568359375
-0.0587158203125 0.562255859375 0.69390869140625
-0.069580078125 0.5692138671875 0.67523193359375
-0.455810546875 0.0616455078125 0.64742279052734375
-0.4423828125 0.052001953125 0.670257568359375
-0.43017578125 0.04443359375 0.68727874755859375
-0.4129638671875 0.0546875 0.71026611328125
-0.3948974609375 0.0638427734375 0.71718597412109375
-0.38037109375 0.074951171875 0.726043701171875
-0.0267333984375 0.5615234375 0.7165679931640625
-0.0096435546875 0.5767822265625 0.709808349609375
0.008544921875 0.5869140625 0.704620361328125
0.0225830078125 0.599609375 0.69062042236328125
0.0245361328125 0.6099853515625 0.675689697265625
0.02294921875 0.627197265625 0.65840911865234375
-0.0059814453125 0.6334228515625 0.646331787109375
-0.0303955078125 0.6197509765625 0.6496429443359375
-0.050537109375 0.603515625 0.65474700927734375
-0.4805908203125 0.0452880859375 0.61414337158203125
-0.491455078125 0.0115966796875 0.6128997802734375
-0.5009765625 -0.0206298828125 0.60779571533203125
-0.489990234375 -0.048583984375 0.63669586181640625
-0.47314453125 -0.048095703125 0.6614532470703125
-0.4605712890625 -0.04296875 0.675994873046875
-0.451904296875 -0.0211181640625 0.6917266845703125
-0.4468994140625 0.00048828125 0.69297027587890625
-0.4378662109375 0.0201416015625 0.6966094970703125
0.0208740234375 0.6533203125 0.6176605224609375
0.0244140625 0.6644287109375 0.59774017333984375
0.0245361328125 0.6771240234375 0.575408935546875
-0.0107421875 0.6802978515625 0.556243896484375
-0.0518798828125 0.6634521484375 0.55966949462890625
-0.0853271484375 0.640380859375 0.56341552734375
-0.5233154296875 0.0596923828125 0.50312042236328125
-0.536376953125 0.01953125 0.49196624755859375
-0.548828125 -0.0247802734375 0.48838043212890625
-0.5379638671875 -0.065673828125 0.52167510986328125
-0.522705078125 -0.0645751953125 0.552734375
-0.5123291015625 -0.0587158203125 0.58295440673828125
0.0516357421875 0.6395263671875 0.6334228515625
0.07861328125 0.63037109375 0.635406494140625
0.106201171875 0.6207275390625 0.63409423828125
0.1348876953125 0.6590576171875 0.5404815673828125
0.0992431640625 0.6763916015625 0.541534423828125
0.06298828125 0.6839599609375 0.544708251953125
-0.539794921875 -0.113525390625 0.498992919921875
-0.5233154296875 -0.1556396484375 0.5111236572265625
-0.5081787109375 -0.1922607421875 0.525634765625
-0.469970703125 -0.142822265625 0.6312255859375
-0.483154296875 -0.1182861328125 0.6232452392578125
-0.5001220703125 -0.087158203125 0.613555908203125
0.04443359375 0.589111328125 0.70095062255859375
0.0601806640625 0.587158203125 0.6995391845703125
0.081298828125 0.57958984375 0.7015228271484375
-0.4266357421875 -0.09619140625 0.707794189453125
-0.438720703125 -0.078857421875 0.7014312744140625
-0.44775390625 -0.060791015625 0.69419097900390625
0.090087890625 0.5635986328125 0.72203826904296875
0.0908203125 0.5653076171875 0.7160186767578125
0.09423828125 0.566650390625 0.7108306884765625
0.026123046875 0.5853271484375 0.71353912353515625
0.0255126953125 0.583740234375 0.7178802490234375
0.026611328125 0.5797119140625 0.72463226318359375
0.043212890625 0.5748291015625 0.7304840087890625
0.057373046875 0.572998046875 0.7265625
0.073974609375 0.56689453125 0.72324371337890625
-0.41552734375 -0.080322265625 0.73822021484375
-0.422607421875 -0.068115234375 0.73441314697265625
-0.429443359375 -0.0518798828125 0.73175811767578125
-0.4400634765625 -0.03759765625 0.71752166748046875
-0.4423828125 -0.0391845703125 0.71057891845703125
-0.4453125 -0.03955078125 0.7046661376953125
-0.4085693359375 -0.10400390625 0.725006103515625
-0.406982421875 -0.10009765625 0.73226165771484375
-0.4053955078125 -0.0975341796875 0.7379302978515625
-0.0355224609375 0.5457763671875 0.7287139892578125
-0.0352783203125 0.5460205078125 0.73322296142578125
-0.031494140625 0.544677734375 0.74193572998046875
-0.01953125 0.55419921875 0.7425689697265625
-0.0037841796875 0.566162109375 0.7382354736328125
0.0096435546875 0.5721435546875 0.732177734375
-0.435791015625 -0.0174560546875 0.72328948974609375
-0.434814453125 -0.0010986328125 0.7271575927734375
-0.4267578125 0.0172119140625 0.73248291015625
-0.41748046875 0.03515625 0.73017120361328125
-0.419921875 0.0357666015625 0.72235107421875
-0.4224853515625 0.0367431640625 0.7160491943359375
-0.059814453125 0.4765625 0.73699951171875
-0.057373046875 0.476318359375 0.74297332763671875
-0.05615234375 0.475830078125 0.7486724853515625
-0.047119140625 0.4971923828125 0.75357818603515625
-0.0477294921875 0.5128173828125 0.75018310546875
-0.041015625 0.5279541015625 0.74774169921875
-0.403076171875 0.0457763671875 0.74275970458984375
-0.3896484375 0.0560302734375 0.751312255859375
-0.37548828125 0.06298828125 0.7532501220703125
-0.357666015625 0.0718994140625 0.75289154052734375
-0.35791015625 0.0748291015625 0.74720001220703125
-0.3583984375 0.0760498046875 0.740203857421875
-0.0234375 0.408447265625 0.74607086181640625
-0.019775390625 0.41015625 0.7496490478515625
-0.0181884765625 0.41357421875 0.75548553466796875
-0.0289306640625 0.4298095703125 0.759674072265625
-0.0408935546875 0.4434814453125 0.75798797607421875
-0.0482177734375 0.458740234375 0.754791259765625
-0.342041015625 0.0679931640625 0.761444091796875
-0.3270263671875 0.06689453125 0.76642608642578125
-0.3084716796875 0.0648193359375 0.77262115478515625
-0.2933349609375 0.062255859375 0.77056884765625
-0.2916259765625 0.0634765625 0.7622833251953125
-0.290771484375 0.06591796875 0.7554168701171875
0.0469970703125 0.38720703125 0.74864959716796875
0.0450439453125 0.3916015625 0.757110595703125
0.04541015625 0.3955078125 0.7633209228515625
0.02978515625 0.400634765625 0.765777587890625
0.0128173828125 0.405029296875 0.76586151123046875
-0.0023193359375 0.412841796875 0.76451873779296875
-0.2861328125 0.047119140625 0.77684783935546875
-0.2763671875 0.033935546875 0.77861785888671875
-0.2679443359375 0.018310546875 0.784942626953125
-0.2596435546875 0.0010986328125 0.78685760498046875
-0.2545166015625 0.00146484375 0.78255462646484375
-0.2530517578125 0.0008544921875 0.77350616455078125
0.1102294921875 0.423095703125 0.7240142822265625
0.1072998046875 0.4267578125 0.73220062255859375
0.1048583984375 0.43017578125 0.73935699462890625
0.089111328125 0.4207763671875 0.7536773681640625
0.0745849609375 0.4111328125 0.758392333984375
0.05859375 0.4033203125 0.76256561279296875
-0.2667236328125 -0.0167236328125 0.79187774658203125
-0.269287109375 -0.033935546875 0.7942962646484375
-0.27783203125 -0.047607421875 0.79228973388671875
-0.284423828125 -0.0684814453125 0.78760528564453125
-0.281982421875 -0.071044921875 0.7832794189453125
-0.2801513671875 -0.07421875 0.77829742431640625
0.1295166015625 0.4991455078125 0.710235595703125
0.128173828125 0.4991455078125 0.71837615966796875
0.125732421875 0.5001220703125 0.72373199462890625
0.1201171875 0.4814453125 0.73281097412109375
0.1182861328125 0.463623046875 0.735137939453125
0.1097412109375 0.44873046875 0.74010467529296875
-0.299560546875 -0.0775146484375 0.78400421142578125
-0.313232421875 -0.089599609375 0.7793426513671875
-0.3310546875 -0.095947265625 0.77330780029296875
-0.3486328125 -0.1103515625 0.76267242431640625
-0.346923828125 -0.11376953125 0.75687408447265625
-0.34814453125 -0.116943359375 0.75194549560546875
0.1011962890625 0.5467529296875 0.7265167236328125
0.1116943359375 0.5328369140625 0.72747802734375
0.117919921875 0.5177001953125 0.72918701171875
-0.3624267578125 -0.1077880859375 0.76198577880859375
-0.3731689453125 -0.1070556640625 0.7554168701171875
-0.3873291015625 -0.098876953125 0.748077392578125
0.0821533203125 0.55078125 0.733856201171875
0.073974609375 0.533203125 0.74037933349609375
0.05810546875 0.5150146484375 0.75089263916015625
0.0703125 0.4925537109375 0.75762939453125
0.0958251953125 0.49560546875 0.74613189697265625
0.1085205078125 0.4969482421875 0.7378997802734375
-0.368896484375 -0.044921875 0.771575927734375
-0.3828125 -0.065673828125 0.76067352294921875
-0.394287109375 -0.0804443359375 0.74990081787109375
-0.349853515625 -0.08984375 0.77133941650390625
-0.34912109375 -0.06982421875 0.7771759033203125
-0.3486328125 -0.0487060546875 0.77911376953125
0.0634765625 0.46875 0.76537322998046875
0.0797119140625 0.453857421875 0.76007080078125
0.093505859375 0.4427490234375 0.753692626953125
-0.296142578125 -0.0555419921875 0.79421234130859375
-0.3126220703125 -0.0450439453125 0.79205322265625
-0.3280029296875 -0.03271484375 0.79296875
0.036865234375 0.4532470703125 0.77471923828125
0.0386962890625 0.4306640625 0.77349090576171875
0.0396728515625 0.4139404296875 0.7699737548828125
-0.2779541015625 0.00048828125 0.7864837646484375
-0.2987060546875 -0.00244140625 0.7908477783203125
-0.31982421875 -0.0030517578125 0.79217529296875
0.0120849609375 0.4600830078125 0.77169036865234375
0.0025634765625 0.443359375 0.76935577392578125
-0.007080078125 0.428466796875 0.76662445068359375
-0.3028564453125 0.046630859375 0.779449462890625
-0.3143310546875 0.0328369140625 0.78420257568359375
-0.3304443359375 0.017333984375 0.78740692138671875
-0.0006103515625 0.4840087890625 0.76929473876953125
-0.0225830078125 0.4830322265625 0.76198577880859375
-0.037841796875 0.4808349609375 0.75862884521484375
-0.357421875 0.058837890625 0.765716552734375
-0.3563232421875 0.0416259765625 0.772247314453125
-0.351318359375 0.01904296875 0.77862548828125
0.0062255859375 0.5089111328125 0.76519775390625
-0.009521484375 0.525634765625 0.75984954833984375
-0.0203857421875 0.5350341796875 0.75322723388671875
-0.4051513671875 0.02490234375 0.746978759765625
-0.393310546875 0.01513671875 0.75876617431640625
-0.373046875 0.0047607421875 0.7700958251953125
0.0311279296875 0.525390625 0.75452423095703125
0.0283203125 0.545654296875 0.7479248046875
0.0289306640625 0.56201171875 0.737396240234375
-0.4207763671875 -0.0313720703125 0.73792266845703125
-0.4068603515625 -0.029296875 0.7504425048828125
-0.3807373046875 -0.02197265625 0.76557159423828125
0.5987548828125 -0.51513671875 0.59122467041015625
0.620361328125 -0.489501953125 0.56378936767578125
0.638671875 -0.4638671875 0.5405731201171875
0.6566162109375 -0.4305419921875 0.537353515625
0.6536865234375 -0.41796875 0.55963134765625
0.64990234375 -0.4072265625 0.576690673828125
0.6317138671875 -0.421142578125 0.613739013671875
0.61376953125 -0.4404296875 0.6325836181640625
0.5992431640625 -0.464111328125 0.64739227294921875
0.582763671875 -0.4984130859375 0.6547698974609375
0.582275390625 -0.51220703125 0.64333343505859375
0.582275390625 -0.5255126953125 0.62957763671875
0.5635986328125 -0.5 0.6907806396484375
0.545654296875 -0.518798828125 0.70630645751953125
0.528564453125 -0.535400390625 0.7191314697265625
0.5052490234375 -0.5706787109375 0.72238922119140625
0.5020751953125 -0.5877685546875 0.7139892578125
0.4976806640625 -0.6048583984375 0.70024871826171875
0.5135498046875 -0.5965576171875 0.66839599609375
0.5372314453125 -0.5819091796875 0.65320587158203125
0.558837890625 -0.5596923828125 0.63396453857421875
0.6669921875 -0.4217529296875 0.49805450439453125
0.676513671875 -0.4014892578125 0.4807586669921875
0.6851806640625 -0.3839111328125 0.461669921875
0.6917724609375 -0.35498046875 0.47551727294921875
0.6871337890625 -0.349853515625 0.5064849853515625
0.677490234375 -0.3402099609375 0.53305816650390625
0.6636962890625 -0.3489990234375 0.56914520263671875
0.6583251953125 -0.365478515625 0.57318115234375
0.6534423828125 -0.380859375 0.5826416015625
0.4947509765625 -0.5633544921875 0.7431182861328125
0.480712890625 -0.5750732421875 0.7522735595703125
0.4639892578125 -0.57958984375 0.76082611083984375
0.437744140625 -0.6126708984375 0.76081085205078125
0.426513671875 -0.642578125 0.75389862060546875
0.4176025390625 -0.667236328125 0.7457733154296875
0.4217529296875 -0.6805419921875 0.72440338134765625
0.4449462890625 -0.6636962890625 0.70944976806640625
0.4659423828125 -0.6439208984375 0.70012664794921875
0.6883544921875 -0.34326171875 0.4380950927734375
0.6845703125 -0.32275390625 0.43536376953125
0.673828125 -0.298095703125 0.43647003173828125
0.66748046875 -0.2706298828125 0.47017669677734375
0.665283203125 -0.262939453125 0.5052642822265625
0.6524658203125 -0.2572021484375 0.54128265380859375
0.646728515625 -0.2745361328125 0.56957244873046875
0.65478515625 -0.2933349609375 0.56746673583984375
0.6590576171875 -0.312744140625 0.56372833251953125
0.43212890625 -0.574462890625 0.77576446533203125
0.4151611328125 -0.5655517578125 0.78240966796875
0.3994140625 -0.55419921875 0.79280853271484375
0.374755859375 -0.578857421875 0.7942962646484375
0.3636474609375 -0.6123046875 0.7802734375
0.3489990234375 -0.6370849609375 0.76055908203125
0.3502197265625 -0.6715087890625 0.735687255859375
0.3653564453125 -0.6827392578125 0.734130859375
0.3846435546875 -0.68994140625 0.73398590087890625
0.6348876953125 -0.24755859375 0.4420013427734375
0.6099853515625 -0.2149658203125 0.4490509033203125
0.585205078125 -0.18408203125 0.4597320556640625
0.572998046875 -0.152587890625 0.5057373046875
0.5745849609375 -0.1536865234375 0.54265594482421875
0.56884765625 -0.15673828125 0.58141326904296875
0.5855712890625 -0.1866455078125 0.600006103515625
0.6011962890625 -0.2088623046875 0.5894317626953125
0.6190185546875 -0.2327880859375 0.5826416015625
0.369873046875 -0.521728515625 0.800506591796875
0.3536376953125 -0.5050048828125 0.80316925048828125
0.3345947265625 -0.4813232421875 0.8041229248046875
0.2913818359375 -0.4801025390625 0.791839599609375
0.27490234375 -0.505859375 0.77669525146484375
0.2518310546875 -0.524658203125 0.7520904541015625
0.2593994140625 -0.56982421875 0.72820281982421875
0.2838134765625 -0.6011962890625 0.730438232421875
0.3072509765625 -0.630126953125 0.7271728515625
0.5218505859375 -0.1182861328125 0.486846923828125
0.4857177734375 -0.0875244140625 0.49987030029296875
0.4520263671875 -0.0548095703125 0.50768280029296875
0.4276123046875 -0.02783203125 0.54924774169921875
0.427490234375 -0.0325927734375 0.5836029052734375
0.4189453125 -0.039794921875 0.6203460693359375
0.445556640625 -0.076904296875 0.63916015625
0.4876708984375 -0.1065673828125 0.6339111328125
0.5208740234375 -0.131103515625 0.622650146484375
0.2818603515625 -0.4146728515625 0.79437255859375
0.2486572265625 -0.377197265625 0.78615570068359375
0.2176513671875 -0.34326171875 0.78212738037109375
0.1710205078125 -0.33447265625 0.7636871337890625
0.14892578125 -0.35791015625 0.741455078125
0.1319580078125 -0.372314453125 0.71349334716796875
0.14208984375 -0.4176025390625 0.6941375732421875
0.17236328125 -0.454833984375 0.7025146484375
0.205322265625 -0.49755859375 0.70677947998046875
0.1868896484375 0.1416015625 0.6837615966796875
0.20751953125 0.13330078125 0.63626861572265625
0.217041015625 0.126220703125 0.59276580810546875
0.2352294921875 0.1474609375 0.54860687255859375
0.25390625 0.185302734375 0.52693939208984375
0.273681640625 0.2315673828125 0.50916290283203125
0.2841796875 0.2890625 0.52759552001953125
0.27685546875 0.3011474609375 0.556732177734375
0.26220703125 0.316162109375 0.58612060546875
0.2210693359375 0.2850341796875 0.6353302001953125
0.198974609375 0.2401123046875 0.6623992919921875
0.1781005859375 0.1956787109375 0.693389892578125
-0.05712890625 -0.0997314453125 0.75705718994140625
-0.1007080078125 -0.135986328125 0.7404632568359375
-0.145751953125 -0.1759033203125 0.7287139892578125
-0.1795654296875 -0.2430419921875 0.69510650634765625
-0.17041015625 -0.2677001953125 0.668548583984375
-0.1678466796875 -0.28466796875 0.64322662353515625
-0.1221923828125 -0.2730712890625 0.625885009765625
-0.08056640625 -0.239501953125 0.63217926025390625
-0.0477294921875 -0.21728515625 0.6384124755859375
-0.0164794921875 -0.18017578125 0.667327880859375
-0.0125732421875 -0.1474609375 0.7079620361328125
-0.0086669921875 -0.109130859375 0.74626922607421875
0.310791015625 0.3265380859375 0.4873199462890625
0.3251953125 0.370849609375 0.47689056396484375
0.3375244140625 0.4237060546875 0.462493896484375
0.333740234375 0.486328125 0.4764556884765625
0.3197021484375 0.494873046875 0.5017242431640625
0.3037109375 0.5018310546875 0.53253173828125
0.284912109375 0.462890625 0.5619354248046875
0.2752685546875 0.4188232421875 0.57100677490234375
0.261962890625 0.3721923828125 0.5916290283203125
-0.22509765625 -0.24951171875 0.69287109375
-0.2646484375 -0.272216796875 0.6843719482421875
-0.317138671875 -0.293701171875 0.670196533203125
-0.35888671875 -0.332275390625 0.642120361328125
-0.3555908203125 -0.352783203125 0.62453460693359375
-0.352294921875 -0.3729248046875 0.6105499267578125
-0.3001708984375 -0.3671875 0.60601043701171875
-0.253662109375 -0.3485107421875 0.6204071044921875
-0.2100830078125 -0.326416015625 0.6251220703125
0.33935546875 0.5250244140625 0.437957763671875
0.3360595703125 0.58349609375 0.4351043701171875
0.330322265625 0.641357421875 0.434051513671875
0.3065185546875 0.69775390625 0.4643402099609375
0.293701171875 0.6942138671875 0.4971466064453125
0.281494140625 0.688232421875 0.527587890625
0.27880859375 0.6378173828125 0.540252685546875
0.28515625 0.593505859375 0.5395660400390625
0.28466796875 0.550048828125 0.5487060546875
-0.3975830078125 -0.319091796875 0.6413421630859375
-0.4376220703125 -0.3287353515625 0.62291717529296875
-0.4776611328125 -0.32763671875 0.60832977294921875
-0.5247802734375 -0.3466796875 0.56839752197265625
-0.5340576171875 -0.371826171875 0.5452423095703125
-0.5390625 -0.3912353515625 0.51688385009765625
-0.494873046875 -0.4122314453125 0.52149200439453125
-0.441650390625 -0.408935546875 0.5458984375
-0.3966064453125 -0.3978271484375 0.566314697265625
0.2943115234375 0.7518310546875 0.458038330078125
0.262939453125 0.7969970703125 0.487030029296875
0.2366943359375 0.833740234375 0.525482177734375
0.197998046875 0.8504638671875 0.5739898681640625
0.193603515625 0.83740234375 0.59527587890625
0.1876220703125 0.8167724609375 0.6087799072265625
0.200439453125 0.7755126953125 0.59503173828125
0.227783203125 0.749267578125 0.56988525390625
0.2464599609375 0.716064453125 0.5572967529296875
-0.5487060546875 -0.3096923828125 0.57474517822265625
-0.5792236328125 -0.2955322265625 0.56572723388671875
-0.60546875 -0.2774658203125 0.55951690673828125
-0.640380859375 -0.2647705078125 0.5469970703125
-0.65966796875 -0.276611328125 0.5185546875
-0.67724609375 -0.282958984375 0.4918060302734375
-0.6595458984375 -0.3275146484375 0.467010498046875
-0.6231689453125 -0.361083984375 0.472076416015625
-0.588134765625 -0.3853759765625 0.4781951904296875
0.17333984375 0.868408203125 0.5753631591796875
0.1424560546875 0.8662109375 0.59075927734375
0.1058349609375 0.853271484375 0.607269287109375
0.0689697265625 0.8328857421875 0.6404876708984375
0.0743408203125 0.824462890625 0.6597442626953125
0.07568359375 0.8095703125 0.677459716796875
0.1087646484375 0.8045654296875 0.6707763671875
0.1361083984375 0.805908203125 0.6562347412109375
0.159912109375 0.8031005859375 0.6383209228515625
-0.63134765625 -0.2344970703125 0.56884002685546875
-0.6348876953125 -0.209228515625 0.574981689453125
-0.63427734375 -0.1812744140625 0.582183837890625
-0.6473388671875 -0.148193359375 0.5734710693359375
-0.66015625 -0.1527099609375 0.54492950439453125
-0.6700439453125 -0.154541015625 0.518310546875
-0.685791015625 -0.19189453125 0.4835968017578125
-0.695068359375 -0.2227783203125 0.47710418701171875
-0.6949462890625 -0.258056640625 0.4710693359375
0.0240478515625 0.818359375 0.621246337890625
-0.0172119140625 0.802001953125 0.6331939697265625
-0.06103515625 0.7808837890625 0.6360931396484375
-0.1143798828125 0.75927734375 0.67020416259765625
-0.1121826171875 0.7467041015625 0.6931304931640625
-0.10693359375 0.7305908203125 0.70667266845703125
-0.05322265625 0.7342529296875 0.7127838134765625
-0.00146484375 0.7547607421875 0.70086669921875
0.0400390625 0.773193359375 0.695159912109375
-0.625244140625 -0.10498046875 0.5988922119140625
-0.61474609375 -0.0516357421875 0.6118927001953125
-0.607421875 -0.0042724609375 0.62349700927734375
-0.61328125 0.0513916015625 0.61083221435546875
-0.62841796875 0.053955078125 0.5819549560546875
-0.64013671875 0.0517578125 0.55138397216796875
-0.64794921875 -0.00146484375 0.512481689453125
-0.6573486328125 -0.052490234375 0.5028076171875
-0.669189453125 -0.103515625 0.49212646484375
-0.157470703125 0.75341796875 0.6493988037109375
-0.201416015625 0.7342529296875 0.6541748046875
-0.2437744140625 0.7200927734375 0.65847015380859375
-0.27392578125 0.6959228515625 0.68651580810546875
-0.2662353515625 0.6859130859375 0.709564208984375
-0.24951171875 0.6710205078125 0.7310333251953125
-0.200927734375 0.6685791015625 0.73757171630859375
-0.170654296875 0.681640625 0.72979736328125
-0.13720703125 0.6961669921875 0.72369384765625
-0.5938720703125 0.09130859375 0.64144134521484375
-0.5877685546875 0.130615234375 0.64693450927734375
-0.580078125 0.1622314453125 0.65338897705078125
-0.5968017578125 0.2060546875 0.631988525390625
-0.6109619140625 0.21923828125 0.61032867431640625
-0.6240234375 0.229736328125 0.57965850830078125
-0.6328125 0.194091796875 0.543426513671875
-0.6353759765625 0.1485595703125 0.53243255615234375
-0.6419677734375 0.1016845703125 0.52761077880859375
-0.3043212890625 0.6788330078125 0.66576385498046875
-0.3193359375 0.649169921875 0.668670654296875
-0.3284912109375 0.6175537109375 0.662139892578125
-0.325927734375 0.5770263671875 0.69142913818359375
-0.31103515625 0.572509765625 0.71490478515625
-0.2940673828125 0.568115234375 0.7364044189453125
-0.267333984375 0.58984375 0.74384307861328125
-0.2608642578125 0.61376953125 0.742950439453125
-0.2503662109375 0.636962890625 0.74102020263671875
-0.565673828125 0.2119140625 0.665557861328125
-0.5479736328125 0.2315673828125 0.67426300048828125
-0.521484375 0.24755859375 0.68871307373046875
-0.502685546875 0.2808837890625 0.68202972412109375
-0.5181884765625 0.2974853515625 0.6626434326171875
-0.5234375 0.309326171875 0.6351165771484375
