# XYZ point cloud file
-0.11572265625 0.445404052734375 0.526123046875
-0.1187744140625 0.42242431640625 0.528778076171875
-0.1268310546875 0.4036865234375 0.530029296875
-0.135009765625 0.391632080078125 0.552703857421875
-0.1302490234375 0.386505126953125 0.572601318359375
-0.1256103515625 0.37841796875 0.59124755859375
-0.1019287109375 0.388916015625 0.604522705078125
-0.0916748046875 0.4144287109375 0.6009521484375
-0.0860595703125 0.4427490234375 0.59881591796875
-0.188720703125 0.35137939453125 0.58990478515625
-0.166015625 0.352813720703125 0.59503173828125
-0.14404296875 0.3531494140625 0.60137939453125
-0.150146484375 0.381805419921875 0.528076171875
-0.167724609375 0.378936767578125 0.522857666015625
-0.1851806640625 0.37982177734375 0.5174560546875
-0.071533203125 0.470489501953125 0.5982666015625
-0.0589599609375 0.470062255859375 0.597686767578125
-0.0445556640625 0.469940185546875 0.59332275390625
-0.0277099609375 0.49371337890625 0.585784912109375
-0.021484375 0.514617919921875 0.57928466796875
-0.0137939453125 0.53521728515625 0.57562255859375
-0.0205078125 0.56585693359375 0.576385498046875
-0.0369873046875 0.5777587890625 0.578887939453125
-0.054931640625 0.593017578125 0.5797119140625
-0.3115234375 0.357879638671875 0.530059814453125
-0.308349609375 0.33526611328125 0.533966064453125
-0.304931640625 0.30975341796875 0.531585693359375
-0.2843017578125 0.292388916015625 0.540679931640625
-0.2685546875 0.295623779296875 0.5498046875
-0.24853515625 0.294219970703125 0.558929443359375
-0.2254638671875 0.307586669921875 0.574859619140625
-0.221435546875 0.324493408203125 0.58050537109375
-0.2166748046875 0.341064453125 0.584930419921875
0.0078125 0.568115234375 0.570343017578125
0.01806640625 0.582611083984375 0.56793212890625
0.029296875 0.59149169921875 0.563568115234375
0.0301513671875 0.61907958984375 0.565338134765625
0.0155029296875 0.640380859375 0.570648193359375
0.0010986328125 0.660858154296875 0.573394775390625
-0.37841796875 0.315704345703125 0.493438720703125
-0.37109375 0.29254150390625 0.5025634765625
-0.3643798828125 0.26910400390625 0.5013427734375
-0.34423828125 0.26300048828125 0.5089111328125
-0.3304443359375 0.27398681640625 0.51495361328125
-0.315673828125 0.281524658203125 0.52130126953125
0.05810546875 0.608123779296875 0.559356689453125
0.072509765625 0.615447998046875 0.558837890625
0.0953369140625 0.62103271484375 0.555877685546875
0.115478515625 0.64410400390625 0.55499267578125
0.1107177734375 0.66229248046875 0.5625
0.1065673828125 0.68231201171875 0.564239501953125
-0.431884765625 0.196624755859375 0.4830322265625
-0.421630859375 0.185577392578125 0.489776611328125
-0.412841796875 0.175079345703125 0.49053955078125
-0.38916015625 0.1904296875 0.49835205078125
-0.3775634765625 0.2139892578125 0.5
-0.3660888671875 0.233306884765625 0.500701904296875
0.1484375 0.635528564453125 0.54705810546875
0.1788330078125 0.642974853515625 0.542236328125
0.2069091796875 0.649383544921875 0.535430908203125
0.237548828125 0.6680908203125 0.5352783203125
0.243408203125 0.686737060546875 0.541290283203125
0.2479248046875 0.706085205078125 0.5482177734375
-0.5118408203125 0.0357666015625 0.46746826171875
-0.4970703125 0.03631591796875 0.474639892578125
-0.48486328125 0.038177490234375 0.475616455078125
-0.4564208984375 0.06683349609375 0.481903076171875
-0.4420166015625 0.099456787109375 0.4853515625
-0.4222412109375 0.13250732421875 0.488616943359375
0.2491455078125 0.6492919921875 0.526763916015625
0.2628173828125 0.645965576171875 0.523406982421875
0.2740478515625 0.6358642578125 0.52099609375
0.29248046875 0.638671875 0.514923095703125
0.3031005859375 0.6583251953125 0.5133056640625
0.3140869140625 0.679656982421875 0.511688232421875
-0.5325927734375 -0.0548095703125 0.465576171875
-0.5133056640625 -0.049041748046875 0.47540283203125
-0.4957275390625 -0.043670654296875 0.482391357421875
-0.4849853515625 -0.024200439453125 0.4844970703125
-0.483642578125 -0.007080078125 0.47894287109375
-0.478759765625 0.01434326171875 0.477935791015625
0.2904052734375 0.603973388671875 0.517120361328125
0.294189453125 0.5845947265625 0.515838623046875
0.2982177734375 0.55877685546875 0.515716552734375
0.309814453125 0.54022216796875 0.51068115234375
0.3233642578125 0.54962158203125 0.501861572265625
0.337890625 0.559417724609375 0.489898681640625
-0.4803466796875 -0.129547119140625 0.50787353515625
-0.465576171875 -0.115753173828125 0.520660400390625
-0.447998046875 -0.101531982421875 0.53216552734375
-0.452880859375 -0.080352783203125 0.52532958984375
-0.46533203125 -0.068450927734375 0.510650634765625
-0.4769287109375 -0.055511474609375 0.499755859375
0.2947998046875 0.499176025390625 0.521484375
0.2884521484375 0.46697998046875 0.529205322265625
0.280517578125 0.4349365234375 0.53662109375
0.27783203125 0.405914306640625 0.53533935546875
0.2911376953125 0.41009521484375 0.525604248046875
0.306640625 0.41156005859375 0.516265869140625
-0.369873046875 -0.142974853515625 0.591064453125
-0.3572998046875 -0.12506103515625 0.59747314453125
-0.3472900390625 -0.1082763671875 0.60198974609375
-0.3609619140625 -0.0982666015625 0.59234619140625
-0.3878173828125 -0.0963134765625 0.57830810546875
-0.411865234375 -0.094512939453125 0.559661865234375
0.254150390625 0.374664306640625 0.554840087890625
0.23974609375 0.350982666015625 0.56707763671875
0.2222900390625 0.32879638671875 0.57769775390625
0.2064208984375 0.30126953125 0.5860595703125
0.213134765625 0.28839111328125 0.58319091796875
0.2203369140625 0.275054931640625 0.57501220703125
-0.2354736328125 -0.087921142578125 0.6473388671875
-0.2366943359375 -0.07061767578125 0.65093994140625
-0.2381591796875 -0.0556640625 0.649932861328125
-0.2637939453125 -0.061126708984375 0.643463134765625
-0.2880859375 -0.0755615234375 0.63238525390625
-0.31396484375 -0.084320068359375 0.6192626953125
0.1746826171875 0.2982177734375 0.60076904296875
0.1494140625 0.2877197265625 0.6112060546875
0.1248779296875 0.28143310546875 0.62237548828125
0.10107421875 0.25341796875 0.6331787109375
0.1021728515625 0.22296142578125 0.64703369140625
0.1060791015625 0.188262939453125 0.6583251953125
-0.0958251953125 0.030517578125 0.694976806640625
-0.1171875 0.04559326171875 0.677154541015625
-0.14013671875 0.056976318359375 0.66754150390625
-0.1719970703125 0.038238525390625 0.660491943359375
-0.1943359375 0.00927734375 0.659088134765625
-0.2166748046875 -0.018798828125 0.654052734375
0.08154296875 0.2760009765625 0.62945556640625
0.067626953125 0.2757568359375 0.630157470703125
0.055908203125 0.277313232421875 0.628692626953125
0.0316162109375 0.26171875 0.6273193359375
0.0162353515625 0.233001708984375 0.631256103515625
0.001708984375 0.1988525390625 0.6336669921875
0.018798828125 0.15521240234375 0.656585693359375
0.04931640625 0.153564453125 0.66650390625
0.0791015625 0.152923583984375 0.6729736328125
-0.052978515625 0.046417236328125 0.70037841796875
-0.044189453125 0.07733154296875 0.68280029296875
-0.034912109375 0.1094970703125 0.662628173828125
-0.0587158203125 0.145355224609375 0.640167236328125
-0.0897216796875 0.140380859375 0.639801025390625
-0.116943359375 0.139739990234375 0.636444091796875
-0.1380615234375 0.1214599609375 0.6422119140625
-0.1407470703125 0.105560302734375 0.64984130859375
-0.1474609375 0.0867919921875 0.6553955078125
-0.033935546875 0.408843994140625 0.597259521484375
-0.0361328125 0.427886962890625 0.59405517578125
-0.0350341796875 0.4495849609375 0.5906982421875
-0.0869140625 0.3660888671875 0.6065673828125
-0.0648193359375 0.3746337890625 0.60626220703125
-0.044921875 0.381317138671875 0.60223388671875
-0.1658935546875 0.277008056640625 0.5972900390625
-0.151611328125 0.29937744140625 0.600982666015625
-0.1357421875 0.324798583984375 0.603668212890625
-0.2122802734375 0.288055419921875 0.57757568359375
-0.19970703125 0.28167724609375 0.58416748046875
-0.188720703125 0.273193359375 0.589874267578125
-0.0087890625 0.339996337890625 0.610687255859375
-0.017822265625 0.354736328125 0.6099853515625
-0.0255126953125 0.3712158203125 0.603912353515625
-0.1016845703125 0.327056884765625 0.610626220703125
-0.091552734375 0.30438232421875 0.612396240234375
-0.0814208984375 0.28167724609375 0.614532470703125
-0.05126953125 0.27972412109375 0.6163330078125
-0.0316162109375 0.2962646484375 0.612640380859375
-0.015380859375 0.312713623046875 0.611114501953125
-0.131591796875 0.215087890625 0.6153564453125
-0.111083984375 0.228546142578125 0.6163330078125
-0.090576171875 0.2437744140625 0.61627197265625
-0.16796875 0.24676513671875 0.600830078125
-0.1605224609375 0.233367919921875 0.60516357421875
-0.15478515625 0.2197265625 0.6103515625
-0.0614013671875 0.23931884765625 0.619140625
-0.04931640625 0.215362548828125 0.623809814453125
-0.038818359375 0.188079833984375 0.63006591796875
0.0322265625 0.29296875 0.62396240234375
0.0208740234375 0.30303955078125 0.620269775390625
0.0093994140625 0.31365966796875 0.617645263671875
-0.143798828125 0.18505859375 0.619873046875
-0.1405029296875 0.16802978515625 0.62420654296875
-0.1383056640625 0.15234375 0.629974365234375
0.297607421875 -0.463348388671875 0.71636962890625
0.2894287109375 -0.454254150390625 0.732940673828125
0.2818603515625 -0.446197509765625 0.747314453125
0.2664794921875 -0.449432373046875 0.7630615234375
0.25634765625 -0.457916259765625 0.77020263671875
0.2486572265625 -0.46624755859375 0.77642822265625
0.23779296875 -0.482330322265625 0.779388427734375
0.2366943359375 -0.49609375 0.773040771484375
0.2366943359375 -0.510589599609375 0.766204833984375
0.228515625 -0.4788818359375 0.792266845703125
0.2183837890625 -0.48272705078125 0.80010986328125
0.2099609375 -0.4864501953125 0.807525634765625
0.19140625 -0.502960205078125 0.815765380859375
0.1807861328125 -0.522125244140625 0.815765380859375
0.16943359375 -0.544952392578125 0.814605712890625
0.3282470703125 -0.41290283203125 0.686065673828125
0.3140869140625 -0.4005126953125 0.70989990234375
0.30126953125 -0.392486572265625 0.72808837890625
0.2894287109375 -0.4012451171875 0.74578857421875
0.28662109375 -0.415130615234375 0.749176025390625
0.280517578125 -0.427978515625 0.75311279296875
0.1904296875 -0.48663330078125 0.8221435546875
0.179931640625 -0.485565185546875 0.8280029296875
0.169677734375 -0.478851318359375 0.833648681640625
0.1513671875 -0.491058349609375 0.8411865234375
0.1376953125 -0.514678955078125 0.8426513671875
0.1209716796875 -0.543914794921875 0.84259033203125
0.3221435546875 -0.332611083984375 0.685882568359375
0.3052978515625 -0.3236083984375 0.70977783203125
0.2874755859375 -0.3170166015625 0.73223876953125
0.2779541015625 -0.330047607421875 0.74615478515625
0.2855224609375 -0.3475341796875 0.74365234375
0.28955078125 -0.3662109375 0.74200439453125
0.154052734375 -0.456207275390625 0.840667724609375
0.1470947265625 -0.43829345703125 0.84234619140625
0.1446533203125 -0.418060302734375 0.840301513671875
0.1263427734375 -0.423431396484375 0.8436279296875
0.10791015625 -0.453125 0.847442626953125
0.0914306640625 -0.485198974609375 0.85015869140625
0.222900390625 -0.10205078125 0.6929931640625
0.2073974609375 -0.108551025390625 0.71002197265625
0.192626953125 -0.1160888671875 0.723388671875
0.194091796875 -0.156829833984375 0.74346923828125
0.2147216796875 -0.1903076171875 0.744110107421875
0.2310791015625 -0.225067138671875 0.746612548828125
0.2589111328125 -0.2486572265625 0.731597900390625
0.2772216796875 -0.24261474609375 0.71441650390625
0.293212890625 -0.2418212890625 0.693878173828125
0.06201171875 -0.397308349609375 0.82989501953125
0.08251953125 -0.374755859375 0.8294677734375
0.1033935546875 -0.355224609375 0.82525634765625
0.1109619140625 -0.306488037109375 0.811767578125
0.0986328125 -0.270477294921875 0.801116943359375
0.0858154296875 -0.235137939453125 0.792724609375
0.058349609375 -0.212493896484375 0.78167724609375
0.0399169921875 -0.227935791015625 0.781524658203125
0.0198974609375 -0.24658203125 0.7774658203125
0.2548828125 -0.27301025390625 0.749053955078125
0.26171875 -0.290679931640625 0.749053955078125
0.26416015625 -0.30169677734375 0.75079345703125
0.138916015625 -0.385498046875 0.831939697265625
0.1312255859375 -0.375244140625 0.8314208984375
0.1260986328125 -0.36016845703125 0.828155517578125
0.164306640625 -0.09521484375 0.729156494140625
0.1529541015625 -0.0709228515625 0.719940185546875
0.1417236328125 -0.048004150390625 0.712066650390625
0.125 -0.04248046875 0.718505859375
0.1143798828125 -0.05621337890625 0.726287841796875
0.1041259765625 -0.069793701171875 0.732269287109375
0.09814453125 -0.096160888671875 0.739898681640625
0.1065673828125 -0.113189697265625 0.745819091796875
0.11474609375 -0.135467529296875 0.752685546875
0.13916015625 -0.15008544921875 0.75885009765625
0.1519775390625 -0.14215087890625 0.751129150390625
0.1650390625 -0.132843017578125 0.743682861328125
0.0894775390625 -0.187744140625 0.774871826171875
0.1029052734375 -0.178375244140625 0.7720947265625
0.1160888671875 -0.169586181640625 0.7684326171875
0.079833984375 -0.0899658203125 0.740692138671875
0.0643310546875 -0.094940185546875 0.743438720703125
0.04931640625 -0.099884033203125 0.744049072265625
0.0421142578125 -0.12384033203125 0.751922607421875
0.0523681640625 -0.146240234375 0.758056640625
0.0616455078125 -0.17138671875 0.7694091796875
0.2000732421875 -0.280792236328125 0.78387451171875
0.216064453125 -0.2718505859375 0.773406982421875
0.23046875 -0.26300048828125 0.76300048828125
0.1431884765625 -0.19384765625 0.774017333984375
0.15576171875 -0.227630615234375 0.77679443359375
0.1712646484375 -0.26214599609375 0.786834716796875
0.1376953125 -0.323699951171875 0.81524658203125
0.1534423828125 -0.31146240234375 0.8077392578125
0.169921875 -0.300689697265625 0.801025390625
0.19482421875 -0.31146240234375 0.79510498046875
0.200927734375 -0.330078125 0.798065185546875
0.2047119140625 -0.341796875 0.798980712890625
0.222412109375 -0.337860107421875 0.79107666015625
0.2359619140625 -0.326171875 0.780426025390625
0.2493896484375 -0.317840576171875 0.76763916015625
0.1593017578125 -0.37506103515625 0.8272705078125
0.176025390625 -0.36627197265625 0.81964111328125
0.1922607421875 -0.358795166015625 0.810546875
0.13525390625 -0.00054931640625 0.702728271484375
0.135986328125 0.016387939453125 0.699005126953125
0.135009765625 0.03118896484375 0.693634033203125
0.1314697265625 0.047119140625 0.698944091796875
0.1317138671875 0.050628662109375 0.70648193359375
0.1329345703125 0.053802490234375 0.7149658203125
0.1351318359375 0.044647216796875 0.724273681640625
0.13427734375 0.03363037109375 0.72796630859375
0.1302490234375 0.018157958984375 0.730560302734375
0.126220703125 -0.000823974609375 0.726318359375
0.1263427734375 -0.0052490234375 0.72021484375
0.128173828125 -0.013031005859375 0.7147216796875
0.03125 -0.0892333984375 0.746429443359375
0.0306396484375 -0.08050537109375 0.751373291015625
0.02978515625 -0.07281494140625 0.7579345703125
0.01904296875 -0.066802978515625 0.764068603515625
0.0089111328125 -0.063385009765625 0.767578125
0.000732421875 -0.05645751953125 0.766082763671875
-0.0074462890625 -0.05206298828125 0.756561279296875
-0.009033203125 -0.057159423828125 0.74859619140625
-0.0113525390625 -0.0614013671875 0.7415771484375
-0.00634765625 -0.07830810546875 0.738922119140625
0.0029296875 -0.0867919921875 0.73992919921875
0.0145263671875 -0.095977783203125 0.74090576171875
0.1268310546875 0.057891845703125 0.691497802734375
0.117919921875 0.06829833984375 0.689117431640625
0.107177734375 0.077911376953125 0.689239501953125
0.0970458984375 0.080780029296875 0.69183349609375
0.097900390625 0.083282470703125 0.69757080078125
0.099853515625 0.087005615234375 0.702728271484375
0.1092529296875 0.086822509765625 0.709075927734375
0.119873046875 0.079833984375 0.71392822265625
0.12744140625 0.069488525390625 0.717987060546875
-0.011474609375 -0.037567138671875 0.75958251953125
-0.0145263671875 -0.027069091796875 0.751434326171875
-0.0166015625 -0.01324462890625 0.744720458984375
-0.0150146484375 -0.00457763671875 0.730987548828125
-0.0155029296875 -0.005950927734375 0.723541259765625
-0.01513671875 -0.007537841796875 0.718475341796875
-0.019287109375 -0.022064208984375 0.720489501953125
-0.0189208984375 -0.03765869140625 0.728179931640625
-0.0179443359375 -0.054107666015625 0.731842041015625
0.0809326171875 0.081878662109375 0.687713623046875
0.06494140625 0.07598876953125 0.686553955078125
0.048828125 0.0650634765625 0.6903076171875
0.0467529296875 0.0517578125 0.699371337890625
0.054931640625 0.0576171875 0.703887939453125
0.059814453125 0.063751220703125 0.710418701171875
0.071044921875 0.07757568359375 0.713348388671875
0.078125 0.084320068359375 0.7098388671875
0.089111328125 0.088836669921875 0.7088623046875
-0.0098876953125 0.009979248046875 0.73406982421875
-0.0030517578125 0.018890380859375 0.731170654296875
0.0057373046875 0.0245361328125 0.7283935546875
0.01904296875 0.0296630859375 0.72174072265625
0.021484375 0.030670166015625 0.713043212890625
0.02587890625 0.033721923828125 0.705535888671875
0.01416015625 0.037567138671875 0.697723388671875
0 0.02362060546875 0.70458984375
-0.0108642578125 0.009185791015625 0.709503173828125
0.039306640625 0.0355224609375 0.703704833984375
0.0438232421875 0.03094482421875 0.71014404296875
0.0457763671875 0.030364990234375 0.71307373046875
0.046875 0.029693603515625 0.71746826171875
0.04833984375 0.028961181640625 0.721160888671875
0.050048828125 0.03009033203125 0.72802734375
0.0538330078125 0.03997802734375 0.73309326171875
0.056640625 0.048736572265625 0.72967529296875
0.059326171875 0.0596923828125 0.722930908203125
0.0277099609375 0.0316162109375 0.73187255859375
0.036376953125 0.032470703125 0.7344970703125
0.0445556640625 0.031036376953125 0.735992431640625
0.08935546875 -0.05755615234375 0.746551513671875
0.089111328125 -0.063751220703125 0.74176025390625
0.0904541015625 -0.07177734375 0.73822021484375
0.1187744140625 -0.009307861328125 0.736572265625
0.1092529296875 -0.024993896484375 0.742218017578125
0.1005859375 -0.03955078125 0.747283935546875
0.07373046875 -0.060943603515625 0.755096435546875
0.06005859375 -0.06561279296875 0.75823974609375
0.0450439453125 -0.068206787109375 0.761932373046875
0.0849609375 -0.032562255859375 0.761932373046875
0.0867919921875 -0.040679931640625 0.760589599609375
0.089111328125 -0.045745849609375 0.757598876953125
0.12353515625 0.00848388671875 0.7388916015625
0.122802734375 0.013397216796875 0.742156982421875
0.1195068359375 0.014892578125 0.747894287109375
0.111572265625 0.00872802734375 0.7528076171875
0.1038818359375 -0.00079345703125 0.754669189453125
0.09375 -0.010955810546875 0.759552001953125
0.068115234375 -0.031585693359375 0.76788330078125
0.0562744140625 -0.037689208984375 0.771820068359375
0.043701171875 -0.042938232421875 0.77392578125
0.0347900390625 -0.048919677734375 0.772918701171875
0.032470703125 -0.05535888671875 0.769805908203125
0.0318603515625 -0.061004638671875 0.76641845703125
0.0521240234375 0.034149169921875 0.742706298828125
0.0545654296875 0.033538818359375 0.750274658203125
0.0579833984375 0.031158447265625 0.75689697265625
0.0709228515625 0.04193115234375 0.758148193359375
0.0748291015625 0.053466796875 0.750213623046875
0.0755615234375 0.06414794921875 0.7437744140625
0.0736083984375 0.072235107421875 0.735809326171875
0.0701904296875 0.073150634765625 0.7298583984375
0.0673828125 0.072662353515625 0.7236328125
0.0157470703125 0.030670166015625 0.735748291015625
0.017578125 0.029693603515625 0.743682861328125
0.0185546875 0.027099609375 0.750091552734375
0.0240478515625 0.0238037109375 0.756683349609375
0.0340576171875 0.022735595703125 0.760833740234375
0.044921875 0.02081298828125 0.762542724609375
0.082275390625 0.075103759765625 0.7376708984375
0.0880126953125 0.0799560546875 0.73681640625
0.095458984375 0.08282470703125 0.7342529296875
0.1007080078125 0.08880615234375 0.7291259765625
0.1005859375 0.0902099609375 0.722564697265625
0.100341796875 0.0902099609375 0.71612548828125
-0.012939453125 0.000762939453125 0.746185302734375
-0.0093994140625 0.0013427734375 0.7525634765625
-0.00390625 0.003570556640625 0.75823974609375
0.00390625 0.010040283203125 0.75927734375
0.0096435546875 0.01654052734375 0.75750732421875
0.015380859375 0.02166748046875 0.756744384765625
0.1044921875 0.08099365234375 0.73651123046875
0.1103515625 0.074432373046875 0.741790771484375
0.1153564453125 0.065277099609375 0.746246337890625
0.12646484375 0.057769775390625 0.74261474609375
0.130859375 0.059417724609375 0.738037109375
0.1329345703125 0.059112548828125 0.73052978515625
-0.002197265625 -0.043701171875 0.77056884765625
0.0023193359375 -0.03887939453125 0.776641845703125
0.007568359375 -0.032379150390625 0.77972412109375
0.009033203125 -0.01861572265625 0.778472900390625
0.0037841796875 -0.009857177734375 0.7725830078125
0.0013427734375 -0.001708984375 0.766265869140625
0.1226806640625 0.04595947265625 0.750732421875
0.1214599609375 0.035797119140625 0.750396728515625
0.1187744140625 0.024505615234375 0.750640869140625
0.030517578125 -0.041900634765625 0.777435302734375
0.02392578125 -0.0382080078125 0.77935791015625
0.0185546875 -0.033203125 0.780426025390625
0.0816650390625 0.036529541015625 0.762725830078125
0.0965576171875 0.044342041015625 0.75732421875
0.1090087890625 0.05096435546875 0.7564697265625
0.0228271484375 -0.016754150390625 0.779296875
0.033935546875 -0.00714111328125 0.775177001953125
0.047119140625 0.006927490234375 0.770416259765625
0.070068359375 0.009857177734375 0.76959228515625
0.073974609375 -0.002593994140625 0.76922607421875
0.07763671875 -0.01336669921875 0.767822265625
0.0006103515625 0.112579345703125 0.663177490234375
0.01416015625 0.085693359375 0.6783447265625
0.023681640625 0.063812255859375 0.68603515625
0.09423828125 0.089599609375 0.68792724609375
0.0965576171875 0.100677490234375 0.688079833984375
0.100830078125 0.1181640625 0.685882568359375
-0.039794921875 0.005950927734375 0.717376708984375
-0.0272216796875 0.00372314453125 0.718658447265625
-0.0205078125 -0.00152587890625 0.71673583984375
0.1358642578125 0.044342041015625 0.68487548828125
0.14013671875 0.044097900390625 0.678924560546875
0.14404296875 0.044342041015625 0.66839599609375
0.142822265625 0.05926513671875 0.656036376953125
0.131103515625 0.080413818359375 0.66217041015625
0.12109375 0.105133056640625 0.670013427734375
-0.0516357421875 -0.029693603515625 0.712677001953125
-0.0467529296875 -0.05865478515625 0.7093505859375
-0.043212890625 -0.08538818359375 0.707763671875
-0.0325927734375 -0.09185791015625 0.71881103515625
-0.0242919921875 -0.081756591796875 0.726348876953125
-0.0174560546875 -0.073211669921875 0.730865478515625
0.146728515625 -0.02093505859375 0.700164794921875
0.16064453125 -0.01629638671875 0.687774658203125
0.1727294921875 -0.013641357421875 0.673980712890625
0.172119140625 -0.000640869140625 0.651275634765625
0.1654052734375 0.013885498046875 0.6502685546875
0.1575927734375 0.028350830078125 0.6490478515625
-0.038330078125 -0.1239013671875 0.70635986328125
-0.033935546875 -0.13824462890625 0.71240234375
-0.029296875 -0.153289794921875 0.720458984375
-0.008544921875 -0.150909423828125 0.73760986328125
0.0037841796875 -0.1341552734375 0.7410888671875
0.01708984375 -0.120208740234375 0.74493408203125
0.2205810546875 -0.070648193359375 0.668060302734375
0.20703125 -0.048858642578125 0.664215087890625
0.1942138671875 -0.029632568359375 0.658843994140625
-0.0185546875 -0.189849853515625 0.736846923828125
-0.013671875 -0.209228515625 0.74713134765625
-0.0052490234375 -0.23504638671875 0.757904052734375
0.2333984375 -0.07696533203125 0.54925537109375
0.2196044921875 -0.05914306640625 0.545684814453125
0.2071533203125 -0.0440673828125 0.542327880859375
0.1983642578125 -0.022796630859375 0.569854736328125
0.1971435546875 -0.0184326171875 0.60198974609375
0.191650390625 -0.01513671875 0.63067626953125
-0.041015625 -0.189117431640625 0.71209716796875
-0.056884765625 -0.207916259765625 0.689544677734375
-0.0732421875 -0.2252197265625 0.6640625
-0.0814208984375 -0.258087158203125 0.644287109375
-0.0787353515625 -0.27850341796875 0.65570068359375
-0.075439453125 -0.30450439453125 0.67010498046875
0.1881103515625 -0.02008056640625 0.540191650390625
0.1812744140625 -0.01043701171875 0.5372314453125
0.1746826171875 0.00146484375 0.5369873046875
0.1676025390625 0.019439697265625 0.5657958984375
0.1640625 0.02801513671875 0.59674072265625
0.1573486328125 0.035308837890625 0.626983642578125
-0.0533447265625 -0.1246337890625 0.68896484375
-0.0684814453125 -0.144927978515625 0.6661376953125
-0.07958984375 -0.16387939453125 0.640045166015625
-0.0892333984375 -0.195037841796875 0.616363525390625
-0.0885009765625 -0.21044921875 0.619842529296875
-0.087890625 -0.225830078125 0.627777099609375
0.159423828125 0.023223876953125 0.5380859375
0.1544189453125 0.035888671875 0.538726806640625
0.1539306640625 0.050750732421875 0.5361328125
-0.09912109375 -0.143798828125 0.606658935546875
-0.091552734375 -0.1524658203125 0.608154296875
-0.0887451171875 -0.166015625 0.610565185546875
0.2532958984375 -0.334228515625 0.76361083984375
0.2562255859375 -0.32781982421875 0.76507568359375
0.2593994140625 -0.321624755859375 0.761810302734375
0.2086181640625 -0.355438232421875 0.798980712890625
0.2099609375 -0.361846923828125 0.7974853515625
0.2099609375 -0.36627197265625 0.794830322265625
0.2215576171875 -0.361572265625 0.779815673828125
0.23291015625 -0.35137939453125 0.77203369140625
0.2431640625 -0.342620849609375 0.765869140625
0.1722412109375 -0.3892822265625 0.813568115234375
0.1824951171875 -0.38482666015625 0.8067626953125
0.195556640625 -0.380126953125 0.798095703125
0.155029296875 -0.390380859375 0.832183837890625
0.162109375 -0.390716552734375 0.8287353515625
0.164306640625 -0.393310546875 0.825653076171875
0.2738037109375 -0.37982177734375 0.759002685546875
0.2772216796875 -0.3778076171875 0.757965087890625
0.2835693359375 -0.38055419921875 0.75311279296875
0.258544921875 -0.34503173828125 0.755340576171875
0.2645263671875 -0.354583740234375 0.753692626953125
0.2674560546875 -0.36785888671875 0.753509521484375
0.1661376953125 -0.434722900390625 0.822509765625
0.16162109375 -0.4205322265625 0.824310302734375
0.16162109375 -0.4066162109375 0.82257080078125
0.16845703125 -0.45623779296875 0.835693359375
0.1728515625 -0.449310302734375 0.831268310546875
0.1746826171875 -0.445709228515625 0.826568603515625
0.2593994140625 -0.43328857421875 0.766754150390625
0.2640380859375 -0.43359375 0.767547607421875
0.2686767578125 -0.434814453125 0.76544189453125
0.2679443359375 -0.39678955078125 0.75469970703125
0.2659912109375 -0.41107177734375 0.758056640625
0.2611083984375 -0.423583984375 0.7589111328125
0.1962890625 -0.4671630859375 0.805450439453125
0.1885986328125 -0.463897705078125 0.8115234375
0.1815185546875 -0.4561767578125 0.81732177734375
0.2044677734375 -0.4774169921875 0.813262939453125
0.2064208984375 -0.471435546875 0.811279296875
0.2059326171875 -0.46966552734375 0.806365966796875
0.2349853515625 -0.46002197265625 0.785400390625
0.236083984375 -0.4620361328125 0.787872314453125
0.2369384765625 -0.466033935546875 0.78765869140625
0.2506103515625 -0.442596435546875 0.766845703125
0.2449951171875 -0.44866943359375 0.770904541015625
0.238525390625 -0.455780029296875 0.775238037109375
0.224609375 -0.464263916015625 0.785247802734375
0.2186279296875 -0.467620849609375 0.78997802734375
0.2113037109375 -0.468994140625 0.794830322265625
0.2196044921875 -0.462615966796875 0.75811767578125
0.223876953125 -0.462799072265625 0.76666259765625
0.22802734375 -0.4622802734375 0.7723388671875
0.2503662109375 -0.437347412109375 0.7557373046875
0.24658203125 -0.440460205078125 0.74896240234375
0.2437744140625 -0.4395751953125 0.740875244140625
0.235595703125 -0.44287109375 0.737762451171875
0.2279052734375 -0.4500732421875 0.74261474609375
0.2215576171875 -0.455810546875 0.74761962890625
0.2056884765625 -0.4644775390625 0.75628662109375
0.1986083984375 -0.467681884765625 0.762298583984375
0.1917724609375 -0.4693603515625 0.767181396484375
0.18994140625 -0.4725341796875 0.776519775390625
0.1949462890625 -0.47296142578125 0.78314208984375
0.1998291015625 -0.4716796875 0.79193115234375
0.26416015625 -0.385894775390625 0.747344970703125
0.259765625 -0.39141845703125 0.739166259765625
0.2559814453125 -0.39630126953125 0.7314453125
0.2509765625 -0.406158447265625 0.725860595703125
0.2484130859375 -0.416473388671875 0.72662353515625
0.2452392578125 -0.426422119140625 0.730010986328125
0.1763916015625 -0.46917724609375 0.77569580078125
0.171142578125 -0.466339111328125 0.779541015625
0.1650390625 -0.46209716796875 0.7852783203125
0.163330078125 -0.455108642578125 0.792816162109375
0.167236328125 -0.45269775390625 0.80206298828125
0.169921875 -0.449462890625 0.8115234375
0.2481689453125 -0.346771240234375 0.75189208984375
0.2445068359375 -0.355621337890625 0.74365234375
0.2423095703125 -0.365020751953125 0.735198974609375
0.246337890625 -0.379150390625 0.724853515625
0.2496337890625 -0.3846435546875 0.723236083984375
0.2513427734375 -0.392059326171875 0.724151611328125
0.1593017578125 -0.451507568359375 0.789642333984375
0.1556396484375 -0.443634033203125 0.788238525390625
0.156005859375 -0.435516357421875 0.787109375
0.15966796875 -0.419219970703125 0.79266357421875
0.160400390625 -0.4105224609375 0.801605224609375
0.16162109375 -0.403167724609375 0.8121337890625
0.2064208984375 -0.38043212890625 0.7825927734375
0.20458984375 -0.387298583984375 0.772705078125
0.20263671875 -0.39691162109375 0.7652587890625
0.2138671875 -0.399505615234375 0.7496337890625
0.2235107421875 -0.391510009765625 0.74114990234375
0.2322998046875 -0.38214111328125 0.7347412109375
0.1663818359375 -0.42340087890625 0.7794189453125
0.17822265625 -0.419586181640625 0.77227783203125
0.1907958984375 -0.41436767578125 0.764495849609375
0.203125 -0.42291259765625 0.751708984375
0.2047119140625 -0.43792724609375 0.749755859375
0.2099609375 -0.452606201171875 0.749267578125
0.23779296875 -0.422760009765625 0.72900390625
0.2371826171875 -0.408721923828125 0.72705078125
0.2386474609375 -0.39312744140625 0.725799560546875
0.1632080078125 -0.439544677734375 0.777496337890625
0.16943359375 -0.451873779296875 0.77178955078125
0.177734375 -0.4610595703125 0.770416259765625
0.0238037109375 0.35308837890625 0.61993408203125
0.019287109375 0.346954345703125 0.618682861328125
0.010986328125 0.337860107421875 0.61614990234375
0.0506591796875 0.30078125 0.6251220703125
0.05712890625 0.312225341796875 0.62762451171875
0.0601806640625 0.321746826171875 0.62945556640625
0.0550537109375 0.33251953125 0.62811279296875
0.0465087890625 0.340301513671875 0.625579833984375
0.0377197265625 0.348541259765625 0.62298583984375
-0.1767578125 0.171142578125 0.625335693359375
-0.173828125 0.160247802734375 0.629852294921875
-0.1715087890625 0.147796630859375 0.635955810546875
-0.1663818359375 0.135406494140625 0.639007568359375
-0.161376953125 0.13494873046875 0.63763427734375
-0.150634765625 0.13629150390625 0.63629150390625
-0.1590576171875 0.1959228515625 0.616668701171875
-0.1693115234375 0.190277099609375 0.61859130859375
-0.17578125 0.185516357421875 0.6207275390625
0.0029296875 0.405242919921875 0.60321044921875
-0.0050048828125 0.40234375 0.601776123046875
-0.01708984375 0.39495849609375 0.601318359375
0.022216796875 0.3695068359375 0.617095947265625
0.0179443359375 0.38153076171875 0.6138916015625
0.01220703125 0.39520263671875 0.610443115234375
-0.1995849609375 0.214141845703125 0.60284423828125
-0.19189453125 0.20416259765625 0.609619140625
-0.1851806640625 0.1942138671875 0.61474609375
-0.1865234375 0.2471923828125 0.593170166015625
-0.1942138671875 0.23797607421875 0.59246826171875
-0.200439453125 0.229400634765625 0.5963134765625
-0.001953125 0.47271728515625 0.587249755859375
-0.0111083984375 0.4722900390625 0.583587646484375
-0.02197265625 0.474212646484375 0.585235595703125
0.0059814453125 0.42578125 0.601226806640625
0.0047607421875 0.441986083984375 0.5963134765625
0.0042724609375 0.457183837890625 0.59222412109375
-0.2333984375 0.2451171875 0.5794677734375
-0.2218017578125 0.23980712890625 0.5860595703125
-0.2127685546875 0.231170654296875 0.59197998046875
-0.2352294921875 0.2779541015625 0.567138671875
-0.240234375 0.266632080078125 0.568084716796875
-0.2431640625 0.257110595703125 0.57000732421875
0.1011962890625 0.295745849609375 0.62274169921875
0.1015625 0.30816650390625 0.6246337890625
0.1043701171875 0.31622314453125 0.626953125
0.0892333984375 0.319793701171875 0.63189697265625
0.07763671875 0.319976806640625 0.631866455078125
0.0701904296875 0.322174072265625 0.630706787109375
-0.1722412109375 0.124237060546875 0.645660400390625
-0.1741943359375 0.111328125 0.650848388671875
-0.17919921875 0.097137451171875 0.65386962890625
-0.18212890625 0.0794677734375 0.6558837890625
-0.176025390625 0.07550048828125 0.655181884765625
-0.1690673828125 0.071258544921875 0.655181884765625
0.1964111328125 0.32257080078125 0.592132568359375
0.1925048828125 0.33282470703125 0.598419189453125
0.1898193359375 0.341064453125 0.603240966796875
0.166015625 0.338714599609375 0.611846923828125
0.1461181640625 0.331756591796875 0.619232177734375
0.12451171875 0.325958251953125 0.626007080078125
-0.1988525390625 0.060028076171875 0.66119384765625
-0.214111328125 0.035125732421875 0.66033935546875
-0.2310791015625 0.01226806640625 0.659759521484375
-0.247314453125 -0.0166015625 0.655303955078125
-0.24560546875 -0.022857666015625 0.654266357421875
-0.2423095703125 -0.032196044921875 0.650115966796875
0.2591552734375 0.40496826171875 0.553955078125
0.25146484375 0.40960693359375 0.56060791015625
0.2474365234375 0.413726806640625 0.566497802734375
0.232666015625 0.3975830078125 0.57952880859375
0.2208251953125 0.378692626953125 0.58905029296875
0.2060546875 0.36236572265625 0.5963134765625
-0.26953125 -0.023895263671875 0.650848388671875
-0.2891845703125 -0.03607177734375 0.642486572265625
-0.307861328125 -0.0433349609375 0.631500244140625
-0.3260498046875 -0.05792236328125 0.62042236328125
-0.328369140625 -0.067626953125 0.616180419921875
-0.3323974609375 -0.081024169921875 0.6121826171875
0.2889404296875 0.523590087890625 0.5257568359375
0.2813720703125 0.520751953125 0.531768798828125
0.2747802734375 0.517669677734375 0.535888671875
0.2657470703125 0.492767333984375 0.54705810546875
0.260986328125 0.466339111328125 0.55462646484375
0.253173828125 0.4403076171875 0.561920166015625
-0.34619140625 -0.056915283203125 0.60791015625
-0.364501953125 -0.05718994140625 0.591949462890625
-0.3848876953125 -0.055389404296875 0.5775146484375
-0.408203125 -0.060760498046875 0.5626220703125
-0.4166259765625 -0.069122314453125 0.5567626953125
-0.4246826171875 -0.0789794921875 0.549346923828125
0.2734375 0.609710693359375 0.524139404296875
0.26708984375 0.600494384765625 0.528411865234375
0.2606201171875 0.593017578125 0.5347900390625
0.260498046875 0.572998046875 0.535797119140625
0.2650146484375 0.557647705078125 0.535552978515625
0.2681884765625 0.537322998046875 0.536773681640625
-0.418212890625 -0.045440673828125 0.551971435546875
-0.4285888671875 -0.035736083984375 0.5369873046875
-0.4376220703125 -0.025146484375 0.528472900390625
-0.44970703125 -0.0186767578125 0.513671875
-0.45849609375 -0.025115966796875 0.507781982421875
-0.4681396484375 -0.03277587890625 0.49969482421875
0.2275390625 0.63848876953125 0.531341552734375
0.222900390625 0.630859375 0.534454345703125
0.218994140625 0.622222900390625 0.53936767578125
0.2291259765625 0.613037109375 0.537384033203125
0.240234375 0.6068115234375 0.536285400390625
0.248046875 0.597930908203125 0.535919189453125
-0.4456787109375 -0.0003662109375 0.51275634765625
-0.4466552734375 0.01348876953125 0.50567626953125
-0.4442138671875 0.028045654296875 0.504730224609375
-0.445068359375 0.04473876953125 0.49993896484375
-0.4520263671875 0.04241943359375 0.4912109375
-0.4598388671875 0.04022216796875 0.483917236328125
0.1236572265625 0.617431640625 0.55316162109375
0.1256103515625 0.608367919921875 0.55609130859375
0.1273193359375 0.60272216796875 0.56317138671875
0.1494140625 0.604766845703125 0.563568115234375
0.1712646484375 0.608856201171875 0.555938720703125
0.194580078125 0.613067626953125 0.5496826171875
-0.428466796875 0.07098388671875 0.509307861328125
-0.41552734375 0.0970458984375 0.5157470703125
-0.39697265625 0.12286376953125 0.520050048828125
-0.3868408203125 0.148101806640625 0.5205078125
-0.390625 0.151153564453125 0.51141357421875
-0.396484375 0.157501220703125 0.501495361328125
0.05029296875 0.5885009765625 0.5601806640625
0.0556640625 0.580902099609375 0.563751220703125
0.060546875 0.573699951171875 0.56829833984375
0.0755615234375 0.576507568359375 0.5726318359375
0.0897216796875 0.583953857421875 0.572265625
0.107177734375 0.5914306640625 0.572540283203125
-0.37353515625 0.1669921875 0.528961181640625
-0.3619384765625 0.184661865234375 0.530242919921875
-0.350830078125 0.200775146484375 0.529815673828125
-0.3438720703125 0.218109130859375 0.52288818359375
-0.34521484375 0.225067138671875 0.515655517578125
-0.349853515625 0.23419189453125 0.509796142578125
0.007568359375 0.54443359375 0.571868896484375
0.015625 0.538482666015625 0.57537841796875
0.0235595703125 0.534576416015625 0.577239990234375
0.0360107421875 0.542388916015625 0.5771484375
0.043701171875 0.55194091796875 0.5743408203125
0.053466796875 0.561798095703125 0.571990966796875
-0.3330078125 0.2216796875 0.531951904296875
-0.3226318359375 0.232208251953125 0.535003662109375
-0.3111572265625 0.237213134765625 0.538726806640625
-0.300537109375 0.250732421875 0.540283203125
-0.300537109375 0.261566162109375 0.535400390625
-0.300048828125 0.272705078125 0.532745361328125
0.0091552734375 0.489288330078125 0.586395263671875
0.01416015625 0.504302978515625 0.5845947265625
0.02099609375 0.520111083984375 0.582763671875
-0.286376953125 0.2470703125 0.55218505859375
-0.273193359375 0.250640869140625 0.557708740234375
-0.2613525390625 0.2503662109375 0.56573486328125
0.0390625 0.5220947265625 0.578765869140625
0.03515625 0.525146484375 0.579315185546875
0.0313720703125 0.52801513671875 0.579803466796875
0.01123046875 0.474029541015625 0.59130859375
0.0174560546875 0.47369384765625 0.589111328125
0.0218505859375 0.472686767578125 0.584503173828125
0.0291748046875 0.4832763671875 0.581695556640625
0.03271484375 0.49761962890625 0.581329345703125
0.03759765625 0.508575439453125 0.579071044921875
-0.289306640625 0.22357177734375 0.553009033203125
-0.277587890625 0.224395751953125 0.5567626953125
-0.266357421875 0.222503662109375 0.559906005859375
-0.253173828125 0.22869873046875 0.568206787109375
-0.2513427734375 0.234710693359375 0.570465087890625
-0.249755859375 0.2406005859375 0.5726318359375
-0.30029296875 0.23687744140625 0.5479736328125
-0.29931640625 0.2305908203125 0.54986572265625
-0.298828125 0.225555419921875 0.5498046875
0.0689697265625 0.557830810546875 0.569366455078125
0.067138671875 0.561248779296875 0.5712890625
0.0645751953125 0.565704345703125 0.57171630859375
0.046875 0.529693603515625 0.5750732421875
0.0545654296875 0.539703369140625 0.57244873046875
0.062255859375 0.547576904296875 0.571014404296875
-0.326416015625 0.20465087890625 0.53857421875
-0.31689453125 0.21221923828125 0.540802001953125
-0.3072509765625 0.21649169921875 0.545257568359375
-0.3414306640625 0.208526611328125 0.5311279296875
-0.339599609375 0.20452880859375 0.532562255859375
-0.3370361328125 0.20135498046875 0.5341796875
0.126708984375 0.585174560546875 0.566864013671875
0.1275634765625 0.5889892578125 0.570098876953125
0.12744140625 0.593536376953125 0.57080078125
0.0831298828125 0.561767578125 0.568695068359375
0.0958251953125 0.568603515625 0.568939208984375
0.1097412109375 0.574066162109375 0.567138671875
-0.365478515625 0.15936279296875 0.52996826171875
-0.3544921875 0.174896240234375 0.531982421875
-0.3447265625 0.186614990234375 0.53265380859375
-0.3817138671875 0.144744873046875 0.53045654296875
-0.38037109375 0.1427001953125 0.53302001953125
-0.3779296875 0.14154052734375 0.53076171875
0.2039794921875 0.593994140625 0.538726806640625
0.208251953125 0.601806640625 0.540283203125
0.2113037109375 0.609466552734375 0.541473388671875
0.1470947265625 0.58477783203125 0.556427001953125
0.1639404296875 0.58746337890625 0.548828125
0.18310546875 0.589202880859375 0.54150390625
-0.4091796875 0.07379150390625 0.509246826171875
-0.3980712890625 0.09759521484375 0.515838623046875
-0.385986328125 0.1207275390625 0.52130126953125
-0.432861328125 0.048675537109375 0.50799560546875
-0.427490234375 0.051971435546875 0.508575439453125
-0.4234619140625 0.053253173828125 0.507568359375
0.2412109375 0.569091796875 0.5330810546875
0.2449951171875 0.575164794921875 0.53515625
0.250244140625 0.580780029296875 0.53656005859375
0.21337890625 0.583282470703125 0.531280517578125
0.22412109375 0.578033447265625 0.52972412109375
0.23095703125 0.571319580078125 0.5289306640625
-0.4239501953125 0.012847900390625 0.514007568359375
-0.4241943359375 0.024169921875 0.509857177734375
-0.4208984375 0.038055419921875 0.5048828125
-0.4368896484375 -0.008087158203125 0.52197265625
-0.4315185546875 -0.003326416015625 0.521209716796875
-0.4256591796875 0.000335693359375 0.52056884765625
0.25244140625 0.509307861328125 0.538726806640625
0.2569580078125 0.51226806640625 0.540924072265625
0.261962890625 0.514251708984375 0.54168701171875
0.2408447265625 0.552032470703125 0.529266357421875
0.2452392578125 0.539703369140625 0.52947998046875
0.24853515625 0.524444580078125 0.532623291015625
-0.4010009765625 -0.025634765625 0.545623779296875
-0.4090576171875 -0.017242431640625 0.53558349609375
-0.4161376953125 -0.00640869140625 0.52593994140625
-0.4000244140625 -0.0458984375 0.563995361328125
-0.3946533203125 -0.040069580078125 0.561737060546875
-0.391357421875 -0.0362548828125 0.559326171875
0.2310791015625 0.423858642578125 0.568328857421875
0.2347412109375 0.423797607421875 0.570770263671875
0.23828125 0.422760009765625 0.57080078125
0.2467041015625 0.486083984375 0.54315185546875
0.240234375 0.4638671875 0.54962158203125
0.23486328125 0.443878173828125 0.555084228515625
-0.3408203125 -0.03753662109375 0.595794677734375
-0.35595703125 -0.0396728515625 0.58074951171875
-0.3714599609375 -0.034271240234375 0.56927490234375
-0.323974609375 -0.0440673828125 0.62060546875
-0.3240966796875 -0.038909912109375 0.616973876953125
-0.3232421875 -0.0360107421875 0.613006591796875
0.181640625 0.36016845703125 0.598785400390625
0.183837890625 0.356903076171875 0.601287841796875
0.1865234375 0.353912353515625 0.603607177734375
0.2203369140625 0.404083251953125 0.574127197265625
0.208984375 0.38800048828125 0.580810546875
0.19580078125 0.375701904296875 0.587615966796875
-0.2752685546875 -0.011688232421875 0.634552001953125
-0.291015625 -0.02178955078125 0.624969482421875
-0.30712890625 -0.028167724609375 0.61627197265625
-0.2525634765625 -0.004608154296875 0.65423583984375
-0.25439453125 -0.0009765625 0.65032958984375
-0.256103515625 -9.1552734375e-05 0.6446533203125
0.107421875 0.33233642578125 0.622802734375
0.107421875 0.3310546875 0.62689208984375
0.106201171875 0.327117919921875 0.628662109375
0.1634521484375 0.353851318359375 0.60076904296875
0.1435546875 0.345428466796875 0.60723876953125
0.125732421875 0.34136962890625 0.61358642578125
-0.21142578125 0.061920166015625 0.646697998046875
-0.22607421875 0.041229248046875 0.645538330078125
-0.2430419921875 0.02069091796875 0.645416259765625
-0.190185546875 0.082061767578125 0.6572265625
-0.193359375 0.08270263671875 0.654327392578125
-0.1968994140625 0.081878662109375 0.6502685546875
0.0677490234375 0.338531494140625 0.618377685546875
0.0675048828125 0.3360595703125 0.62353515625
0.065673828125 0.3311767578125 0.626983642578125
0.09326171875 0.335052490234375 0.61737060546875
0.0828857421875 0.335723876953125 0.617889404296875
0.074951171875 0.337982177734375 0.615753173828125
-0.186767578125 0.121246337890625 0.629486083984375
-0.1876220703125 0.109832763671875 0.6336669921875
-0.192138671875 0.096893310546875 0.63970947265625
-0.1754150390625 0.135955810546875 0.638702392578125
-0.1788330078125 0.134307861328125 0.633270263671875
-0.1832275390625 0.133148193359375 0.62884521484375
0.0142822265625 0.41253662109375 0.60357666015625
0.017822265625 0.413848876953125 0.6011962890625
0.0203857421875 0.41461181640625 0.59722900390625
0.0218505859375 0.42864990234375 0.588623046875
0.023193359375 0.44207763671875 0.585418701171875
0.02392578125 0.45709228515625 0.5831298828125
-0.24462890625 0.221893310546875 0.56805419921875
-0.23291015625 0.21728515625 0.57440185546875
-0.2235107421875 0.21240234375 0.578826904296875
-0.214599609375 0.208984375 0.587982177734375
-0.2119140625 0.213134765625 0.591796875
-0.2081298828125 0.2176513671875 0.594512939453125
0.0330810546875 0.361968994140625 0.61767578125
0.0355224609375 0.365142822265625 0.61358642578125
0.0380859375 0.368011474609375 0.608001708984375
0.0343017578125 0.380401611328125 0.600616455078125
0.030029296875 0.39019775390625 0.598480224609375
0.0260009765625 0.402587890625 0.595489501953125
-0.210205078125 0.197052001953125 0.587921142578125
-0.2047119140625 0.18865966796875 0.592742919921875
-0.2005615234375 0.178192138671875 0.597442626953125
-0.1912841796875 0.172698974609375 0.606658935546875
-0.1881103515625 0.176544189453125 0.611785888671875
-0.1844482421875 0.179931640625 0.6158447265625
0.0618896484375 0.34600830078125 0.610687255859375
0.0543212890625 0.352386474609375 0.607574462890625
0.046630859375 0.359527587890625 0.604400634765625
-0.1929931640625 0.160308837890625 0.605926513671875
-0.1898193359375 0.150909423828125 0.61151123046875
-0.18798828125 0.14111328125 0.61627197265625
-0.136962890625 0.374969482421875 0.45635986328125
-0.13720703125 0.38031005859375 0.480987548828125
-0.1387939453125 0.38592529296875 0.50494384765625
-0.110595703125 0.469085693359375 0.496551513671875
-0.1016845703125 0.46612548828125 0.473419189453125
-0.0888671875 0.464813232421875 0.450042724609375
-0.094970703125 0.43450927734375 0.4312744140625
-0.110595703125 0.405303955078125 0.437255859375
-0.1239013671875 0.38836669921875 0.435516357421875
-0.1513671875 0.362091064453125 0.43182373046875
-0.16943359375 0.35198974609375 0.4273681640625
-0.193359375 0.342529296875 0.41552734375
-0.2171630859375 0.35296630859375 0.427032470703125
-0.2099609375 0.367645263671875 0.452667236328125
-0.20849609375 0.38006591796875 0.48065185546875
-0.1009521484375 0.62518310546875 0.467132568359375
-0.091552734375 0.620086669921875 0.44537353515625
-0.080322265625 0.615478515625 0.4293212890625
-0.0672607421875 0.587066650390625 0.422515869140625
-0.064453125 0.555633544921875 0.421905517578125
-0.0638427734375 0.5194091796875 0.42388916015625
-0.262939453125 0.34234619140625 0.38861083984375
-0.283447265625 0.357269287109375 0.377044677734375
-0.301025390625 0.37109375 0.368804931640625
-0.3148193359375 0.396881103515625 0.370849609375
-0.313232421875 0.41546630859375 0.389190673828125
-0.314697265625 0.426300048828125 0.41229248046875
-0.0196533203125 0.721923828125 0.464599609375
-0.0125732421875 0.713623046875 0.442138671875
-0.007080078125 0.699798583984375 0.425323486328125
-0.0216064453125 0.67462158203125 0.410919189453125
-0.03857421875 0.652984619140625 0.41094970703125
-0.05517578125 0.63018798828125 0.415130615234375
-0.3302001953125 0.373046875 0.346710205078125
-0.3536376953125 0.3616943359375 0.330963134765625
-0.374755859375 0.346923828125 0.322479248046875
-0.393310546875 0.343353271484375 0.322479248046875
-0.4013671875 0.3541259765625 0.33709716796875
-0.4051513671875 0.364349365234375 0.35589599609375
0.1143798828125 0.7327880859375 0.466949462890625
0.1177978515625 0.72125244140625 0.44024658203125
0.1182861328125 0.705322265625 0.417144775390625
0.068603515625 0.675750732421875 0.40435791015625
0.037109375 0.681182861328125 0.412750244140625
0.0125732421875 0.684326171875 0.413177490234375
-0.3955078125 0.31329345703125 0.315582275390625
