# XYZ point cloud file
0.394195556640625 -0.048828125 0.40765380859375
0.4152069091796875 -0.03857421875 0.43896484375
0.436431884765625 -0.032470703125 0.46783447265625
0.143280029296875 -0.41552734375 0.63140869140625
0.1356201171875 -0.416259765625 0.5909423828125
0.1257476806640625 -0.41064453125 0.55462646484375
0.3427734375 0.020263671875 0.4921875
0.333099365234375 0.01171875 0.4603271484375
0.31866455078125 0.004150390625 0.42584228515625
0.2992095947265625 0.025146484375 0.39642333984375
0.29254150390625 0.0419921875 0.4151611328125
0.2854156494140625 0.05615234375 0.43341064453125
0.276123046875 0.050048828125 0.4683837890625
0.2818603515625 0.044677734375 0.4866943359375
0.2848968505859375 0.046630859375 0.51080322265625
0.0520782470703125 -0.275146484375 0.615234375
0.04388427734375 -0.281982421875 0.58843994140625
0.0308837890625 -0.2822265625 0.5684814453125
0.0145111083984375 -0.30029296875 0.53973388671875
0.0207977294921875 -0.31591796875 0.5301513671875
0.0313720703125 -0.32861328125 0.5181884765625
0.0713348388671875 -0.335693359375 0.543701171875
0.0765380859375 -0.33154296875 0.58209228515625
0.0892333984375 -0.328857421875 0.6192626953125
0.3490447998046875 -0.051025390625 0.38470458984375
0.3376007080078125 -0.04052734375 0.38787841796875
0.324859619140625 -0.027099609375 0.381591796875
0.076019287109375 -0.359375 0.4989013671875
0.0969390869140625 -0.3759765625 0.5025634765625
0.108978271484375 -0.388671875 0.508056640625
0.260284423828125 0.098388671875 0.48858642578125
0.2583770751953125 0.096435546875 0.50421142578125
0.255340576171875 0.096923828125 0.5252685546875
0.264129638671875 0.070556640625 0.4598388671875
0.25927734375 0.07763671875 0.4700927734375
0.2573699951171875 0.09033203125 0.4754638671875
-0.01483154296875 -0.259765625 0.57366943359375
-0.001190185546875 -0.263671875 0.56903076171875
0.0040130615234375 -0.272705078125 0.5657958984375
-0.0041656494140625 -0.245361328125 0.6173095703125
-0.00921630859375 -0.25146484375 0.59735107421875
-0.019805908203125 -0.255859375 0.5810546875
0.2574615478515625 0.1240234375 0.4674072265625
0.2674560546875 0.157470703125 0.4525146484375
0.2776336669921875 0.197021484375 0.43243408203125
-0.1100006103515625 -0.316650390625 0.55377197265625
-0.075592041015625 -0.290283203125 0.5660400390625
-0.04144287109375 -0.270751953125 0.57196044921875
-0.0257415771484375 -0.2939453125 -0.58380126953125
-0.050628662109375 -0.239501953125 -0.636474609375
-0.0896148681640625 -0.180419921875 -0.68023681640625
-0.0740203857421875 -0.04052734375 -0.71099853515625
-0.021270751953125 0.023681640625 -0.70037841796875
0.02032470703125 0.08544921875 -0.6783447265625
0.0823516845703125 0.068359375 -0.6280517578125
0.105072021484375 0.013916015625 -0.58721923828125
0.127593994140625 -0.028564453125 -0.5552978515625
0.1259307861328125 -0.1318359375 -0.51300048828125
0.0885467529296875 -0.198486328125 -0.52203369140625
0.0535125732421875 -0.267822265625 -0.5255126953125
-0.0357513427734375 -0.388671875 -0.50836181640625
-0.0809326171875 -0.4345703125 -0.48486328125
-0.1235504150390625 -0.471923828125 -0.45416259765625
-0.1776885986328125 -0.4697265625 -0.47747802734375
-0.2104034423828125 -0.436767578125 -0.52685546875
-0.2428131103515625 -0.39111328125 -0.5640869140625
-0.2498779296875 -0.28759765625 -0.63934326171875
-0.2093505859375 -0.22802734375 -0.67437744140625
-0.1655731201171875 -0.168701171875 -0.69989013671875
0.085784912109375 -0.405517578125 -0.305419921875
0.0579071044921875 -0.38623046875 -0.39202880859375
0.031707763671875 -0.36328125 -0.4638671875
0.171661376953125 -0.095458984375 -0.45660400390625
0.19415283203125 -0.127197265625 -0.38067626953125
0.2144012451171875 -0.148193359375 -0.3123779296875
0.21337890625 -0.22705078125 -0.231689453125
0.18963623046875 -0.28955078125 -0.226318359375
0.157470703125 -0.35546875 -0.2237548828125
0.0861663818359375 -0.451904296875 -0.19189453125
0.045806884765625 -0.48681640625 -0.1693115234375
0.002593994140625 -0.511474609375 -0.14385986328125
-0.0764617919921875 -0.53759765625 -0.2034912109375
-0.1094970703125 -0.52978515625 -0.28228759765625
-0.1436004638671875 -0.512939453125 -0.36309814453125
0.2115631103515625 -0.37109375 0.0946044921875
0.1864471435546875 -0.381103515625 -0.00201416015625
0.15496826171875 -0.395263671875 -0.11297607421875
0.2631683349609375 -0.164306640625 -0.1378173828125
0.2783355712890625 -0.16796875 -0.04290771484375
0.2840423583984375 -0.15283203125 0.0577392578125
0.28765869140625 -0.214111328125 0.1446533203125
0.2731781005859375 -0.270751953125 0.1575927734375
0.2524261474609375 -0.3134765625 0.16162109375
0.2003936767578125 -0.393310546875 0.19451904296875
0.162445068359375 -0.42138671875 0.2186279296875
0.125732421875 -0.437744140625 0.234375
0.0562744140625 -0.472900390625 0.170166015625
0.034576416015625 -0.49560546875 0.0751953125
-0.0080108642578125 -0.51904296875 -0.0323486328125
0.264190673828125 -0.337158203125 0.301513671875
0.2521514892578125 -0.337890625 0.2762451171875
0.243988037109375 -0.34765625 0.2314453125
0.3098907470703125 -0.165283203125 0.20550537109375
0.314239501953125 -0.175537109375 0.241943359375
0.32452392578125 -0.181884765625 0.2677001953125
0.15673828125 -0.416015625 0.36273193359375
0.140228271484375 -0.421875 0.34759521484375
0.12225341796875 -0.427734375 0.319580078125
0.3138885498046875 -0.099853515625 0.21429443359375
0.3133392333984375 -0.0634765625 0.26947021484375
0.3094329833984375 -0.030517578125 0.3243408203125
0.05810546875 -0.37548828125 0.4376220703125
0.067138671875 -0.397705078125 0.3895263671875
0.0736541748046875 -0.422607421875 0.34185791015625
0.2643585205078125 0.70166015625 0.18194580078125
0.27972412109375 0.690673828125 0.23504638671875
0.279022216796875 0.68701171875 0.2911376953125
0.3242340087890625 0.460693359375 0.2689208984375
0.3317718505859375 0.4560546875 0.1968994140625
0.343017578125 0.445556640625 0.1175537109375
0.3359375 0.5146484375 0.0513916015625
0.3224945068359375 0.58837890625 0.06884765625
0.296234130859375 0.6572265625 0.09039306640625
-0.548736572265625 -0.512939453125 0.13189697265625
-0.4954986572265625 -0.531494140625 0.15380859375
-0.4479522705078125 -0.55810546875 0.16943359375
-0.375152587890625 -0.537109375 0.25970458984375
-0.3717193603515625 -0.50341796875 0.33514404296875
-0.35736083984375 -0.473388671875 0.402099609375
-0.5377197265625 -0.453857421875 0.31585693359375
-0.5572509765625 -0.459228515625 0.25787353515625
-0.571807861328125 -0.4716796875 0.1904296875
-0.14898681640625 -0.013916015625 -0.73590087890625
-0.19061279296875 0.093505859375 -0.755615234375
-0.2327117919921875 0.20654296875 -0.7591552734375
-0.2226715087890625 0.38720703125 -0.72894287109375
-0.159820556640625 0.455078125 -0.69671630859375
-0.1017608642578125 0.50146484375 -0.666015625
-0.0124359130859375 0.43505859375 -0.6630859375
0.01544189453125 0.328857421875 -0.66796875
0.0362701416015625 0.2294921875 -0.662841796875
-0.325714111328125 -0.278564453125 -0.63702392578125
-0.36590576171875 -0.212646484375 -0.6605224609375
-0.4190673828125 -0.133544921875 -0.67791748046875
-0.43212890625 0.03125 -0.705810546875
-0.38653564453125 0.12841796875 -0.73065185546875
-0.3394927978515625 0.22216796875 -0.74102783203125
-0.5667266845703125 0.649169921875 -0.06890869140625
-0.5696563720703125 0.6279296875 0.02081298828125
-0.5652313232421875 0.59033203125 0.0994873046875
-0.496856689453125 0.638916015625 0.20367431640625
-0.427520751953125 0.7099609375 0.21929931640625
-0.3653564453125 0.78564453125 0.225341796875
-0.323699951171875 0.86767578125 0.1688232421875
-0.3267822265625 0.89306640625 0.09912109375
-0.3309173583984375 0.90869140625 0.0283203125
-0.370941162109375 0.879638671875 -0.06915283203125
-0.4347686767578125 0.81982421875 -0.09320068359375
-0.4977264404296875 0.74853515625 -0.11920166015625
-0.6143035888671875 0.57666015625 -0.19183349609375
-0.6680908203125 0.490234375 -0.2208251953125
-0.70928955078125 0.400390625 -0.2442626953125
-0.745849609375 0.299072265625 -0.194580078125
-0.7513885498046875 0.28173828125 -0.1046142578125
-0.7469635009765625 0.25537109375 -0.034912109375
-0.7047882080078125 0.291015625 0.074951171875
-0.6583709716796875 0.381591796875 0.1114501953125
-0.6095123291015625 0.4658203125 0.15045166015625
-0.4878997802734375 0.650634765625 -0.421142578125
-0.5158233642578125 0.66845703125 -0.3328857421875
-0.539520263671875 0.67431640625 -0.24652099609375
-0.3050689697265625 0.932861328125 -0.13226318359375
-0.28643798828125 0.927734375 -0.2037353515625
-0.260833740234375 0.90673828125 -0.2833251953125
-0.2802276611328125 0.8251953125 -0.3973388671875
-0.3355865478515625 0.766845703125 -0.44134521484375
-0.39874267578125 0.695068359375 -0.48687744140625
-0.5030975341796875 0.529052734375 -0.53021240234375
-0.561065673828125 0.4384765625 -0.53973388671875
-0.6035308837890625 0.34716796875 -0.533935546875
-0.6689910888671875 0.29541015625 -0.4697265625
-0.7016143798828125 0.315673828125 -0.4130859375
-0.72222900390625 0.319091796875 -0.34149169921875
-0.3239288330078125 0.40234375 -0.71136474609375
-0.3699951171875 0.48974609375 -0.66357421875
-0.4100189208984375 0.563232421875 -0.58966064453125
-0.186614990234375 0.80712890625 -0.4405517578125
-0.1340789794921875 0.73095703125 -0.5166015625
-0.092681884765625 0.638427734375 -0.57904052734375
-0.5062713623046875 0.03466796875 -0.66741943359375
-0.5509033203125 0.12060546875 -0.629638671875
-0.6003875732421875 0.1962890625 -0.5892333984375
0.012603759765625 0.78173828125 0.3782958984375
0.0293121337890625 0.779052734375 0.4251708984375
0.033355712890625 0.783935546875 0.47320556640625
0.1345367431640625 0.824951171875 0.4189453125
0.1283111572265625 0.8173828125 0.3848876953125
0.123565673828125 0.813720703125 0.3436279296875
0.0853118896484375 0.828125 0.32452392578125
0.0592041015625 0.822265625 0.3311767578125
0.0302581787109375 0.80712890625 0.332275390625
-0.67730712890625 -0.188720703125 0.1846923828125
-0.6797637939453125 -0.223876953125 0.18731689453125
-0.6772308349609375 -0.258544921875 0.19757080078125
-0.6696319580078125 -0.30810546875 0.24554443359375
-0.66998291015625 -0.315673828125 0.2884521484375
-0.6749267578125 -0.3232421875 0.32940673828125
-0.6788330078125 -0.191162109375 0.35235595703125
-0.672607421875 -0.1826171875 0.30633544921875
-0.671142578125 -0.1708984375 0.25506591796875
-0.0677490234375 0.8955078125 0.20758056640625
-0.04217529296875 0.8583984375 0.2493896484375
-0.0202484130859375 0.81982421875 0.29266357421875
0.1050872802734375 0.8349609375 0.2650146484375
0.10015869140625 0.86181640625 0.22900390625
0.0823211669921875 0.890380859375 0.1903076171875
0.0301513671875 0.93017578125 0.155029296875
-0.0101318359375 0.935546875 0.15777587890625
-0.0419769287109375 0.934326171875 0.15032958984375
-0.7742156982421875 -0.085205078125 -0.0748291015625
-0.775115966796875 -0.136474609375 -0.068359375
-0.772857666015625 -0.189208984375 -0.05706787109375
-0.7428436279296875 -0.255126953125 0.01873779296875
-0.71746826171875 -0.271728515625 0.08099365234375
-0.69122314453125 -0.28369140625 0.1312255859375
-0.6876983642578125 -0.12939453125 0.12457275390625
-0.7114105224609375 -0.09521484375 0.05279541015625
-0.740753173828125 -0.05810546875 -0.0045166015625
-0.121551513671875 0.974365234375 -0.01361083984375
-0.1148529052734375 0.96630859375 0.04888916015625
-0.10748291015625 0.953857421875 0.0986328125
0.06072998046875 0.939697265625 0.10174560546875
0.0539093017578125 0.953369140625 0.04925537109375
0.050048828125 0.956298828125 -0.01568603515625
0.0163726806640625 0.96630859375 -0.0726318359375
-0.020843505859375 0.97900390625 -0.0657958984375
-0.0649566650390625 0.98193359375 -0.082763671875
-0.76507568359375 -0.035888671875 -0.33642578125
-0.76263427734375 -0.094970703125 -0.32415771484375
-0.765472412109375 -0.15087890625 -0.3035888671875
-0.763458251953125 -0.210205078125 -0.2283935546875
-0.7693023681640625 -0.215576171875 -0.16748046875
-0.77557373046875 -0.228759765625 -0.10552978515625
-0.77490234375 -0.0029296875 -0.143798828125
-0.768707275390625 0.015380859375 -0.21484375
-0.7675018310546875 0.02587890625 -0.2835693359375
-0.0547943115234375 0.943603515625 -0.2669677734375
-0.077728271484375 0.961669921875 -0.19915771484375
-0.0905303955078125 0.97314453125 -0.14044189453125
0.06622314453125 0.94287109375 -0.1341552734375
0.0779571533203125 0.92578125 -0.1925048828125
0.0803070068359375 0.906494140625 -0.23553466796875
0.0699920654296875 0.89208984375 -0.29345703125
0.04046630859375 0.89892578125 -0.308349609375
0.0049285888671875 0.90185546875 -0.31866455078125
-0.70062255859375 -0.096923828125 -0.5203857421875
-0.7037353515625 -0.159423828125 -0.49237060546875
-0.710784912109375 -0.204345703125 -0.46685791015625
-0.7203826904296875 -0.230712890625 -0.4180908203125
-0.738677978515625 -0.220947265625 -0.386962890625
-0.7508697509765625 -0.217529296875 -0.33966064453125
-0.7518768310546875 0.031982421875 -0.40631103515625
-0.7357330322265625 0.024169921875 -0.45806884765625
-0.71893310546875 0.00146484375 -0.5054931640625
0.1134033203125 0.858642578125 -0.3011474609375
0.138641357421875 0.8115234375 -0.3272705078125
0.1734466552734375 0.751220703125 -0.36090087890625
0.185455322265625 0.653076171875 -0.435546875
0.154083251953125 0.630859375 -0.46856689453125
0.128204345703125 0.613037109375 -0.49652099609375
0.0708465576171875 0.69091796875 -0.49749755859375
0.0394439697265625 0.768798828125 -0.45062255859375
-0.0007476806640625 0.8486328125 -0.38568115234375
-0.6559906005859375 -0.093994140625 -0.55389404296875
-0.62286376953125 -0.15380859375 -0.56988525390625
-0.5916748046875 -0.22216796875 -0.57000732421875
-0.5596466064453125 -0.34033203125 -0.5302734375
-0.5710906982421875 -0.38037109375 -0.49102783203125
-0.5899200439453125 -0.417236328125 -0.454833984375
-0.6513824462890625 -0.392578125 -0.431884765625
-0.6747589111328125 -0.333251953125 -0.44287109375
-0.692901611328125 -0.2783203125 -0.44085693359375
0.064178466796875 0.593017578125 -0.54949951171875
0.0305023193359375 0.57958984375 -0.57989501953125
-0.00531005859375 0.564453125 -0.60870361328125
-0.166961669921875 0.89013671875 -0.34234619140625
-0.1157989501953125 0.904052734375 -0.33184814453125
-0.0760345458984375 0.909912109375 -0.33026123046875
-0.686981201171875 0.02880859375 -0.54522705078125
-0.678802490234375 0.099853515625 -0.53826904296875
-0.667083740234375 0.178466796875 -0.53363037109375
-0.4914398193359375 -0.126220703125 -0.6470947265625
-0.5179443359375 -0.187255859375 -0.62957763671875
-0.5329132080078125 -0.240966796875 -0.599609375
-0.2530670166015625 0.95654296875 -0.05364990234375
-0.2008514404296875 0.975830078125 -0.0550537109375
-0.1492767333984375 0.9814453125 -0.06829833984375
-0.7588348388671875 0.093505859375 -0.3349609375
-0.756134033203125 0.1630859375 -0.3203125
-0.7503509521484375 0.233642578125 -0.2957763671875
-0.250701904296875 0.872802734375 0.2034912109375
-0.1895599365234375 0.901611328125 0.1744384765625
-0.1389617919921875 0.9228515625 0.16668701171875
-0.7674407958984375 0.026611328125 -0.066650390625
-0.762115478515625 0.086181640625 -0.03680419921875
-0.7536163330078125 0.148681640625 -0.0087890625
-0.271575927734375 0.7998046875 0.2813720703125
-0.2282867431640625 0.751708984375 0.3328857421875
-0.1902313232421875 0.713623046875 0.3834228515625
-0.1159210205078125 0.72412109375 0.40240478515625
-0.069610595703125 0.754150390625 0.37078857421875
-0.031005859375 0.7763671875 0.3514404296875
-0.6668548583984375 -0.115234375 0.21209716796875
-0.6627044677734375 -0.06591796875 0.23992919921875
-0.64117431640625 -0.00732421875 0.27239990234375
-0.6430511474609375 0.08837890625 0.2421875
-0.669830322265625 0.1328125 0.18536376953125
-0.703857421875 0.174072265625 0.11724853515625
-0.1449432373046875 0.670166015625 0.460693359375
-0.1317138671875 0.669189453125 0.49395751953125
-0.1315765380859375 0.67529296875 0.52642822265625
-0.6094818115234375 0.0087890625 0.427001953125
-0.600830078125 0.014404296875 0.3980712890625
-0.6066436767578125 0.025390625 0.35760498046875
-0.5245513916015625 0.509765625 0.2508544921875
-0.4832305908203125 0.462646484375 0.32952880859375
-0.4442596435546875 0.419921875 0.39910888671875
-0.3361968994140625 0.4716796875 0.46673583984375
-0.276458740234375 0.555908203125 0.45306396484375
-0.2115325927734375 0.628662109375 0.44097900390625
-0.579925537109375 0.12548828125 0.35064697265625
-0.5193939208984375 0.2041015625 0.38958740234375
-0.470062255859375 0.289794921875 0.43450927734375
-0.192352294921875 0.624755859375 0.5557861328125
-0.23052978515625 0.557861328125 0.55828857421875
-0.2613372802734375 0.490234375 0.56573486328125
-0.4754638671875 0.187255859375 0.51690673828125
-0.51800537109375 0.13427734375 0.49493408203125
-0.5781097412109375 0.07666015625 0.4697265625
-0.340087890625 0.39990234375 0.51116943359375
-0.308685302734375 0.412841796875 0.5380859375
-0.293914794921875 0.42041015625 0.55633544921875
-0.4232330322265625 0.23291015625 0.5357666015625
-0.417938232421875 0.25537109375 0.51824951171875
-0.41668701171875 0.291259765625 0.50091552734375
-0.365142822265625 0.336181640625 0.5181884765625
-0.34674072265625 0.317626953125 0.53759765625
-0.330841064453125 0.302734375 0.5592041015625
0.2281036376953125 0.758544921875 0.1737060546875
0.1973419189453125 0.7841796875 0.21954345703125
0.154876708984375 0.805419921875 0.27020263671875
-0.6628570556640625 -0.3408203125 0.180419921875
-0.654571533203125 -0.38916015625 0.15863037109375
-0.62738037109375 -0.439697265625 0.138916015625
0.2626495361328125 0.7314453125 0.08050537109375
0.2542724609375 0.741943359375 0.05364990234375
0.2424163818359375 0.7548828125 0.020263671875
0.19573974609375 0.824951171875 0.025634765625
0.1472625732421875 0.864501953125 0.0745849609375
0.1075592041015625 0.89892578125 0.11688232421875
-0.7458343505859375 -0.29638671875 -0.04547119140625
-0.724395751953125 -0.35302734375 -0.05322265625
-0.688720703125 -0.407958984375 -0.069580078125
-0.6423492431640625 -0.466064453125 -0.02850341796875
-0.6324310302734375 -0.47314453125 0.0225830078125
-0.612518310546875 -0.478759765625 0.078125
0.2200164794921875 0.796142578125 -0.05926513671875
0.20953369140625 0.809814453125 -0.08685302734375
0.2067718505859375 0.810791015625 -0.12396240234375
0.182525634765625 0.83935546875 -0.13916015625
0.1400146484375 0.879638671875 -0.11260986328125
0.1029815673828125 0.91943359375 -0.0858154296875
-0.7456207275390625 -0.26904296875 -0.2694091796875
-0.7230072021484375 -0.327392578125 -0.25860595703125
-0.7012939453125 -0.38134765625 -0.24737548828125
-0.6787567138671875 -0.426025390625 -0.20123291015625
-0.679534912109375 -0.430908203125 -0.15997314453125
-0.668792724609375 -0.444580078125 -0.12579345703125
0.207550048828125 0.79638671875 -0.21844482421875
0.203704833984375 0.781494140625 -0.2772216796875
0.20672607421875 0.74658203125 -0.33184814453125
-0.6508636474609375 -0.432861328125 -0.3857421875
-0.6756591796875 -0.42529296875 -0.34747314453125
-0.6793365478515625 -0.42333984375 -0.29913330078125
0.2989044189453125 0.0419921875 0.1160888671875
0.301483154296875 -0.0205078125 0.1123046875
0.29840087890625 -0.08251953125 0.1240234375
0.253875732421875 -0.099853515625 -0.229736328125
0.2563323974609375 -0.04052734375 -0.22467041015625
0.26544189453125 0.02099609375 -0.22930908203125
0.2927703857421875 0.078125 -0.1435546875
0.2999725341796875 0.083740234375 -0.05755615234375
0.29791259765625 0.10693359375 0.0289306640625
-0.13909912109375 -0.4931640625 0.187255859375
-0.15594482421875 -0.527587890625 0.10565185546875
-0.1704559326171875 -0.54541015625 0.0111083984375
-0.1497039794921875 -0.552734375 -0.08355712890625
-0.122314453125 -0.55224609375 -0.0902099609375
-0.0784912109375 -0.54541015625 -0.1043701171875
0.02764892578125 -0.45361328125 0.2574462890625
-0.021697998046875 -0.458984375 0.25164794921875
-0.0681304931640625 -0.4599609375 0.26324462890625
0.337677001953125 0.28076171875 -0.15374755859375
0.342071533203125 0.3173828125 -0.09869384765625
0.3463287353515625 0.363525390625 -0.0399169921875
0.345245361328125 0.350830078125 0.05169677734375
0.3233795166015625 0.281982421875 0.06878662109375
0.3117523193359375 0.205810546875 0.10003662109375
0.2896575927734375 0.12841796875 -0.21783447265625
0.30120849609375 0.17529296875 -0.2125244140625
0.319488525390625 0.22119140625 -0.21112060546875
-0.2984466552734375 -0.600341796875 -0.0501708984375
-0.263397216796875 -0.578369140625 -0.0721435546875
-0.2313079833984375 -0.564697265625 -0.07513427734375
-0.1962432861328125 -0.48974609375 0.25592041015625
-0.2572021484375 -0.524658203125 0.23443603515625
-0.3198699951171875 -0.556884765625 0.20733642578125
-0.356658935546875 -0.59326171875 0.12530517578125
-0.3372344970703125 -0.6025390625 0.07659912109375
-0.3245697021484375 -0.60888671875 0.02386474609375
0.2926177978515625 0.2314453125 0.33636474609375
0.29913330078125 0.21142578125 0.2711181640625
0.3003082275390625 0.175048828125 0.2161865234375
-0.141937255859375 -0.4296875 0.36016845703125
-0.1506500244140625 -0.4013671875 0.4212646484375
-0.1579742431640625 -0.37548828125 0.4759521484375
0.2848663330078125 0.177490234375 0.3983154296875
0.2791290283203125 0.1318359375 0.40704345703125
0.27740478515625 0.09326171875 0.4296875
0.3009033203125 0.02392578125 0.3271484375
0.2989654541015625 0.0556640625 0.2716064453125
0.29541015625 0.09130859375 0.21044921875
-0.0704803466796875 -0.413330078125 0.34747314453125
-0.0309600830078125 -0.3818359375 0.40740966796875
0.0086517333984375 -0.3603515625 0.456298828125
-0.0196075439453125 -0.298828125 0.5460205078125
-0.062042236328125 -0.31298828125 0.52655029296875
-0.1041259765625 -0.333251953125 0.52398681640625
0.2264404296875 0.588623046875 -0.42431640625
0.246185302734375 0.50439453125 -0.43115234375
0.2643280029296875 0.4228515625 -0.4290771484375
0.2587432861328125 0.32666015625 -0.4300537109375
0.2327117919921875 0.299560546875 -0.4476318359375
0.21014404296875 0.266845703125 -0.47772216796875
0.1628265380859375 0.318115234375 -0.537109375
0.1383514404296875 0.41259765625 -0.5565185546875
0.1149444580078125 0.508056640625 -0.54864501953125
-0.4981842041015625 -0.348388671875 -0.54571533203125
-0.4434967041015625 -0.40576171875 -0.51824951171875
-0.388275146484375 -0.44775390625 -0.47637939453125
-0.3561553955078125 -0.511962890625 -0.39129638671875
-0.3776092529296875 -0.53759765625 -0.36309814453125
-0.3936767578125 -0.5693359375 -0.33563232421875
-0.459869384765625 -0.574951171875 -0.343505859375
-0.50726318359375 -0.539306640625 -0.3753662109375
-0.5611572265625 -0.50048828125 -0.40570068359375
0.15069580078125 0.21826171875 -0.555419921875
0.1259002685546875 0.208740234375 -0.5943603515625
0.0910186767578125 0.1806640625 -0.62384033203125
-0.302398681640625 -0.3828125 -0.5675048828125
-0.32379150390625 -0.419921875 -0.52935791015625
-0.325469970703125 -0.449951171875 -0.48638916015625
0.2996063232421875 0.297607421875 -0.381103515625
0.3191680908203125 0.266845703125 -0.3302001953125
0.325103759765625 0.2548828125 -0.27801513671875
0.263031005859375 0.084228515625 -0.29248046875
0.2393341064453125 0.113525390625 -0.3720703125
0.21685791015625 0.15625 -0.444580078125
-0.2816314697265625 -0.523193359375 -0.34466552734375
-0.2480926513671875 -0.54150390625 -0.2550048828125
-0.2199249267578125 -0.5576171875 -0.1646728515625
-0.3262481689453125 -0.62158203125 -0.09637451171875
-0.3344573974609375 -0.629150390625 -0.1678466796875
-0.362457275390625 -0.617919921875 -0.24322509765625
0.1646270751953125 -0.000732421875 -0.49951171875
0.1792449951171875 0.0654296875 -0.5025634765625
0.1858062744140625 0.1318359375 -0.4986572265625
-0.273040771484375 -0.501708984375 -0.4132080078125
-0.2340545654296875 -0.509033203125 -0.40374755859375
-0.194427490234375 -0.505615234375 -0.40118408203125
0.289093017578125 1.018310546875 -0.24444580078125
0.2824249267578125 1.0302734375 -0.24066162109375
0.2754058837890625 1.040283203125 -0.2506103515625
0.26361083984375 1.00634765625 -0.25518798828125
0.240447998046875 0.970703125 -0.24273681640625
0.23590087890625 0.9306640625 -0.22869873046875
0.23712158203125 0.89453125 -0.20379638671875
0.2433319091796875 0.893798828125 -0.1981201171875
0.2536773681640625 0.889892578125 -0.200439453125
0.2705841064453125 0.91552734375 -0.21844482421875
0.2711334228515625 0.945068359375 -0.22528076171875
0.2847442626953125 0.973876953125 -0.24114990234375
-0.7777557373046875 -0.526611328125 -0.3603515625
-0.7663116455078125 -0.515869140625 -0.3316650390625
-0.750274658203125 -0.507568359375 -0.30889892578125
-0.7424468994140625 -0.4873046875 -0.2901611328125
-0.7454986572265625 -0.47509765625 -0.29827880859375
-0.7424468994140625 -0.46337890625 -0.31048583984375
-0.7482757568359375 -0.459716796875 -0.3502197265625
-0.7760009765625 -0.468505859375 -0.38055419921875
-0.805267333984375 -0.492431640625 -0.406494140625
-0.8292236328125 -0.517822265625 -0.40814208984375
-0.824951171875 -0.525634765625 -0.3939208984375
-0.8200836181640625 -0.536865234375 -0.3857421875
0.3438262939453125 1.158203125 -0.30853271484375
0.31597900390625 1.129638671875 -0.30047607421875
0.29876708984375 1.0888671875 -0.28033447265625
0.3141326904296875 1.04052734375 -0.27587890625
0.330352783203125 1.0625 -0.28875732421875
0.3501129150390625 1.095458984375 -0.3011474609375
0.3747406005859375 1.131103515625 -0.31036376953125
0.368743896484375 1.15185546875 -0.30511474609375
0.3686981201171875 1.166259765625 -0.31103515625
-0.9211883544921875 -0.6435546875 -0.52398681640625
-0.908660888671875 -0.64599609375 -0.5057373046875
-0.8958740234375 -0.6513671875 -0.49664306640625
-0.87310791015625 -0.6259765625 -0.4656982421875
-0.8527679443359375 -0.597412109375 -0.4381103515625
-0.8305816650390625 -0.5673828125 -0.40447998046875
-0.8591461181640625 -0.53662109375 -0.47235107421875
-0.8845062255859375 -0.567138671875 -0.50836181640625
-0.9116363525390625 -0.6015625 -0.54351806640625
0.472076416015625 1.15087890625 -0.3798828125
0.43212890625 1.1787109375 -0.35797119140625
0.404632568359375 1.18798828125 -0.33966064453125
0.403564453125 1.112060546875 -0.3328857421875
0.4350738525390625 1.09912109375 -0.35369873046875
0.4607086181640625 1.0810546875 -0.37188720703125
0.48577880859375 1.062744140625 -0.38983154296875
0.4908599853515625 1.0791015625 -0.3897705078125
0.495086669921875 1.0947265625 -0.3779296875
-0.8908843994140625 -0.848876953125 -0.43890380859375
-0.8809814453125 -0.837158203125 -0.42645263671875
-0.8671722412109375 -0.828857421875 -0.4195556640625
-0.87774658203125 -0.784423828125 -0.4432373046875
-0.8867645263671875 -0.740234375 -0.4666748046875
-0.89166259765625 -0.699951171875 -0.482177734375
-0.9356689453125 -0.694091796875 -0.5291748046875
-0.9281158447265625 -0.746826171875 -0.50830078125
-0.9239959716796875 -0.8037109375 -0.48480224609375
0.566131591796875 0.922607421875 -0.466552734375
0.5570220947265625 0.9921875 -0.449462890625
0.53619384765625 1.0556640625 -0.42022705078125
0.5012664794921875 1.0009765625 -0.41571044921875
0.51934814453125 0.9462890625 -0.43408203125
0.5318603515625 0.889404296875 -0.4412841796875
0.546234130859375 0.830810546875 -0.45269775390625
0.553558349609375 0.8349609375 -0.45672607421875
0.56005859375 0.84033203125 -0.46734619140625
-0.755462646484375 -0.980224609375 -0.2923583984375
-0.74993896484375 -0.9638671875 -0.28619384765625
-0.742767333984375 -0.95166015625 -0.28515625
-0.7813720703125 -0.92138671875 -0.322265625
-0.8162384033203125 -0.90234375 -0.35272216796875
-0.841583251953125 -0.8662109375 -0.38311767578125
-0.8737030029296875 -0.902099609375 -0.4130859375
-0.8350830078125 -0.942626953125 -0.37664794921875
-0.8069000244140625 -0.976318359375 -0.33447265625
0.5451812744140625 0.62548828125 -0.46051025390625
0.561767578125 0.6962890625 -0.47088623046875
0.5681304931640625 0.771240234375 -0.48883056640625
0.5406494140625 0.768798828125 -0.449951171875
0.5264434814453125 0.708251953125 -0.44097900390625
0.5240020751953125 0.65673828125 -0.416748046875
0.50787353515625 0.5966796875 -0.39422607421875
0.51416015625 0.586181640625 -0.39776611328125
0.520965576171875 0.57666015625 -0.41217041015625
-0.5811004638671875 -0.933349609375 -0.13812255859375
-0.5845489501953125 -0.921142578125 -0.1331787109375
-0.59027099609375 -0.911376953125 -0.13531494140625
-0.6384124755859375 -0.91845703125 -0.18365478515625
-0.6677703857421875 -0.9365234375 -0.224365234375
-0.709381103515625 -0.948974609375 -0.26080322265625
-0.7130126953125 -0.99853515625 -0.2596435546875
-0.6785430908203125 -0.99365234375 -0.23681640625
-0.6208038330078125 -0.96875 -0.19427490234375
0.464263916015625 0.417236328125 -0.2984619140625
0.48358154296875 0.4560546875 -0.33575439453125
0.5101318359375 0.50927734375 -0.39129638671875
0.4866790771484375 0.56298828125 -0.35369873046875
0.47235107421875 0.523681640625 -0.311767578125
0.458892822265625 0.49072265625 -0.27423095703125
0.4360198974609375 0.435546875 -0.23834228515625
0.436431884765625 0.41259765625 -0.23419189453125
0.4378204345703125 0.390380859375 -0.240966796875
-0.4051971435546875 -0.762451171875 -0.01275634765625
-0.4178466796875 -0.758056640625 -0.00616455078125
-0.4348602294921875 -0.757568359375 -0.01702880859375
-0.483245849609375 -0.7919921875 -0.04620361328125
-0.5240631103515625 -0.83837890625 -0.07232666015625
-0.5617828369140625 -0.872802734375 -0.10235595703125
-0.540130615234375 -0.90380859375 -0.0980224609375
-0.482513427734375 -0.865966796875 -0.07330322265625
-0.4373321533203125 -0.812744140625 -0.04571533203125
0.498809814453125 0.61865234375 -0.3978271484375
0.494476318359375 0.6240234375 -0.40789794921875
0.4946441650390625 0.629638671875 -0.4119873046875
0.4755859375 0.601318359375 -0.4022216796875
0.457366943359375 0.570068359375 -0.3609619140625
0.447601318359375 0.5419921875 -0.3270263671875
0.43804931640625 0.513916015625 -0.2811279296875
0.4331207275390625 0.49755859375 -0.26617431640625
0.4372100830078125 0.478271484375 -0.25628662109375
-0.470672607421875 -0.76025390625 -0.04742431640625
-0.4873199462890625 -0.765380859375 -0.065673828125
-0.4993438720703125 -0.7724609375 -0.08203125
-0.5413970947265625 -0.811767578125 -0.11395263671875
-0.568634033203125 -0.83447265625 -0.1436767578125
-0.59039306640625 -0.86328125 -0.17193603515625
-0.622589111328125 -0.88818359375 -0.18902587890625
-0.6166229248046875 -0.892333984375 -0.1768798828125
-0.60638427734375 -0.89501953125 -0.16119384765625
0.532867431640625 0.824462890625 -0.45098876953125
0.5269927978515625 0.82080078125 -0.458251953125
0.5255889892578125 0.8193359375 -0.46502685546875
0.522552490234375 0.7685546875 -0.47406005859375
0.5110931396484375 0.724365234375 -0.4730224609375
0.5015716552734375 0.67529296875 -0.45855712890625
-0.6464080810546875 -0.90185546875 -0.2418212890625
-0.6806793212890625 -0.921630859375 -0.280517578125
-0.7092437744140625 -0.9296875 -0.30523681640625
-0.7328033447265625 -0.92578125 -0.318115234375
-0.737030029296875 -0.92822265625 -0.307373046875
-0.737762451171875 -0.935546875 -0.30224609375
0.4829864501953125 1.02880859375 -0.39794921875
0.482025146484375 1.01416015625 -0.409423828125
0.477020263671875 1.00341796875 -0.4228515625
0.496002197265625 0.9560546875 -0.453857421875
0.508392333984375 0.914794921875 -0.468505859375
0.518829345703125 0.86376953125 -0.47296142578125
-0.7725677490234375 -0.9140625 -0.35382080078125
-0.7971954345703125 -0.896728515625 -0.37921142578125
-0.8201141357421875 -0.86865234375 -0.39990234375
-0.838226318359375 -0.833251953125 -0.42010498046875
-0.841644287109375 -0.826904296875 -0.41693115234375
-0.8504180908203125 -0.82568359375 -0.41357421875
0.38299560546875 1.0908203125 -0.33026123046875
0.3867950439453125 1.070556640625 -0.3482666015625
0.3967437744140625 1.052490234375 -0.36370849609375
0.425384521484375 1.0439453125 -0.39654541015625
0.4443817138671875 1.03759765625 -0.40771484375
0.466583251953125 1.021728515625 -0.41827392578125
-0.84527587890625 -0.802978515625 -0.4476318359375
-0.850494384765625 -0.768310546875 -0.4683837890625
-0.850677490234375 -0.73486328125 -0.47503662109375
-0.8537750244140625 -0.689697265625 -0.47064208984375
-0.8610687255859375 -0.678955078125 -0.47259521484375
-0.8702392578125 -0.667724609375 -0.47442626953125
0.3061981201171875 0.9873046875 -0.261962890625
0.314117431640625 0.974365234375 -0.27874755859375
0.3234100341796875 0.960205078125 -0.29852294921875
0.3439178466796875 0.975830078125 -0.3399658203125
0.359649658203125 1.002685546875 -0.36041259765625
0.3763885498046875 1.02392578125 -0.3663330078125
-0.8364715576171875 -0.67529296875 -0.45941162109375
-0.8208770751953125 -0.648193359375 -0.445556640625
-0.8029022216796875 -0.622314453125 -0.42041015625
-0.7826995849609375 -0.592529296875 -0.38238525390625
-0.7918548583984375 -0.577880859375 -0.380859375
-0.8018951416015625 -0.5634765625 -0.37640380859375
0.2744293212890625 0.876953125 -0.22698974609375
0.2824859619140625 0.871826171875 -0.2408447265625
0.2928314208984375 0.86328125 -0.26104736328125
0.3038330078125 0.88232421875 -0.28631591796875
0.31005859375 0.906982421875 -0.29339599609375
0.319427490234375 0.927978515625 -0.30316162109375
-0.7592315673828125 -0.592529296875 -0.3756103515625
-0.7432098388671875 -0.576416015625 -0.35247802734375
-0.7342681884765625 -0.56787109375 -0.335205078125
-0.7309722900390625 -0.55078125 -0.31268310546875
-0.730804443359375 -0.5341796875 -0.30194091796875
-0.7340087890625 -0.519775390625 -0.29510498046875
0.3426361083984375 0.480224609375 -0.08856201171875
0.3484344482421875 0.47265625 -0.05755615234375
0.347564697265625 0.45703125 -0.02520751953125
0.357330322265625 0.308837890625 -0.1953125
0.3676910400390625 0.345458984375 -0.18865966796875
0.3668975830078125 0.37548828125 -0.19281005859375
0.354888916015625 0.406005859375 -0.184814453125
0.3519744873046875 0.41796875 -0.16070556640625
0.347412109375 0.44873046875 -0.1341552734375
-0.4263916015625 -0.603271484375 0.01104736328125
-0.4160003662109375 -0.613525390625 -0.00579833984375
-0.411651611328125 -0.627685546875 -0.02581787109375
-0.39422607421875 -0.6455078125 -0.023193359375
-0.3735504150390625 -0.64453125 -0.0052490234375
-0.352935791015625 -0.6357421875 -0.00909423828125
-0.4162139892578125 -0.587646484375 0.12384033203125
-0.4349365234375 -0.590576171875 0.08013916015625
-0.4463348388671875 -0.588134765625 0.04278564453125
0.364959716796875 0.292236328125 -0.23126220703125
0.3825836181640625 0.31787109375 -0.23809814453125
0.4088897705078125 0.343994140625 -0.247314453125
0.4173583984375 0.435546875 -0.22662353515625
0.3968505859375 0.420166015625 -0.229736328125
0.3799591064453125 0.414794921875 -0.22332763671875
-0.4123992919921875 -0.674072265625 -0.04534912109375
-0.4155426025390625 -0.700439453125 -0.03497314453125
-0.431427001953125 -0.726318359375 -0.0308837890625
-0.3775482177734375 -0.7294921875 -0.02239990234375
-0.36053466796875 -0.68994140625 -0.02191162109375
-0.341094970703125 -0.659423828125 -0.038818359375
0.3235015869140625 0.545654296875 -0.09423828125
0.303924560546875 0.615478515625 -0.07501220703125
0.2748870849609375 0.690673828125 -0.0489501953125
-0.598785400390625 -0.50341796875 -0.05072021484375
-0.541900634765625 -0.541259765625 -0.02764892578125
-0.492462158203125 -0.568359375 -0.0072021484375
0.2266693115234375 0.85546875 -0.21893310546875
0.226654052734375 0.82373046875 -0.21356201171875
0.2259979248046875 0.806884765625 -0.2008056640625
0.2292938232421875 0.795166015625 -0.172119140625
0.24053955078125 0.78466796875 -0.18328857421875
0.249603271484375 0.77490234375 -0.19500732421875
0.260498046875 0.791259765625 -0.198974609375
0.2600555419921875 0.820556640625 -0.19830322265625
0.2601165771484375 0.8525390625 -0.2015380859375
-0.724639892578125 -0.503173828125 -0.27117919921875
-0.7058258056640625 -0.499267578125 -0.2635498046875
-0.677734375 -0.501708984375 -0.24151611328125
-0.6673431396484375 -0.491943359375 -0.21514892578125
-0.6701812744140625 -0.4755859375 -0.216552734375
-0.6780853271484375 -0.458984375 -0.22747802734375
-0.6857147216796875 -0.44384765625 -0.27520751953125
-0.7071990966796875 -0.449951171875 -0.291015625
-0.725128173828125 -0.452880859375 -0.318603515625
0.424713134765625 0.502197265625 -0.28656005859375
0.4096832275390625 0.485595703125 -0.28533935546875
0.3974456787109375 0.47412109375 -0.29168701171875
0.3849945068359375 0.458984375 -0.2855224609375
0.376678466796875 0.447998046875 -0.26953125
0.3687591552734375 0.434814453125 -0.24542236328125
-0.429656982421875 -0.67041015625 -0.07684326171875
-0.449737548828125 -0.688720703125 -0.1033935546875
-0.4619140625 -0.70361328125 -0.12408447265625
-0.47796630859375 -0.722412109375 -0.12274169921875
-0.483489990234375 -0.737548828125 -0.11407470703125
-0.4907684326171875 -0.755126953125 -0.10296630859375
0.3868255615234375 0.47314453125 -0.3023681640625
0.3830718994140625 0.482177734375 -0.30322265625
0.3783416748046875 0.491943359375 -0.30377197265625
0.36566162109375 0.49755859375 -0.28948974609375
0.3542633056640625 0.4873046875 -0.27386474609375
0.3380126953125 0.48583984375 -0.25628662109375
0.3412017822265625 0.460693359375 -0.22857666015625
0.347137451171875 0.4423828125 -0.2271728515625
0.3567657470703125 0.427734375 -0.22662353515625
-0.424530029296875 -0.638916015625 -0.07208251953125
-0.4361724853515625 -0.62939453125 -0.08258056640625
-0.4501495361328125 -0.61865234375 -0.09698486328125
-0.4671783447265625 -0.6298828125 -0.12677001953125
-0.4759368896484375 -0.649658203125 -0.13983154296875
-0.4879913330078125 -0.67431640625 -0.1536865234375
-0.488250732421875 -0.701904296875 -0.15521240234375
-0.4770660400390625 -0.705810546875 -0.15496826171875
-0.476959228515625 -0.70947265625 -0.14752197265625
0.3452301025390625 0.537353515625 -0.29876708984375
0.3321380615234375 0.53271484375 -0.29779052734375
0.326263427734375 0.534912109375 -0.29345703125
0.31988525390625 0.535888671875 -0.2724609375
0.318023681640625 0.527587890625 -0.25836181640625
0.3216552734375 0.508056640625 -0.24676513671875
0.365692138671875 0.5166015625 -0.30035400390625
0.360198974609375 0.526123046875 -0.3001708984375
0.3557281494140625 0.534423828125 -0.3018798828125
-0.520111083984375 -0.66455078125 -0.190673828125
-0.517852783203125 -0.67529296875 -0.18475341796875
-0.50946044921875 -0.68505859375 -0.17218017578125
-0.48162841796875 -0.601318359375 -0.137451171875
-0.494598388671875 -0.59765625 -0.15618896484375
-0.5088043212890625 -0.599609375 -0.182373046875
-0.51654052734375 -0.615234375 -0.20068359375
-0.515045166015625 -0.630859375 -0.1966552734375
-0.517974853515625 -0.6435546875 -0.19464111328125
0.3151092529296875 0.560302734375 -0.28466796875
0.3130645751953125 0.585693359375 -0.2806396484375
0.3098602294921875 0.615966796875 -0.28009033203125
0.3044281005859375 0.64697265625 -0.26275634765625
0.3001708984375 0.644775390625 -0.24310302734375
0.2921142578125 0.64892578125 -0.2200927734375
0.2888031005859375 0.61669921875 -0.1956787109375
0.3028411865234375 0.574462890625 -0.20233154296875
0.3166046142578125 0.526123046875 -0.2122802734375
-0.49566650390625 -0.5810546875 -0.1241455078125
-0.522979736328125 -0.562255859375 -0.13232421875
-0.5535430908203125 -0.54541015625 -0.162353515625
-0.5762176513671875 -0.548095703125 -0.19110107421875
-0.57562255859375 -0.563232421875 -0.20416259765625
-0.581268310546875 -0.576416015625 -0.21539306640625
-0.5626220703125 -0.587890625 -0.21746826171875
-0.5465850830078125 -0.59228515625 -0.2174072265625
-0.530303955078125 -0.596923828125 -0.21282958984375
0.287506103515625 0.753662109375 -0.25244140625
0.2765655517578125 0.756103515625 -0.233154296875
0.2712860107421875 0.758544921875 -0.21636962890625
0.266021728515625 0.74267578125 -0.2020263671875
0.267120361328125 0.716796875 -0.1990966796875
0.274017333984375 0.6904296875 -0.19317626953125
0.3004302978515625 0.67529296875 -0.2742919921875
0.2979583740234375 0.700439453125 -0.27203369140625
0.296661376953125 0.724365234375 -0.27081298828125
-0.6527557373046875 -0.572021484375 -0.25537109375
-0.6254119873046875 -0.578125 -0.24725341796875
-0.605255126953125 -0.583251953125 -0.237548828125
-0.606170654296875 -0.528564453125 -0.19287109375
-0.6267852783203125 -0.517822265625 -0.19781494140625
-0.6451568603515625 -0.509765625 -0.21160888671875
-0.6631011962890625 -0.52392578125 -0.23565673828125
-0.663665771484375 -0.538330078125 -0.2425537109375
-0.663818359375 -0.555419921875 -0.2515869140625
0.2957305908203125 0.781982421875 -0.263671875
0.2944488525390625 0.80712890625 -0.263916015625
0.2981719970703125 0.834228515625 -0.27587890625
-0.7155303955078125 -0.562744140625 -0.300537109375
-0.7021331787109375 -0.56298828125 -0.2861328125
-0.68194580078125 -0.5634765625 -0.27410888671875
0.260528564453125 0.73193359375 -0.0894775390625
0.27484130859375 0.698974609375 -0.12945556640625
0.2784423828125 0.67529296875 -0.1634521484375
-0.5889739990234375 -0.52294921875 -0.162109375
-0.6017303466796875 -0.509033203125 -0.1422119140625
-0.623016357421875 -0.48779296875 -0.11566162109375
0.33489990234375 0.490966796875 -0.14208984375
0.32977294921875 0.4892578125 -0.16827392578125
0.3213043212890625 0.4892578125 -0.19830322265625
-0.4636688232421875 -0.591552734375 -0.085693359375
-0.4636077880859375 -0.58544921875 -0.06103515625
-0.4560089111328125 -0.586181640625 -0.0244140625
0.3153533935546875 0.846435546875 -0.32647705078125
0.310394287109375 0.848876953125 -0.31390380859375
0.3073883056640625 0.853515625 -0.29833984375
0.2982025146484375 0.754150390625 -0.28009033203125
0.3053131103515625 0.749267578125 -0.29876708984375
0.3111724853515625 0.748046875 -0.31463623046875
0.317169189453125 0.771728515625 -0.32891845703125
0.31396484375 0.79541015625 -0.33251953125
0.3189544677734375 0.81884765625 -0.3370361328125
-0.702972412109375 -0.597412109375 -0.33740234375
-0.696319580078125 -0.5986328125 -0.32476806640625
-0.682830810546875 -0.600341796875 -0.310546875
-0.6613616943359375 -0.592041015625 -0.29107666015625
-0.6597442626953125 -0.584716796875 -0.28204345703125
-0.6600341796875 -0.575927734375 -0.27288818359375
-0.71917724609375 -0.5712890625 -0.32916259765625
-0.7156219482421875 -0.580322265625 -0.3397216796875
-0.7089996337890625 -0.588623046875 -0.34832763671875
0.3031005859375 0.646728515625 -0.29150390625
0.3079376220703125 0.64453125 -0.30206298828125
0.3125 0.64501953125 -0.31292724609375
0.31072998046875 0.67041015625 -0.320556640625
0.316253662109375 0.69482421875 -0.32379150390625
0.314453125 0.72412109375 -0.328125
-0.649200439453125 -0.607421875 -0.2850341796875
-0.6318511962890625 -0.612060546875 -0.27825927734375
-0.6159820556640625 -0.611328125 -0.27752685546875
-0.594146728515625 -0.608642578125 -0.26055908203125
-0.5912017822265625 -0.60009765625 -0.254150390625
-0.587799072265625 -0.595947265625 -0.24163818359375
0.319091796875 0.545654296875 -0.30157470703125
0.3186187744140625 0.55029296875 -0.3114013671875
0.32012939453125 0.554931640625 -0.3155517578125
0.3229217529296875 0.571044921875 -0.32720947265625
0.31976318359375 0.589599609375 -0.329345703125
0.3152313232421875 0.6162109375 -0.32318115234375
-0.5755767822265625 -0.618896484375 -0.26312255859375
-0.5575103759765625 -0.6181640625 -0.25177001953125
-0.5459747314453125 -0.621337890625 -0.24603271484375
-0.533905029296875 -0.621337890625 -0.2298583984375
-0.5285186767578125 -0.613525390625 -0.22869873046875
-0.5229339599609375 -0.607421875 -0.22015380859375
0.34912109375 0.542724609375 -0.30743408203125
0.349395751953125 0.547119140625 -0.31805419921875
0.3493194580078125 0.55224609375 -0.32891845703125
0.3396148681640625 0.55810546875 -0.33074951171875
0.3313751220703125 0.55517578125 -0.32666015625
0.3264007568359375 0.55712890625 -0.32476806640625
-0.5372772216796875 -0.631591796875 -0.23590087890625
-0.539703369140625 -0.644287109375 -0.2352294921875
-0.540283203125 -0.658935546875 -0.23651123046875
-0.538970947265625 -0.669921875 -0.22222900390625
-0.5333251953125 -0.66552734375 -0.2120361328125
-0.527740478515625 -0.66015625 -0.2022705078125
0.3811492919921875 0.511474609375 -0.31817626953125
0.3844757080078125 0.51806640625 -0.33172607421875
0.3852386474609375 0.521240234375 -0.33917236328125
0.384063720703125 0.54736328125 -0.34832763671875
0.3732452392578125 0.55322265625 -0.3433837890625
0.365234375 0.558837890625 -0.3419189453125
-0.544281005859375 -0.68603515625 -0.22509765625
-0.5411376953125 -0.703369140625 -0.22027587890625
-0.5370025634765625 -0.718994140625 -0.2095947265625
-0.5209503173828125 -0.724853515625 -0.193603515625
-0.515594482421875 -0.7177734375 -0.18499755859375
-0.509307861328125 -0.709228515625 -0.17333984375
0.3898468017578125 0.475830078125 -0.3155517578125
0.3907318115234375 0.4814453125 -0.3267822265625
0.3914031982421875 0.48583984375 -0.33551025390625
0.3954925537109375 0.49658203125 -0.347900390625
0.3908843994140625 0.505859375 -0.35211181640625
0.39019775390625 0.519775390625 -0.35198974609375
-0.5211029052734375 -0.737060546875 -0.19512939453125
-0.513031005859375 -0.7392578125 -0.189453125
-0.5045623779296875 -0.741943359375 -0.18194580078125
-0.4923095703125 -0.7412109375 -0.16729736328125
-0.48565673828125 -0.733642578125 -0.15814208984375
-0.4766845703125 -0.727294921875 -0.14923095703125
0.4320526123046875 0.52490234375 -0.313232421875
0.4343719482421875 0.531494140625 -0.3302001953125
0.4291534423828125 0.53466796875 -0.34185791015625
0.41949462890625 0.52490234375 -0.34259033203125
0.41204833984375 0.510009765625 -0.34149169921875
0.3986663818359375 0.49560546875 -0.3397216796875
-0.50262451171875 -0.748291015625 -0.16839599609375
-0.512939453125 -0.755126953125 -0.16375732421875
-0.5287933349609375 -0.768310546875 -0.15875244140625
-0.538421630859375 -0.789306640625 -0.14599609375
-0.531341552734375 -0.78662109375 -0.13031005859375
-0.521575927734375 -0.784423828125 -0.11370849609375
0.344512939453125 0.93505859375 -0.35986328125
0.3414154052734375 0.9384765625 -0.347900390625
0.3383941650390625 0.94482421875 -0.33880615234375
0.325103759765625 0.8623046875 -0.338134765625
0.337158203125 0.886962890625 -0.35089111328125
0.3455963134765625 0.909423828125 -0.36468505859375
-0.7501678466796875 -0.634033203125 -0.39739990234375
-0.7356414794921875 -0.622802734375 -0.38641357421875
-0.72589111328125 -0.61474609375 -0.36553955078125
-0.7783660888671875 -0.61279296875 -0.39794921875
-0.7763214111328125 -0.62158203125 -0.40936279296875
-0.7754364013671875 -0.62890625 -0.41510009765625
0.41436767578125 1.019287109375 -0.41497802734375
0.41156005859375 1.02685546875 -0.4095458984375
0.4098052978515625 1.033203125 -0.39215087890625
0.3625335693359375 0.958740234375 -0.392578125
0.375701904296875 0.978759765625 -0.40509033203125
0.3948516845703125 0.996337890625 -0.40887451171875
-0.8199310302734375 -0.70068359375 -0.4759521484375
-0.8108367919921875 -0.68359375 -0.46075439453125
-0.7984771728515625 -0.663330078125 -0.44879150390625
-0.846893310546875 -0.709716796875 -0.4847412109375
-0.8414459228515625 -0.71728515625 -0.488525390625
-0.8384857177734375 -0.720703125 -0.4892578125
0.486053466796875 0.977783203125 -0.462890625
0.4870452880859375 0.983154296875 -0.4569091796875
0.4855194091796875 0.98828125 -0.44879150390625
0.4354095458984375 1.011474609375 -0.43365478515625
0.4514007568359375 1.007568359375 -0.4404296875
0.4687042236328125 0.992431640625 -0.44989013671875
-0.828460693359375 -0.813232421875 -0.457763671875
-0.8358917236328125 -0.78515625 -0.4725341796875
-0.8330230712890625 -0.753173828125 -0.4840087890625
-0.830230712890625 -0.8408203125 -0.43353271484375
-0.828765869140625 -0.84814453125 -0.4420166015625
-0.825042724609375 -0.849609375 -0.445068359375
0.5147705078125 0.81298828125 -0.4954833984375
0.517852783203125 0.812744140625 -0.49481201171875
0.5167388916015625 0.81396484375 -0.48468017578125
0.4929656982421875 0.9384765625 -0.47918701171875
0.503265380859375 0.89990234375 -0.49346923828125
0.5076446533203125 0.8583984375 -0.49078369140625
