# XYZ point cloud file
-0.17138671875 0.161041259765625 0.6380615234375
-0.1796875 0.169097900390625 0.627197265625
-0.181640625 0.15704345703125 0.62518310546875
-0.1788330078125 0.147491455078125 0.63165283203125
-0.1697998046875 0.1492919921875 0.64227294921875
-0.1748046875 0.1715087890625 0.6317138671875
-0.184326171875 0.166717529296875 0.61846923828125
-0.11474609375 0.416351318359375 0.485015869140625
-0.11767578125 0.421600341796875 0.508819580078125
-0.1048583984375 0.442840576171875 0.480865478515625
-0.1119384765625 0.414520263671875 0.46160888671875
-0.125 0.39910888671875 0.485748291015625
-0.126953125 0.40087890625 0.50872802734375
-0.111083984375 0.44677734375 0.507415771484375
-0.0989990234375 0.44073486328125 0.45977783203125
-0.1234130859375 0.394775390625 0.46160888671875
-0.16748046875 0.37164306640625 0.47900390625
-0.1861572265625 0.371551513671875 0.46923828125
-0.1639404296875 0.38043212890625 0.503936767578125
-0.1505126953125 0.376068115234375 0.483856201171875
-0.168212890625 0.36480712890625 0.454315185546875
-0.191650390625 0.360687255859375 0.4420166015625
-0.18310546875 0.381378173828125 0.495025634765625
-0.1502685546875 0.38336181640625 0.508209228515625
-0.1500244140625 0.373016357421875 0.4598388671875
-0.096435546875 0.552398681640625 0.461273193359375
-0.104248046875 0.552276611328125 0.485565185546875
-0.094482421875 0.590362548828125 0.456024169921875
-0.083251953125 0.553375244140625 0.441253662109375
-0.0970458984375 0.513519287109375 0.4678955078125
-0.1064453125 0.513397216796875 0.49273681640625
-0.0999755859375 0.59051513671875 0.47821044921875
-0.080810546875 0.58892822265625 0.437530517578125
-0.084228515625 0.51531982421875 0.446746826171875
-0.2569580078125 0.402740478515625 0.424041748046875
-0.285400390625 0.413360595703125 0.41046142578125
-0.2554931640625 0.4158935546875 0.449859619140625
-0.232177734375 0.390777587890625 0.4425048828125
-0.2645263671875 0.38519287109375 0.40313720703125
-0.2894287109375 0.397064208984375 0.39227294921875
-0.2860107421875 0.42510986328125 0.434112548828125
-0.230224609375 0.40289306640625 0.468231201171875
-0.239990234375 0.374786376953125 0.41607666015625
-0.06201171875 0.684722900390625 0.440765380859375
-0.069091796875 0.69110107421875 0.462860107421875
-0.04150390625 0.704376220703125 0.4388427734375
-0.0494384765625 0.672027587890625 0.425079345703125
-0.0775146484375 0.656524658203125 0.442840576171875
-0.08447265625 0.66241455078125 0.463836669921875
-0.0484619140625 0.71197509765625 0.4599609375
-0.03076171875 0.692291259765625 0.4239501953125
-0.06689453125 0.647064208984375 0.42767333984375
-0.361328125 0.4058837890625 0.35919189453125
-0.381103515625 0.3857421875 0.345916748046875
-0.3623046875 0.416656494140625 0.38201904296875
-0.33837890625 0.417877197265625 0.3760986328125
-0.3572998046875 0.387359619140625 0.3426513671875
-0.3760986328125 0.36865234375 0.33209228515625
-0.3834228515625 0.398193359375 0.367950439453125
-0.33740234375 0.4300537109375 0.39697265625
-0.335205078125 0.400146484375 0.359130859375
0.0478515625 0.724212646484375 0.44610595703125
0.0433349609375 0.736297607421875 0.46881103515625
0.0819091796875 0.727081298828125 0.450897216796875
0.047607421875 0.708038330078125 0.428009033203125
0.015869140625 0.721588134765625 0.44488525390625
0.0101318359375 0.734130859375 0.465911865234375
0.0782470703125 0.73858642578125 0.4716796875
0.0821533203125 0.70806884765625 0.42633056640625
0.0206298828125 0.708282470703125 0.427947998046875
-0.4351806640625 0.285797119140625 0.331695556640625
-0.4490966796875 0.243377685546875 0.3314208984375
-0.4388427734375 0.29425048828125 0.350494384765625
-0.4185791015625 0.3255615234375 0.333770751953125
-0.42236328125 0.279754638671875 0.317535400390625
-0.4373779296875 0.238861083984375 0.318359375
-0.4541015625 0.24951171875 0.35211181640625
-0.421875 0.334197998046875 0.352325439453125
-0.409423828125 0.315338134765625 0.320892333984375
0.197265625 0.741790771484375 0.44091796875
0.1962890625 0.754058837890625 0.46588134765625
0.2318115234375 0.747222900390625 0.435760498046875
0.1961669921875 0.7259521484375 0.411834716796875
0.158447265625 0.7366943359375 0.44366455078125
0.160400390625 0.74713134765625 0.46893310546875
0.2314453125 0.757843017578125 0.461151123046875
0.230224609375 0.734130859375 0.40533447265625
0.15673828125 0.718475341796875 0.416961669921875
-0.50830078125 0.101409912109375 0.324310302734375
-0.529541015625 0.057586669921875 0.319091796875
-0.5137939453125 0.1075439453125 0.34771728515625
-0.484375 0.148040771484375 0.329498291015625
-0.4981689453125 0.094879150390625 0.3038330078125
-0.5201416015625 0.05224609375 0.2989501953125
-0.5345458984375 0.065673828125 0.34478759765625
-0.491455078125 0.154998779296875 0.350494384765625
-0.4755859375 0.14166259765625 0.30963134765625
0.3192138671875 0.76629638671875 0.420257568359375
0.32080078125 0.7769775390625 0.446014404296875
0.341552734375 0.7608642578125 0.41253662109375
0.3153076171875 0.75006103515625 0.3916015625
0.293212890625 0.762969970703125 0.42626953125
0.2939453125 0.773956298828125 0.4527587890625
0.3431396484375 0.770416259765625 0.437164306640625
0.3358154296875 0.7447509765625 0.385223388671875
0.29296875 0.747802734375 0.397918701171875
-0.5850830078125 -0.047149658203125 0.313629150390625
-0.5927734375 -0.077301025390625 0.31396484375
-0.589111328125 -0.04443359375 0.33526611328125
-0.5689697265625 -0.0177001953125 0.31475830078125
-0.57568359375 -0.049224853515625 0.28857421875
-0.5858154296875 -0.08050537109375 0.288604736328125
-0.599365234375 -0.0731201171875 0.33648681640625
-0.575927734375 -0.012298583984375 0.33966064453125
-0.56005859375 -0.02142333984375 0.289215087890625
0.3892822265625 0.660858154296875 0.369964599609375
0.393310546875 0.670806884765625 0.390655517578125
0.39599609375 0.6085205078125 0.3546142578125
0.383544921875 0.64996337890625 0.343505859375
0.376953125 0.7060546875 0.38458251953125
0.3812255859375 0.715362548828125 0.409088134765625
0.40087890625 0.6156005859375 0.375030517578125
0.3902587890625 0.598358154296875 0.327423095703125
0.3714599609375 0.693267822265625 0.358489990234375
-0.5791015625 -0.18328857421875 0.34136962890625
-0.5556640625 -0.2138671875 0.352813720703125
-0.581787109375 -0.178436279296875 0.3621826171875
-0.591552734375 -0.1448974609375 0.329498291015625
-0.5711669921875 -0.18505859375 0.313995361328125
-0.5504150390625 -0.216033935546875 0.32794189453125
-0.557373046875 -0.2100830078125 0.376068115234375
-0.59521484375 -0.1400146484375 0.352935791015625
-0.583740234375 -0.147552490234375 0.302947998046875
0.380859375 0.4443359375 0.359130859375
0.3846435546875 0.453155517578125 0.383514404296875
0.3638916015625 0.394134521484375 0.37481689453125
0.37548828125 0.437042236328125 0.330780029296875
0.3892822265625 0.498138427734375 0.34912109375
0.392578125 0.50604248046875 0.3720703125
0.3682861328125 0.40447998046875 0.395782470703125
0.359619140625 0.385162353515625 0.343414306640625
0.3857421875 0.491668701171875 0.320556640625
-0.46435546875 -0.258636474609375 0.434661865234375
-0.430908203125 -0.258056640625 0.46380615234375
-0.4652099609375 -0.254974365234375 0.45880126953125
-0.499267578125 -0.255126953125 0.404815673828125
-0.4664306640625 -0.264923095703125 0.402801513671875
-0.434814453125 -0.26593017578125 0.43048095703125
-0.4290771484375 -0.25311279296875 0.4891357421875
-0.5009765625 -0.24969482421875 0.42633056640625
-0.4976806640625 -0.257049560546875 0.375152587890625
0.3001708984375 0.265106201171875 0.413055419921875
0.3037109375 0.27252197265625 0.43609619140625
0.2794189453125 0.22381591796875 0.42724609375
0.2957763671875 0.254791259765625 0.3878173828125
0.3233642578125 0.3035888671875 0.399688720703125
0.32666015625 0.3123779296875 0.4248046875
0.28076171875 0.230224609375 0.44757080078125
0.272705078125 0.21478271484375 0.4046630859375
0.3189697265625 0.29656982421875 0.369903564453125
-0.3201904296875 -0.239501953125 0.5244140625
-0.2838134765625 -0.227081298828125 0.53515625
-0.3150634765625 -0.231536865234375 0.549560546875
-0.3565673828125 -0.24774169921875 0.507659912109375
-0.32470703125 -0.24755859375 0.49462890625
-0.2869873046875 -0.235260009765625 0.508453369140625
-0.2802734375 -0.220458984375 0.558380126953125
-0.3544921875 -0.240631103515625 0.530426025390625
-0.3612060546875 -0.255828857421875 0.474517822265625
0.100341796875 -0.3304443359375 0.41314697265625
0.0792236328125 -0.351654052734375 0.42340087890625
0.0970458984375 -0.3155517578125 0.39422607421875
0.1212158203125 -0.30426025390625 0.407440185546875
0.1060791015625 -0.348358154296875 0.432281494140625
0.0850830078125 -0.3687744140625 0.438385009765625
0.0750732421875 -0.339508056640625 0.403839111328125
0.1160888671875 -0.28668212890625 0.386383056640625
0.12548828125 -0.3248291015625 0.425506591796875
0.0164794921875 -0.389862060546875 0.4483642578125
0.00537109375 -0.381561279296875 0.42926025390625
0.0382080078125 -0.382354736328125 0.442352294921875
0.0274658203125 -0.40478515625 0.470733642578125
-0.004150390625 -0.392913818359375 0.457275390625
-0.016357421875 -0.384368896484375 0.439056396484375
0.0294189453125 -0.37286376953125 0.422821044921875
0.0462646484375 -0.398712158203125 0.459716796875
0.0068359375 -0.40802001953125 0.480712890625
0.13232421875 -0.43585205078125 0.4793701171875
0.1153564453125 -0.4542236328125 0.4888916015625
0.1214599609375 -0.403961181640625 0.466552734375
0.150390625 -0.413299560546875 0.472412109375
0.1475830078125 -0.46539306640625 0.495849609375
0.12890625 -0.483673095703125 0.505767822265625
0.1024169921875 -0.424346923828125 0.472503662109375
0.136962890625 -0.3814697265625 0.458831787109375
0.1639404296875 -0.4456787109375 0.485198974609375
0.06005859375 -0.486480712890625 0.523406982421875
0.0479736328125 -0.45166015625 0.505340576171875
0.0770263671875 -0.479522705078125 0.51025390625
0.0728759765625 -0.51806640625 0.540008544921875
0.0426025390625 -0.490264892578125 0.535064697265625
0.03076171875 -0.457794189453125 0.518524169921875
0.067138671875 -0.447052001953125 0.49200439453125
0.0911865234375 -0.510589599609375 0.528839111328125
0.0540771484375 -0.5205078125 0.555328369140625
0.189697265625 -0.550018310546875 0.55584716796875
0.1705322265625 -0.567230224609375 0.57098388671875
0.1741943359375 -0.52764892578125 0.535186767578125
0.2086181640625 -0.529449462890625 0.5413818359375
0.203857421875 -0.5660400390625 0.578765869140625
0.186767578125 -0.582275390625 0.595428466796875
0.15380859375 -0.545989990234375 0.549102783203125
0.1910400390625 -0.50628662109375 0.520172119140625
0.222900390625 -0.549652099609375 0.561431884765625
0.1103515625 -0.598968505859375 0.61456298828125
0.096435546875 -0.578765869140625 0.587127685546875
0.130859375 -0.59149169921875 0.600372314453125
0.1226806640625 -0.62066650390625 0.63970947265625
0.0902099609375 -0.607269287109375 0.62652587890625
0.075439453125 -0.5819091796875 0.599334716796875
0.116943359375 -0.56951904296875 0.571990966796875
0.1463623046875 -0.6097412109375 0.627410888671875
0.0999755859375 -0.629302978515625 0.6513671875
0.246337890625 -0.57275390625 0.64691162109375
0.2569580078125 -0.56170654296875 0.666961669921875
0.2269287109375 -0.585662841796875 0.6678466796875
0.2354736328125 -0.577545166015625 0.6246337890625
0.2640380859375 -0.5582275390625 0.6253662109375
0.275146484375 -0.549591064453125 0.6446533203125
0.236572265625 -0.5748291015625 0.686676025390625
0.2159423828125 -0.59375 0.64556884765625
0.252197265625 -0.563720703125 0.605499267578125
0.1593017578125 -0.62725830078125 0.71368408203125
0.180908203125 -0.61163330078125 0.69940185546875
0.1678466796875 -0.61651611328125 0.735565185546875
0.1343994140625 -0.63946533203125 0.726318359375
0.148193359375 -0.63140869140625 0.690216064453125
0.1715087890625 -0.61895751953125 0.67523193359375
0.1905517578125 -0.6015625 0.72076416015625
0.142822265625 -0.630218505859375 0.747467041015625
0.123291015625 -0.642791748046875 0.701873779296875
0.31591796875 -0.51544189453125 0.559417724609375
0.325439453125 -0.50848388671875 0.579681396484375
0.300048828125 -0.530914306640625 0.580291748046875
0.303955078125 -0.519317626953125 0.54107666015625
0.3270263671875 -0.50146484375 0.5413818359375
0.337158203125 -0.49462890625 0.56097412109375
0.310791015625 -0.52203369140625 0.599822998046875
0.28759765625 -0.533660888671875 0.560089111328125
0.3154296875 -0.5037841796875 0.52349853515625
0.0584716796875 -0.6744384765625 0.75140380859375
0.083984375 -0.664398193359375 0.745452880859375
0.0697021484375 -0.666259765625 0.77532958984375
0.0380859375 -0.67950439453125 0.759552001953125
0.049560546875 -0.67596435546875 0.72869873046875
0.07421875 -0.668243408203125 0.722137451171875
0.0928955078125 -0.656158447265625 0.76519775390625
0.0489501953125 -0.6727294921875 0.7786865234375
0.0308837890625 -0.6805419921875 0.737030029296875
0.334228515625 -0.439544677734375 0.506805419921875
0.3499755859375 -0.437957763671875 0.52789306640625
0.337158203125 -0.464019775390625 0.51458740234375
0.3148193359375 -0.440582275390625 0.48846435546875
0.3291015625 -0.41168212890625 0.499755859375
0.3458251953125 -0.413848876953125 0.5238037109375
0.3492431640625 -0.459503173828125 0.535552978515625
0.321533203125 -0.4639892578125 0.49908447265625
0.3079833984375 -0.412445068359375 0.48175048828125
-0.001708984375 -0.6590576171875 0.751678466796875
0.0091552734375 -0.671478271484375 0.76055908203125
0.0078125 -0.6561279296875 0.78179931640625
-0.0106201171875 -0.635833740234375 0.74029541015625
-0.005615234375 -0.65496826171875 0.72161865234375
0.0023193359375 -0.671173095703125 0.733551025390625
0.018798828125 -0.6671142578125 0.785980224609375
0.0001220703125 -0.63818359375 0.774322509765625
-0.0142822265625 -0.628143310546875 0.704071044921875
0.29638671875 -0.31219482421875 0.492828369140625
0.3214111328125 -0.316131591796875 0.520751953125
0.30712890625 -0.348114013671875 0.49542236328125
0.2720947265625 -0.312652587890625 0.4705810546875
0.2855224609375 -0.276519775390625 0.49224853515625
0.31005859375 -0.27984619140625 0.521209716796875
0.3321533203125 -0.349822998046875 0.519134521484375
0.28369140625 -0.34808349609375 0.47052001953125
0.2625732421875 -0.275054931640625 0.46978759765625
-0.0313720703125 -0.5419921875 0.702362060546875
-0.0225830078125 -0.57623291015625 0.7127685546875
-0.0201416015625 -0.552703857421875 0.74334716796875
-0.039306640625 -0.5048828125 0.68829345703125
-0.0360107421875 -0.52685546875 0.659454345703125
-0.0272216796875 -0.563201904296875 0.674163818359375
-0.0118408203125 -0.583740234375 0.752593994140625
-0.0294189453125 -0.51678466796875 0.730712890625
-0.0416259765625 -0.49188232421875 0.6451416015625
0.2034912109375 -0.344879150390625 0.45367431640625
0.216064453125 -0.37921142578125 0.45831298828125
0.184326171875 -0.36468505859375 0.458465576171875
0.193115234375 -0.311065673828125 0.448028564453125
0.2254638671875 -0.327667236328125 0.452606201171875
0.2357177734375 -0.362091064453125 0.455108642578125
0.197265625 -0.398651123046875 0.4674072265625
0.176025390625 -0.3341064453125 0.45050048828125
0.2122802734375 -0.292236328125 0.44781494140625
-0.013671875 -0.497161865234375 0.57806396484375
0.00390625 -0.49383544921875 0.561431884765625
-0.00244140625 -0.53387451171875 0.594940185546875
-0.0284423828125 -0.5042724609375 0.597808837890625
-0.0206298828125 -0.463653564453125 0.560272216796875
-0.006591796875 -0.461090087890625 0.54443359375
0.0162353515625 -0.528961181640625 0.579681396484375
-0.0169677734375 -0.540283203125 0.613739013671875
-0.0328369140625 -0.46923828125 0.58026123046875
0.259033203125 -0.473175048828125 0.49029541015625
0.27978515625 -0.45751953125 0.482452392578125
0.27685546875 -0.4952392578125 0.506988525390625
0.2421875 -0.492218017578125 0.506072998046875
0.2435302734375 -0.44488525390625 0.47607421875
0.2640380859375 -0.427947998046875 0.47027587890625
0.2916259765625 -0.478179931640625 0.497344970703125
0.261474609375 -0.51251220703125 0.52386474609375
0.224853515625 -0.465606689453125 0.48895263671875
0.0224609375 -0.631683349609375 0.659698486328125
0.032470703125 -0.653228759765625 0.6875
0.0079345703125 -0.639434814453125 0.674102783203125
0.014892578125 -0.60369873046875 0.6348876953125
0.04541015625 -0.623870849609375 0.647857666015625
0.0543212890625 -0.645751953125 0.674530029296875
0.0172119140625 -0.66070556640625 0.698150634765625
-0.0020751953125 -0.61004638671875 0.65338134765625
0.0325927734375 -0.5955810546875 0.621490478515625
0.171142578125 -0.223175048828125 0.41375732421875
0.18798828125 -0.201324462890625 0.42626953125
0.1781005859375 -0.248199462890625 0.425384521484375
0.153076171875 -0.2491455078125 0.40618896484375
0.162841796875 -0.20355224609375 0.402069091796875
0.179931640625 -0.1783447265625 0.417449951171875
0.1953125 -0.22955322265625 0.434478759765625
0.1602783203125 -0.27386474609375 0.421661376953125
0.1497802734375 -0.22906494140625 0.391082763671875
-0.0548095703125 -0.386383056640625 0.506256103515625
-0.0396728515625 -0.407989501953125 0.521514892578125
-0.0625 -0.383270263671875 0.530487060546875
-0.065185546875 -0.368438720703125 0.4886474609375
-0.0413818359375 -0.39129638671875 0.48577880859375
-0.025146484375 -0.409454345703125 0.505584716796875
-0.0517578125 -0.40716552734375 0.544769287109375
-0.0704345703125 -0.361358642578125 0.515838623046875
-0.0552978515625 -0.376251220703125 0.467559814453125
0.2506103515625 -0.170379638671875 0.494476318359375
0.2705078125 -0.167877197265625 0.524871826171875
0.263671875 -0.202667236328125 0.495147705078125
0.225341796875 -0.17498779296875 0.46746826171875
0.2362060546875 -0.137908935546875 0.49139404296875
0.256103515625 -0.132598876953125 0.520538330078125
0.284912109375 -0.202056884765625 0.522308349609375
0.237548828125 -0.206573486328125 0.470794677734375
0.2169189453125 -0.146331787109375 0.4639892578125
-0.0643310546875 -0.399169921875 0.639923095703125
-0.0545654296875 -0.4349365234375 0.656158447265625
-0.0576171875 -0.405303955078125 0.6845703125
-0.0704345703125 -0.363372802734375 0.625946044921875
-0.067626953125 -0.389129638671875 0.5997314453125
-0.060302734375 -0.422393798828125 0.612701416015625
-0.0458984375 -0.4423828125 0.69976806640625
-0.06591796875 -0.367889404296875 0.66693115234375
-0.073974609375 -0.358856201171875 0.583709716796875
0.1805419921875 -0.01397705078125 0.48992919921875
0.1865234375 -0.026885986328125 0.485687255859375
0.1761474609375 -0.01568603515625 0.468017578125
0.1744384765625 -0.00372314453125 0.49407958984375
0.1859130859375 -0.008880615234375 0.5118408203125
0.18994140625 -0.020416259765625 0.511566162109375
0.1787109375 -0.032196044921875 0.459228515625
0.171875 -0.002655029296875 0.47174072265625
0.1788330078125 0.001678466796875 0.51605224609375
-0.092041015625 -0.217376708984375 0.5745849609375
-0.1005859375 -0.223907470703125 0.547271728515625
-0.0916748046875 -0.233154296875 0.574462890625
-0.08544921875 -0.210479736328125 0.599884033203125
-0.0936279296875 -0.202117919921875 0.57464599609375
-0.10302734375 -0.208160400390625 0.549285888671875
-0.0994873046875 -0.239715576171875 0.54364013671875
-0.08349609375 -0.226348876953125 0.60205078125
-0.086181640625 -0.197021484375 0.59686279296875
0.2061767578125 -0.071502685546875 0.484130859375
0.2156982421875 -0.0888671875 0.48516845703125
0.1939697265625 -0.08416748046875 0.456298828125
0.199462890625 -0.053863525390625 0.484832763671875
0.217529296875 -0.0606689453125 0.513702392578125
0.228271484375 -0.080535888671875 0.5150146484375
0.2017822265625 -0.1011962890625 0.4569091796875
0.189697265625 -0.065093994140625 0.453643798828125
0.2069091796875 -0.0457763671875 0.5135498046875
-0.0859375 -0.286285400390625 0.590850830078125
-0.0892333984375 -0.290924072265625 0.554840087890625
-0.0816650390625 -0.308685302734375 0.599517822265625
-0.080322265625 -0.28448486328125 0.623016357421875
-0.087890625 -0.267425537109375 0.582061767578125
-0.0921630859375 -0.273956298828125 0.54656982421875
-0.084716796875 -0.31011962890625 0.563720703125
-0.077392578125 -0.308502197265625 0.634490966796875
-0.081787109375 -0.26239013671875 0.6146240234375
0.159423828125 0.027618408203125 0.5001220703125
0.1612548828125 0.030548095703125 0.518157958984375
0.1634521484375 0.01605224609375 0.49798583984375
0.16015625 0.02960205078125 0.484039306640625
0.1605224609375 0.04254150390625 0.49853515625
0.16064453125 0.04632568359375 0.516021728515625
0.166015625 0.01934814453125 0.51812744140625
0.162841796875 0.019683837890625 0.480865478515625
0.1629638671875 0.043487548828125 0.483489990234375
-0.0980224609375 -0.164306640625 0.5684814453125
-0.09521484375 -0.17596435546875 0.569488525390625
-0.0909423828125 -0.15716552734375 0.588592529296875
-0.1053466796875 -0.157135009765625 0.566619873046875
-0.1051025390625 -0.16961669921875 0.553924560546875
-0.1031494140625 -0.18157958984375 0.5521240234375
-0.0880126953125 -0.16961669921875 0.5904541015625
-0.09912109375 -0.149078369140625 0.58489990234375
-0.1112060546875 -0.1632080078125 0.553955078125
0.20458984375 0.115447998046875 0.470794677734375
0.183837890625 0.0870361328125 0.483367919921875
0.201416015625 0.110931396484375 0.45721435546875
0.2286376953125 0.1480712890625 0.457977294921875
0.2056884765625 0.120330810546875 0.4876708984375
0.18359375 0.09136962890625 0.499908447265625
0.18359375 0.084716796875 0.471435546875
0.224365234375 0.141204833984375 0.4417724609375
0.231201171875 0.155426025390625 0.476776123046875
-0.1737060546875 -0.180206298828125 0.556121826171875
-0.17578125 -0.18548583984375 0.54351806640625
-0.141845703125 -0.16644287109375 0.563079833984375
-0.1678466796875 -0.171722412109375 0.573822021484375
-0.20703125 -0.1962890625 0.553741455078125
-0.208740234375 -0.200592041015625 0.536956787109375
-0.1461181640625 -0.171966552734375 0.549346923828125
-0.138671875 -0.158172607421875 0.58111572265625
-0.205322265625 -0.1895751953125 0.5716552734375
-0.0166015625 -0.247833251953125 -0.48760986328125
-0.013427734375 -0.19317626953125 -0.530731201171875
0.03173828125 -0.199005126953125 -0.473785400390625
-0.018310546875 -0.289031982421875 -0.441925048828125
-0.069091796875 -0.295074462890625 -0.49609375
-0.0643310546875 -0.23992919921875 -0.54107666015625
0.0350341796875 -0.14520263671875 -0.509185791015625
0.029052734375 -0.23504638671875 -0.43133544921875
-0.0673828125 -0.33990478515625 -0.44281005859375
-0.2138671875 -0.40472412109375 -0.455718994140625
-0.2545166015625 -0.43072509765625 -0.426483154296875
-0.214111328125 -0.352386474609375 -0.503662109375
-0.1666259765625 -0.376495361328125 -0.47686767578125
-0.2103271484375 -0.44342041015625 -0.40069580078125
-0.251220703125 -0.46380615234375 -0.375335693359375
-0.2548828125 -0.384033203125 -0.47430419921875
-0.1668701171875 -0.323211669921875 -0.52557373046875
-0.1641845703125 -0.417938232421875 -0.4234619140625
-0.007568359375 -0.3658447265625 -0.2584228515625
-0.0126953125 -0.344451904296875 -0.324554443359375
0.0355224609375 -0.31097412109375 -0.256134033203125
-0.0006103515625 -0.377105712890625 -0.180908203125
-0.0550537109375 -0.41552734375 -0.254669189453125
-0.0616455078125 -0.397552490234375 -0.323944091796875
0.0306396484375 -0.29010009765625 -0.3236083984375
0.043212890625 -0.32208251953125 -0.18365478515625
-0.0467529296875 -0.422882080078125 -0.17584228515625
-0.1895751953125 -0.50885009765625 -0.207794189453125
-0.225830078125 -0.519927978515625 -0.187408447265625
-0.2012939453125 -0.49761962890625 -0.27972412109375
-0.1474609375 -0.489013671875 -0.230682373046875
-0.1724853515625 -0.513336181640625 -0.12774658203125
-0.20849609375 -0.52301025390625 -0.108673095703125
-0.2381591796875 -0.510406494140625 -0.2562255859375
-0.1585693359375 -0.476348876953125 -0.301513671875
-0.1322021484375 -0.494964599609375 -0.14862060546875
0.041259765625 -0.35308837890625 0.086883544921875
0.0240478515625 -0.3658447265625 -0.0064697265625
0.0723876953125 -0.307525634765625 0.073760986328125
0.053466796875 -0.33612060546875 0.170623779296875
0.00537109375 -0.3916015625 0.098052978515625
-0.0125732421875 -0.409637451171875 0.002960205078125
0.060791015625 -0.32086181640625 -0.015380859375
0.0836181640625 -0.292327880859375 0.16094970703125
0.022216796875 -0.371002197265625 0.1839599609375
-0.1031494140625 -0.463043212890625 0.134490966796875
-0.1376953125 -0.47100830078125 0.145538330078125
-0.126220703125 -0.488067626953125 0.0452880859375
-0.066162109375 -0.448760986328125 0.122222900390625
-0.0775146484375 -0.433135986328125 0.217559814453125
-0.111572265625 -0.440155029296875 0.228668212890625
-0.160888671875 -0.494537353515625 0.05804443359375
-0.08935546875 -0.471099853515625 0.028411865234375
-0.0438232421875 -0.4217529296875 0.20574951171875
0.0826416015625 -0.3013916015625 0.3299560546875
0.0770263671875 -0.3045654296875 0.293853759765625
0.1053466796875 -0.269622802734375 0.32379150390625
0.0867919921875 -0.300537109375 0.354736328125
0.0595703125 -0.3309326171875 0.3428955078125
0.0513916015625 -0.337249755859375 0.306121826171875
0.100830078125 -0.268798828125 0.286041259765625
0.10986328125 -0.269866943359375 0.3460693359375
0.06494140625 -0.329315185546875 0.36468505859375
-0.0269775390625 -0.383270263671875 0.371124267578125
-0.0518798828125 -0.3861083984375 0.38067626953125
-0.0399169921875 -0.3929443359375 0.33831787109375
0.002685546875 -0.37176513671875 0.36383056640625
-0.0164794921875 -0.378021240234375 0.3961181640625
-0.0408935546875 -0.38134765625 0.4010009765625
-0.0689697265625 -0.39678955078125 0.348175048828125
-0.0103759765625 -0.380767822265625 0.328521728515625
0.011962890625 -0.36737060546875 0.38531494140625
0.1534423828125 -0.1597900390625 0.366546630859375
0.1573486328125 -0.1728515625 0.37603759765625
0.1414794921875 -0.197509765625 0.339691162109375
0.153076171875 -0.1497802734375 0.35211181640625
0.1654052734375 -0.1285400390625 0.395263671875
0.1695556640625 -0.14312744140625 0.4019775390625
0.14404296875 -0.203857421875 0.356536865234375
0.1392822265625 -0.18792724609375 0.31744384765625
0.1614990234375 -0.1151123046875 0.38909912109375
-0.08984375 -0.34136962890625 0.44989013671875
-0.086669921875 -0.363677978515625 0.419464111328125
-0.0816650390625 -0.3470458984375 0.462310791015625
-0.0911865234375 -0.31866455078125 0.482421875
-0.102783203125 -0.338653564453125 0.4356689453125
-0.101318359375 -0.3682861328125 0.3992919921875
-0.0745849609375 -0.36431884765625 0.4373779296875
-0.084228515625 -0.33056640625 0.49285888671875
-0.098876953125 -0.310333251953125 0.47283935546875
0.3790283203125 0.41583251953125 0.185089111328125
0.3746337890625 0.42315673828125 0.241180419921875
0.36474609375 0.356475830078125 0.190826416015625
0.3880615234375 0.407928466796875 0.12689208984375
0.387451171875 0.473297119140625 0.183624267578125
0.3848876953125 0.47650146484375 0.23516845703125
0.361083984375 0.368804931640625 0.252166748046875
0.3734130859375 0.34173583984375 0.127777099609375
0.3948974609375 0.471527099609375 0.127532958984375
-0.4984130859375 -0.321868896484375 0.25103759765625
-0.466552734375 -0.3333740234375 0.27764892578125
-0.483642578125 -0.2947998046875 0.308135986328125
-0.52099609375 -0.302398681640625 0.223175048828125
-0.510009765625 -0.347900390625 0.189361572265625
-0.4822998046875 -0.369140625 0.2191162109375
-0.45166015625 -0.30084228515625 0.33660888671875
-0.5120849609375 -0.282073974609375 0.28216552734375
-0.535400390625 -0.321502685546875 0.1629638671875
0.022216796875 0.060577392578125 -0.624481201171875
0.035400390625 0.165557861328125 -0.641510009765625
0.072998046875 0.100555419921875 -0.58966064453125
0.0072021484375 -0.036651611328125 -0.59014892578125
-0.0343017578125 0.014129638671875 -0.649871826171875
-0.0220947265625 0.119140625 -0.66851806640625
0.09033203125 0.202850341796875 -0.604583740234375
0.0576171875 0.005645751953125 -0.56640625
-0.0482177734375 -0.082794189453125 -0.61505126953125
-0.2095947265625 -0.1416015625 -0.6324462890625
-0.2620849609375 -0.1917724609375 -0.603912353515625
-0.2098388671875 -0.052520751953125 -0.662109375
-0.15234375 -0.088226318359375 -0.65185546875
-0.21142578125 -0.222900390625 -0.594329833984375
-0.2606201171875 -0.264129638671875 -0.563995361328125
-0.265869140625 -0.113128662109375 -0.634765625
-0.14794921875 0.007476806640625 -0.67864990234375
-0.1561279296875 -0.178680419921875 -0.61859130859375
-0.0426025390625 0.75201416015625 -0.0811767578125
-0.048828125 0.737213134765625 -0.008880615234375
0.020263671875 0.793792724609375 -0.065338134765625
-0.030517578125 0.757049560546875 -0.15020751953125
-0.1038818359375 0.697235107421875 -0.103912353515625
-0.1170654296875 0.6839599609375 -0.029998779296875
0.0123291015625 0.781494140625 0.003021240234375
0.030517578125 0.798492431640625 -0.130126953125
-0.09521484375 0.704620361328125 -0.17266845703125
-0.30078125 0.503021240234375 -0.17828369140625
-0.3560791015625 0.42803955078125 -0.208282470703125
-0.309814453125 0.4862060546875 -0.107391357421875
-0.23974609375 0.569854736328125 -0.15301513671875
-0.2896728515625 0.505462646484375 -0.25042724609375
-0.3466796875 0.433349609375 -0.275238037109375
-0.3624267578125 0.41497802734375 -0.134521484375
-0.2469482421875 0.556915283203125 -0.0836181640625
-0.226806640625 0.573486328125 -0.227691650390625
0.0108642578125 0.7200927734375 -0.35797119140625
-0.005859375 0.739715576171875 -0.2862548828125
0.0716552734375 0.76617431640625 -0.319091796875
0.0218505859375 0.68438720703125 -0.424652099609375
-0.05029296875 0.664459228515625 -0.396484375
-0.0687255859375 0.68756103515625 -0.320068359375
0.0570068359375 0.787261962890625 -0.25628662109375
0.0828857421875 0.728790283203125 -0.38177490234375
-0.0364990234375 0.62847900390625 -0.463165283203125
-0.2462158203125 0.4681396484375 -0.46380615234375
-0.3072509765625 0.39862060546875 -0.474945068359375
-0.26025390625 0.488189697265625 -0.397064208984375
-0.179443359375 0.537384033203125 -0.446258544921875
-0.2322998046875 0.43310546875 -0.5234375
-0.292724609375 0.362335205078125 -0.52655029296875
-0.31884765625 0.422607421875 -0.412139892578125
-0.19482421875 0.559234619140625 -0.3760986328125
-0.168701171875 0.499664306640625 -0.51318359375
0.0509033203125 0.472900390625 -0.590667724609375
0.0435791015625 0.55987548828125 -0.5465087890625
0.1064453125 0.51531982421875 -0.549224853515625
0.0538330078125 0.378570556640625 -0.621490478515625
-0.008544921875 0.421234130859375 -0.627838134765625
-0.01513671875 0.505828857421875 -0.58172607421875
0.10009765625 0.602935791015625 -0.501861572265625
0.1072998046875 0.413543701171875 -0.584320068359375
-0.0093994140625 0.32861328125 -0.6572265625
-0.2130126953125 0.22979736328125 -0.658905029296875
-0.27294921875 0.159576416015625 -0.6444091796875
-0.2149658203125 0.31048583984375 -0.625640869140625
-0.1456298828125 0.29205322265625 -0.660247802734375
-0.2080078125 0.13494873046875 -0.673797607421875
-0.2696533203125 0.06854248046875 -0.65740966796875
-0.27783203125 0.243072509765625 -0.6119384765625
-0.1492919921875 0.377685546875 -0.626495361328125
-0.1441650390625 0.2032470703125 -0.68524169921875
0.300537109375 0.70428466796875 0.29608154296875
0.3055419921875 0.718719482421875 0.327880859375
0.3199462890625 0.699066162109375 0.2911376953125
0.2962646484375 0.6966552734375 0.26025390625
0.279541015625 0.7020263671875 0.29925537109375
0.2830810546875 0.71527099609375 0.334075927734375
0.32470703125 0.7117919921875 0.326904296875
0.31494140625 0.693115234375 0.257904052734375
0.2745361328125 0.692596435546875 0.26251220703125
-0.5433349609375 -0.055267333984375 0.1978759765625
-0.55224609375 -0.082794189453125 0.20037841796875
-0.55322265625 -0.055084228515625 0.233612060546875
-0.53125 -0.02703857421875 0.197967529296875
-0.53857421875 -0.05255126953125 0.15655517578125
-0.5484619140625 -0.08258056640625 0.162322998046875
-0.5648193359375 -0.083526611328125 0.234161376953125
-0.540771484375 -0.026641845703125 0.2335205078125
-0.526611328125 -0.024505615234375 0.153289794921875
0.2864990234375 0.73858642578125 0.13916015625
0.2867431640625 0.715362548828125 0.18231201171875
0.3087158203125 0.732269287109375 0.140777587890625
0.2874755859375 0.765533447265625 0.092742919921875
0.2637939453125 0.7415771484375 0.132843017578125
0.265625 0.7144775390625 0.17877197265625
0.3079833984375 0.71075439453125 0.182525634765625
0.31005859375 0.75604248046875 0.098785400390625
0.2603759765625 0.769439697265625 0.0843505859375
-0.5430908203125 -0.015655517578125 -0.010009765625
-0.55859375 -0.052947998046875 0.002655029296875
-0.539306640625 -0.0308837890625 0.05450439453125
-0.5279541015625 0.0191650390625 -0.0191650390625
-0.5504150390625 0.00177001953125 -0.074859619140625
-0.566162109375 -0.04095458984375 -0.060302734375
-0.552490234375 -0.0645751953125 0.0625
-0.5242919921875 0.00091552734375 0.044891357421875
-0.5325927734375 0.04302978515625 -0.087005615234375
0.2947998046875 0.806640625 -0.046234130859375
0.2908935546875 0.8017578125 -0.000457763671875
0.3182373046875 0.790924072265625 -0.039031982421875
0.2994384765625 0.804718017578125 -0.0985107421875
0.2672119140625 0.814788818359375 -0.0594482421875
0.263427734375 0.809173583984375 -0.009796142578125
0.3160400390625 0.786651611328125 0.0081787109375
0.321533203125 0.791015625 -0.08782958984375
0.2745361328125 0.814605712890625 -0.106353759765625
-0.5517578125 0.022369384765625 -0.259033203125
-0.570068359375 -0.024658203125 -0.238433837890625
-0.5533447265625 0.0203857421875 -0.203582763671875
-0.5306396484375 0.070953369140625 -0.279327392578125
-0.5443115234375 0.019256591796875 -0.3140869140625
-0.5657958984375 -0.0281982421875 -0.291717529296875
-0.5706787109375 -0.027801513671875 -0.18328857421875
-0.533447265625 0.066741943359375 -0.22003173828125
-0.5242919921875 0.06829833984375 -0.3333740234375
0.315673828125 0.759368896484375 -0.2425537109375
0.3089599609375 0.785919189453125 -0.195709228515625
0.3336181640625 0.741729736328125 -0.226898193359375
0.3197021484375 0.724822998046875 -0.285675048828125
0.2919921875 0.768646240234375 -0.25927734375
0.2857666015625 0.79473876953125 -0.211517333984375
0.331787109375 0.767974853515625 -0.18505859375
0.3358154296875 0.711639404296875 -0.2674560546875
0.297607421875 0.733551025390625 -0.30224609375
-0.527099609375 -0.021270751953125 -0.446990966796875
-0.547607421875 -0.067352294921875 -0.424285888671875
-0.531982421875 -0.000213623046875 -0.4088134765625
-0.505126953125 0.027496337890625 -0.466888427734375
-0.5218505859375 -0.05096435546875 -0.47772216796875
-0.5404052734375 -0.09259033203125 -0.45245361328125
-0.553955078125 -0.0494384765625 -0.38623046875
-0.5096435546875 0.04937744140625 -0.430755615234375
-0.4979248046875 -0.00146484375 -0.49700927734375
0.32421875 0.55206298828125 -0.3768310546875
0.3209228515625 0.473602294921875 -0.39862060546875
0.3028564453125 0.55047607421875 -0.403228759765625
0.3231201171875 0.6209716796875 -0.352325439453125
0.342041015625 0.559417724609375 -0.34954833984375
0.341796875 0.48699951171875 -0.370635986328125
0.297607421875 0.46826171875 -0.422454833984375
0.303466796875 0.6240234375 -0.37847900390625
0.3404541015625 0.620208740234375 -0.3270263671875
-0.5135498046875 -0.194610595703125 -0.48797607421875
-0.489990234375 -0.16082763671875 -0.52020263671875
-0.506103515625 -0.25445556640625 -0.470428466796875
-0.5322265625 -0.22149658203125 -0.455902099609375
-0.5172119140625 -0.138275146484375 -0.499603271484375
-0.491943359375 -0.099822998046875 -0.526031494140625
-0.4830322265625 -0.22479248046875 -0.503692626953125
-0.5284423828125 -0.278717041015625 -0.436859130859375
-0.534912109375 -0.16888427734375 -0.4666748046875
0.2286376953125 0.55810546875 -0.4608154296875
0.197265625 0.55645751953125 -0.48492431640625
0.224365234375 0.64447021484375 -0.42340087890625
0.2548828125 0.556549072265625 -0.44586181640625
0.225830078125 0.4642333984375 -0.4918212890625
0.19384765625 0.4573974609375 -0.51800537109375
0.191650390625 0.64532470703125 -0.44232177734375
0.2523193359375 0.63983154296875 -0.41033935546875
0.24951171875 0.4644775390625 -0.468292236328125
-0.40771484375 -0.02191162109375 -0.58978271484375
-0.412109375 0.05419921875 -0.579833984375
-0.3740234375 0.03302001953125 -0.6064453125
-0.405029296875 -0.101715087890625 -0.586090087890625
-0.436279296875 -0.072418212890625 -0.571807861328125
-0.4388427734375 -0.001068115234375 -0.564910888671875
-0.3768310546875 0.111968994140625 -0.591949462890625
-0.370361328125 -0.05303955078125 -0.60906982421875
-0.4326171875 -0.14666748046875 -0.563201904296875
0.1998291015625 0.799957275390625 -0.278045654296875
0.16357421875 0.801849365234375 -0.280242919921875
0.19140625 0.82159423828125 -0.22369384765625
0.2337646484375 0.79132080078125 -0.27691650390625
0.2099609375 0.76806640625 -0.331146240234375
0.1734619140625 0.767791748046875 -0.33709716796875
0.15380859375 0.822357177734375 -0.22760009765625
0.224609375 0.815765380859375 -0.226226806640625
0.2418212890625 0.75567626953125 -0.32666015625
-0.4293212890625 0.19488525390625 -0.48388671875
-0.435546875 0.21539306640625 -0.440185546875
-0.3966064453125 0.260955810546875 -0.4822998046875
-0.4202880859375 0.16546630859375 -0.526885986328125
-0.4547119140625 0.134368896484375 -0.484161376953125
-0.4622802734375 0.15728759765625 -0.441864013671875
-0.4068603515625 0.2791748046875 -0.433624267578125
-0.3873291015625 0.228546142578125 -0.523468017578125
-0.4486083984375 0.10491943359375 -0.520965576171875
0.1685791015625 0.83544921875 -0.0589599609375
0.126220703125 0.83642578125 -0.050323486328125
0.165771484375 0.82366943359375 -0.002838134765625
0.205078125 0.830108642578125 -0.061920166015625
0.177490234375 0.83734130859375 -0.1153564453125
0.1339111328125 0.837982177734375 -0.111480712890625
0.119873046875 0.824615478515625 0.008026123046875
0.19970703125 0.818084716796875 -0.012542724609375
0.213623046875 0.830535888671875 -0.118438720703125
-0.4677734375 0.22845458984375 -0.274932861328125
-0.4744873046875 0.220184326171875 -0.21099853515625
-0.437255859375 0.29364013671875 -0.254608154296875
-0.456787109375 0.2310791015625 -0.33587646484375
-0.4913330078125 0.17254638671875 -0.286590576171875
-0.4964599609375 0.164031982421875 -0.222869873046875
-0.4453125 0.27960205078125 -0.187591552734375
-0.4295654296875 0.294403076171875 -0.318634033203125
-0.4810791015625 0.174224853515625 -0.345611572265625
0.17138671875 0.741607666015625 0.153564453125
0.1295166015625 0.73455810546875 0.168670654296875
0.1807861328125 0.710052490234375 0.20172119140625
0.2088623046875 0.7421875 0.1412353515625
0.1658935546875 0.77734375 0.1005859375
0.1221923828125 0.77197265625 0.115081787109375
0.1395263671875 0.69940185546875 0.2158203125
0.2127685546875 0.712432861328125 0.1849365234375
0.20166015625 0.774749755859375 0.088958740234375
-0.471923828125 0.144805908203125 0.00128173828125
-0.46826171875 0.115447998046875 0.067840576171875
-0.4444580078125 0.19732666015625 0.027099609375
-0.4752197265625 0.177154541015625 -0.070556640625
-0.4908447265625 0.0965576171875 -0.01617431640625
-0.490234375 0.0731201171875 0.053924560546875
-0.4417724609375 0.16571044921875 0.094329833984375
-0.4490966796875 0.23187255859375 -0.0467529296875
-0.49560546875 0.12542724609375 -0.0860595703125
0.1947021484375 0.683135986328125 0.320404052734375
0.1937255859375 0.69183349609375 0.353973388671875
0.2281494140625 0.6920166015625 0.310943603515625
0.1915283203125 0.679962158203125 0.28369140625
0.1563720703125 0.665863037109375 0.33203125
0.15478515625 0.67926025390625 0.3631591796875
0.229248046875 0.703826904296875 0.344635009765625
0.2216796875 0.68731689453125 0.273101806640625
0.1539306640625 0.6632080078125 0.2998046875
-0.4774169921875 0.076934814453125 0.221221923828125
-0.499267578125 0.03692626953125 0.2095947265625
-0.484619140625 0.07940673828125 0.2520751953125
-0.44921875 0.1231689453125 0.23822021484375
-0.4718017578125 0.08233642578125 0.18145751953125
-0.4940185546875 0.04205322265625 0.165771484375
-0.5048828125 0.03875732421875 0.244659423828125
-0.457275390625 0.1279296875 0.26824951171875
-0.4437255859375 0.12481689453125 0.201324462890625
-0.039794921875 0.6419677734375 0.194580078125
-0.0281982421875 0.60479736328125 0.252410888671875
0.0223388671875 0.684814453125 0.190216064453125
-0.0465087890625 0.67962646484375 0.1248779296875
-0.1119384765625 0.58880615234375 0.1900634765625
-0.0977783203125 0.54986572265625 0.257965087890625
0.033203125 0.648162841796875 0.243927001953125
0.015869140625 0.72216796875 0.1279296875
-0.1173095703125 0.625518798828125 0.11572265625
-0.30712890625 0.392364501953125 0.119354248046875
-0.3621826171875 0.327056884765625 0.084930419921875
-0.302490234375 0.35333251953125 0.1922607421875
-0.2451171875 0.463104248046875 0.152130126953125
-0.309814453125 0.43218994140625 0.045135498046875
-0.365478515625 0.3604736328125 0.012420654296875
-0.357421875 0.286285400390625 0.1549072265625
-0.2415771484375 0.423370361328125 0.225677490234375
-0.251708984375 0.50250244140625 0.072174072265625
-0.0086669921875 0.621185302734375 0.40771484375
-0.03564453125 0.5897216796875 0.412567138671875
-0.021728515625 0.6402587890625 0.41162109375
0.0189208984375 0.655426025390625 0.40985107421875
0.0045166015625 0.601470947265625 0.40643310546875
-0.03076171875 0.560211181640625 0.4150390625
-0.0426025390625 0.613555908203125 0.414398193359375
0.000244140625 0.665618896484375 0.41180419921875
0.0430908203125 0.64508056640625 0.4051513671875
-0.3408203125 0.314178466796875 0.33856201171875
-0.345947265625 0.3399658203125 0.335235595703125
-0.3072509765625 0.33917236328125 0.359161376953125
-0.334228515625 0.290863037109375 0.342437744140625
-0.3729248046875 0.294921875 0.32183837890625
-0.3709716796875 0.324615478515625 0.321136474609375
-0.321044921875 0.358673095703125 0.35186767578125
-0.291748046875 0.323394775390625 0.36334228515625
-0.3741455078125 0.261505126953125 0.31988525390625
0.0074462890625 0.563873291015625 0.368072509765625
0.0147705078125 0.57037353515625 0.388946533203125
0.06005859375 0.606597900390625 0.35772705078125
-0.0029296875 0.563385009765625 0.338592529296875
-0.045166015625 0.5164794921875 0.38214111328125
-0.034423828125 0.52264404296875 0.399627685546875
0.0634765625 0.617095947265625 0.38128662109375
0.0517578125 0.60894775390625 0.32733154296875
-0.0655517578125 0.513336181640625 0.356109619140625
-0.311279296875 0.2772216796875 0.314239501953125
-0.36181640625 0.2239990234375 0.288177490234375
-0.3189697265625 0.270660400390625 0.330902099609375
-0.25732421875 0.323699951171875 0.343414306640625
-0.301513671875 0.2933349609375 0.28814697265625
-0.355712890625 0.2313232421875 0.257080078125
-0.3673095703125 0.221893310546875 0.307647705078125
-0.265625 0.3145751953125 0.35888671875
-0.2457275390625 0.34814453125 0.320556640625
-0.1163330078125 0.42388916015625 0.4097900390625
-0.1121826171875 0.417694091796875 0.423614501953125
-0.1077880859375 0.4429931640625 0.40185546875
-0.1300048828125 0.414337158203125 0.405731201171875
-0.1265869140625 0.401611328125 0.424560546875
-0.0970458984375 0.442840576171875 0.418975830078125
-0.12744140625 0.435546875 0.38531494140625
-0.1708984375 0.3773193359375 0.399993896484375
-0.1851806640625 0.3746337890625 0.388885498046875
-0.1697998046875 0.369140625 0.41424560546875
-0.1583251953125 0.388641357421875 0.399749755859375
-0.17138671875 0.3990478515625 0.37933349609375
-0.1925048828125 0.359222412109375 0.401580810546875
-0.1533203125 0.37957763671875 0.42059326171875
0.3702392578125 0.62298583984375 0.23480224609375
0.3729248046875 0.63018798828125 0.275787353515625
0.384521484375 0.580780029296875 0.208953857421875
0.3692626953125 0.622467041015625 0.194061279296875
0.3543701171875 0.66009521484375 0.261383056640625
0.359375 0.668182373046875 0.298187255859375
0.384521484375 0.582427978515625 0.25482177734375
0.384521484375 0.5787353515625 0.164886474609375
0.3529052734375 0.65643310546875 0.2216796875
-0.5626220703125 -0.197540283203125 0.198974609375
-0.5550537109375 -0.239349365234375 0.197357177734375
-0.5633544921875 -0.19256591796875 0.244476318359375
-0.564453125 -0.15374755859375 0.200439453125
-0.5638427734375 -0.20062255859375 0.150848388671875
-0.5623779296875 -0.245269775390625 0.1470947265625
-0.55078125 -0.230224609375 0.250762939453125
-0.569091796875 -0.154388427734375 0.23895263671875
-0.5604248046875 -0.155670166015625 0.15814208984375
0.3729248046875 0.652313232421875 0.08685302734375
0.388427734375 0.605133056640625 0.04986572265625
0.374755859375 0.66680908203125 0.05126953125
0.3525390625 0.6925048828125 0.11212158203125
0.37109375 0.639373779296875 0.119598388671875
0.387939453125 0.59405517578125 0.082672119140625
0.3905029296875 0.6180419921875 0.01812744140625
0.3546142578125 0.709716796875 0.07733154296875
0.3509521484375 0.6737060546875 0.14764404296875
-0.5843505859375 -0.193359375 0.00201416015625
-0.59033203125 -0.191680908203125 -0.0478515625
-0.583740234375 -0.24700927734375 -0.00408935546875
-0.5772705078125 -0.1968994140625 0.05133056640625
-0.5792236328125 -0.140350341796875 0.008880615234375
-0.583984375 -0.135772705078125 -0.048126220703125
-0.5889892578125 -0.247283935546875 -0.046844482421875
-0.5767822265625 -0.25115966796875 0.044219970703125
-0.5718994140625 -0.1473388671875 0.05889892578125
0.376708984375 0.685302734375 -0.0648193359375
0.387451171875 0.6368408203125 -0.0882568359375
0.3756103515625 0.6798095703125 -0.1075439453125
0.3580322265625 0.731048583984375 -0.04840087890625
0.3746337890625 0.6859130859375 -0.0242919921875
0.390380859375 0.6356201171875 -0.052276611328125
0.3858642578125 0.630126953125 -0.1259765625
0.3604736328125 0.72509765625 -0.092193603515625
0.3570556640625 0.73101806640625 -0.00592041015625
-0.5950927734375 -0.181365966796875 -0.183624267578125
-0.5924072265625 -0.186370849609375 -0.2296142578125
-0.5972900390625 -0.233062744140625 -0.174835205078125
-0.596435546875 -0.18328857421875 -0.138580322265625
-0.5904541015625 -0.129058837890625 -0.199462890625
-0.5870361328125 -0.1334228515625 -0.247161865234375
-0.5927734375 -0.237762451171875 -0.212615966796875
-0.5963134765625 -0.237762451171875 -0.13604736328125
-0.5916748046875 -0.12896728515625 -0.148590087890625
0.367919921875 0.620452880859375 -0.240875244140625
0.365478515625 0.594482421875 -0.2813720703125
0.35986328125 0.672271728515625 -0.22723388671875
0.3712158203125 0.645751953125 -0.193603515625
0.375 0.569854736328125 -0.25469970703125
0.370849609375 0.537933349609375 -0.298065185546875
0.3572998046875 0.646331787109375 -0.265777587890625
0.361083984375 0.6954345703125 -0.1844482421875
0.380859375 0.597686767578125 -0.20794677734375
-0.5723876953125 -0.222625732421875 -0.3536376953125
-0.5697021484375 -0.171630859375 -0.373046875
-0.56396484375 -0.23443603515625 -0.38934326171875
-0.5743408203125 -0.267852783203125 -0.3353271484375
-0.57958984375 -0.2091064453125 -0.313873291015625
-0.576416015625 -0.1558837890625 -0.333251953125
-0.561767578125 -0.183197021484375 -0.4044189453125
-0.5643310546875 -0.285003662109375 -0.370147705078125
-0.583740234375 -0.2557373046875 -0.296234130859375
0.15625 -0.156402587890625 0.041107177734375
0.131591796875 -0.210784912109375 0.052703857421875
0.1474609375 -0.171966552734375 -0.035400390625
0.1812744140625 -0.10235595703125 0.03094482421875
0.1629638671875 -0.1368408203125 0.11822509765625
0.1376953125 -0.191253662109375 0.1378173828125
0.122314453125 -0.222686767578125 -0.02923583984375
0.1722412109375 -0.119842529296875 -0.04425048828125
0.1873779296875 -0.078857421875 0.10943603515625
-0.2353515625 -0.4619140625 0.152740478515625
-0.2548828125 -0.485931396484375 0.07305908203125
-0.2052001953125 -0.466796875 0.154083251953125
-0.212890625 -0.428070068359375 0.22412109375
-0.263916015625 -0.45086669921875 0.14837646484375
-0.281494140625 -0.476348876953125 0.071685791015625
-0.2276611328125 -0.492156982421875 0.0740966796875
