# XYZ point cloud file
0.27197265625 -0.501953125 0.681640625
0.31494140625 -0.534423828125 0.690093994140625
0.2060546875 0.11474609375 0.703887939453125
0.224609375 0.108154296875 0.654998779296875
0.24462890625 0.10498046875 0.600006103515625
0.26025390625 0.130859375 0.540069580078125
0.2734375 0.173095703125 0.52630615234375
0.28662109375 0.219970703125 0.502716064453125
0.3017578125 0.281005859375 0.504180908203125
0.28564453125 0.287841796875 0.5413818359375
0.2724609375 0.29931640625 0.576995849609375
0.2333984375 0.2607421875 0.64178466796875
0.19970703125 0.2099609375 0.681365966796875
0.18603515625 0.170654296875 0.713958740234375
-0.05517578125 -0.16845703125 0.768646240234375
-0.095703125 -0.208740234375 0.76483154296875
-0.1357421875 -0.251708984375 0.74749755859375
-0.16650390625 -0.310302734375 0.707366943359375
-0.1630859375 -0.331787109375 0.682098388671875
-0.15673828125 -0.3525390625 0.652252197265625
-0.10888671875 -0.3330078125 0.6414794921875
-0.0654296875 -0.308837890625 0.64312744140625
-0.03076171875 -0.273681640625 0.64764404296875
0.00634765625 -0.232177734375 0.6795654296875
0.001953125 -0.20703125 0.71319580078125
-0.00341796875 -0.1689453125 0.7562255859375
0.32666015625 0.327880859375 0.478302001953125
0.3359375 0.379150390625 0.47613525390625
0.3427734375 0.433837890625 0.467071533203125
0.3330078125 0.499755859375 0.491668701171875
0.3193359375 0.505126953125 0.51513671875
0.3046875 0.50439453125 0.539764404296875
0.2841796875 0.459716796875 0.5699462890625
0.27734375 0.41259765625 0.577667236328125
0.2734375 0.359375 0.59130859375
-0.22216796875 -0.32373046875 0.704498291015625
-0.2685546875 -0.352783203125 0.694122314453125
-0.31396484375 -0.3779296875 0.68890380859375
-0.369140625 -0.423828125 0.659210205078125
-0.35986328125 -0.447509765625 0.6419677734375
-0.345703125 -0.464599609375 0.618377685546875
-0.29345703125 -0.451171875 0.61376953125
-0.2373046875 -0.418212890625 0.625946044921875
-0.19775390625 -0.394287109375 0.628875732421875
0.33837890625 0.544189453125 0.45123291015625
0.330078125 0.604248046875 0.44366455078125
0.3173828125 0.659912109375 0.466827392578125
0.27978515625 0.715087890625 0.4967041015625
0.2734375 0.709228515625 0.524993896484375
0.25048828125 0.69970703125 0.554779052734375
0.2578125 0.646484375 0.570098876953125
0.27490234375 0.60498046875 0.5609130859375
0.27490234375 0.553955078125 0.5556640625
-0.4091796875 -0.423583984375 0.6571044921875
-0.45263671875 -0.4296875 0.637725830078125
-0.5146484375 -0.430419921875 0.612701416015625
-0.56201171875 -0.449462890625 0.581756591796875
-0.56640625 -0.46826171875 0.5535888671875
-0.5771484375 -0.487548828125 0.5399169921875
-0.52001953125 -0.505126953125 0.52850341796875
-0.4453125 -0.50390625 0.558563232421875
-0.3994140625 -0.49462890625 0.596099853515625
0.2509765625 0.757568359375 0.48736572265625
0.20654296875 0.800048828125 0.519866943359375
0.17041015625 0.84033203125 0.560272216796875
0.1279296875 0.855712890625 0.6171875
0.1259765625 0.837158203125 0.635894775390625
0.1240234375 0.814697265625 0.64117431640625
0.15234375 0.77001953125 0.634521484375
0.1826171875 0.74755859375 0.608154296875
0.208984375 0.719970703125 0.59539794921875
-0.58935546875 -0.412353515625 0.5982666015625
-0.62646484375 -0.399169921875 0.58856201171875
-0.66552734375 -0.383544921875 0.581085205078125
-0.7138671875 -0.37841796875 0.576629638671875
-0.7421875 -0.393310546875 0.550537109375
-0.74951171875 -0.40625 0.51190185546875
-0.72705078125 -0.44287109375 0.493560791015625
-0.681640625 -0.46826171875 0.497711181640625
-0.63623046875 -0.48046875 0.5003662109375
0.1005859375 0.8642578125 0.617034912109375
0.0712890625 0.860107421875 0.633697509765625
0.0439453125 0.83740234375 0.64398193359375
-0.00341796875 0.8076171875 0.683380126953125
-0.0009765625 0.791748046875 0.7037353515625
-0.00048828125 0.77685546875 0.72125244140625
0.041015625 0.77392578125 0.70355224609375
0.07666015625 0.78955078125 0.688232421875
0.09912109375 0.793701171875 0.67816162109375
-0.69873046875 -0.345703125 0.59686279296875
-0.712890625 -0.322998046875 0.599853515625
-0.71337890625 -0.2958984375 0.605438232421875
-0.73583984375 -0.26611328125 0.58990478515625
-0.76123046875 -0.267822265625 0.573272705078125
-0.76708984375 -0.27001953125 0.53948974609375
-0.771484375 -0.3046875 0.5028076171875
-0.77587890625 -0.34423828125 0.494537353515625
-0.7744140625 -0.377197265625 0.493988037109375
-0.04736328125 0.7880859375 0.66973876953125
-0.0927734375 0.762451171875 0.670318603515625
-0.16064453125 0.738525390625 0.6827392578125
-0.220703125 0.707275390625 0.72222900390625
-0.21923828125 0.69091796875 0.7449951171875
-0.21484375 0.6748046875 0.752960205078125
-0.14306640625 0.684814453125 0.74603271484375
-0.08740234375 0.704833984375 0.750457763671875
-0.0322265625 0.735595703125 0.73974609375
-0.70654296875 -0.216552734375 0.62701416015625
-0.71044921875 -0.165771484375 0.640380859375
-0.697265625 -0.107177734375 0.653778076171875
-0.71484375 -0.051025390625 0.65020751953125
-0.7392578125 -0.057861328125 0.617828369140625
-0.74951171875 -0.0546875 0.5809326171875
-0.75390625 -0.10888671875 0.534576416015625
-0.7607421875 -0.163818359375 0.529693603515625
-0.765625 -0.220947265625 0.5245361328125
-0.28173828125 0.69677734375 0.699981689453125
-0.33349609375 0.6806640625 0.702850341796875
-0.380859375 0.65576171875 0.70745849609375
-0.40771484375 0.626708984375 0.751007080078125
-0.39453125 0.613037109375 0.7742919921875
-0.37646484375 0.603515625 0.78656005859375
-0.32177734375 0.60107421875 0.781646728515625
-0.29541015625 0.62109375 0.77886962890625
-0.25341796875 0.642578125 0.77459716796875
-0.68359375 -0.01904296875 0.670440673828125
-0.68359375 0.020263671875 0.678558349609375
-0.6796875 0.05322265625 0.68914794921875
-0.701171875 0.103515625 0.673553466796875
-0.72998046875 0.119873046875 0.649871826171875
-0.744140625 0.125 0.62384033203125
-0.759765625 0.090576171875 0.58355712890625
-0.75390625 0.050537109375 0.56793212890625
-0.75244140625 0.002197265625 0.55712890625
-0.43994140625 0.60693359375 0.71435546875
-0.466796875 0.579345703125 0.706939697265625
-0.47412109375 0.543212890625 0.717742919921875
-0.46826171875 0.50390625 0.751007080078125
-0.451171875 0.4970703125 0.7633056640625
-0.42919921875 0.4921875 0.787872314453125
-0.40283203125 0.515869140625 0.797515869140625
-0.38720703125 0.541259765625 0.795989990234375
-0.37744140625 0.567138671875 0.793853759765625
-0.662109375 0.10693359375 0.707427978515625
-0.6435546875 0.126953125 0.712432861328125
-0.6142578125 0.145751953125 0.714019775390625
-0.60302734375 0.180908203125 0.72637939453125
-0.6142578125 0.196533203125 0.703369140625
-0.61962890625 0.21533203125 0.67572021484375
-0.67724609375 0.21533203125 0.621917724609375
-0.703125 0.197509765625 0.609710693359375
-0.7265625 0.16162109375 0.6021728515625
-0.45556640625 0.466796875 0.724884033203125
-0.43408203125 0.42333984375 0.736297607421875
-0.412109375 0.3818359375 0.722625732421875
-0.37255859375 0.34912109375 0.747222900390625
-0.361328125 0.34716796875 0.774383544921875
-0.3388671875 0.3447265625 0.800445556640625
-0.3505859375 0.3828125 0.806488037109375
-0.3720703125 0.41845703125 0.802398681640625
-0.3935546875 0.454345703125 0.802276611328125
-0.5556640625 0.164306640625 0.747833251953125
-0.50830078125 0.177001953125 0.76019287109375
-0.46875 0.177001953125 0.758880615234375
-0.43603515625 0.19384765625 0.763824462890625
-0.4482421875 0.207275390625 0.747894287109375
-0.45263671875 0.22021484375 0.726837158203125
-0.49951171875 0.230224609375 0.685302734375
-0.5419921875 0.2294921875 0.67120361328125
-0.59375 0.232666015625 0.656494140625
-0.34765625 0.32080078125 0.721435546875
-0.34521484375 0.293212890625 0.7249755859375
-0.34375 0.276611328125 0.71929931640625
-0.3466796875 0.255126953125 0.748809814453125
-0.34033203125 0.249267578125 0.772247314453125
-0.326171875 0.238525390625 0.78955078125
-0.29931640625 0.2568359375 0.794677734375
-0.3037109375 0.28466796875 0.798858642578125
-0.30859375 0.3173828125 0.805877685546875
-0.38623046875 0.1884765625 0.776153564453125
-0.3564453125 0.1923828125 0.782806396484375
-0.33251953125 0.201904296875 0.79876708984375
-0.36181640625 0.244873046875 0.720062255859375
-0.3837890625 0.23583984375 0.711578369140625
-0.4169921875 0.228515625 0.703887939453125
-0.31396484375 0.348876953125 0.80718994140625
-0.29248046875 0.357177734375 0.7955322265625
-0.275390625 0.369384765625 0.7838134765625
-0.259765625 0.4013671875 0.76971435546875
-0.26171875 0.423583984375 0.7674560546875
-0.26708984375 0.446533203125 0.758544921875
-0.29248046875 0.473388671875 0.761322021484375
-0.32666015625 0.478271484375 0.7781982421875
-0.365234375 0.476806640625 0.79132080078125
-0.57373046875 0.13916015625 0.729339599609375
-0.56396484375 0.1181640625 0.71551513671875
-0.53466796875 0.100830078125 0.711212158203125
-0.509765625 0.089599609375 0.7147216796875
-0.4775390625 0.09521484375 0.711456298828125
-0.4453125 0.10205078125 0.720062255859375
-0.40869140625 0.12109375 0.74163818359375
-0.412109375 0.139892578125 0.75469970703125
-0.41943359375 0.15869140625 0.764892578125
-0.25634765625 0.4892578125 0.752593994140625
-0.25 0.51025390625 0.754852294921875
-0.240234375 0.525390625 0.75567626953125
-0.26318359375 0.5458984375 0.772003173828125
-0.296875 0.56103515625 0.7779541015625
-0.32763671875 0.570068359375 0.792877197265625
-0.650390625 0.063232421875 0.702423095703125
-0.62353515625 0.0458984375 0.702728271484375
-0.595703125 0.03369140625 0.696075439453125
-0.5693359375 0.0380859375 0.6949462890625
-0.5537109375 0.0556640625 0.6981201171875
-0.5341796875 0.071044921875 0.707733154296875
-0.21240234375 0.552978515625 0.76141357421875
-0.189453125 0.565673828125 0.7545166015625
-0.15771484375 0.5859375 0.743804931640625
-0.14208984375 0.618408203125 0.74658203125
-0.15966796875 0.6298828125 0.7501220703125
-0.17822265625 0.642333984375 0.75848388671875
-0.6611328125 -0.06494140625 0.672515869140625
-0.638671875 -0.076904296875 0.666473388671875
-0.61962890625 -0.079345703125 0.666595458984375
-0.59228515625 -0.05908203125 0.670135498046875
-0.59521484375 -0.03125 0.673370361328125
-0.5859375 -0.005615234375 0.681732177734375
-0.09814453125 0.63037109375 0.726409912109375
-0.05322265625 0.65185546875 0.71514892578125
-0.015625 0.67041015625 0.702545166015625
0.0048828125 0.701416015625 0.703399658203125
0.009765625 0.72314453125 0.711700439453125
0.00439453125 0.733642578125 0.7139892578125
-0.69189453125 -0.25439453125 0.626495361328125
-0.67333984375 -0.239501953125 0.627471923828125
-0.650390625 -0.235595703125 0.618316650390625
-0.6328125 -0.195556640625 0.625457763671875
-0.62158203125 -0.1611328125 0.639190673828125
-0.61669921875 -0.120849609375 0.647705078125
0.02734375 0.692626953125 0.6849365234375
0.0556640625 0.693115234375 0.675262451171875
0.07763671875 0.694091796875 0.66131591796875
0.099609375 0.7080078125 0.6546630859375
0.11181640625 0.732177734375 0.66143798828125
0.12109375 0.7578125 0.662322998046875
-0.6640625 -0.35009765625 0.594940185546875
-0.63916015625 -0.33154296875 0.6082763671875
-0.62109375 -0.323486328125 0.6129150390625
-0.6181640625 -0.296142578125 0.618255615234375
-0.625 -0.27587890625 0.6131591796875
-0.6328125 -0.2548828125 0.61505126953125
0.1279296875 0.674560546875 0.6444091796875
0.15478515625 0.660888671875 0.643096923828125
0.173828125 0.638427734375 0.632659912109375
0.20263671875 0.6279296875 0.617584228515625
0.21337890625 0.640869140625 0.611358642578125
0.220703125 0.66455078125 0.591888427734375
-0.53759765625 -0.40771484375 0.6143798828125
-0.5302734375 -0.383544921875 0.6304931640625
-0.513671875 -0.367919921875 0.63934326171875
-0.533203125 -0.346923828125 0.641876220703125
-0.55859375 -0.338134765625 0.63092041015625
-0.58056640625 -0.323974609375 0.6282958984375
0.2060546875 0.57373046875 0.6334228515625
0.20361328125 0.533447265625 0.633148193359375
0.20849609375 0.5009765625 0.621551513671875
0.2314453125 0.472900390625 0.615386962890625
0.24755859375 0.484130859375 0.60211181640625
0.271484375 0.4970703125 0.59063720703125
-0.3623046875 -0.380126953125 0.68017578125
-0.35595703125 -0.3603515625 0.693206787109375
-0.34814453125 -0.340576171875 0.701934814453125
-0.384765625 -0.3359375 0.694488525390625
-0.41357421875 -0.350830078125 0.68341064453125
-0.45263671875 -0.35205078125 0.671417236328125
0.208984375 0.43408203125 0.62945556640625
0.21044921875 0.400634765625 0.649261474609375
0.19384765625 0.368408203125 0.65570068359375
0.19775390625 0.33837890625 0.659912109375
0.20947265625 0.332763671875 0.64923095703125
0.23046875 0.321533203125 0.6341552734375
-0.18896484375 -0.26904296875 0.743011474609375
-0.19775390625 -0.252197265625 0.748992919921875
-0.2041015625 -0.240478515625 0.745697021484375
-0.2431640625 -0.262451171875 0.746826171875
-0.271484375 -0.280517578125 0.7340087890625
-0.2998046875 -0.29833984375 0.724639892578125
0.14892578125 0.313232421875 0.6927490234375
0.11328125 0.280517578125 0.709136962890625
0.0908203125 0.260009765625 0.73016357421875
0.072265625 0.2216796875 0.74853515625
0.09423828125 0.193115234375 0.753753662109375
0.125 0.16357421875 0.7559814453125
-0.05078125 -0.10009765625 0.785675048828125
-0.1083984375 -0.09326171875 0.78173828125
-0.14306640625 -0.084228515625 0.77044677734375
-0.16845703125 -0.117431640625 0.760833740234375
-0.17724609375 -0.160400390625 0.764984130859375
-0.19384765625 -0.19580078125 0.755126953125
0.03173828125 0.234375 0.739959716796875
0.0087890625 0.22607421875 0.745941162109375
-0.01171875 0.223876953125 0.745635986328125
-0.04052734375 0.196533203125 0.739105224609375
-0.037109375 0.157958984375 0.7513427734375
-0.0322265625 0.11962890625 0.75262451171875
0.015625 0.087890625 0.755950927734375
0.064453125 0.1005859375 0.764801025390625
0.11474609375 0.114990234375 0.7738037109375
-0.01513671875 -0.0556640625 0.793426513671875
-0.02392578125 -0.01904296875 0.780548095703125
-0.02685546875 0.023193359375 0.767608642578125
-0.09326171875 0.0439453125 0.759185791015625
-0.12890625 0.027099609375 0.762847900390625
-0.1572265625 0.007568359375 0.758331298828125
-0.17041015625 -0.019775390625 0.75714111328125
-0.16455078125 -0.036376953125 0.755950927734375
-0.166015625 -0.0595703125 0.7623291015625
-0.2236328125 0.3154296875 0.76708984375
-0.23828125 0.328369140625 0.768341064453125
-0.248046875 0.35009765625 0.76043701171875
-0.26904296875 0.24072265625 0.785797119140625
-0.24072265625 0.267578125 0.775177001953125
-0.2236328125 0.281494140625 0.7647705078125
-0.31640625 0.125244140625 0.757415771484375
-0.31396484375 0.1484375 0.775665283203125
-0.3076171875 0.179931640625 0.792755126953125
-0.38232421875 0.107421875 0.738067626953125
-0.36083984375 0.1083984375 0.750335693359375
-0.34228515625 0.103271484375 0.758758544921875
-0.14208984375 0.265625 0.75018310546875
-0.16015625 0.274658203125 0.747772216796875
-0.18603515625 0.290283203125 0.74884033203125
-0.263671875 0.2001953125 0.79010009765625
-0.2314453125 0.1845703125 0.78009033203125
-0.19921875 0.1748046875 0.76556396484375
-0.1611328125 0.182373046875 0.756134033203125
-0.1455078125 0.210693359375 0.755340576171875
-0.1328125 0.232666015625 0.756317138671875
-0.2197265625 0.083740234375 0.7552490234375
-0.20947265625 0.1083984375 0.765655517578125
-0.1884765625 0.131591796875 0.764190673828125
-0.3017578125 0.09228515625 0.74755859375
-0.27978515625 0.082763671875 0.7550048828125
-0.2587890625 0.076171875 0.7506103515625
-0.1513671875 0.140380859375 0.75140380859375
-0.11865234375 0.11962890625 0.75262451171875
-0.0849609375 0.098388671875 0.7496337890625
-0.0615234375 0.230224609375 0.746002197265625
-0.07861328125 0.236572265625 0.749267578125
-0.0966796875 0.24462890625 0.748016357421875
-0.2236328125 0.0546875 0.74786376953125
-0.20751953125 0.035888671875 0.75311279296875
-0.19775390625 0.02001953125 0.7557373046875
0.7958984375 -0.3818359375 0.604644775390625
0.78857421875 -0.376220703125 0.63299560546875
0.77197265625 -0.37841796875 0.65533447265625
0.7529296875 -0.39404296875 0.669647216796875
0.7451171875 -0.409912109375 0.67498779296875
0.74072265625 -0.425048828125 0.685577392578125
0.73388671875 -0.44580078125 0.6947021484375
0.740234375 -0.455810546875 0.67852783203125
0.75 -0.46826171875 0.66668701171875
0.71875 -0.45166015625 0.70709228515625
0.708984375 -0.460205078125 0.71759033203125
0.693359375 -0.467529296875 0.7218017578125
0.68310546875 -0.496337890625 0.729522705078125
0.681640625 -0.518798828125 0.7296142578125
0.6884765625 -0.544677734375 0.72271728515625
0.8125 -0.31591796875 0.569793701171875
0.78369140625 -0.3154296875 0.614105224609375
0.759765625 -0.317138671875 0.641326904296875
0.7529296875 -0.33544921875 0.655609130859375
0.75732421875 -0.34814453125 0.66192626953125
0.763671875 -0.365478515625 0.665618896484375
0.66748046875 -0.47900390625 0.737030029296875
0.6591796875 -0.4814453125 0.753204345703125
0.64697265625 -0.481689453125 0.765625
0.62744140625 -0.501953125 0.769439697265625
0.62109375 -0.53369140625 0.767791748046875
0.61328125 -0.574462890625 0.767578125
0.76025390625 -0.23779296875 0.596343994140625
0.73046875 -0.24365234375 0.62860107421875
0.6962890625 -0.249755859375 0.654876708984375
0.69189453125 -0.26904296875 0.668060302734375
0.72021484375 -0.281005859375 0.657135009765625
0.73974609375 -0.30126953125 0.6551513671875
0.60791015625 -0.464111328125 0.7696533203125
0.5810546875 -0.44677734375 0.774444580078125
0.572265625 -0.43017578125 0.777313232421875
0.54541015625 -0.44921875 0.7772216796875
0.54150390625 -0.49267578125 0.780029296875
0.53369140625 -0.53369140625 0.777862548828125
0.4755859375 -0.072998046875 0.649627685546875
0.46435546875 -0.08837890625 0.671722412109375
0.44580078125 -0.110107421875 0.690399169921875
0.470703125 -0.152587890625 0.699249267578125
0.5322265625 -0.169189453125 0.703338623046875
0.5751953125 -0.197265625 0.694183349609375
0.6259765625 -0.19091796875 0.677764892578125
0.63720703125 -0.17578125 0.665313720703125
0.65771484375 -0.1669921875 0.628448486328125
0.46240234375 -0.45751953125 0.77215576171875
0.46875 -0.423828125 0.7725830078125
0.47705078125 -0.393310546875 0.77001953125
0.46826171875 -0.345947265625 0.765960693359375
0.42626953125 -0.318603515625 0.7568359375
0.38232421875 -0.2890625 0.754913330078125
0.32177734375 -0.28271484375 0.77020263671875
0.3046875 -0.31005859375 0.77008056640625
0.28466796875 -0.329345703125 0.765350341796875
0.626953125 -0.222900390625 0.69775390625
0.640625 -0.237548828125 0.69525146484375
0.658203125 -0.24853515625 0.692657470703125
0.55517578125 -0.409423828125 0.7764892578125
0.53564453125 -0.399658203125 0.77178955078125
0.52099609375 -0.387939453125 0.771270751953125
0.3935546875 -0.10400390625 0.7076416015625
0.3486328125 -0.079833984375 0.713775634765625
0.32421875 -0.061767578125 0.7242431640625
0.2939453125 -0.0634765625 0.74200439453125
0.28857421875 -0.086181640625 0.74566650390625
0.27880859375 -0.103759765625 0.747589111328125
0.2919921875 -0.13427734375 0.747650146484375
0.32373046875 -0.145751953125 0.7489013671875
0.35400390625 -0.16845703125 0.737884521484375
0.3974609375 -0.177490234375 0.73193359375
0.40771484375 -0.163330078125 0.723876953125
0.4169921875 -0.1455078125 0.716705322265625
0.34814453125 -0.2392578125 0.75860595703125
0.36083984375 -0.223876953125 0.75128173828125
0.37548828125 -0.208740234375 0.740875244140625
0.2587890625 -0.13720703125 0.765045166015625
0.23828125 -0.15185546875 0.768890380859375
0.2197265625 -0.161865234375 0.76934814453125
0.22265625 -0.18896484375 0.772705078125
0.2509765625 -0.2158203125 0.771759033203125
0.29296875 -0.23095703125 0.771026611328125
0.5673828125 -0.268310546875 0.72857666015625
0.58056640625 -0.24951171875 0.71661376953125
0.59130859375 -0.228759765625 0.70281982421875
0.419921875 -0.215087890625 0.732818603515625
0.4619140625 -0.241455078125 0.7286376953125
0.51806640625 -0.265380859375 0.743255615234375
0.5087890625 -0.34326171875 0.757232666015625
0.52294921875 -0.32177734375 0.74871826171875
0.5302734375 -0.306640625 0.7423095703125
0.580078125 -0.305419921875 0.739471435546875
0.5966796875 -0.311279296875 0.732574462890625
0.60986328125 -0.313232421875 0.74261474609375
0.62841796875 -0.303466796875 0.72607421875
0.640625 -0.285888671875 0.72491455078125
0.650390625 -0.26904296875 0.708709716796875
0.57958984375 -0.378662109375 0.7698974609375
0.59765625 -0.3583984375 0.756561279296875
0.60693359375 -0.33935546875 0.74542236328125
0.28466796875 -0.0087890625 0.731475830078125
0.2763671875 0.005859375 0.734832763671875
0.26123046875 0.016845703125 0.738922119140625
0.2412109375 0.02392578125 0.748687744140625
0.240234375 0.027099609375 0.7545166015625
0.240234375 0.029296875 0.761077880859375
0.2470703125 0.0234375 0.7734375
0.25537109375 0.013671875 0.7701416015625
0.26220703125 -0.001220703125 0.773345947265625
0.263671875 -0.021240234375 0.764617919921875
0.27099609375 -0.025634765625 0.7611083984375
0.2822265625 -0.031982421875 0.75213623046875
0.1826171875 -0.16064453125 0.784576416015625
0.17919921875 -0.15185546875 0.79290771484375
0.1748046875 -0.145751953125 0.799530029296875
0.1611328125 -0.14453125 0.816375732421875
0.146484375 -0.14697265625 0.815673828125
0.1318359375 -0.14892578125 0.820281982421875
0.1162109375 -0.14990234375 0.811676025390625
0.1181640625 -0.1533203125 0.79827880859375
0.1162109375 -0.15673828125 0.78363037109375
0.1298828125 -0.16552734375 0.776885986328125
0.1416015625 -0.167724609375 0.77667236328125
0.1611328125 -0.173583984375 0.77874755859375
0.234375 0.033935546875 0.75177001953125
0.21826171875 0.04052734375 0.751312255859375
0.1982421875 0.044189453125 0.754425048828125
0.1748046875 0.041748046875 0.764068603515625
0.1806640625 0.0439453125 0.76739501953125
0.1806640625 0.04541015625 0.773834228515625
0.2001953125 0.047119140625 0.78228759765625
0.216796875 0.052001953125 0.782684326171875
0.2255859375 0.043701171875 0.77227783203125
0.10205078125 -0.138671875 0.818695068359375
0.0888671875 -0.131591796875 0.8123779296875
0.07421875 -0.117431640625 0.80987548828125
0.06494140625 -0.0986328125 0.794219970703125
0.06689453125 -0.098876953125 0.786834716796875
0.064453125 -0.098876953125 0.78619384765625
0.06787109375 -0.11865234375 0.784210205078125
0.07861328125 -0.136474609375 0.779876708984375
0.09326171875 -0.148681640625 0.781341552734375
0.14697265625 0.038818359375 0.762451171875
0.1298828125 0.02490234375 0.764617919921875
0.119140625 0.006103515625 0.766754150390625
0.12060546875 -0.00732421875 0.7718505859375
0.1298828125 0.00048828125 0.7779541015625
0.1328125 0.010986328125 0.790313720703125
0.14794921875 0.02880859375 0.7947998046875
0.15478515625 0.03857421875 0.79254150390625
0.16748046875 0.04736328125 0.78314208984375
0.06591796875 -0.084716796875 0.8082275390625
0.068359375 -0.0673828125 0.804779052734375
0.080078125 -0.05712890625 0.80078125
0.095703125 -0.041259765625 0.79144287109375
0.09423828125 -0.040771484375 0.777435302734375
0.10302734375 -0.0341796875 0.77325439453125
0.08447265625 -0.036865234375 0.775543212890625
0.0703125 -0.056640625 0.7772216796875
0.06494140625 -0.079833984375 0.781158447265625
0.1220703125 -0.025634765625 0.77398681640625
0.12890625 -0.03271484375 0.773529052734375
0.13232421875 -0.03271484375 0.78240966796875
0.1376953125 -0.03173828125 0.78411865234375
0.14501953125 -0.034423828125 0.789215087890625
0.1416015625 -0.03369140625 0.798370361328125
0.1474609375 -0.01904296875 0.810028076171875
0.146484375 -0.009765625 0.801025390625
0.1416015625 0.001953125 0.79925537109375
0.10009765625 -0.041259765625 0.804595947265625
0.12255859375 -0.03515625 0.808685302734375
0.13232421875 -0.032470703125 0.8099365234375
0.25048828125 -0.107177734375 0.77874755859375
0.251953125 -0.111572265625 0.77215576171875
0.26318359375 -0.11767578125 0.7603759765625
0.2626953125 -0.03857421875 0.7774658203125
0.25927734375 -0.058837890625 0.78289794921875
0.255859375 -0.08056640625 0.7880859375
0.236328125 -0.11474609375 0.790802001953125
0.21142578125 -0.12744140625 0.80230712890625
0.1884765625 -0.13916015625 0.808685302734375
0.2333984375 -0.085693359375 0.81243896484375
0.23974609375 -0.09228515625 0.802734375
0.24609375 -0.09912109375 0.7962646484375
0.255859375 -0.015625 0.77734375
0.25537109375 -0.013916015625 0.780792236328125
0.2529296875 -0.015380859375 0.786956787109375
0.24169921875 -0.02734375 0.795806884765625
0.2412109375 -0.041748046875 0.802825927734375
0.23486328125 -0.061767578125 0.8134765625
0.208984375 -0.09326171875 0.8172607421875
0.1953125 -0.1064453125 0.826507568359375
0.18115234375 -0.114501953125 0.8277587890625
0.171875 -0.1220703125 0.826416015625
0.17333984375 -0.12890625 0.823211669921875
0.1748046875 -0.135009765625 0.8140869140625
0.14306640625 -0.02587890625 0.818878173828125
0.14697265625 -0.025634765625 0.824371337890625
0.15478515625 -0.025634765625 0.830108642578125
0.1689453125 -0.011962890625 0.827301025390625
0.16943359375 0.002685546875 0.8236083984375
0.16357421875 0.011962890625 0.821441650390625
0.158203125 0.017578125 0.81500244140625
0.15234375 0.019775390625 0.811767578125
0.146484375 0.019775390625 0.8021240234375
0.08935546875 -0.04638671875 0.811859130859375
0.09228515625 -0.049072265625 0.818206787109375
0.09326171875 -0.052001953125 0.82733154296875
0.115234375 -0.05322265625 0.8387451171875
0.12744140625 -0.050537109375 0.841339111328125
0.14306640625 -0.04541015625 0.843017578125
0.16748046875 0.0234375 0.817962646484375
0.17626953125 0.030517578125 0.814056396484375
0.18505859375 0.035400390625 0.819488525390625
0.19140625 0.04150390625 0.812530517578125
0.1904296875 0.046142578125 0.8045654296875
0.1884765625 0.047607421875 0.791961669921875
0.06982421875 -0.098876953125 0.814453125
0.07421875 -0.096923828125 0.82440185546875
0.08154296875 -0.09814453125 0.83087158203125
0.08935546875 -0.087646484375 0.838226318359375
0.0908203125 -0.076171875 0.8359375
0.0927734375 -0.0634765625 0.831268310546875
0.19921875 0.03759765625 0.819488525390625
0.20458984375 0.03466796875 0.815673828125
0.21630859375 0.027099609375 0.813507080078125
0.23095703125 0.029296875 0.80010986328125
0.23876953125 0.03173828125 0.791229248046875
0.240234375 0.03564453125 0.780364990234375
0.119140625 -0.142822265625 0.829986572265625
0.1220703125 -0.1376953125 0.838470458984375
0.12841796875 -0.12939453125 0.84320068359375
0.12060546875 -0.11328125 0.843109130859375
0.10546875 -0.111572265625 0.844512939453125
0.099609375 -0.103515625 0.83856201171875
0.23388671875 0.011474609375 0.805511474609375
0.2353515625 0.000244140625 0.80029296875
0.24267578125 -0.009521484375 0.79522705078125
0.16259765625 -0.1201171875 0.83868408203125
0.15478515625 -0.123046875 0.8411865234375
0.1455078125 -0.120849609375 0.84320068359375
0.1884765625 -0.0205078125 0.833709716796875
0.205078125 -0.00341796875 0.82708740234375
0.220703125 0.009521484375 0.81536865234375
0.140625 -0.10498046875 0.847381591796875
0.14453125 -0.083251953125 0.8419189453125
0.15673828125 -0.063232421875 0.84478759765625
0.185546875 -0.046875 0.82928466796875
0.20068359375 -0.06005859375 0.8284912109375
0.21728515625 -0.071044921875 0.82684326171875
0.013671875 0.03662109375 0.758026123046875
0.05224609375 0.018310546875 0.758636474609375
0.08154296875 -0.0009765625 0.7652587890625
0.16796875 0.049560546875 0.765655517578125
0.166015625 0.064208984375 0.769989013671875
0.1552734375 0.085205078125 0.76727294921875
0.0263671875 -0.095458984375 0.798309326171875
0.04296875 -0.09326171875 0.794830322265625
0.05419921875 -0.095458984375 0.787353515625
0.25390625 0.025390625 0.73138427734375
0.26025390625 0.029541015625 0.72381591796875
0.2685546875 0.037353515625 0.7059326171875
0.25634765625 0.051025390625 0.700897216796875
0.22900390625 0.0654296875 0.71856689453125
0.19482421875 0.079345703125 0.73760986328125
0.02685546875 -0.14208984375 0.7861328125
0.05126953125 -0.167724609375 0.76605224609375
0.0693359375 -0.189208984375 0.752532958984375
0.099609375 -0.1923828125 0.75799560546875
0.11083984375 -0.17822265625 0.76702880859375
0.1123046875 -0.1669921875 0.771087646484375
0.31494140625 -0.025146484375 0.713409423828125
0.32177734375 -0.014404296875 0.701751708984375
0.3349609375 -0.003173828125 0.67706298828125
0.33154296875 0.016845703125 0.649566650390625
0.3154296875 0.025146484375 0.66571044921875
0.29931640625 0.032958984375 0.671600341796875
0.10302734375 -0.225341796875 0.74505615234375
0.12109375 -0.23681640625 0.74481201171875
0.138671875 -0.248046875 0.743804931640625
0.17529296875 -0.23486328125 0.75775146484375
0.17578125 -0.22119140625 0.76141357421875
0.17578125 -0.1962890625 0.7685546875
0.4462890625 -0.035400390625 0.62908935546875
0.41552734375 -0.015625 0.63128662109375
0.38623046875 -0.000732421875 0.6400146484375
0.181640625 -0.2822265625 0.747528076171875
0.2021484375 -0.305908203125 0.74456787109375
0.22802734375 -0.328857421875 0.751495361328125
0.4619140625 -0.00927734375 0.494873046875
0.41748046875 0.005859375 0.49810791015625
0.39794921875 0.015869140625 0.503448486328125
0.3779296875 0.020751953125 0.546112060546875
0.3671875 0.0185546875 0.58111572265625
0.36181640625 0.01611328125 0.610687255859375
0.14599609375 -0.284912109375 0.720916748046875
0.125 -0.309326171875 0.686309814453125
0.11181640625 -0.328857421875 0.6572265625
0.11962890625 -0.36181640625 0.63623046875
0.1318359375 -0.38427734375 0.633148193359375
0.1572265625 -0.41064453125 0.642669677734375
0.3515625 0.0283203125 0.509552001953125
0.33203125 0.031494140625 0.516937255859375
0.31201171875 0.0390625 0.528167724609375
0.29736328125 0.045654296875 0.575927734375
0.29345703125 0.04833984375 0.614501953125
0.2900390625 0.046875 0.65069580078125
0.08203125 -0.2255859375 0.711273193359375
0.0673828125 -0.248779296875 0.6859130859375
0.06201171875 -0.264404296875 0.6529541015625
0.0625 -0.292724609375 0.6265869140625
0.07470703125 -0.308837890625 0.619140625
0.08935546875 -0.32421875 0.61663818359375
0.27978515625 0.0546875 0.545867919921875
0.2685546875 0.062255859375 0.553955078125
0.25732421875 0.07763671875 0.55694580078125
0.01708984375 -0.243896484375 0.638885498046875
0.03271484375 -0.248779296875 0.631866455078125
0.04248046875 -0.260009765625 0.6287841796875
0.666015625 -0.28759765625 0.69287109375
0.6630859375 -0.28076171875 0.69757080078125
0.66552734375 -0.274169921875 0.694976806640625
0.6220703125 -0.326171875 0.736175537109375
0.6279296875 -0.32958984375 0.730072021484375
0.62939453125 -0.33642578125 0.725921630859375
0.63720703125 -0.32666015625 0.707550048828125
0.64501953125 -0.3095703125 0.703033447265625
0.65380859375 -0.302734375 0.698333740234375
0.59814453125 -0.38623046875 0.75140380859375
0.61083984375 -0.37451171875 0.736480712890625
0.61865234375 -0.355224609375 0.72857666015625
0.578125 -0.3994140625 0.774169921875
0.5869140625 -0.394287109375 0.769927978515625
0.58837890625 -0.3955078125 0.765655517578125
0.71728515625 -0.325439453125 0.669036865234375
0.72412109375 -0.31787109375 0.66363525390625
0.73974609375 -0.319091796875 0.665802001953125
0.6728515625 -0.293212890625 0.68621826171875
0.68798828125 -0.302490234375 0.674224853515625
0.70751953125 -0.312744140625 0.670684814453125
0.60888671875 -0.435302734375 0.75384521484375
0.591796875 -0.424560546875 0.75445556640625
0.59130859375 -0.4130859375 0.7620849609375
0.62548828125 -0.458984375 0.761505126953125
0.62255859375 -0.45263671875 0.758819580078125
0.625 -0.445556640625 0.755828857421875
0.740234375 -0.38427734375 0.674713134765625
0.74365234375 -0.38330078125 0.677093505859375
0.75146484375 -0.380859375 0.669036865234375
0.72265625 -0.34375 0.66290283203125
0.7275390625 -0.35595703125 0.665008544921875
0.72998046875 -0.37109375 0.663787841796875
0.66015625 -0.453857421875 0.728729248046875
0.6513671875 -0.453369140625 0.73883056640625
0.64013671875 -0.4521484375 0.742889404296875
0.6767578125 -0.462646484375 0.725189208984375
0.67724609375 -0.45654296875 0.726165771484375
0.67578125 -0.45263671875 0.720977783203125
0.72216796875 -0.4287109375 0.697601318359375
0.72216796875 -0.43017578125 0.700592041015625
0.72509765625 -0.430908203125 0.699981689453125
0.72412109375 -0.397705078125 0.673675537109375
0.7265625 -0.408935546875 0.67864990234375
0.7197265625 -0.420654296875 0.6795654296875
0.7080078125 -0.435302734375 0.689697265625
0.69482421875 -0.439453125 0.694488525390625
0.68017578125 -0.447509765625 0.700103759765625
0.689453125 -0.4287109375 0.655181884765625
0.69287109375 -0.429443359375 0.661865234375
0.7060546875 -0.42822265625 0.672027587890625
0.72314453125 -0.386962890625 0.660186767578125
0.71533203125 -0.39013671875 0.649871826171875
0.70068359375 -0.386474609375 0.64111328125
0.693359375 -0.39599609375 0.636383056640625
0.68798828125 -0.405517578125 0.640625
0.68359375 -0.413818359375 0.6461181640625
0.67138671875 -0.43603515625 0.664764404296875
0.66796875 -0.44189453125 0.670318603515625
0.65869140625 -0.4482421875 0.67620849609375
0.65966796875 -0.45361328125 0.68597412109375
0.6640625 -0.453125 0.69561767578125
0.66552734375 -0.45263671875 0.704254150390625
0.70947265625 -0.332763671875 0.654205322265625
0.7021484375 -0.339111328125 0.650665283203125
0.693359375 -0.343017578125 0.637359619140625
0.69384765625 -0.35400390625 0.630126953125
0.6953125 -0.365234375 0.62725830078125
0.69775390625 -0.375732421875 0.627044677734375
0.638671875 -0.4580078125 0.6878662109375
0.63134765625 -0.460205078125 0.691925048828125
0.61865234375 -0.459716796875 0.705230712890625
0.6162109375 -0.4541015625 0.712615966796875
0.61767578125 -0.449951171875 0.728759765625
0.62255859375 -0.4443359375 0.73919677734375
0.66259765625 -0.300048828125 0.68182373046875
0.662109375 -0.304443359375 0.66741943359375
0.6669921875 -0.313720703125 0.660064697265625
0.6728515625 -0.32421875 0.6436767578125
0.68017578125 -0.331787109375 0.636322021484375
0.68408203125 -0.33935546875 0.62847900390625
0.6025390625 -0.454833984375 0.713287353515625
0.59228515625 -0.44580078125 0.70977783203125
0.591796875 -0.4345703125 0.706634521484375
0.58935546875 -0.414794921875 0.721832275390625
0.58984375 -0.408447265625 0.735748291015625
0.59130859375 -0.40234375 0.746002197265625
0.62744140625 -0.35009765625 0.710205078125
0.62451171875 -0.359130859375 0.695556640625
0.6357421875 -0.3681640625 0.681060791015625
0.6474609375 -0.36767578125 0.6661376953125
0.6572265625 -0.35009765625 0.662933349609375
0.6640625 -0.337890625 0.65380859375
0.603515625 -0.416259765625 0.704681396484375
0.61474609375 -0.39990234375 0.69708251953125
0.625 -0.39111328125 0.684906005859375
0.6474609375 -0.39404296875 0.6646728515625
0.66162109375 -0.40625 0.656951904296875
0.67138671875 -0.41650390625 0.65264892578125
0.6875 -0.376953125 0.626708984375
0.67822265625 -0.361328125 0.637054443359375
0.671875 -0.34521484375 0.644622802734375
0.6044921875 -0.438720703125 0.699981689453125
0.62109375 -0.441650390625 0.69207763671875
0.63525390625 -0.452392578125 0.6790771484375
-0.1025390625 0.287841796875 0.755096435546875
-0.1064453125 0.280029296875 0.753692626953125
-0.1103515625 0.26806640625 0.75030517578125
-0.037109375 0.244873046875 0.748565673828125
-0.04052734375 0.258056640625 0.74951171875
-0.0361328125 0.268798828125 0.7545166015625
-0.05126953125 0.278076171875 0.75634765625
-0.06640625 0.280029296875 0.76214599609375
-0.08251953125 0.287841796875 0.75885009765625
-0.26220703125 0.010498046875 0.758270263671875
-0.24658203125 0.004150390625 0.757415771484375
-0.2373046875 -0.00732421875 0.755096435546875
-0.22119140625 -0.013671875 0.758697509765625
-0.2177734375 -0.014892578125 0.760711669921875
-0.19775390625 -0.009765625 0.75750732421875
-0.25146484375 0.043701171875 0.74951171875
-0.26220703125 0.034423828125 0.755126953125
-0.26904296875 0.02392578125 0.76251220703125
-0.16748046875 0.33203125 0.75323486328125
-0.17626953125 0.322509765625 0.754669189453125
-0.18701171875 0.312255859375 0.76312255859375
-0.11474609375 0.306884765625 0.7515869140625
-0.13232421875 0.318115234375 0.749481201171875
-0.14453125 0.3251953125 0.748077392578125
-0.3154296875 0.043701171875 0.7569580078125
-0.30517578125 0.033447265625 0.757781982421875
-0.28369140625 0.02734375 0.766754150390625
-0.32568359375 0.082275390625 0.754364013671875
-0.328125 0.06884765625 0.754638671875
-0.33251953125 0.057861328125 0.75885009765625
-0.22119140625 0.39453125 0.7530517578125
-0.23388671875 0.39111328125 0.750823974609375
-0.2431640625 0.384765625 0.754791259765625
-0.169921875 0.351318359375 0.7620849609375
-0.1875 0.36572265625 0.758941650390625
-0.20068359375 0.381103515625 0.7596435546875
-0.38330078125 0.048583984375 0.729034423828125
-0.3583984375 0.05322265625 0.74365234375
-0.34619140625 0.048583984375 0.75115966796875
-0.4150390625 0.08740234375 0.7244873046875
-0.412109375 0.075927734375 0.72125244140625
-0.41259765625 0.062744140625 0.72845458984375
0.05224609375 0.2666015625 0.736328125
0.05029296875 0.279296875 0.737335205078125
0.04638671875 0.284912109375 0.74169921875
0.0185546875 0.28466796875 0.75921630859375
0 0.27783203125 0.7637939453125
-0.01953125 0.273681640625 0.75390625
-0.22216796875 -0.029296875 0.763427734375
-0.21484375 -0.043212890625 0.768890380859375
-0.208984375 -0.05859375 0.77099609375
-0.20166015625 -0.08447265625 0.764007568359375
-0.19384765625 -0.08154296875 0.768341064453125
-0.1796875 -0.084716796875 0.76361083984375
0.166015625 0.34814453125 0.676177978515625
0.1533203125 0.351318359375 0.682373046875
0.14111328125 0.358154296875 0.694915771484375
0.10888671875 0.3408203125 0.707275390625
0.08935546875 0.322021484375 0.725311279296875
0.0693359375 0.302734375 0.737152099609375
-0.2158203125 -0.112060546875 0.7724609375
-0.224609375 -0.142333984375 0.774658203125
-0.2333984375 -0.17529296875 0.762847900390625
-0.2392578125 -0.213623046875 0.767669677734375
-0.23291015625 -0.21728515625 0.760589599609375
-0.22265625 -0.2216796875 0.755279541015625
0.201171875 0.4658203125 0.63836669921875
0.1923828125 0.462646484375 0.649993896484375
0.18408203125 0.464599609375 0.660064697265625
0.17431640625 0.4375 0.67218017578125
0.1650390625 0.410888671875 0.68560791015625
0.15478515625 0.384521484375 0.688629150390625
-0.2685546875 -0.23193359375 0.761444091796875
-0.28369140625 -0.243408203125 0.76226806640625
-0.3134765625 -0.259765625 0.7589111328125
-0.3427734375 -0.2841796875 0.738433837890625
-0.33740234375 -0.291015625 0.73004150390625
-0.33544921875 -0.30419921875 0.72509765625
0.17919921875 0.595458984375 0.64404296875
0.166015625 0.58203125 0.652130126953125
0.1591796875 0.57861328125 0.653717041015625
0.16064453125 0.5458984375 0.663116455078125
0.1640625 0.52001953125 0.662017822265625
0.173828125 0.490234375 0.663482666015625
-0.37451171875 -0.2919921875 0.72711181640625
-0.41064453125 -0.3037109375 0.7044677734375
-0.43798828125 -0.308349609375 0.69171142578125
-0.4755859375 -0.316650390625 0.675537109375
-0.478515625 -0.32958984375 0.6695556640625
-0.486328125 -0.33740234375 0.66290283203125
0.09375 0.66650390625 0.6600341796875
0.0888671875 0.65380859375 0.658050537109375
0.08056640625 0.643798828125 0.660064697265625
0.09814453125 0.624267578125 0.664398193359375
0.1162109375 0.61181640625 0.663909912109375
0.134765625 0.5966796875 0.65704345703125
-0.5068359375 -0.30517578125 0.66888427734375
-0.533203125 -0.296630859375 0.665802001953125
-0.55517578125 -0.28515625 0.656707763671875
-0.56982421875 -0.283203125 0.647369384765625
-0.576171875 -0.29248046875 0.6414794921875
-0.58837890625 -0.2978515625 0.629852294921875
0.0087890625 0.672119140625 0.690704345703125
0.01416015625 0.6591796875 0.68865966796875
0.01806640625 0.6494140625 0.688934326171875
0.0322265625 0.645751953125 0.684844970703125
0.04443359375 0.648681640625 0.6820068359375
0.06396484375 0.639892578125 0.6732177734375
-0.580078125 -0.2626953125 0.64678955078125
-0.587890625 -0.2490234375 0.642425537109375
-0.5966796875 -0.232421875 0.64306640625
-0.60498046875 -0.21630859375 0.6390380859375
-0.61083984375 -0.220458984375 0.62542724609375
-0.623046875 -0.2255859375 0.617095947265625
-0.1220703125 0.596923828125 0.733795166015625
-0.11474609375 0.58935546875 0.735321044921875
-0.1103515625 0.58154296875 0.740020751953125
-0.07470703125 0.601318359375 0.73345947265625
-0.04052734375 0.620849609375 0.727264404296875
-0.013671875 0.636474609375 0.7186279296875
-0.58837890625 -0.1845703125 0.6627197265625
-0.580078125 -0.1552734375 0.6702880859375
-0.568359375 -0.12646484375 0.691009521484375
-0.5654296875 -0.097412109375 0.6920166015625
-0.578125 -0.09375 0.684051513671875
-0.59228515625 -0.093994140625 0.667510986328125
-0.21630859375 0.5341796875 0.760467529296875
-0.2001953125 0.529296875 0.755340576171875
-0.18896484375 0.527587890625 0.75152587890625
-0.16748046875 0.533203125 0.757415771484375
-0.14404296875 0.550537109375 0.756103515625
-0.1201171875 0.5634765625 0.7484130859375
-0.5546875 -0.07177734375 0.70263671875
-0.546875 -0.049560546875 0.703338623046875
-0.5380859375 -0.027099609375 0.70574951171875
-0.54052734375 -0.005126953125 0.699737548828125
-0.5458984375 0.0009765625 0.690704345703125
-0.55615234375 0.010009765625 0.69415283203125
-0.24755859375 0.4677734375 0.7501220703125
-0.23388671875 0.468994140625 0.7572021484375
-0.22607421875 0.468017578125 0.746856689453125
-0.2080078125 0.481689453125 0.751617431640625
-0.2041015625 0.495849609375 0.75830078125
-0.1943359375 0.510986328125 0.75836181640625
-0.5283203125 0.004150390625 0.690765380859375
-0.5185546875 0.01611328125 0.69775390625
-0.50732421875 0.026123046875 0.703887939453125
-0.50146484375 0.040771484375 0.70391845703125
-0.50439453125 0.051025390625 0.705230712890625
-0.513671875 0.0654296875 0.7027587890625
-0.21875 0.414794921875 0.752685546875
-0.2216796875 0.43310546875 0.7496337890625
-0.2197265625 0.449951171875 0.748046875
-0.4736328125 0.03759765625 0.7147216796875
-0.4521484375 0.042236328125 0.72607421875
-0.43408203125 0.0458984375 0.723541259765625
-0.19775390625 0.4638671875 0.74896240234375
-0.1982421875 0.46728515625 0.74835205078125
-0.2060546875 0.468505859375 0.74969482421875
-0.19873046875 0.39990234375 0.753570556640625
-0.18994140625 0.404541015625 0.75384521484375
-0.181640625 0.4091796875 0.74884033203125
-0.18310546875 0.422119140625 0.74407958984375
-0.19287109375 0.4384765625 0.74505615234375
-0.19384765625 0.44921875 0.741668701171875
-0.4599609375 0.01416015625 0.7164306640625
-0.4423828125 0.01953125 0.717132568359375
-0.42626953125 0.016845703125 0.720703125
-0.412109375 0.0283203125 0.722625732421875
-0.412109375 0.035888671875 0.722015380859375
-0.4130859375 0.0419921875 0.726593017578125
-0.4912109375 0.026123046875 0.709716796875
-0.484375 0.01953125 0.7105712890625
-0.4853515625 0.012939453125 0.713043212890625
-0.16455078125 0.5126953125 0.750457763671875
-0.16845703125 0.51904296875 0.752410888671875
-0.17529296875 0.522216796875 0.75323486328125
-0.18896484375 0.474609375 0.752655029296875
-0.18359375 0.485595703125 0.75421142578125
-0.1748046875 0.49951171875 0.74810791015625
-0.50390625 -0.01220703125 0.690460205078125
-0.5029296875 -0.002197265625 0.7001953125
-0.48876953125 0.00537109375 0.70672607421875
-0.52783203125 -0.016357421875 0.694610595703125
-0.52490234375 -0.0185546875 0.694610595703125
-0.51904296875 -0.02197265625 0.693756103515625
-0.0986328125 0.56640625 0.742919921875
-0.10205078125 0.57080078125 0.747528076171875
-0.1044921875 0.572509765625 0.742279052734375
-0.14453125 0.521240234375 0.74652099609375
-0.1328125 0.53369140625 0.74853515625
-0.119140625 0.548828125 0.742706298828125
-0.53515625 -0.07373046875 0.693023681640625
-0.5263671875 -0.05517578125 0.698883056640625
-0.51806640625 -0.036865234375 0.694091796875
-0.55615234375 -0.095947265625 0.696319580078125
-0.5478515625 -0.09912109375 0.697113037109375
-0.54345703125 -0.0986328125 0.690216064453125
0.01708984375 0.62353515625 0.68719482421875
0.017578125 0.629150390625 0.694610595703125
0.0166015625 0.638671875 0.691619873046875
-0.07373046875 0.582763671875 0.72186279296875
-0.03515625 0.594970703125 0.71142578125
-0.01513671875 0.60595703125 0.69952392578125
-0.56787109375 -0.172607421875 0.65673828125
-0.55810546875 -0.14697265625 0.664031982421875
-0.54931640625 -0.126220703125 0.67987060546875
-0.58642578125 -0.205810546875 0.648712158203125
-0.578125 -0.204345703125 0.64923095703125
-0.57373046875 -0.20166015625 0.64385986328125
0.0712890625 0.61181640625 0.6634521484375
0.0732421875 0.6162109375 0.668426513671875
0.07470703125 0.627197265625 0.663848876953125
0.037109375 0.617919921875 0.672271728515625
0.0458984375 0.61474609375 0.66717529296875
0.05810546875 0.611328125 0.66070556640625
-0.5546875 -0.242919921875 0.644073486328125
-0.56396484375 -0.23095703125 0.639129638671875
-0.56689453125 -0.2158203125 0.635589599609375
-0.56298828125 -0.265869140625 0.65167236328125
-0.55810546875 -0.260986328125 0.654022216796875
-0.55029296875 -0.258056640625 0.649322509765625
0.126953125 0.56298828125 0.654693603515625
0.1357421875 0.56591796875 0.6597900390625
0.1396484375 0.566650390625 0.66162109375
0.0888671875 0.60009765625 0.6605224609375
0.10205078125 0.591064453125 0.6583251953125
0.11376953125 0.580078125 0.655853271484375
-0.4853515625 -0.280029296875 0.6612548828125
-0.51171875 -0.275390625 0.654296875
-0.52978515625 -0.263427734375 0.653961181640625
-0.46142578125 -0.30322265625 0.6793212890625
-0.46337890625 -0.296142578125 0.6773681640625
-0.46044921875 -0.28955078125 0.675750732421875
0.16064453125 0.46240234375 0.664093017578125
0.166015625 0.462890625 0.667633056640625
0.17138671875 0.463134765625 0.666412353515625
0.13427734375 0.536376953125 0.6602783203125
0.14501953125 0.51220703125 0.65911865234375
0.1513671875 0.483642578125 0.6644287109375
-0.37939453125 -0.268310546875 0.719390869140625
-0.412109375 -0.27880859375 0.69647216796875
-0.43505859375 -0.2841796875 0.684967041015625
-0.34765625 -0.270263671875 0.738189697265625
-0.349609375 -0.2646484375 0.735748291015625
-0.3505859375 -0.260986328125 0.735382080078125
0.1201171875 0.37451171875 0.700592041015625
0.1259765625 0.374755859375 0.705657958984375
0.130859375 0.37109375 0.708343505859375
0.1474609375 0.44091796875 0.676483154296875
0.14501953125 0.419189453125 0.674530029296875
0.13134765625 0.3994140625 0.684112548828125
-0.28759765625 -0.218017578125 0.755157470703125
-0.3056640625 -0.227783203125 0.752960205078125
-0.3212890625 -0.241455078125 0.746002197265625
-0.25537109375 -0.205078125 0.769439697265625
-0.26220703125 -0.202880859375 0.762725830078125
-0.26708984375 -0.199462890625 0.760162353515625
0.03515625 0.306640625 0.744049072265625
0.0361328125 0.301513671875 0.743927001953125
0.0361328125 0.2958984375 0.74578857421875
0.08935546875 0.353515625 0.7060546875
0.07470703125 0.337158203125 0.721038818359375
0.0546875 0.3193359375 0.72833251953125
-0.236328125 -0.116943359375 0.757354736328125
-0.24658203125 -0.1455078125 0.75604248046875
-0.2529296875 -0.171142578125 0.753631591796875
-0.21435546875 -0.0830078125 0.7669677734375
-0.21435546875 -0.083740234375 0.761444091796875
-0.21923828125 -0.089111328125 0.755035400390625
-0.03515625 0.29052734375 0.748565673828125
-0.03271484375 0.288330078125 0.754180908203125
-0.033203125 0.284423828125 0.755401611328125
0.0146484375 0.30810546875 0.743499755859375
-0.00439453125 0.298828125 0.741119384765625
-0.02294921875 0.29638671875 0.740570068359375
-0.23876953125 -0.038818359375 0.742401123046875
-0.2314453125 -0.0517578125 0.74969482421875
-0.2294921875 -0.0693359375 0.749664306640625
-0.23681640625 -0.020751953125 0.75628662109375
-0.23876953125 -0.023681640625 0.749114990234375
-0.2451171875 -0.02490234375 0.7454833984375
-0.15625 0.343505859375 0.75604248046875
-0.15380859375 0.349365234375 0.751739501953125
-0.15087890625 0.3515625 0.748138427734375
-0.158203125 0.3681640625 0.7357177734375
-0.1630859375 0.38330078125 0.7420654296875
