# XYZ point cloud file
0.3385009765625 -0.1673583984375 0.346832275390625
0.3507080078125 -0.137939453125 0.35951995849609375
0.35791015625 -0.1849365234375 0.354339599609375
0.32568359375 -0.193603515625 0.3348236083984375
0.319091796875 -0.14404296875 0.335693359375
0.33349609375 -0.1177978515625 0.354766845703125
0.371337890625 -0.1630859375 0.3633575439453125
0.3414306640625 -0.216796875 0.346435546875
0.3123779296875 -0.174072265625 0.32220458984375
0.12744140625 -0.4195556640625 0.460968017578125
0.153076171875 -0.4349365234375 0.48078155517578125
0.1197509765625 -0.419189453125 0.48918914794921875
0.1082763671875 -0.4024658203125 0.43817138671875
0.1485595703125 -0.4141845703125 0.4385986328125
0.1695556640625 -0.4273681640625 0.45369720458984375
0.1402587890625 -0.442626953125 0.50494384765625
0.0966796875 -0.40283203125 0.4764404296875
0.12158203125 -0.405029296875 0.41742706298828125
0.42626953125 -0.0941162109375 0.4287261962890625
0.455810546875 -0.087646484375 0.464263916015625
0.45849609375 -0.1246337890625 0.42266082763671875
0.4000244140625 -0.1021728515625 0.40700531005859375
0.3975830078125 -0.0645751953125 0.4387359619140625
0.4234619140625 -0.0601806640625 0.46771240234375
0.487548828125 -0.1201171875 0.45835113525390625
0.4239501953125 -0.129638671875 0.3979644775390625
0.371826171875 -0.080322265625 0.4099884033203125
0.1282958984375 -0.4530029296875 0.61432647705078125
0.158203125 -0.4873046875 0.6251068115234375
0.147216796875 -0.461669921875 0.65978240966796875
0.104248046875 -0.41943359375 0.60309600830078125
0.1170654296875 -0.43896484375 0.5673980712890625
0.14208984375 -0.47021484375 0.582977294921875
0.178466796875 -0.494140625 0.66985321044921875
0.1209716796875 -0.426513671875 0.645477294921875
0.09765625 -0.41259765625 0.56089019775390625
0.268310546875 0.0294189453125 0.47469329833984375
0.278076171875 0.0185546875 0.46949005126953125
0.26123046875 0.0323486328125 0.44768524169921875
0.2569580078125 0.0399169921875 0.47837066650390625
0.274658203125 0.0352783203125 0.50146484375
0.2874755859375 0.0263671875 0.49756622314453125
0.26904296875 0.01611328125 0.4360809326171875
0.2518310546875 0.04345703125 0.45606231689453125
0.2626953125 0.04248046875 0.50391387939453125
0.0213623046875 -0.276611328125 0.5748748779296875
0.0078125 -0.28271484375 0.54827880859375
0.0279541015625 -0.2911376953125 0.57715606689453125
0.0284423828125 -0.2703857421875 0.60943603515625
0.015869140625 -0.26318359375 0.57696533203125
0.0009765625 -0.2691650390625 0.55401611328125
0.017578125 -0.298583984375 0.5426483154296875
0.034423828125 -0.285888671875 0.6158599853515625
0.02294921875 -0.2572021484375 0.60533905029296875
0.3248291015625 -0.0118408203125 0.4611053466796875
0.34375 -0.02587890625 0.45362091064453125
0.3079833984375 -0.027099609375 0.424468994140625
0.304931640625 -0.0009765625 0.46323394775390625
0.3387451171875 -0.000732421875 0.49198150634765625
0.360107421875 -0.0120849609375 0.4851837158203125
0.324951171875 -0.0391845703125 0.4190826416015625
0.2918701171875 -0.0113525390625 0.427093505859375
0.31787109375 0.0093994140625 0.49478912353515625
0.0533447265625 -0.343505859375 0.58689117431640625
0.0474853515625 -0.3447265625 0.543487548828125
0.0697021484375 -0.3662109375 0.593994140625
0.0634765625 -0.3426513671875 0.62542724609375
0.0413818359375 -0.323486328125 0.5837554931640625
0.035888671875 -0.330810546875 0.5373382568359375
0.0643310546875 -0.362548828125 0.54852294921875
0.0745849609375 -0.367431640625 0.6309661865234375
0.0513916015625 -0.3206787109375 0.6202239990234375
0.2318115234375 0.064208984375 0.49493408203125
0.2333984375 0.065673828125 0.52030181884765625
0.2386474609375 0.05615234375 0.49207305908203125
0.232421875 0.0667724609375 0.4789886474609375
0.228515625 0.078369140625 0.49753570556640625
0.230224609375 0.0794677734375 0.52089691162109375
0.240478515625 0.057373046875 0.51477813720703125
0.237060546875 0.0587158203125 0.47216033935546875
0.226806640625 0.080810546875 0.4796142578125
-0.0052490234375 -0.2255859375 0.57881927490234375
0.0030517578125 -0.2374267578125 0.57830810546875
0.0023193359375 -0.217529296875 0.60350799560546875
-0.0191650390625 -0.220703125 0.57810211181640625
-0.01416015625 -0.2337646484375 0.5639801025390625
-0.0081787109375 -0.2427978515625 0.5595550537109375
0.0106201171875 -0.2298583984375 0.60137176513671875
-0.013427734375 -0.213134765625 0.6028289794921875
-0.0244140625 -0.2294921875 0.56424713134765625
0.25244140625 0.1732177734375 0.4680938720703125
0.2396240234375 0.1328125 0.4805450439453125
0.2486572265625 0.169189453125 0.4521636962890625
0.269287109375 0.2208251953125 0.4545440673828125
0.2529296875 0.177001953125 0.49031829833984375
0.2386474609375 0.135986328125 0.5022125244140625
0.2374267578125 0.1324462890625 0.46378326416015625
0.266357421875 0.211181640625 0.4367218017578125
0.2708740234375 0.223388671875 0.47385406494140625
-0.1026611328125 -0.2628173828125 0.58702850341796875
-0.1060791015625 -0.265869140625 0.57012939453125
-0.0655517578125 -0.239013671875 0.5842132568359375
-0.096435546875 -0.259033203125 0.6064453125
-0.139892578125 -0.289306640625 0.58396148681640625
-0.1409912109375 -0.2921142578125 0.5631103515625
-0.0718994140625 -0.2449951171875 0.571380615234375
-0.059814453125 -0.2305908203125 0.6021728515625
-0.1378173828125 -0.2821044921875 0.6062469482421875
0.0264892578125 -0.128662109375 -0.60088348388671875
0.001953125 -0.0673828125 -0.63713836669921875
0.06640625 -0.0677490234375 -0.58841705322265625
0.0494384765625 -0.169677734375 -0.55313873291015625
-0.0234375 -0.1875 -0.61235809326171875
-0.0443115234375 -0.1258544921875 -0.65081024169921875
0.0445556640625 -0.007568359375 -0.62078857421875
0.0845947265625 -0.1092529296875 -0.54593658447265625
0.002197265625 -0.2353515625 -0.5591888427734375
-0.156494140625 -0.3509521484375 -0.56438446044921875
-0.1988525390625 -0.3953857421875 -0.53179931640625
-0.1781005859375 -0.30126953125 -0.604644775390625
-0.1129150390625 -0.304931640625 -0.58884429931640625
-0.1322021484375 -0.400146484375 -0.51019287109375
-0.1802978515625 -0.436279296875 -0.476165771484375
-0.22021484375 -0.3458251953125 -0.5724945068359375
-0.1368408203125 -0.2469482421875 -0.63388824462890625
-0.0869140625 -0.352783203125 -0.53449249267578125
0.111572265625 -0.2744140625 -0.36771392822265625
0.093994140625 -0.244873046875 -0.442657470703125
0.139404296875 -0.2069091796875 -0.36350250244140625
0.1282958984375 -0.28955078125 -0.30028533935546875
0.07373046875 -0.3387451171875 -0.36222076416015625
0.052001953125 -0.313232421875 -0.43482208251953125
0.1292724609375 -0.1776123046875 -0.43585968017578125
0.160888671875 -0.2271728515625 -0.292388916015625
0.09423828125 -0.351806640625 -0.28534698486328125
-0.0601806640625 -0.48486328125 -0.315460205078125
-0.09912109375 -0.5126953125 -0.2836456298828125
-0.093505859375 -0.46142578125 -0.38671875
-0.017578125 -0.4447021484375 -0.34747314453125
-0.025146484375 -0.4901123046875 -0.23474884033203125
-0.0675048828125 -0.513916015625 -0.20732879638671875
-0.132080078125 -0.4918212890625 -0.3589324951171875
-0.050048828125 -0.4210205078125 -0.4158935546875
0.0118408203125 -0.4561767578125 -0.25867462158203125
0.2021484375 -0.2882080078125 -0.02532196044921875
0.178955078125 -0.2960205078125 -0.121429443359375
0.2259521484375 -0.229248046875 -0.03316497802734375
0.212646484375 -0.276611328125 0.06787109375
0.17138671875 -0.33935546875 -0.0125579833984375
0.141845703125 -0.3565673828125 -0.11409759521484375
0.207275390625 -0.2352294921875 -0.133056640625
0.2393798828125 -0.2210693359375 0.05670928955078125
0.189697265625 -0.3240966796875 0.0770416259765625
0.064697265625 -0.44970703125 0.04071044921875
0.0267333984375 -0.4716796875 0.0642547607421875
0.03369140625 -0.472412109375 -0.058013916015625
0.1007080078125 -0.423828125 0.021942138671875
0.0892333984375 -0.4293212890625 0.13111114501953125
0.0552978515625 -0.451416015625 0.1476287841796875
-0.00390625 -0.4952392578125 -0.03680419921875
0.072021484375 -0.4420166015625 -0.084381103515625
0.1229248046875 -0.4013671875 0.11125946044921875
0.242919921875 -0.2603759765625 0.2491302490234375
0.23876953125 -0.260498046875 0.20600128173828125
0.2572021484375 -0.21826171875 0.24517822265625
0.252197265625 -0.2598876953125 0.2796630859375
0.23046875 -0.2977294921875 0.26415252685546875
0.22412109375 -0.3017578125 0.22161865234375
0.254150390625 -0.215087890625 0.200958251953125
0.266357421875 -0.2216796875 0.27099609375
0.2344970703125 -0.2972412109375 0.2924346923828125
0.1497802734375 -0.3822021484375 0.30388641357421875
0.1209716796875 -0.3988037109375 0.31562042236328125
0.13916015625 -0.3936767578125 0.262542724609375
0.18115234375 -0.35986328125 0.29010772705078125
0.162353515625 -0.377685546875 0.32883453369140625
0.13623046875 -0.39453125 0.34149169921875
0.1053466796875 -0.407470703125 0.2769317626953125
0.1688232421875 -0.369384765625 0.25337982177734375
0.1943359375 -0.354736328125 0.3215789794921875
0.2838134765625 -0.103271484375 0.30864715576171875
0.29150390625 -0.1148681640625 0.31529998779296875
0.2781982421875 -0.139892578125 0.2735748291015625
0.27587890625 -0.090087890625 0.29589080810546875
0.28515625 -0.0706787109375 0.35039520263671875
0.29931640625 -0.084716796875 0.3494415283203125
0.2841796875 -0.1488037109375 0.29111480712890625
0.2747802734375 -0.126708984375 0.2455291748046875
0.27685546875 -0.056396484375 0.34383392333984375
0.0631103515625 -0.38134765625 0.4088134765625
0.075927734375 -0.396240234375 0.3651885986328125
0.0780029296875 -0.3876953125 0.418792724609375
0.052001953125 -0.3651123046875 0.45246124267578125
0.046875 -0.377685546875 0.39581298828125
0.0550537109375 -0.3992919921875 0.34403228759765625
0.09033203125 -0.397216796875 0.38201141357421875
0.0665283203125 -0.375 0.46425628662109375
0.0391845703125 -0.357666015625 0.443389892578125
0.33154296875 0.563232421875 0.18012237548828125
0.3236083984375 0.5595703125 0.24539947509765625
0.3377685546875 0.4990234375 0.17624664306640625
0.3372802734375 0.567138671875 0.120452880859375
0.3165283203125 0.6241455078125 0.198944091796875
0.3116455078125 0.61865234375 0.251739501953125
0.3309326171875 0.5018310546875 0.25138092041015625
0.345458984375 0.4964599609375 0.09839630126953125
0.3189697265625 0.629638671875 0.13503265380859375
-0.480712890625 -0.4632568359375 0.287689208984375
-0.4351806640625 -0.46826171875 0.31110382080078125
-0.4659423828125 -0.441650390625 0.3537750244140625
-0.5277099609375 -0.4476318359375 0.26812744140625
-0.4925537109375 -0.485107421875 0.22479248046875
-0.4508056640625 -0.50146484375 0.2392425537109375
-0.4200439453125 -0.4395751953125 0.37839508056640625
-0.51220703125 -0.431640625 0.3357696533203125
-0.5352783203125 -0.46533203125 0.204620361328125
-0.062255859375 0.203857421875 -0.7109222412109375
-0.0909423828125 0.3128662109375 -0.70336151123046875
-0.0126953125 0.2568359375 -0.673980712890625
-0.0421142578125 0.099609375 -0.695068359375
-0.1168212890625 0.147216796875 -0.72881317138671875
-0.1514892578125 0.2548828125 -0.73404693603515625
-0.032470703125 0.36865234375 -0.67520904541015625
0.004150390625 0.1541748046875 -0.66777801513671875
-0.0992431640625 0.043212890625 -0.71508026123046875
-0.2744140625 -0.0701904296875 -0.7008209228515625
-0.32080078125 -0.145263671875 -0.6682891845703125
-0.3162841796875 0.0257568359375 -0.7210845947265625
-0.22998046875 0.0050048828125 -0.72205352783203125
-0.23583984375 -0.15771484375 -0.672210693359375
-0.2796630859375 -0.2215576171875 -0.6385955810546875
-0.359619140625 -0.06005859375 -0.69150543212890625
-0.268798828125 0.110595703125 -0.74178314208984375
-0.1900634765625 -0.0889892578125 -0.701995849609375
-0.35693359375 0.7872314453125 0.04398345947265625
-0.3548583984375 0.7633056640625 0.11277008056640625
-0.298583984375 0.8458251953125 0.058746337890625
-0.3575439453125 0.8040771484375 -0.03011322021484375
-0.423828125 0.715576171875 0.0186920166015625
-0.416748046875 0.6884765625 0.0934295654296875
-0.2879638671875 0.82470703125 0.1292572021484375
-0.2890625 0.8621826171875 -0.0128936767578125
-0.426025390625 0.735107421875 -0.06330108642578125
-0.599853515625 0.4681396484375 -0.069610595703125
-0.63671875 0.385986328125 -0.10312652587890625
-0.59326171875 0.447265625 0.0096282958984375
-0.548095703125 0.556396484375 -0.0438232421875
-0.5906982421875 0.4847412109375 -0.1566162109375
-0.6361083984375 0.4022216796875 -0.17812347412109375
-0.64208984375 0.36181640625 -0.02020263671875
-0.5401611328125 0.527587890625 0.03936767578125
-0.544189453125 0.5709228515625 -0.1248779296875
-0.3148193359375 0.8154296875 -0.27849578857421875
-0.33935546875 0.819091796875 -0.194580078125
-0.2611083984375 0.8731689453125 -0.2508697509765625
-0.289794921875 0.7962646484375 -0.361419677734375
-0.3721923828125 0.7467041015625 -0.31601715087890625
-0.4005126953125 0.75 -0.230560302734375
-0.2769775390625 0.8746337890625 -0.16681671142578125
-0.237060546875 0.849365234375 -0.319122314453125
-0.3465576171875 0.728271484375 -0.3986358642578125
-0.551513671875 0.4942626953125 -0.3938446044921875
-0.596923828125 0.40771484375 -0.4012603759765625
-0.57275390625 0.501220703125 -0.31293487548828125
-0.498779296875 0.579345703125 -0.37805938720703125
-0.52392578125 0.47216796875 -0.4725494384765625
-0.5716552734375 0.3804931640625 -0.4780426025390625
-0.61865234375 0.41064453125 -0.32892608642578125
-0.5125732421875 0.58251953125 -0.292083740234375
-0.473388671875 0.5577392578125 -0.4598236083984375
-0.19287109375 0.61767578125 -0.5908660888671875
-0.227783203125 0.6962890625 -0.5189971923828125
-0.1329345703125 0.667236328125 -0.5499420166015625
-0.155517578125 0.5272216796875 -0.6499786376953125
-0.2542724609375 0.5550537109375 -0.62949371337890625
-0.2884521484375 0.632568359375 -0.564788818359375
-0.1688232421875 0.750244140625 -0.48191070556640625
-0.099853515625 0.57470703125 -0.60904693603515625
-0.21484375 0.463134765625 -0.68195343017578125
-0.432861328125 0.298583984375 -0.66051483154296875
-0.47705078125 0.20458984375 -0.64621734619140625
-0.461181640625 0.374267578125 -0.603302001953125
-0.3699951171875 0.3876953125 -0.66550445556640625
-0.3912353515625 0.209716796875 -0.6968994140625
-0.434814453125 0.118408203125 -0.677520751953125
-0.511474609375 0.2821044921875 -0.6008148193359375
-0.4061279296875 0.4603271484375 -0.6031341552734375
-0.3408203125 0.300048828125 -0.706390380859375
0.12646484375 0.8060302734375 0.39471435546875
0.134765625 0.8160400390625 0.4328155517578125
0.1507568359375 0.8096923828125 0.3854827880859375
0.119140625 0.8009033203125 0.355194091796875
0.1021728515625 0.7958984375 0.40076446533203125
0.1043701171875 0.806640625 0.43907928466796875
0.157470703125 0.820068359375 0.4204254150390625
0.1439208984375 0.8038330078125 0.34593963623046875
0.095947265625 0.79443359375 0.35712432861328125
-0.650634765625 -0.210205078125 0.2953643798828125
-0.6534423828125 -0.2418212890625 0.295257568359375
-0.661376953125 -0.2164306640625 0.336517333984375
-0.6429443359375 -0.178955078125 0.29024505615234375
-0.649169921875 -0.198974609375 0.2490386962890625
-0.652587890625 -0.2301025390625 0.2525787353515625
-0.660888671875 -0.2508544921875 0.33773040771484375
-0.653076171875 -0.1859130859375 0.33515167236328125
-0.640625 -0.1671142578125 0.2487945556640625
0.0836181640625 0.8572998046875 0.223175048828125
0.09716796875 0.8299560546875 0.27460479736328125
0.1123046875 0.8599853515625 0.22241973876953125
0.0673828125 0.890869140625 0.17916107177734375
0.050537109375 0.8551025390625 0.2198944091796875
0.071533203125 0.823974609375 0.26905059814453125
0.1282958984375 0.832275390625 0.26792144775390625
0.1014404296875 0.88916015625 0.17742156982421875
0.0390625 0.889404296875 0.174835205078125
-0.68359375 -0.1402587890625 0.07558441162109375
-0.6827392578125 -0.1845703125 0.0837249755859375
-0.673828125 -0.1663818359375 0.13812255859375
-0.6796875 -0.095947265625 0.0672607421875
-0.7015380859375 -0.1207275390625 0.00420379638671875
-0.7042236328125 -0.1685791015625 0.01576995849609375
-0.67236328125 -0.20458984375 0.1438140869140625
-0.6654052734375 -0.1270751953125 0.1329803466796875
-0.6966552734375 -0.0684814453125 -0.00521087646484375
0.04736328125 0.9566650390625 0.03096771240234375
0.0498046875 0.941162109375 0.08526611328125
0.080322265625 0.9466552734375 0.028778076171875
0.05078125 0.96484375 -0.02738189697265625
0.0118408203125 0.95703125 0.0230560302734375
0.0098876953125 0.9427490234375 0.07614898681640625
0.0855712890625 0.933837890625 0.0889739990234375
0.087890625 0.9530029296875 -0.022552490234375
0.01318359375 0.966064453125 -0.03076934814453125
-0.7333984375 -0.0743408203125 -0.20432281494140625
-0.734375 -0.1329345703125 -0.18280792236328125
-0.7296142578125 -0.0848388671875 -0.14128875732421875
-0.728271484375 -0.0205078125 -0.21701812744140625
-0.7333984375 -0.0706787109375 -0.256622314453125
-0.735107421875 -0.125732421875 -0.24178314208984375
-0.736083984375 -0.1405029296875 -0.1245880126953125
-0.7247314453125 -0.031982421875 -0.1548004150390625
-0.728515625 -0.0106201171875 -0.27309417724609375
0.0714111328125 0.9437255859375 -0.20361328125
0.0621337890625 0.9610595703125 -0.137908935546875
0.104736328125 0.932861328125 -0.1911468505859375
0.0888671875 0.919921875 -0.2548675537109375
0.032470703125 0.9461669921875 -0.20526123046875
0.0250244140625 0.9598388671875 -0.1451416015625
0.094482421875 0.9478759765625 -0.12879180908203125
0.1175537109375 0.9097900390625 -0.24485015869140625
0.0499267578125 0.920166015625 -0.267852783203125
-0.7103271484375 -0.0909423828125 -0.4199066162109375
-0.713134765625 -0.1441650390625 -0.400299072265625
-0.7220458984375 -0.07666015625 -0.37311553955078125
-0.7012939453125 -0.0341796875 -0.442535400390625
-0.6959228515625 -0.1112060546875 -0.46062469482421875
-0.69775390625 -0.1636962890625 -0.43576812744140625
-0.7205810546875 -0.1324462890625 -0.3548583984375
-0.7144775390625 -0.0164794921875 -0.39379119873046875
-0.683349609375 -0.0587158203125 -0.48401641845703125
0.153076171875 0.756103515625 -0.3936614990234375
0.170166015625 0.6815185546875 -0.4341278076171875
0.1204833984375 0.7498779296875 -0.41412353515625
0.126220703125 0.8212890625 -0.3520660400390625
0.1732177734375 0.7642822265625 -0.36728668212890625
0.197509765625 0.696044921875 -0.40084075927734375
0.1439208984375 0.6688232421875 -0.45558929443359375
0.09765625 0.820068359375 -0.36550140380859375
0.155029296875 0.8255615234375 -0.329559326171875
-0.6165771484375 -0.248779296875 -0.5115966796875
-0.6021728515625 -0.20068359375 -0.53414154052734375
-0.5882568359375 -0.3076171875 -0.49974822998046875
-0.6280517578125 -0.28466796875 -0.4767913818359375
-0.6484375 -0.1929931640625 -0.50331878662109375
-0.635498046875 -0.1409912109375 -0.5253143310546875
-0.5694580078125 -0.260009765625 -0.52866363525390625
-0.605224609375 -0.3406982421875 -0.4649200439453125
-0.658203125 -0.2314453125 -0.4767913818359375
0.0162353515625 0.7451171875 -0.466766357421875
-0.0299072265625 0.73291015625 -0.48595428466796875
-0.0150146484375 0.822509765625 -0.4013519287109375
0.0556640625 0.7467041015625 -0.44754791259765625
0.0501708984375 0.6505126953125 -0.51580810546875
0.0113525390625 0.6363525390625 -0.5457000732421875
-0.0616455078125 0.8099365234375 -0.415771484375
0.0299072265625 0.8221435546875 -0.399810791015625
0.084716796875 0.6580810546875 -0.49684906005859375
-0.56494140625 -0.02880859375 -0.59595489501953125
-0.600341796875 0.0462646484375 -0.5736541748046875
-0.5450439453125 0.0440673828125 -0.61053466796875
-0.52783203125 -0.1077880859375 -0.614471435546875
-0.5777587890625 -0.0897216796875 -0.58116912841796875
-0.6072998046875 -0.0223388671875 -0.56551361083984375
-0.5784912109375 0.1185302734375 -0.583282470703125
-0.5064697265625 -0.0435791015625 -0.63593292236328125
-0.537841796875 -0.162353515625 -0.5872650146484375
-0.0927734375 0.9503173828125 -0.20861053466796875
-0.1435546875 0.935302734375 -0.204559326171875
-0.109619140625 0.9603271484375 -0.13922882080078125
-0.0478515625 0.950439453125 -0.209716796875
-0.0770263671875 0.9249267578125 -0.272705078125
-0.12548828125 0.9134521484375 -0.279937744140625
-0.1622314453125 0.947021484375 -0.136199951171875
-0.0611572265625 0.9599609375 -0.1511688232421875
-0.02978515625 0.9281005859375 -0.26755523681640625
-0.6766357421875 0.1676025390625 -0.444854736328125
-0.6881103515625 0.177734375 -0.3927154541015625
-0.657958984375 0.240966796875 -0.43123626708984375
-0.6605224609375 0.141845703125 -0.4926605224609375
-0.6883544921875 0.0966796875 -0.4501190185546875
-0.6973876953125 0.10986328125 -0.3994903564453125
-0.67236328125 0.2457275390625 -0.367431640625
-0.638916015625 0.2177734375 -0.48699188232421875
-0.6705322265625 0.072509765625 -0.49834442138671875
-0.12109375 0.9461669921875 0.0412139892578125
-0.177001953125 0.92236328125 0.0589141845703125
-0.1163330078125 0.9232177734375 0.10384368896484375
-0.07421875 0.952392578125 0.025543212890625
-0.1219482421875 0.9561767578125 -0.00888824462890625
-0.17529296875 0.94140625 -0.00312042236328125
-0.175048828125 0.90234375 0.1165008544921875
-0.0721435546875 0.9371337890625 0.0885467529296875
-0.072509765625 0.9591064453125 -0.026336669921875
-0.713134765625 0.1641845703125 -0.19358062744140625
-0.702880859375 0.1431884765625 -0.126739501953125
-0.6944580078125 0.2333984375 -0.1637725830078125
-0.7103271484375 0.1746826171875 -0.2559967041015625
-0.7178955078125 0.098876953125 -0.21657562255859375
-0.7120361328125 0.082275390625 -0.14733123779296875
-0.692138671875 0.208984375 -0.09493255615234375
-0.6959228515625 0.2435302734375 -0.2339935302734375
-0.7120361328125 0.1077880859375 -0.27684783935546875
-0.0628662109375 0.8214111328125 0.26082611083984375
-0.1163330078125 0.7926025390625 0.2848358154296875
-0.040771484375 0.7874755859375 0.3087921142578125
-0.0189208984375 0.838134765625 0.23676300048828125
-0.087890625 0.8575439453125 0.2170867919921875
-0.1400146484375 0.83447265625 0.2335968017578125
-0.0933837890625 0.758544921875 0.32639312744140625
0.0047607421875 0.802734375 0.28527069091796875
-0.042236328125 0.8753662109375 0.1942291259765625
-0.6558837890625 0.042724609375 0.1012115478515625
-0.6376953125 0.0015869140625 0.17034912109375
-0.640869140625 0.0985107421875 0.129180908203125
-0.6778564453125 0.0823974609375 0.02359771728515625
-0.6649169921875 -0.0098876953125 0.078857421875
-0.6475830078125 -0.04638671875 0.14466094970703125
-0.6151123046875 0.05712890625 0.198974609375
-0.665771484375 0.142578125 0.0577545166015625
-0.6854248046875 0.0284423828125 0.00527191162109375
0.0010986328125 0.7476806640625 0.42790985107421875
0.0032958984375 0.754638671875 0.466400146484375
0.0418701171875 0.7701416015625 0.419219970703125
-0.0020751953125 0.7490234375 0.39316558837890625
-0.0390625 0.7197265625 0.44036102294921875
-0.0400390625 0.7259521484375 0.47857666015625
0.0404052734375 0.7742919921875 0.46024322509765625
0.0333251953125 0.7718505859375 0.3767242431640625
-0.04345703125 0.7200927734375 0.40520477294921875
-0.6129150390625 -0.060791015625 0.32671356201171875
-0.6302490234375 -0.106201171875 0.3072662353515625
-0.6202392578125 -0.0616455078125 0.3555145263671875
-0.5941162109375 -0.006103515625 0.34307098388671875
-0.612548828125 -0.05078125 0.280426025390625
-0.6258544921875 -0.09716796875 0.2679595947265625
-0.63525390625 -0.109130859375 0.344268798828125
-0.6015625 -0.0091552734375 0.38165283203125
-0.5904541015625 0.001953125 0.305328369140625
-0.2899169921875 0.6400146484375 0.31378936767578125
-0.2562255859375 0.599853515625 0.3720245361328125
-0.2259521484375 0.708251953125 0.3184967041015625
-0.3182373046875 0.683349609375 0.26059722900390625
-0.35595703125 0.570556640625 0.31268310546875
-0.3228759765625 0.5269775390625 0.383575439453125
-0.19970703125 0.6737060546875 0.36733245849609375
-0.25830078125 0.749755859375 0.2595062255859375
-0.38623046875 0.6143798828125 0.23563385009765625
-0.53125 0.3140869140625 0.2411651611328125
-0.5755615234375 0.235595703125 0.20428466796875
-0.503173828125 0.2657470703125 0.30609893798828125
-0.4794921875 0.3984375 0.27286529541015625
-0.5587158203125 0.3662109375 0.16262054443359375
-0.601806640625 0.2880859375 0.1292572021484375
-0.5552978515625 0.1937255859375 0.273773193359375
-0.4449462890625 0.355712890625 0.344482421875
-0.51123046875 0.4478759765625 0.1936492919921875
-0.2232666015625 0.6080322265625 0.54803466796875
-0.2437744140625 0.56494140625 0.55065155029296875
-0.2454833984375 0.6234130859375 0.55517578125
-0.2056884765625 0.6507568359375 0.55112457275390625
-0.2005615234375 0.59375 0.5360870361328125
-0.2314453125 0.540283203125 0.53958892822265625
-0.26708984375 0.5887451171875 0.5598297119140625
-0.23095703125 0.6549072265625 0.55857086181640625
-0.1710205078125 0.6456298828125 0.5354461669921875
-0.5213623046875 0.203857421875 0.46450042724609375
-0.54443359375 0.2264404296875 0.4665374755859375
-0.4876708984375 0.2369384765625 0.48626708984375
-0.504150390625 0.1844482421875 0.4626922607421875
-0.5611572265625 0.173828125 0.45606231689453125
-0.5704345703125 0.202392578125 0.46065521240234375
-0.513427734375 0.251220703125 0.483642578125
-0.4638671875 0.22216796875 0.48926544189453125
-0.55078125 0.1400146484375 0.446380615234375
-0.1864013671875 0.56103515625 0.4835662841796875
-0.1805419921875 0.5673828125 0.5098419189453125
-0.1417236328125 0.625244140625 0.4701080322265625
-0.2042236328125 0.5609130859375 0.4578857421875
-0.232421875 0.492431640625 0.4940948486328125
-0.2197265625 0.4979248046875 0.51580047607421875
-0.1397705078125 0.6314697265625 0.498504638671875
-0.150390625 0.6275634765625 0.44568634033203125
-0.2613525390625 0.4891357421875 0.46776580810546875
-0.474609375 0.1773681640625 0.428619384765625
-0.5252685546875 0.1160888671875 0.39862060546875
-0.481201171875 0.1656494140625 0.4488525390625
-0.4266357421875 0.2359619140625 0.4568634033203125
-0.4759521484375 0.199951171875 0.4041900634765625
-0.52001953125 0.1317138671875 0.36873626708984375
-0.531494140625 0.1116943359375 0.420684814453125
-0.430908203125 0.219970703125 0.47443389892578125
-0.4249267578125 0.2672119140625 0.43856048583984375
-0.2821044921875 0.3775634765625 0.5267181396484375
-0.271240234375 0.3697509765625 0.5398406982421875
-0.281005859375 0.3975830078125 0.51573944091796875
-0.2916259765625 0.3609619140625 0.5235748291015625
-0.2794189453125 0.3477783203125 0.54106903076171875
-0.2650146484375 0.3988037109375 0.5329437255859375
-0.303466796875 0.38525390625 0.50194549560546875
-0.3316650390625 0.3116455078125 0.5170745849609375
-0.348388671875 0.3040771484375 0.5077667236328125
-0.324462890625 0.30419921875 0.5296173095703125
-0.3223876953125 0.32568359375 0.51397705078125
-0.34521484375 0.3321533203125 0.4994659423828125
-0.3477783203125 0.2861328125 0.52234649658203125
-0.3060302734375 0.3165283203125 0.5335845947265625
0.2440185546875 0.7587890625 0.29172515869140625
0.2457275390625 0.75830078125 0.34035491943359375
0.271484375 0.7225341796875 0.251708984375
0.2425537109375 0.7620849609375 0.245391845703125
0.213134765625 0.786376953125 0.32973480224609375
0.2174072265625 0.7928466796875 0.371490478515625
0.2747802734375 0.7186279296875 0.3029327392578125
0.27001953125 0.7286376953125 0.19899749755859375
0.2081298828125 0.786865234375 0.289093017578125
-0.621826171875 -0.3533935546875 0.2777099609375
-0.5963134765625 -0.3917236328125 0.264892578125
-0.6214599609375 -0.35693359375 0.32357025146484375
-0.64306640625 -0.3148193359375 0.2839508056640625
-0.6220703125 -0.354736328125 0.22327423095703125
-0.5999755859375 -0.39501953125 0.2079620361328125
-0.59130859375 -0.3885498046875 0.31699371337890625
-0.6451416015625 -0.3194580078125 0.32855987548828125
-0.6427001953125 -0.3101806640625 0.2408599853515625
0.2200927734375 0.8114013671875 0.1319427490234375
0.257568359375 0.7750244140625 0.08174896240234375
0.208984375 0.8271484375 0.09686279296875
0.1810302734375 0.83447265625 0.182647705078125
0.227783203125 0.7896728515625 0.16602325439453125
0.2626953125 0.756103515625 0.1147003173828125
0.2510986328125 0.7906494140625 0.0527801513671875
0.1719970703125 0.8590087890625 0.14434051513671875
0.1917724609375 0.8104248046875 0.20778656005859375
-0.66650390625 -0.3330078125 0.06292724609375
-0.6768798828125 -0.3228759765625 0.010986328125
-0.6435546875 -0.3890380859375 0.0537872314453125
-0.64794921875 -0.3438720703125 0.11055755615234375
-0.6749267578125 -0.279541015625 0.0724945068359375
-0.696533203125 -0.2701416015625 0.0198211669921875
-0.6583251953125 -0.3780517578125 -0.00536346435546875
-0.6292724609375 -0.3919677734375 0.10028839111328125
-0.6614990234375 -0.2940673828125 0.1329193115234375
0.1959228515625 0.86474609375 -0.02813720703125
0.2254638671875 0.825927734375 -0.05667877197265625
0.1912841796875 0.8660888671875 -0.07286834716796875
0.1593017578125 0.899658203125 0.0002593994140625
0.200439453125 0.8585205078125 0.0158233642578125
0.2320556640625 0.8165283203125 -0.0225677490234375
0.2236328125 0.8228759765625 -0.10167694091796875
0.157958984375 0.9049072265625 -0.043426513671875
0.16259765625 0.892578125 0.04505157470703125
-0.7012939453125 -0.3004150390625 -0.15079498291015625
-0.6978759765625 -0.294921875 -0.1986846923828125
-0.6842041015625 -0.3538818359375 -0.14524078369140625
-0.6990966796875 -0.3065185546875 -0.0952301025390625
-0.7210693359375 -0.242919921875 -0.16019439697265625
-0.72119140625 -0.2412109375 -0.20833587646484375
-0.6776123046875 -0.35009765625 -0.19203948974609375
-0.6756591796875 -0.361328125 -0.10052490234375
-0.7169189453125 -0.2496337890625 -0.09735107421875
0.1959228515625 0.8265380859375 -0.23059844970703125
0.1976318359375 0.803955078125 -0.29135894775390625
0.1640625 0.870849609375 -0.20940399169921875
0.1903076171875 0.8427734375 -0.17413330078125
0.2232666015625 0.7808837890625 -0.25738525390625
0.2216796875 0.750732421875 -0.3114471435546875
0.171142578125 0.8509521484375 -0.263336181640625
0.153564453125 0.8868408203125 -0.14728546142578125
0.223876953125 0.80322265625 -0.1982879638671875
-0.67626953125 -0.3099365234375 -0.348785400390625
-0.6883544921875 -0.2559814453125 -0.36496734619140625
-0.6622314453125 -0.3131103515625 -0.3958587646484375
-0.6611328125 -0.3580322265625 -0.3348846435546875
-0.690185546875 -0.3028564453125 -0.2976531982421875
-0.7025146484375 -0.24658203125 -0.3136749267578125
-0.6778564453125 -0.26123046875 -0.40204620361328125
-0.6439208984375 -0.36083984375 -0.38031768798828125
-0.668212890625 -0.3516845703125 -0.289276123046875
0.25830078125 -0.0511474609375 -0.05139923095703125
0.25048828125 -0.1109619140625 -0.04611968994140625
0.2513427734375 -0.0535888671875 -0.1377716064453125
0.2691650390625 0.01171875 -0.05576324462890625
0.2689208984375 -0.03857421875 0.027496337890625
0.2618408203125 -0.1019287109375 0.04224395751953125
0.2437744140625 -0.11279296875 -0.1405181884765625
0.259033203125 0.0030517578125 -0.1403656005859375
0.276611328125 0.0277099609375 0.02652740478515625
-0.0970458984375 -0.4970703125 0.08066558837890625
-0.129150390625 -0.52099609375 0.00139617919921875
-0.0574951171875 -0.496337890625 0.076385498046875
-0.0782470703125 -0.4698486328125 0.16800689697265625
-0.149169921875 -0.5006103515625 0.09165191650390625
-0.1627197265625 -0.5233154296875 0.0063629150390625
-0.0894775390625 -0.5169677734375 -0.00440216064453125
-0.0333251953125 -0.4664306640625 0.1729278564453125
-0.125 -0.4703369140625 0.169464111328125
0.311279296875 0.1939697265625 -0.0823211669921875
0.3175048828125 0.2218017578125 -0.013031005859375
0.2921142578125 0.1351318359375 -0.06781005859375
0.2994384765625 0.1690673828125 -0.14136505126953125
0.3284912109375 0.2464599609375 -0.0947418212890625
0.3399658203125 0.2886962890625 -0.03635406494140625
0.3013916015625 0.1588134765625 0.01172637939453125
0.2857666015625 0.1148681640625 -0.14794158935546875
0.32177734375 0.2138671875 -0.14513397216796875
-0.278564453125 -0.53955078125 0.096466064453125
-0.2352294921875 -0.5189208984375 0.100341796875
-0.2796630859375 -0.518310546875 0.1688690185546875
-0.3193359375 -0.560791015625 0.088897705078125
-0.277099609375 -0.5557861328125 0.02577972412109375
-0.2406005859375 -0.5400390625 0.01824951171875
-0.2255859375 -0.4945068359375 0.17311859130859375
-0.3275146484375 -0.543212890625 0.15100860595703125
-0.3084716796875 -0.569580078125 0.0265045166015625
0.3114013671875 0.3115234375 0.217987060546875
0.3094482421875 0.3299560546875 0.2810821533203125
0.2960205078125 0.2528076171875 0.23328399658203125
0.3165283203125 0.2896728515625 0.14105987548828125
0.326904296875 0.372802734375 0.19591522216796875
0.318603515625 0.385986328125 0.2700347900390625
0.2906494140625 0.2794189453125 0.3051300048828125
0.302001953125 0.222412109375 0.16051483154296875
0.3328857421875 0.356689453125 0.11566925048828125
-0.281005859375 -0.427490234375 0.3634490966796875
-0.2254638671875 -0.4039306640625 0.37929534912109375
-0.27685546875 -0.3995361328125 0.42462158203125
-0.328369140625 -0.450927734375 0.34857940673828125
-0.281494140625 -0.464111328125 0.29940032958984375
-0.22021484375 -0.4332275390625 0.31565093994140625
-0.2249755859375 -0.375732421875 0.4386444091796875
-0.321533203125 -0.4180908203125 0.407867431640625
-0.333984375 -0.488525390625 0.286865234375
0.2635498046875 0.10546875 0.339080810546875
0.2613525390625 0.1260986328125 0.3733367919921875
0.2598876953125 0.0677490234375 0.37786865234375
0.26611328125 0.0802001953125 0.3006591796875
0.27099609375 0.1470947265625 0.3029937744140625
0.27001953125 0.1724853515625 0.3516082763671875
0.251953125 0.0850830078125 0.3986663818359375
0.264892578125 0.047607421875 0.3524017333984375
0.273193359375 0.114013671875 0.2498321533203125
-0.090087890625 -0.32958984375 0.45853424072265625
-0.04541015625 -0.306884765625 0.4914398193359375
-0.095947265625 -0.3089599609375 0.491912841796875
-0.1331787109375 -0.3511962890625 0.433502197265625
-0.0797119140625 -0.348388671875 0.42364501953125
-0.037109375 -0.32470703125 0.46588134765625
-0.0513916015625 -0.2904052734375 0.5128326416015625
-0.136962890625 -0.3291015625 0.47637939453125
-0.1220703125 -0.375732421875 0.3829345703125
0.2747802734375 -0.0169677734375 0.220703125
0.2763671875 -0.0426025390625 0.24808502197265625
0.272705078125 -0.0235595703125 0.170440673828125
0.2716064453125 0.0125732421875 0.2376251220703125
0.2718505859375 -0.0096435546875 0.2873382568359375
0.273193359375 -0.0694580078125 0.18538665771484375
0.2747802734375 0.0269775390625 0.17645263671875
-0.03271484375 -0.392578125 0.34355926513671875
-0.045166015625 -0.4117431640625 0.3022613525390625
-0.006591796875 -0.38232421875 0.35852813720703125
-0.0487060546875 -0.3795166015625 0.36412811279296875
-0.080078125 -0.4039306640625 0.31150054931640625
-0.0052490234375 -0.4085693359375 0.3065643310546875
-0.017578125 -0.3648681640625 0.405242919921875
0.240966796875 0.123291015625 0.43640899658203125
0.24267578125 0.1414794921875 0.44054412841796875
0.2340087890625 0.1009521484375 0.44736480712890625
0.245361328125 0.1300048828125 0.42401885986328125
0.2518310546875 0.1676025390625 0.41905975341796875
0.2335205078125 0.1119384765625 0.4510955810546875
0.238525390625 0.095947265625 0.436004638671875
-0.076171875 -0.2598876953125 0.5430755615234375
-0.0517578125 -0.2503662109375 0.5471343994140625
-0.0933837890625 -0.26123046875 0.55037689208984375
-0.0880126953125 -0.2713623046875 0.53737640380859375
-0.0533447265625 -0.2606201171875 0.539794921875
-0.0615234375 -0.24609375 0.552093505859375
-0.115478515625 -0.281982421875 0.53995513916015625
0.219482421875 0.423828125 -0.486328125
0.2388916015625 0.4439697265625 -0.4572296142578125
0.225830078125 0.33837890625 -0.47464752197265625
0.190673828125 0.4014892578125 -0.512237548828125
0.203369140625 0.5103759765625 -0.47759246826171875
0.2335205078125 0.533447265625 -0.44484710693359375
0.2508544921875 0.36083984375 -0.45143890380859375
0.1966552734375 0.3082275390625 -0.49765777587890625
0.179931640625 0.4935302734375 -0.505584716796875
-0.4722900390625 -0.456787109375 -0.423248291015625
-0.4354248046875 -0.49169921875 -0.38553619384765625
-0.49072265625 -0.485107421875 -0.39205169677734375
-0.5150146484375 -0.41552734375 -0.455718994140625
-0.45654296875 -0.425048828125 -0.46176910400390625
-0.4185791015625 -0.466552734375 -0.421051025390625
-0.451416015625 -0.5223388671875 -0.35329437255859375
-0.53076171875 -0.4451904296875 -0.420989990234375
-0.4993896484375 -0.378662109375 -0.494232177734375
0.1016845703125 0.345947265625 -0.5921630859375
0.0880126953125 0.449462890625 -0.5825653076171875
0.1304931640625 0.364990234375 -0.56512451171875
0.112548828125 0.258544921875 -0.58942413330078125
0.0704345703125 0.3294677734375 -0.6207275390625
0.0556640625 0.4281005859375 -0.60951995849609375
0.1160888671875 0.461669921875 -0.5623931884765625
0.141357421875 0.2730712890625 -0.55417633056640625
0.081298828125 0.2353515625 -0.61022186279296875
-0.4093017578125 -0.3121337890625 -0.5663299560546875
-0.4273681640625 -0.3507080078125 -0.535400390625
-0.4534912109375 -0.25048828125 -0.594696044921875
-0.3887939453125 -0.264404296875 -0.604217529296875
-0.3717041015625 -0.36083984375 -0.53437042236328125
-0.385986328125 -0.400634765625 -0.4994659423828125
-0.4715576171875 -0.29736328125 -0.5653533935546875
-0.4290771484375 -0.197021484375 -0.628326416015625
-0.346923828125 -0.322509765625 -0.572479248046875
0.267333984375 0.1834716796875 -0.33142852783203125
0.2735595703125 0.1600341796875 -0.26656341552734375
0.2493896484375 0.142578125 -0.34503936767578125
0.2557373046875 0.216796875 -0.3891448974609375
0.289306640625 0.216796875 -0.320159912109375
0.292724609375 0.20166015625 -0.26123809814453125
0.2572021484375 0.1141357421875 -0.27922821044921875
0.2318115234375 0.1790771484375 -0.40694427490234375
0.2789306640625 0.2490234375 -0.3764801025390625
-0.32666015625 -0.55810546875 -0.191741943359375
-0.3016357421875 -0.5443115234375 -0.21221160888671875
-0.3016357421875 -0.56298828125 -0.12284088134765625
-0.3515625 -0.5799560546875 -0.170013427734375
-0.356201171875 -0.5435791015625 -0.26041412353515625
-0.33447265625 -0.52734375 -0.286468505859375
-0.2734375 -0.5489501953125 -0.135772705078125
-0.3272705078125 -0.580322265625 -0.10529327392578125
-0.37646484375 -0.571533203125 -0.23725128173828125
0.2032470703125 -0.010009765625 -0.3545989990234375
0.1884765625 -0.0697021484375 -0.3594512939453125
0.187744140625 0.0177001953125 -0.42375946044921875
0.2156982421875 0.0457763671875 -0.357635498046875
0.220947265625 -0.0352783203125 -0.29250335693359375
0.205810546875 -0.0960693359375 -0.289886474609375
0.177978515625 -0.0421142578125 -0.42632293701171875
0.1976318359375 0.0777587890625 -0.4266815185546875
0.23291015625 0.0205078125 -0.29157257080078125
-0.209228515625 -0.5345458984375 -0.23874664306640625
-0.2406005859375 -0.5267333984375 -0.31110382080078125
-0.1756591796875 -0.5355224609375 -0.242156982421875
-0.182373046875 -0.5423583984375 -0.1578826904296875
-0.242431640625 -0.5311279296875 -0.2315521240234375
-0.2738037109375 -0.521484375 -0.31140899658203125
-0.2037353515625 -0.5250244140625 -0.31569671630859375
-0.1456298828125 -0.5438232421875 -0.17385101318359375
-0.21142578125 -0.5399169921875 -0.151275634765625
0.135009765625 0.0740966796875 -0.544952392578125
0.1324462890625 0.115234375 -0.5612945556640625
0.1552734375 0.0631103515625 -0.5256195068359375
0.12255859375 0.0411376953125 -0.55455780029296875
0.107421875 0.0889892578125 -0.57530975341796875
0.1541748046875 0.1185302734375 -0.52964019775390625
0.1414794921875 0.0113525390625 -0.52819061279296875
-0.2801513671875 -0.4564208984375 -0.46389007568359375
-0.280029296875 -0.479248046875 -0.42722320556640625
-0.3045654296875 -0.4390869140625 -0.4849090576171875
-0.2681884765625 -0.4483642578125 -0.47698974609375
-0.2462158203125 -0.4798583984375 -0.43296051025390625
-0.3131103515625 -0.466064453125 -0.44199371337890625
-0.2894287109375 -0.416015625 -0.51198577880859375
0.3065185546875 0.9263916015625 -0.216278076171875
0.2996826171875 0.9327392578125 -0.2198486328125
0.2969970703125 0.891845703125 -0.2073516845703125
0.31201171875 0.9178466796875 -0.22008514404296875
0.313232421875 0.95654296875 -0.2255859375
0.3057861328125 0.9644775390625 -0.23206329345703125
0.2901611328125 0.8958740234375 -0.21517181396484375
0.3037109375 0.8858642578125 -0.20752716064453125
0.318115234375 0.945556640625 -0.22824859619140625
-0.7608642578125 -0.4512939453125 -0.33516693115234375
-0.7376708984375 -0.44580078125 -0.3088531494140625
-0.761474609375 -0.44189453125 -0.34656524658203125
-0.7738037109375 -0.4693603515625 -0.35832977294921875
-0.75390625 -0.46484375 -0.32708740234375
-0.733642578125 -0.46044921875 -0.30290985107421875
-0.7364501953125 -0.4354248046875 -0.32464599609375
-0.775634765625 -0.4609375 -0.375823974609375
-0.7705078125 -0.4796142578125 -0.3497467041015625
0.369140625 1.0606689453125 -0.270751953125
0.35107421875 1.0272216796875 -0.25276947021484375
0.3739013671875 1.04296875 -0.27032470703125
0.391845703125 1.087890625 -0.287872314453125
0.368408203125 1.074951171875 -0.27541351318359375
0.348876953125 1.0372314453125 -0.25470733642578125
0.3555908203125 1.0118408203125 -0.2503662109375
0.394775390625 1.0684814453125 -0.2859344482421875
0.3890380859375 1.10302734375 -0.29225921630859375
-0.8482666015625 -0.5335693359375 -0.45566558837890625
-0.83984375 -0.5419921875 -0.4386444091796875
-0.8226318359375 -0.503662109375 -0.420806884765625
-0.8485107421875 -0.5274658203125 -0.4781494140625
-0.86279296875 -0.5654296875 -0.4761199951171875
-0.8548583984375 -0.5728759765625 -0.46059417724609375
-0.813720703125 -0.5146484375 -0.4068756103515625
-0.8292236328125 -0.4952392578125 -0.43883514404296875
-0.8670654296875 -0.5618896484375 -0.49713134765625
0.4688720703125 1.087646484375 -0.33493804931640625
0.44287109375 1.10302734375 -0.31732940673828125
0.4654541015625 1.0684814453125 -0.3366546630859375
0.4937744140625 1.060546875 -0.3507080078125
0.4757080078125 1.1077880859375 -0.34051513671875
0.447021484375 1.1180419921875 -0.321197509765625
0.44140625 1.0830078125 -0.3195648193359375
0.49169921875 1.0421142578125 -0.351776123046875
0.5 1.0814208984375 -0.359405517578125
-0.88916015625 -0.6947021484375 -0.472198486328125
-0.8763427734375 -0.695068359375 -0.4599761962890625
-0.887451171875 -0.644287109375 -0.48604583740234375
-0.9041748046875 -0.6934814453125 -0.490814208984375
-0.884521484375 -0.741943359375 -0.44775390625
-0.8699951171875 -0.7393798828125 -0.4387359619140625
-0.873779296875 -0.649169921875 -0.4741668701171875
-0.9005126953125 -0.6453857421875 -0.51007843017578125
-0.89990234375 -0.746337890625 -0.4634552001953125
0.55908203125 0.91357421875 -0.41278076171875
0.5440673828125 0.9715576171875 -0.39476776123046875
0.55224609375 0.901123046875 -0.40760040283203125
0.5673828125 0.844970703125 -0.4305419921875
0.5660400390625 0.9237060546875 -0.42435455322265625
0.546875 0.9835205078125 -0.40003204345703125
0.5374755859375 0.9571533203125 -0.39342498779296875
0.5584716796875 0.8343505859375 -0.42317962646484375
0.574951171875 0.8543701171875 -0.4398040771484375
-0.831787109375 -0.868896484375 -0.3404083251953125
-0.8221435546875 -0.8602294921875 -0.33974456787109375
-0.8560791015625 -0.83056640625 -0.383026123046875
-0.837646484375 -0.88037109375 -0.34656524658203125
-0.800537109375 -0.899169921875 -0.3043670654296875
-0.7938232421875 -0.8873291015625 -0.3053131103515625
-0.84423828125 -0.82177734375 -0.37416839599609375
-0.8663330078125 -0.8438720703125 -0.39061737060546875
-0.807861328125 -0.909912109375 -0.31050872802734375
0.548095703125 0.64599609375 -0.42313385009765625
0.5625 0.7071533203125 -0.43462371826171875
0.5382080078125 0.6534423828125 -0.415130615234375
0.5347900390625 0.587890625 -0.40938568115234375
0.5595703125 0.6417236328125 -0.43634033203125
0.5704345703125 0.70947265625 -0.4487457275390625
0.5494384765625 0.7078857421875 -0.4309234619140625
0.5283203125 0.59765625 -0.40149688720703125
0.537109375 0.5794677734375 -0.4173126220703125
-0.685791015625 -0.9178466796875 -0.19260406494140625
-0.68505859375 -0.9041748046875 -0.19927215576171875
-0.722412109375 -0.9205322265625 -0.22620391845703125
-0.68701171875 -0.9315185546875 -0.194915771484375
-0.6429443359375 -0.8990478515625 -0.14978790283203125
-0.64599609375 -0.8858642578125 -0.14864349365234375
-0.7200927734375 -0.906982421875 -0.2268218994140625
-0.72900390625 -0.9332275390625 -0.2300567626953125
-0.639892578125 -0.9095458984375 -0.1507568359375
0.47900390625 0.447021484375 -0.294036865234375
0.499267578125 0.4859619140625 -0.34029388427734375
0.477783203125 0.464599609375 -0.292816162109375
0.4501953125 0.409423828125 -0.25640869140625
0.4805908203125 0.432373046875 -0.302764892578125
0.5029296875 0.473388671875 -0.34984588623046875
0.49609375 0.4991455078125 -0.335113525390625
0.4473876953125 0.43017578125 -0.25299835205078125
0.4512939453125 0.3927001953125 -0.263916015625
-0.521728515625 -0.803955078125 -0.0310821533203125
-0.5313720703125 -0.79541015625 -0.03771209716796875
-0.55908203125 -0.8397216796875 -0.0723876953125
-0.51904296875 -0.812255859375 -0.0314178466796875
-0.4876708984375 -0.762451171875 -0.002777099609375
-0.4962158203125 -0.7567138671875 -0.0081329345703125
-0.56396484375 -0.8319091796875 -0.0790252685546875
-0.5528564453125 -0.8499755859375 -0.07721710205078125
-0.4769287109375 -0.768798828125 -0.00469970703125
0.46875 0.505615234375 -0.31665802001953125
0.483642578125 0.536376953125 -0.3508453369140625
0.4691162109375 0.514404296875 -0.33182525634765625
0.45263671875 0.480712890625 -0.28064727783203125
0.4710693359375 0.49658203125 -0.30387115478515625
0.4879150390625 0.5252685546875 -0.3429412841796875
0.4830322265625 0.5460205078125 -0.36208343505859375
0.454833984375 0.4888916015625 -0.298248291015625
0.4521484375 0.4664306640625 -0.26531219482421875
-0.5601806640625 -0.7899169921875 -0.085723876953125
-0.5692138671875 -0.786865234375 -0.1065521240234375
-0.5909423828125 -0.8160400390625 -0.12155914306640625
-0.550537109375 -0.7882080078125 -0.07006072998046875
-0.5328369140625 -0.757080078125 -0.0568389892578125
-0.543212890625 -0.7606201171875 -0.07843017578125
-0.5980224609375 -0.815185546875 -0.1357879638671875
-0.583740234375 -0.8199462890625 -0.1078643798828125
-0.523193359375 -0.755615234375 -0.03658294677734375
0.5245361328125 0.6649169921875 -0.42479705810546875
0.526611328125 0.7115478515625 -0.433502197265625
0.519775390625 0.666015625 -0.43312835693359375
0.5155029296875 0.6160888671875 -0.4116363525390625
0.5283203125 0.661376953125 -0.4169158935546875
0.533447265625 0.7108154296875 -0.4272003173828125
0.526611328125 0.710205078125 -0.444854736328125
0.5145263671875 0.6209716796875 -0.4210205078125
0.517578125 0.6124267578125 -0.40744781494140625
-0.686279296875 -0.88134765625 -0.22617340087890625
-0.688720703125 -0.8768310546875 -0.2418975830078125
-0.7169189453125 -0.8839111328125 -0.254058837890625
-0.6875 -0.8848876953125 -0.2136077880859375
-0.6514892578125 -0.86376953125 -0.18354034423828125
-0.6590576171875 -0.8604736328125 -0.20058441162109375
-0.7169189453125 -0.880126953125 -0.26576995849609375
-0.7196044921875 -0.8880615234375 -0.2425689697265625
-0.6522216796875 -0.8704833984375 -0.17125701904296875
0.5355224609375 0.865966796875 -0.4204254150390625
0.525146484375 0.9140625 -0.406829833984375
0.53271484375 0.85595703125 -0.43135833740234375
0.54296875 0.8157958984375 -0.4363250732421875
0.5379638671875 0.8763427734375 -0.4149322509765625
0.52880859375 0.9256591796875 -0.39752960205078125
0.5269775390625 0.9024658203125 -0.4163665771484375
0.541748046875 0.8111572265625 -0.44509124755859375
0.5479736328125 0.8206787109375 -0.42913818359375
-0.8016357421875 -0.84423828125 -0.34632110595703125
-0.798095703125 -0.84375 -0.3543243408203125
-0.8223876953125 -0.81494140625 -0.373504638671875
-0.8084716796875 -0.8477783203125 -0.34255218505859375
