# XYZ point cloud file
0.3408203125 0.6259765625 0.39217376708984375
0.342041015625 0.516357421875 0.398406982421875
0.331298828125 0.5048828125 0.33554840087890625
0.3302001953125 0.6180419921875 0.33274078369140625
-0.4520263671875 -0.3773193359375 0.4799041748046875
-0.4046630859375 -0.3721923828125 0.5030670166015625
-0.4515380859375 -0.3740234375 0.50945281982421875
-0.49462890625 -0.3785400390625 0.4627838134765625
-0.4530029296875 -0.382568359375 0.44482421875
-0.408447265625 -0.3775634765625 0.4688720703125
-0.405517578125 -0.367431640625 0.5380401611328125
-0.4981689453125 -0.377685546875 0.4906005859375
-0.49755859375 -0.3800048828125 0.4309539794921875
0.3153076171875 0.35791015625 0.40496826171875
0.3150634765625 0.363525390625 0.4290008544921875
0.299072265625 0.3082275390625 0.41693115234375
0.31103515625 0.3514404296875 0.36791229248046875
0.3204345703125 0.40771484375 0.3875885009765625
0.32421875 0.4169921875 0.4145965576171875
0.301513671875 0.3153076171875 0.43991851806640625
0.2938232421875 0.3018798828125 0.3919219970703125
0.3153076171875 0.402587890625 0.35681915283203125
-0.2750244140625 -0.3319091796875 0.554962158203125
-0.2330322265625 -0.310546875 0.56354522705078125
-0.27099609375 -0.3306884765625 0.585174560546875
-0.319091796875 -0.3448486328125 0.54769134521484375
-0.283447265625 -0.3372802734375 0.5240936279296875
-0.23779296875 -0.3145751953125 0.53087615966796875
-0.229248046875 -0.30615234375 0.586883544921875
-0.318115234375 -0.3411865234375 0.57315826416015625
-0.3232421875 -0.35107421875 0.50972747802734375
0.2601318359375 -0.2880859375 0.348663330078125
0.2447509765625 -0.3145751953125 0.36237335205078125
0.2470703125 -0.273681640625 0.32910919189453125
0.27294921875 -0.2557373046875 0.3428192138671875
0.2745361328125 -0.302734375 0.365386962890625
0.2564697265625 -0.33251953125 0.37783050537109375
0.23583984375 -0.3004150390625 0.3415374755859375
0.259521484375 -0.2412109375 0.32015228271484375
0.288818359375 -0.276123046875 0.35727691650390625
0.181396484375 -0.3773193359375 0.39649200439453125
0.1590576171875 -0.3685302734375 0.3817901611328125
0.2047119140625 -0.3614501953125 0.3812103271484375
0.2044677734375 -0.392578125 0.4122161865234375
0.1522216796875 -0.38818359375 0.4127197265625
0.1319580078125 -0.38037109375 0.39708709716796875
0.1851806640625 -0.3536376953125 0.36576080322265625
0.222900390625 -0.374755859375 0.39797210693359375
0.1812744140625 -0.404052734375 0.43051910400390625
0.345458984375 -0.38818359375 0.4045562744140625
0.33056640625 -0.4140625 0.4085845947265625
0.313720703125 -0.3592529296875 0.387908935546875
0.3597412109375 -0.3607177734375 0.39606475830078125
0.3720703125 -0.421142578125 0.41905975341796875
0.358154296875 -0.4483642578125 0.4278106689453125
0.3016357421875 -0.384521484375 0.39838409423828125
0.330810546875 -0.3291015625 0.383514404296875
0.3863525390625 -0.3944091796875 0.40958404541015625
0.2774658203125 -0.4674072265625 0.4507293701171875
0.2457275390625 -0.43505859375 0.44178009033203125
0.29541015625 -0.4544677734375 0.43292236328125
0.2987060546875 -0.49951171875 0.4647979736328125
0.255615234375 -0.47705078125 0.470703125
0.2308349609375 -0.4462890625 0.4583587646484375
0.2681884765625 -0.4239501953125 0.42380523681640625
0.322021484375 -0.4884033203125 0.45093536376953125
0.28076171875 -0.5115966796875 0.481719970703125
0.45947265625 -0.4949951171875 0.46463775634765625
0.446044921875 -0.52001953125 0.4817962646484375
0.4302978515625 -0.4766845703125 0.44573211669921875
0.4737548828125 -0.468994140625 0.446868896484375
0.4871826171875 -0.5093994140625 0.4856109619140625
0.473876953125 -0.531982421875 0.5036773681640625
0.41650390625 -0.5001220703125 0.46303558349609375
0.4462890625 -0.450439453125 0.432647705078125
0.502685546875 -0.485107421875 0.4677886962890625
0.387939453125 -0.5765380859375 0.5348663330078125
0.3572998046875 -0.5604248046875 0.513336181640625
0.4066162109375 -0.5595703125 0.51880645751953125
0.408447265625 -0.59375 0.5576934814453125
0.3629150390625 -0.5953369140625 0.54987335205078125
0.339111328125 -0.5704345703125 0.52788543701171875
0.3824462890625 -0.5440673828125 0.49680328369140625
0.43212890625 -0.572021484375 0.5401458740234375
0.385498046875 -0.6107177734375 0.5745391845703125
0.544677734375 -0.5150146484375 0.553985595703125
0.5494384765625 -0.50439453125 0.57550048828125
0.5245361328125 -0.53515625 0.5749664306640625
0.532958984375 -0.521240234375 0.53316497802734375
0.55810546875 -0.4921875 0.52802276611328125
0.568603515625 -0.4808349609375 0.5515899658203125
0.535888671875 -0.523193359375 0.59584808349609375
0.510986328125 -0.53955078125 0.5562286376953125
0.5440673828125 -0.4976806640625 0.50872802734375
0.45703125 -0.5965576171875 0.62905120849609375
0.4844970703125 -0.5770263671875 0.614013671875
0.468505859375 -0.588623046875 0.65039825439453125
0.4351806640625 -0.61767578125 0.641265869140625
0.450439453125 -0.6033935546875 0.60729217529296875
0.4713134765625 -0.580810546875 0.58925628662109375
0.48974609375 -0.5675048828125 0.635009765625
0.4422607421875 -0.6090087890625 0.6672210693359375
0.4229736328125 -0.623291015625 0.6159210205078125
0.599365234375 -0.4268798828125 0.45401763916015625
0.6085205078125 -0.41552734375 0.47449493408203125
0.58935546875 -0.44970703125 0.4821319580078125
0.586669921875 -0.430908203125 0.43414306640625
0.610595703125 -0.4071044921875 0.42995452880859375
0.6163330078125 -0.3988037109375 0.4500885009765625
0.5989990234375 -0.438720703125 0.50315093994140625
0.5738525390625 -0.452880859375 0.4556884765625
0.5955810546875 -0.4110107421875 0.4171295166015625
0.3607177734375 -0.6785888671875 0.6837615966796875
0.3846435546875 -0.65966796875 0.67028045654296875
0.372802734375 -0.6690673828125 0.705169677734375
0.3392333984375 -0.69091796875 0.69080352783203125
0.3497314453125 -0.6802978515625 0.6595916748046875
0.3729248046875 -0.664306640625 0.6441650390625
0.398681640625 -0.6480712890625 0.6934967041015625
0.3485107421875 -0.6824951171875 0.713104248046875
0.3272705078125 -0.692626953125 0.66466522216796875
0.5953369140625 -0.3404541015625 0.40875244140625
0.612548828125 -0.334716796875 0.42960357666015625
0.6064453125 -0.3623046875 0.41014862060546875
0.5760498046875 -0.3472900390625 0.38773345947265625
0.576904296875 -0.315185546875 0.40373992919921875
0.6015625 -0.3118896484375 0.430816650390625
0.6224365234375 -0.35693359375 0.42783355712890625
0.5872802734375 -0.368408203125 0.39736175537109375
0.54931640625 -0.3192138671875 0.38695526123046875
0.278564453125 -0.68017578125 0.68566131591796875
0.296875 -0.692138671875 0.69235992431640625
0.2938232421875 -0.68115234375 0.719482421875
0.2586669921875 -0.6611328125 0.67368316650390625
0.267333984375 -0.6766357421875 0.6497955322265625
0.2886962890625 -0.6907958984375 0.664093017578125
0.313232421875 -0.6885986328125 0.723602294921875
0.2752685546875 -0.66357421875 0.7152099609375
0.2484130859375 -0.6502685546875 0.640380859375
0.505859375 -0.2177734375 0.4169464111328125
0.54248046875 -0.21923828125 0.4412841796875
0.537353515625 -0.253662109375 0.4098663330078125
0.4766845703125 -0.2252197265625 0.39186859130859375
0.48291015625 -0.1864013671875 0.42258453369140625
0.5140380859375 -0.18701171875 0.44775390625
0.565185546875 -0.2562255859375 0.43752288818359375
0.500244140625 -0.2520751953125 0.39257049560546875
0.4503173828125 -0.19482421875 0.39881134033203125
0.1973876953125 -0.57177734375 0.65053558349609375
0.2181396484375 -0.60546875 0.65454864501953125
0.21533203125 -0.5843505859375 0.6962738037109375
0.1734619140625 -0.5380859375 0.6476287841796875
0.1822509765625 -0.5540771484375 0.61396026611328125
0.206787109375 -0.59033203125 0.6217193603515625
0.2384033203125 -0.61279296875 0.6964263916015625
0.19287109375 -0.5494384765625 0.6875762939453125
0.157470703125 -0.5185546875 0.607574462890625
0.404052734375 -0.2744140625 0.37796783447265625
0.42919921875 -0.307861328125 0.38083648681640625
0.3883056640625 -0.301025390625 0.3836212158203125
0.37060546875 -0.2425537109375 0.3765716552734375
0.422119140625 -0.252197265625 0.37737274169921875
0.449462890625 -0.280517578125 0.3776702880859375
0.41455078125 -0.3331298828125 0.38823699951171875
0.358642578125 -0.271240234375 0.3772735595703125
0.3948974609375 -0.2186279296875 0.37457275390625
0.199462890625 -0.5078125 0.52545928955078125
0.218505859375 -0.4954833984375 0.50766754150390625
0.219482421875 -0.5423583984375 0.53958892822265625
0.18505859375 -0.519775390625 0.54882049560546875
0.1748046875 -0.4759521484375 0.5164337158203125
0.1939697265625 -0.4677734375 0.49530792236328125
0.23681640625 -0.53076171875 0.51938629150390625
0.204833984375 -0.557373046875 0.5624542236328125
0.1600341796875 -0.4853515625 0.5379791259765625
0.5130615234375 -0.3907470703125 0.3956298828125
0.5306396484375 -0.3687744140625 0.3858489990234375
0.5435791015625 -0.41357421875 0.4066314697265625
0.5013427734375 -0.4140625 0.41259765625
0.48681640625 -0.3671875 0.384735107421875
0.5057373046875 -0.34228515625 0.379608154296875
0.5557861328125 -0.3912353515625 0.3961029052734375
0.529541015625 -0.4351806640625 0.42594146728515625
0.4727783203125 -0.3955078125 0.4009246826171875
0.288330078125 -0.638671875 0.5843353271484375
0.314697265625 -0.6634521484375 0.61087799072265625
0.2718505859375 -0.65478515625 0.60080718994140625
0.2650146484375 -0.6116943359375 0.56623077392578125
0.3095703125 -0.6253662109375 0.5773468017578125
0.3338623046875 -0.6480712890625 0.59529876708984375
0.2938232421875 -0.6728515625 0.619598388671875
0.2469482421875 -0.625 0.58620452880859375
0.2889404296875 -0.5977783203125 0.55309295654296875
0.3094482421875 -0.166015625 0.352813720703125
0.3248291015625 -0.1419677734375 0.3672332763671875
0.3238525390625 -0.1885986328125 0.358734130859375
0.300048828125 -0.1943359375 0.340911865234375
0.2950439453125 -0.14306640625 0.3433837890625
0.3046875 -0.1180419921875 0.36468505859375
0.3411865234375 -0.165283203125 0.367462158203125
0.30908203125 -0.2176513671875 0.35622406005859375
0.2838134765625 -0.173583984375 0.32581329345703125
0.097900390625 -0.400634765625 0.4745941162109375
0.1185302734375 -0.418212890625 0.480987548828125
0.0894775390625 -0.4036865234375 0.50388336181640625
0.076171875 -0.3876953125 0.46286773681640625
0.110107421875 -0.4005126953125 0.447265625
0.132080078125 -0.4132080078125 0.46387481689453125
0.111083984375 -0.42529296875 0.508331298828125
0.0692138671875 -0.3843994140625 0.492340087890625
0.090576171875 -0.3912353515625 0.436492919921875
0.3956298828125 -0.09521484375 0.43621063232421875
0.4273681640625 -0.090576171875 0.466888427734375
0.4266357421875 -0.125 0.43283843994140625
0.3673095703125 -0.10498046875 0.40766143798828125
0.3724365234375 -0.067138671875 0.4415283203125
0.394775390625 -0.0621337890625 0.46791839599609375
0.4552001953125 -0.1220703125 0.4622039794921875
0.3934326171875 -0.1318359375 0.405181884765625
0.3472900390625 -0.078369140625 0.41121673583984375
0.0968017578125 -0.431396484375 0.6219329833984375
0.122314453125 -0.4659423828125 0.62998199462890625
0.111328125 -0.4400634765625 0.66443634033203125
0.0794677734375 -0.3995361328125 0.61270904541015625
0.08740234375 -0.41796875 0.5771331787109375
0.1102294921875 -0.447021484375 0.5830535888671875
0.1363525390625 -0.475830078125 0.675201416015625
0.09228515625 -0.4061279296875 0.6556549072265625
0.0697021484375 -0.3907470703125 0.5706329345703125
0.2509765625 0.0369873046875 0.4670562744140625
0.26171875 0.026611328125 0.4607696533203125
0.248046875 0.03857421875 0.44066619873046875
0.243896484375 0.0462646484375 0.4717559814453125
0.2598876953125 0.0394287109375 0.49514007568359375
0.2752685546875 0.0335693359375 0.488861083984375
0.2569580078125 0.023681640625 0.43158721923828125
0.241455078125 0.050048828125 0.45017242431640625
0.2479248046875 0.0482177734375 0.49629974365234375
-0.0048828125 -0.2568359375 0.57330322265625
-0.0150146484375 -0.2635498046875 0.5491180419921875
0.0032958984375 -0.26953125 0.570709228515625
0.00341796875 -0.2510986328125 0.600830078125
-0.01025390625 -0.2431640625 0.5760650634765625
-0.0205078125 -0.249755859375 0.5528106689453125
-0.0087890625 -0.278076171875 0.5373077392578125
0.0118408203125 -0.2640380859375 0.6015777587890625
-0.0030517578125 -0.2373046875 0.59972381591796875
0.3089599609375 -0.0086669921875 0.44814300537109375
0.32421875 -0.02734375 0.44521331787109375
0.2923583984375 -0.0235595703125 0.421234130859375
0.2926025390625 0.0040283203125 0.454925537109375
0.3212890625 -0.0010986328125 0.478729248046875
0.34326171875 -0.019775390625 0.4780120849609375
0.310302734375 -0.0380859375 0.41556549072265625
0.2783203125 -0.0089111328125 0.42234039306640625
0.30322265625 0.0103759765625 0.48462677001953125
0.0322265625 -0.3231201171875 0.58502960205078125
0.027099609375 -0.323486328125 0.54553985595703125
0.0421142578125 -0.34423828125 0.59230804443359375
0.040283203125 -0.3236083984375 0.62496185302734375
0.0196533203125 -0.3035888671875 0.578948974609375
0.0189208984375 -0.3079833984375 0.5403594970703125
0.038818359375 -0.343017578125 0.552825927734375
0.05517578125 -0.347412109375 0.6356658935546875
0.027587890625 -0.299560546875 0.6143798828125
0.22119140625 0.071044921875 0.4902496337890625
0.223388671875 0.0750732421875 0.51175689697265625
0.2265625 0.0614013671875 0.4846649169921875
0.2183837890625 0.0748291015625 0.471435546875
0.2188720703125 0.085205078125 0.4946441650390625
0.22021484375 0.08837890625 0.51253509521484375
0.231201171875 0.0667724609375 0.50662994384765625
0.2242431640625 0.0648193359375 0.4648284912109375
0.21728515625 0.089599609375 0.4758453369140625
-0.0257568359375 -0.20751953125 0.5781402587890625
-0.019287109375 -0.2181396484375 0.57784271240234375
-0.021240234375 -0.199462890625 0.59961700439453125
-0.036376953125 -0.2032470703125 0.5797271728515625
-0.0335693359375 -0.2120361328125 0.5597686767578125
-0.0272216796875 -0.222900390625 0.5598602294921875
-0.0130615234375 -0.210205078125 0.5989837646484375
-0.0318603515625 -0.1925048828125 0.59867095947265625
-0.0445556640625 -0.20703125 0.56243133544921875
0.2484130859375 0.1785888671875 0.4620361328125
0.2283935546875 0.140625 0.47881317138671875
0.2454833984375 0.17333984375 0.4478912353515625
0.2618408203125 0.22021484375 0.44725799560546875
0.2471923828125 0.182861328125 0.4816741943359375
0.22900390625 0.1441650390625 0.49680328369140625
0.2266845703125 0.1405029296875 0.46286773681640625
0.2596435546875 0.212890625 0.42621612548828125
0.2640380859375 0.2249755859375 0.46724700927734375
-0.116455078125 -0.2369384765625 0.57303619384765625
-0.11767578125 -0.2376708984375 0.55731201171875
-0.0802001953125 -0.2166748046875 0.57588958740234375
-0.11279296875 -0.2318115234375 0.5922393798828125
-0.1561279296875 -0.2606201171875 0.567352294921875
-0.1541748046875 -0.26220703125 0.5477752685546875
-0.085205078125 -0.2213134765625 0.55997467041015625
-0.0771484375 -0.21044921875 0.59552001953125
-0.1519775390625 -0.25634765625 0.588775634765625
0.0245361328125 -0.13525390625 -0.59372711181640625
0.0074462890625 -0.0753173828125 -0.6271820068359375
0.06689453125 -0.0748291015625 -0.57489776611328125
0.039306640625 -0.183837890625 -0.54998016357421875
-0.026123046875 -0.195068359375 -0.60163116455078125
-0.0401611328125 -0.13037109375 -0.64022064208984375
0.052001953125 -0.017333984375 -0.6096954345703125
0.08251953125 -0.1199951171875 -0.53516387939453125
-0.0068359375 -0.247314453125 -0.55307769775390625
-0.159912109375 -0.3502197265625 -0.55391693115234375
-0.2039794921875 -0.38720703125 -0.52190399169921875
-0.181884765625 -0.2950439453125 -0.599151611328125
-0.117919921875 -0.30810546875 -0.57717132568359375
-0.1444091796875 -0.39501953125 -0.50830841064453125
-0.187744140625 -0.4320068359375 -0.4737548828125
-0.222412109375 -0.339599609375 -0.56670379638671875
-0.1422119140625 -0.2469482421875 -0.6249847412109375
-0.096435546875 -0.35498046875 -0.53195953369140625
0.093994140625 -0.275146484375 -0.3609619140625
0.076416015625 -0.251953125 -0.4300689697265625
0.1357421875 -0.20947265625 -0.3597259521484375
0.1124267578125 -0.2880859375 -0.28350067138671875
0.0528564453125 -0.3406982421875 -0.35796356201171875
0.0380859375 -0.3167724609375 -0.4323577880859375
0.1175537109375 -0.18798828125 -0.4260101318359375
0.1407470703125 -0.2255859375 -0.28879547119140625
0.0748291015625 -0.348876953125 -0.278717041015625
-0.07763671875 -0.4794921875 -0.3058624267578125
-0.1177978515625 -0.5045166015625 -0.272857666015625
-0.1041259765625 -0.4666748046875 -0.382904052734375
-0.0321044921875 -0.44189453125 -0.32796478271484375
-0.050048828125 -0.4837646484375 -0.2234039306640625
-0.08984375 -0.509765625 -0.1966094970703125
-0.1453857421875 -0.492431640625 -0.3516693115234375
-0.05859375 -0.422607421875 -0.413330078125
-0.0079345703125 -0.450927734375 -0.25029754638671875
0.170654296875 -0.2904052734375 -0.0074462890625
0.151123046875 -0.2991943359375 -0.10507965087890625
0.2005615234375 -0.2327880859375 -0.01422119140625
0.1900634765625 -0.276611328125 0.08575439453125
0.1434326171875 -0.342041015625 0.00189208984375
0.1182861328125 -0.350830078125 -0.0944061279296875
0.1820068359375 -0.237548828125 -0.1097259521484375
0.211181640625 -0.220703125 0.07849884033203125
0.162109375 -0.32275390625 0.10040283203125
0.033447265625 -0.4420166015625 0.05780029296875
-0.0035400390625 -0.4615478515625 0.07636260986328125
0.003662109375 -0.4713134765625 -0.0426483154296875
0.0714111328125 -0.4171142578125 0.0382080078125
0.0643310546875 -0.4183349609375 0.15030670166015625
0.0283203125 -0.4364013671875 0.1670989990234375
-0.0369873046875 -0.488037109375 -0.0189208984375
0.046630859375 -0.4395751953125 -0.065582275390625
0.09912109375 -0.393798828125 0.13271331787109375
0.22265625 -0.2579345703125 0.2596435546875
0.2125244140625 -0.262451171875 0.21966552734375
0.236328125 -0.2178955078125 0.25421905517578125
0.22802734375 -0.2587890625 0.2859649658203125
0.20361328125 -0.2955322265625 0.27518463134765625
0.1920166015625 -0.298828125 0.24146270751953125
0.2266845703125 -0.21630859375 0.214385986328125
0.23974609375 -0.2220458984375 0.277496337890625
0.214599609375 -0.2930908203125 0.30062103271484375
0.1138916015625 -0.3704833984375 0.3216552734375
0.08447265625 -0.384033203125 0.3306884765625
0.10009765625 -0.382080078125 0.28176116943359375
0.1455078125 -0.3546142578125 0.31017303466796875
0.1263427734375 -0.36669921875 0.3482513427734375
0.0999755859375 -0.3797607421875 0.3574676513671875
0.0703125 -0.3941650390625 0.2899017333984375
0.1329345703125 -0.361083984375 0.269805908203125
0.1583251953125 -0.3492431640625 0.33636474609375
0.262451171875 -0.1005859375 0.30707550048828125
0.2708740234375 -0.11181640625 0.3220977783203125
0.25537109375 -0.13916015625 0.27922821044921875
0.25732421875 -0.0885009765625 0.294952392578125
0.2694091796875 -0.0679931640625 0.34764862060546875
0.2803955078125 -0.082275390625 0.35223388671875
0.2606201171875 -0.14599609375 0.29836273193359375
0.2528076171875 -0.1263427734375 0.2502899169921875
0.2618408203125 -0.0548095703125 0.33654022216796875
0.0318603515625 -0.364013671875 0.41912841796875
0.0455322265625 -0.3773193359375 0.3840484619140625
0.0452880859375 -0.369140625 0.43454742431640625
0.0245361328125 -0.3453369140625 0.45993804931640625
0.018798828125 -0.3592529296875 0.4053497314453125
0.0274658203125 -0.38232421875 0.36125946044921875
0.0577392578125 -0.3780517578125 0.4052276611328125
0.0390625 -0.3551025390625 0.46897125244140625
0.0123291015625 -0.3355712890625 0.4497222900390625
0.3414306640625 0.55908203125 0.17774200439453125
0.3359375 0.5556640625 0.235870361328125
0.3399658203125 0.4967041015625 0.17681884765625
0.345947265625 0.5640869140625 0.11544036865234375
0.330322265625 0.619384765625 0.188934326171875
0.3304443359375 0.613525390625 0.24488067626953125
0.33154296875 0.4947509765625 0.2403717041015625
0.353271484375 0.4927978515625 0.10594940185546875
0.33544921875 0.6260986328125 0.12990570068359375
-0.486328125 -0.425048828125 0.29248809814453125
-0.4332275390625 -0.433349609375 0.3057708740234375
-0.4683837890625 -0.40625 0.3482513427734375
-0.52294921875 -0.409912109375 0.27484893798828125
-0.4976806640625 -0.4488525390625 0.2245025634765625
-0.4505615234375 -0.462158203125 0.2457733154296875
-0.4197998046875 -0.4078369140625 0.365570068359375
-0.515625 -0.3939208984375 0.3337860107421875
-0.5374755859375 -0.4256591796875 0.2115478515625
-0.0447998046875 0.1976318359375 -0.694854736328125
-0.065673828125 0.3114013671875 -0.7010955810546875
0.0084228515625 0.24951171875 -0.668792724609375
-0.02392578125 0.0936279296875 -0.685272216796875
-0.0958251953125 0.142333984375 -0.724822998046875
-0.1197509765625 0.25146484375 -0.725860595703125
-0.0074462890625 0.357421875 -0.6616363525390625
0.0260009765625 0.143798828125 -0.65535736083984375
-0.07763671875 0.0361328125 -0.70540618896484375
-0.258056640625 -0.065673828125 -0.69655609130859375
-0.3092041015625 -0.1346435546875 -0.6706695556640625
-0.2908935546875 0.026611328125 -0.71648406982421875
-0.2100830078125 0.005615234375 -0.7270965576171875
-0.2322998046875 -0.154052734375 -0.67266082763671875
-0.275146484375 -0.2130126953125 -0.6398162841796875
-0.3416748046875 -0.051025390625 -0.68637847900390625
-0.235107421875 0.108642578125 -0.73687744140625
-0.1837158203125 -0.091064453125 -0.69409942626953125
-0.3070068359375 0.79833984375 0.0253753662109375
-0.308837890625 0.7701416015625 0.1009368896484375
-0.24267578125 0.852783203125 0.03456878662109375
-0.29931640625 0.814697265625 -0.0524444580078125
-0.37158203125 0.72998046875 0.004150390625
-0.372802734375 0.7056884765625 0.07514190673828125
-0.24169921875 0.8311767578125 0.1132049560546875
-0.2386474609375 0.8704833984375 -0.0375823974609375
-0.361572265625 0.7445068359375 -0.0748291015625
-0.5428466796875 0.491943359375 -0.07993316650390625
-0.5880126953125 0.408203125 -0.11058807373046875
-0.5469970703125 0.4666748046875 -0.00348663330078125
-0.4937744140625 0.5712890625 -0.05072784423828125
-0.5345458984375 0.509521484375 -0.1574554443359375
-0.579833984375 0.4254150390625 -0.1859893798828125
-0.5888671875 0.3817138671875 -0.03942108154296875
-0.48974609375 0.5457763671875 0.03214263916015625
-0.4830322265625 0.590576171875 -0.1301116943359375
-0.250732421875 0.8179931640625 -0.29477691650390625
-0.277099609375 0.8248291015625 -0.2156219482421875
-0.1973876953125 0.8746337890625 -0.257904052734375
-0.2275390625 0.7916259765625 -0.3655853271484375
-0.3153076171875 0.7520751953125 -0.3330078125
-0.33447265625 0.7559814453125 -0.244354248046875
-0.213134765625 0.88232421875 -0.1926116943359375
-0.1744384765625 0.8511962890625 -0.3327178955078125
-0.2877197265625 0.7275390625 -0.4157562255859375
-0.4857177734375 0.507568359375 -0.39337158203125
-0.54541015625 0.424560546875 -0.4017791748046875
-0.50537109375 0.5157470703125 -0.3246917724609375
-0.42724609375 0.5887451171875 -0.38483428955078125
-0.4683837890625 0.4815673828125 -0.46916961669921875
-0.5230712890625 0.3975830078125 -0.470703125
-0.552490234375 0.4334716796875 -0.3280792236328125
-0.44921875 0.5989990234375 -0.30237579345703125
-0.3975830078125 0.5673828125 -0.4579010009765625
-0.1405029296875 0.614501953125 -0.584686279296875
-0.1693115234375 0.689697265625 -0.52162933349609375
-0.0828857421875 0.6627197265625 -0.54788970947265625
-0.11181640625 0.520751953125 -0.64119720458984375
-0.201416015625 0.5491943359375 -0.62192535400390625
-0.2325439453125 0.6236572265625 -0.56563568115234375
-0.1160888671875 0.7449951171875 -0.48369598388671875
-0.05126953125 0.56689453125 -0.602142333984375
-0.177734375 0.458984375 -0.67230987548828125
-0.381591796875 0.3016357421875 -0.665374755859375
-0.43310546875 0.21630859375 -0.64886474609375
-0.4122314453125 0.3839111328125 -0.599578857421875
-0.327392578125 0.3880615234375 -0.6699371337890625
-0.3544921875 0.2156982421875 -0.702301025390625
-0.404296875 0.12939453125 -0.6800994873046875
-0.4661865234375 0.2947998046875 -0.5995635986328125
-0.35400390625 0.464599609375 -0.60951995849609375
-0.299560546875 0.3011474609375 -0.7097015380859375
0.1611328125 0.8072509765625 0.360137939453125
0.166015625 0.8172607421875 0.39813232421875
0.1884765625 0.8082275390625 0.35213470458984375
0.15234375 0.8043212890625 0.3222503662109375
0.1346435546875 0.8009033203125 0.36730194091796875
0.1400146484375 0.808349609375 0.4062042236328125
0.1925048828125 0.82080078125 0.3914947509765625
0.177490234375 0.805419921875 0.31629180908203125
0.12841796875 0.798095703125 0.32464599609375
-0.638916015625 -0.1689453125 0.2846832275390625
-0.6419677734375 -0.20068359375 0.28392791748046875
-0.6458740234375 -0.176025390625 0.3217010498046875
-0.6297607421875 -0.13818359375 0.2828826904296875
-0.6370849609375 -0.15869140625 0.2408599853515625
-0.6419677734375 -0.18896484375 0.24042510986328125
-0.650634765625 -0.2073974609375 0.31951141357421875
-0.63427734375 -0.143798828125 0.32309722900390625
-0.6279296875 -0.1302490234375 0.2356719970703125
0.1162109375 0.85400390625 0.19915771484375
0.1256103515625 0.828125 0.239715576171875
0.146484375 0.85595703125 0.1956939697265625
0.1024169921875 0.8870849609375 0.14984130859375
0.0858154296875 0.853271484375 0.194183349609375
0.0975341796875 0.822265625 0.2435302734375
0.1497802734375 0.827880859375 0.2342376708984375
0.134033203125 0.88427734375 0.14920806884765625
0.0634765625 0.8843994140625 0.1452789306640625
-0.6617431640625 -0.1092529296875 0.06977081298828125
-0.6658935546875 -0.1485595703125 0.07823944091796875
-0.647216796875 -0.1275634765625 0.133087158203125
-0.6534423828125 -0.066650390625 0.0631866455078125
-0.6796875 -0.0850830078125 -0.00411224365234375
-0.6854248046875 -0.131591796875 0.00849151611328125
-0.6510009765625 -0.1650390625 0.13747406005859375
-0.6361083984375 -0.092529296875 0.124908447265625
-0.6683349609375 -0.0411376953125 -0.01160430908203125
0.081787109375 0.9549560546875 0.00652313232421875
0.08349609375 0.9371337890625 0.05707550048828125
0.1187744140625 0.944091796875 0.01137542724609375
0.0848388671875 0.9615478515625 -0.04579925537109375
0.0450439453125 0.9580078125 -0.00106048583984375
0.050537109375 0.940673828125 0.0442047119140625
0.121826171875 0.930419921875 0.06212615966796875
0.1141357421875 0.9517822265625 -0.03803253173828125
0.047607421875 0.9635009765625 -0.056488037109375
-0.7010498046875 -0.0469970703125 -0.19805145263671875
-0.7037353515625 -0.10400390625 -0.182403564453125
-0.6961669921875 -0.05615234375 -0.13373565673828125
-0.6968994140625 0.010009765625 -0.21320343017578125
-0.70263671875 -0.0419921875 -0.26263427734375
-0.7049560546875 -0.0980224609375 -0.24156951904296875
-0.702880859375 -0.109619140625 -0.124267578125
-0.68896484375 -0.0029296875 -0.14865875244140625
-0.6920166015625 0.0181884765625 -0.27999114990234375
0.1083984375 0.929931640625 -0.2183380126953125
0.1004638671875 0.949951171875 -0.160552978515625
0.137451171875 0.9183349609375 -0.20849609375
0.12451171875 0.904296875 -0.265869140625
0.0732421875 0.937255859375 -0.22274017333984375
0.064453125 0.9541015625 -0.1694183349609375
0.1302490234375 0.9354248046875 -0.14959716796875
0.1553955078125 0.893310546875 -0.25653839111328125
0.0947265625 0.9093017578125 -0.280242919921875
-0.669921875 -0.062744140625 -0.41359710693359375
-0.6790771484375 -0.11474609375 -0.3972625732421875
-0.682373046875 -0.0491943359375 -0.370208740234375
-0.664794921875 -0.003173828125 -0.43157958984375
-0.6571044921875 -0.0843505859375 -0.4584197998046875
-0.6656494140625 -0.133056640625 -0.4324951171875
-0.69189453125 -0.1043701171875 -0.3502960205078125
-0.6790771484375 0.012939453125 -0.385955810546875
-0.6505126953125 -0.0277099609375 -0.47918701171875
0.18115234375 0.7431640625 -0.39635467529296875
0.201416015625 0.665771484375 -0.43084716796875
0.154541015625 0.7384033203125 -0.42130279541015625
0.161376953125 0.810302734375 -0.36080169677734375
0.20166015625 0.7535400390625 -0.37105560302734375
0.2235107421875 0.6856689453125 -0.4023284912109375
0.17724609375 0.657470703125 -0.457061767578125
0.1280517578125 0.81005859375 -0.38097381591796875
0.1846923828125 0.8115234375 -0.334716796875
-0.594970703125 -0.2254638671875 -0.50179290771484375
-0.583251953125 -0.1839599609375 -0.5376434326171875
-0.5701904296875 -0.2862548828125 -0.490234375
-0.614013671875 -0.260986328125 -0.464599609375
-0.6199951171875 -0.16748046875 -0.503021240234375
-0.606689453125 -0.1199951171875 -0.53191375732421875
-0.556640625 -0.244140625 -0.52532958984375
-0.5865478515625 -0.318359375 -0.45046234130859375
-0.6319580078125 -0.2073974609375 -0.4730377197265625
0.0545654296875 0.7310791015625 -0.47368621826171875
0.014892578125 0.72119140625 -0.49163818359375
0.0234375 0.809814453125 -0.416656494140625
0.0875244140625 0.73486328125 -0.4579010009765625
0.0821533203125 0.6385498046875 -0.51871490478515625
0.0484619140625 0.6268310546875 -0.54482269287109375
-0.0179443359375 0.8023681640625 -0.4269256591796875
0.060302734375 0.8116455078125 -0.40544891357421875
0.1160888671875 0.6444091796875 -0.49566650390625
-0.533935546875 -0.0118408203125 -0.59957122802734375
-0.56640625 0.05810546875 -0.5742340087890625
-0.5115966796875 0.054931640625 -0.61641693115234375
-0.50732421875 -0.090087890625 -0.61017608642578125
-0.5550537109375 -0.06787109375 -0.5821380615234375
-0.5823974609375 -0.002197265625 -0.5607757568359375
-0.5465087890625 0.1324462890625 -0.578948974609375
-0.4805908203125 -0.029541015625 -0.63320159912109375
-0.525390625 -0.1444091796875 -0.5839691162109375
-0.045654296875 0.9461669921875 -0.22969818115234375
-0.0892333984375 0.93408203125 -0.22554779052734375
-0.0623779296875 0.9571533203125 -0.1673126220703125
-0.0013427734375 0.9482421875 -0.2342376708984375
-0.0284423828125 0.92138671875 -0.2915802001953125
-0.074951171875 0.9150390625 -0.29099273681640625
-0.107666015625 0.94921875 -0.16164398193359375
-0.0159912109375 0.9578857421875 -0.16962432861328125
0.0150146484375 0.9189453125 -0.2931976318359375
-0.6353759765625 0.1895751953125 -0.43465423583984375
-0.6473388671875 0.2022705078125 -0.37781524658203125
-0.6168212890625 0.2628173828125 -0.42688751220703125
-0.62060546875 0.1650390625 -0.48830413818359375
-0.6490478515625 0.1209716796875 -0.440216064453125
-0.6578369140625 0.1329345703125 -0.38787841796875
-0.6309814453125 0.2752685546875 -0.3663177490234375
-0.6016845703125 0.2376708984375 -0.48370361328125
-0.6275634765625 0.0966796875 -0.492034912109375
-0.0836181640625 0.945556640625 0.02033233642578125
-0.1339111328125 0.92724609375 0.03470611572265625
-0.0797119140625 0.9251708984375 0.07373046875
-0.033447265625 0.95263671875 0.001129150390625
-0.0780029296875 0.952392578125 -0.0383758544921875
-0.129150390625 0.9405517578125 -0.0339202880859375
-0.1265869140625 0.9071044921875 0.0945587158203125
-0.0361328125 0.9356689453125 0.05670166015625
-0.033935546875 0.96044921875 -0.04769134521484375
-0.66748046875 0.18994140625 -0.1942596435546875
-0.6669921875 0.1715087890625 -0.1276702880859375
-0.6510009765625 0.2574462890625 -0.17176055908203125
-0.6666259765625 0.2020263671875 -0.259185791015625
-0.6793212890625 0.1280517578125 -0.2124481201171875
-0.6737060546875 0.1116943359375 -0.14156341552734375
-0.6480712890625 0.2357177734375 -0.099151611328125
-0.64306640625 0.2711181640625 -0.23575592041015625
-0.6749267578125 0.1363525390625 -0.27091217041015625
-0.01904296875 0.823974609375 0.2381591796875
-0.0687255859375 0.7977294921875 0.26409149169921875
0.0008544921875 0.787353515625 0.2798919677734375
0.017578125 0.838134765625 0.213653564453125
-0.0482177734375 0.860595703125 0.18499755859375
-0.09521484375 0.838134765625 0.20599365234375
-0.042724609375 0.7608642578125 0.30333709716796875
0.036865234375 0.80322265625 0.2603912353515625
-0.0057373046875 0.873291015625 0.16928863525390625
-0.6259765625 0.0745849609375 0.096435546875
-0.611572265625 0.0377197265625 0.1606292724609375
-0.6055908203125 0.1343994140625 0.1225128173828125
-0.6434326171875 0.1124267578125 0.02198028564453125
-0.6395263671875 0.0247802734375 0.073486328125
-0.6251220703125 -0.010986328125 0.13825225830078125
-0.5889892578125 0.09130859375 0.1873016357421875
-0.62841796875 0.1734619140625 0.049713134765625
-0.65478515625 0.05712890625 -0.0030670166015625
0.0369873046875 0.751708984375 0.4054107666015625
0.0406494140625 0.7613525390625 0.44261932373046875
0.07373046875 0.771728515625 0.38531494140625
0.0321044921875 0.7501220703125 0.3660888671875
0.00341796875 0.7259521484375 0.4228057861328125
0.0010986328125 0.736083984375 0.45314788818359375
0.0802001953125 0.7801513671875 0.42649078369140625
0.0693359375 0.7724609375 0.3404541015625
-0.0074462890625 0.7264404296875 0.38571929931640625
-0.587646484375 -0.023681640625 0.31497955322265625
-0.60693359375 -0.06591796875 0.2973480224609375
-0.59814453125 -0.026611328125 0.35236358642578125
-0.5665283203125 0.0242919921875 0.33697509765625
-0.586669921875 -0.0133056640625 0.269775390625
-0.6036376953125 -0.057861328125 0.2513427734375
-0.61474609375 -0.07080078125 0.33582305908203125
-0.57763671875 0.0233154296875 0.370208740234375
-0.5635986328125 0.034423828125 0.29628753662109375
-0.242919921875 0.660888671875 0.29653167724609375
-0.20947265625 0.6168212890625 0.35174560546875
-0.17578125 0.7261962890625 0.2952880859375
-0.27197265625 0.702392578125 0.2281036376953125
-0.3084716796875 0.590087890625 0.2935791015625
-0.2794189453125 0.548583984375 0.36090087890625
-0.1480712890625 0.6834716796875 0.34453582763671875
-0.2052001953125 0.766357421875 0.23259735107421875
-0.3382568359375 0.633544921875 0.2243804931640625
-0.50048828125 0.3505859375 0.21939849853515625
-0.5472412109375 0.271240234375 0.18726348876953125
-0.4676513671875 0.304931640625 0.291107177734375
-0.4342041015625 0.432373046875 0.2568817138671875
-0.5201416015625 0.39501953125 0.15325164794921875
-0.5670166015625 0.314697265625 0.1178436279296875
-0.520751953125 0.2281494140625 0.251068115234375
-0.407470703125 0.3875732421875 0.3306884765625
-0.46630859375 0.474853515625 0.19191741943359375
-0.1761474609375 0.62451171875 0.5196075439453125
-0.1998291015625 0.5853271484375 0.52175140380859375
-0.200439453125 0.64208984375 0.52866363525390625
-0.1546630859375 0.6666259765625 0.52179718017578125
-0.1558837890625 0.609375 0.51110076904296875
-0.1866455078125 0.5577392578125 0.51232147216796875
-0.2176513671875 0.6085205078125 0.53533935546875
-0.18359375 0.675537109375 0.52984619140625
-0.125 0.6611328125 0.51093292236328125
-0.493408203125 0.23828125 0.45549774169921875
-0.5062255859375 0.26171875 0.45842742919921875
-0.4573974609375 0.2716064453125 0.47243499755859375
-0.479736328125 0.2193603515625 0.45208740234375
-0.5267333984375 0.2080078125 0.44366455078125
-0.53759765625 0.238525390625 0.4473876953125
-0.4791259765625 0.2862548828125 0.470672607421875
-0.4298095703125 0.256591796875 0.47296142578125
-0.52197265625 0.17236328125 0.43801116943359375
-0.1448974609375 0.575439453125 0.46076202392578125
-0.1358642578125 0.58349609375 0.48590087890625
-0.094970703125 0.6383056640625 0.453216552734375
-0.1605224609375 0.5748291015625 0.4308929443359375
-0.190673828125 0.5135498046875 0.47016143798828125
-0.177734375 0.5194091796875 0.491546630859375
-0.09619140625 0.644775390625 0.48236083984375
-0.1064453125 0.6395263671875 0.4222869873046875
-0.2177734375 0.5101318359375 0.44322967529296875
-0.4466552734375 0.2108154296875 0.4166412353515625
-0.49560546875 0.1480712890625 0.3887481689453125
-0.4539794921875 0.1993408203125 0.43643951416015625
-0.39111328125 0.2696533203125 0.44303131103515625
-0.4442138671875 0.2333984375 0.388641357421875
-0.49755859375 0.1634521484375 0.354888916015625
-0.505615234375 0.1424560546875 0.4138031005859375
-0.3958740234375 0.2535400390625 0.46018218994140625
-0.387939453125 0.3009033203125 0.42253875732421875
-0.24853515625 0.3983154296875 0.502349853515625
-0.2420654296875 0.3922119140625 0.511932373046875
-0.2440185546875 0.4193115234375 0.49596405029296875
-0.26025390625 0.3865966796875 0.4984893798828125
-0.2510986328125 0.3724365234375 0.511810302734375
-0.22998046875 0.421142578125 0.509765625
-0.2679443359375 0.4085693359375 0.4860687255859375
-0.2947998046875 0.340087890625 0.49626922607421875
-0.312744140625 0.332763671875 0.48677825927734375
-0.2886962890625 0.3302001953125 0.507293701171875
-0.283935546875 0.355224609375 0.49567413330078125
-0.3031005859375 0.36083984375 0.48130035400390625
-0.315185546875 0.314697265625 0.50223541259765625
-0.2730712890625 0.343994140625 0.5089569091796875
0.2684326171875 0.75244140625 0.26895904541015625
0.2689208984375 0.754638671875 0.31423187255859375
0.29736328125 0.71484375 0.24089813232421875
0.2607421875 0.755615234375 0.22925567626953125
0.2333984375 0.7779541015625 0.3071136474609375
0.24072265625 0.7850341796875 0.34676361083984375
0.2967529296875 0.716552734375 0.28307342529296875
0.296875 0.72265625 0.1894989013671875
0.2286376953125 0.7802734375 0.267242431640625
-0.614990234375 -0.312744140625 0.26336669921875
-0.5911865234375 -0.3494873046875 0.2613525390625
-0.60986328125 -0.3106689453125 0.3140411376953125
-0.6278076171875 -0.271484375 0.271331787109375
-0.6195068359375 -0.3157958984375 0.2119598388671875
-0.6009521484375 -0.35888671875 0.202117919921875
-0.5830078125 -0.343505859375 0.31383514404296875
-0.6292724609375 -0.2760009765625 0.314422607421875
-0.6331787109375 -0.270751953125 0.22144317626953125
0.245361328125 0.8045654296875 0.11333465576171875
0.2762451171875 0.7666015625 0.06219482421875
0.2392578125 0.826171875 0.074493408203125
0.2078857421875 0.8304443359375 0.15332794189453125
0.25390625 0.7833251953125 0.1475067138671875
0.2823486328125 0.7515869140625 0.0999298095703125
0.26953125 0.783935546875 0.03275299072265625
0.203125 0.8568115234375 0.11791229248046875
0.2177734375 0.8084716796875 0.18820953369140625
-0.65283203125 -0.294921875 0.0572967529296875
-0.6663818359375 -0.2872314453125 0.004852294921875
-0.6365966796875 -0.3497314453125 0.0462493896484375
-0.6458740234375 -0.3067626953125 0.1063385009765625
-0.6617431640625 -0.2442626953125 0.072906494140625
-0.67626953125 -0.2332763671875 0.01317596435546875
-0.64453125 -0.3453369140625 -0.00812530517578125
-0.624267578125 -0.3555908203125 0.0899658203125
-0.6514892578125 -0.2547607421875 0.12403106689453125
0.2205810546875 0.85693359375 -0.03601837158203125
0.2491455078125 0.8140869140625 -0.0746307373046875
0.218505859375 0.85498046875 -0.0843505859375
0.1890869140625 0.8941650390625 -0.01192474365234375
0.225341796875 0.85205078125 0.0014190673828125
0.2568359375 0.80810546875 -0.0352630615234375
0.2449951171875 0.81201171875 -0.11492156982421875
0.1832275390625 0.8958740234375 -0.05442047119140625
0.1951904296875 0.8905029296875 0.03411865234375
-0.6798095703125 -0.2666015625 -0.14971923828125
-0.682373046875 -0.265380859375 -0.20035552978515625
-0.66455078125 -0.320068359375 -0.147125244140625
-0.6776123046875 -0.2733154296875 -0.0984649658203125
-0.69677734375 -0.213623046875 -0.1584320068359375
-0.696533203125 -0.211181640625 -0.21051025390625
-0.6661376953125 -0.31689453125 -0.19573974609375
-0.65966796875 -0.32763671875 -0.09847259521484375
-0.69140625 -0.2164306640625 -0.1031951904296875
0.2222900390625 0.811279296875 -0.239898681640625
0.224853515625 0.788818359375 -0.29087066650390625
0.19873046875 0.8575439453125 -0.2169036865234375
0.2174072265625 0.8321533203125 -0.18497467041015625
0.2457275390625 0.76513671875 -0.257720947265625
0.24169921875 0.73779296875 -0.31195068359375
0.2030029296875 0.83447265625 -0.265594482421875
0.1942138671875 0.87451171875 -0.165008544921875
0.2432861328125 0.791259765625 -0.21065521240234375
-0.6531982421875 -0.28369140625 -0.3343048095703125
-0.666748046875 -0.229736328125 -0.35340118408203125
-0.6390380859375 -0.2886962890625 -0.37762451171875
-0.641845703125 -0.33251953125 -0.32578277587890625
-0.6697998046875 -0.2747802734375 -0.29302978515625
-0.6773681640625 -0.2198486328125 -0.3068084716796875
-0.65673828125 -0.236328125 -0.3913726806640625
-0.6220703125 -0.33837890625 -0.3627777099609375
-0.655029296875 -0.322265625 -0.28570556640625
0.2392578125 -0.055419921875 -0.03925323486328125
0.2286376953125 -0.1165771484375 -0.03224945068359375
0.22412109375 -0.056884765625 -0.12371063232421875
0.251220703125 0.0067138671875 -0.04871368408203125
0.2462158203125 -0.047607421875 0.04180908203125
0.238525390625 -0.1065673828125 0.05260467529296875
0.2158203125 -0.118896484375 -0.11602783203125
0.2374267578125 -0.000244140625 -0.1237030029296875
0.255615234375 0.02001953125 0.03667449951171875
-0.1185302734375 -0.47900390625 0.09468841552734375
-0.14794921875 -0.505615234375 0.023773193359375
-0.08349609375 -0.474853515625 0.09262847900390625
-0.1077880859375 -0.44970703125 0.18004608154296875
-0.1585693359375 -0.484375 0.10910797119140625
-0.1781005859375 -0.505859375 0.02617645263671875
-0.1099853515625 -0.502197265625 0.01495361328125
-0.05810546875 -0.449951171875 0.18365478515625
-0.1466064453125 -0.446533203125 0.182769775390625
0.2969970703125 0.1876220703125 -0.07007598876953125
0.3087158203125 0.220947265625 -0.002716064453125
0.277587890625 0.1279296875 -0.0615997314453125
0.285400390625 0.1636962890625 -0.13747406005859375
0.314697265625 0.243896484375 -0.08106231689453125
0.3248291015625 0.283935546875 -0.02178192138671875
0.286865234375 0.152587890625 0.0160369873046875
0.2723388671875 0.109130859375 -0.13323974609375
0.307861328125 0.2108154296875 -0.13758087158203125
-0.29296875 -0.5155029296875 0.1136627197265625
-0.244873046875 -0.4954833984375 0.11312103271484375
-0.2955322265625 -0.4910888671875 0.17276763916015625
-0.3331298828125 -0.5330810546875 0.10285186767578125
-0.2957763671875 -0.531005859375 0.043853759765625
-0.2510986328125 -0.5162353515625 0.036224365234375
-0.2442626953125 -0.47021484375 0.18061065673828125
-0.343505859375 -0.512451171875 0.158538818359375
-0.3289794921875 -0.543212890625 0.048492431640625
0.3057861328125 0.3077392578125 0.2081146240234375
0.3057861328125 0.32470703125 0.27175140380859375
0.2952880859375 0.249267578125 0.22997283935546875
0.3126220703125 0.2806396484375 0.1351318359375
0.3260498046875 0.3641357421875 0.1870574951171875
0.3179931640625 0.3831787109375 0.2539215087890625
0.2945556640625 0.2733154296875 0.29364776611328125
0.2933349609375 0.2177734375 0.1612701416015625
0.330322265625 0.34619140625 0.119384765625
-0.294677734375 -0.3966064453125 0.3619384765625
-0.24951171875 -0.3768310546875 0.38580322265625
-0.293701171875 -0.3680419921875 0.42188262939453125
-0.344482421875 -0.420166015625 0.3479766845703125
-0.301025390625 -0.4305419921875 0.29593658447265625
-0.243896484375 -0.407958984375 0.31941986083984375
-0.2509765625 -0.3468017578125 0.443328857421875
-0.336669921875 -0.388427734375 0.41045379638671875
-0.348876953125 -0.45556640625 0.2833099365234375
0.252197265625 0.10595703125 0.3359832763671875
0.2503662109375 0.12744140625 0.36887359619140625
0.2486572265625 0.074462890625 0.3746490478515625
0.2569580078125 0.0799560546875 0.30220794677734375
0.2628173828125 0.1484375 0.29650115966796875
0.262451171875 0.1712646484375 0.347442626953125
0.2457275390625 0.0899658203125 0.3972320556640625
0.2515869140625 0.050048828125 0.3507080078125
0.2674560546875 0.1158447265625 0.2458038330078125
-0.1021728515625 -0.300048828125 0.4615478515625
-0.0606689453125 -0.2816162109375 0.48796844482421875
-0.105712890625 -0.27880859375 0.491485595703125
-0.146728515625 -0.322998046875 0.43320465087890625
-0.093017578125 -0.320068359375 0.4308624267578125
-0.0550537109375 -0.30078125 0.463623046875
-0.0634765625 -0.2662353515625 0.508575439453125
-0.1529541015625 -0.298828125 0.47373199462890625
-0.1422119140625 -0.3475341796875 0.38639068603515625
0.2586669921875 -0.0223388671875 0.22515869140625
0.2579345703125 -0.0467529296875 0.24864959716796875
0.2547607421875 -0.0272216796875 0.18102264404296875
0.2613525390625 0.0072021484375 0.24127960205078125
0.2567138671875 -0.0140380859375 0.28871917724609375
0.2530517578125 -0.07373046875 0.19718170166015625
0.2630615234375 0.025390625 0.18289947509765625
-0.055908203125 -0.37255859375 0.35399627685546875
-0.06787109375 -0.39306640625 0.3191070556640625
-0.03076171875 -0.3670654296875 0.3732147216796875
-0.066650390625 -0.35791015625 0.3708648681640625
-0.1029052734375 -0.3856201171875 0.326629638671875
-0.0355224609375 -0.3941650390625 0.32411956787109375
-0.033935546875 -0.340576171875 0.41007232666015625
0.234130859375 0.13134765625 0.43410491943359375
0.23291015625 0.149169921875 0.43634033203125
0.22607421875 0.1102294921875 0.4450531005859375
0.2396240234375 0.1378173828125 0.42250823974609375
0.2425537109375 0.1707763671875 0.41678619384765625
0.224365234375 0.123046875 0.4502716064453125
0.23095703125 0.105712890625 0.435699462890625
-0.0880126953125 -0.2337646484375 0.53453826904296875
-0.066650390625 -0.2252197265625 0.54189300537109375
-0.102783203125 -0.2359619140625 0.53638458251953125
-0.0970458984375 -0.2452392578125 0.52779388427734375
-0.0643310546875 -0.2357177734375 0.53647613525390625
-0.0732421875 -0.2215576171875 0.54625701904296875
-0.1240234375 -0.253662109375 0.52764892578125
0.2333984375 0.408935546875 -0.47397613525390625
0.259033203125 0.4296875 -0.44661712646484375
0.23583984375 0.323974609375 -0.45571136474609375
0.2080078125 0.3883056640625 -0.4981231689453125
0.223876953125 0.498046875 -0.46346282958984375
0.2506103515625 0.51806640625 -0.4366302490234375
0.265625 0.3463134765625 -0.4375152587890625
0.21337890625 0.2991943359375 -0.49001312255859375
0.2012939453125 0.4803466796875 -0.49222564697265625
-0.46923828125 -0.437744140625 -0.41577911376953125
-0.4339599609375 -0.474853515625 -0.3719329833984375
-0.483154296875 -0.465576171875 -0.37949371337890625
-0.5093994140625 -0.3941650390625 -0.45148468017578125
-0.4481201171875 -0.407470703125 -0.4514312744140625
-0.4130859375 -0.4498291015625 -0.4052276611328125
-0.455810546875 -0.5009765625 -0.335968017578125
-0.527587890625 -0.4239501953125 -0.4139556884765625
-0.493408203125 -0.35986328125 -0.4893951416015625
0.1318359375 0.3399658203125 -0.5738677978515625
0.1248779296875 0.441162109375 -0.5676116943359375
0.15966796875 0.3580322265625 -0.5469818115234375
0.1336669921875 0.2481689453125 -0.56406402587890625
0.097900390625 0.319091796875 -0.60565948486328125
0.0870361328125 0.422119140625 -0.5944366455078125
0.151611328125 0.4508056640625 -0.5461273193359375
0.1539306640625 0.26123046875 -0.5428924560546875
0.1103515625 0.2237548828125 -0.5920562744140625
-0.396484375 -0.2979736328125 -0.5660247802734375
-0.4146728515625 -0.3382568359375 -0.52451324462890625
-0.433837890625 -0.2357177734375 -0.588714599609375
-0.3726806640625 -0.25439453125 -0.5973968505859375
-0.3634033203125 -0.35302734375 -0.532012939453125
-0.3779296875 -0.388427734375 -0.489654541015625
-0.4549560546875 -0.2811279296875 -0.5563812255859375
-0.408203125 -0.1846923828125 -0.62143707275390625
-0.3427734375 -0.31396484375 -0.5607147216796875
0.2576904296875 0.16845703125 -0.3279266357421875
0.26904296875 0.151611328125 -0.26755523681640625
0.2392578125 0.12744140625 -0.3371734619140625
0.248046875 0.2017822265625 -0.384765625
0.280517578125 0.201904296875 -0.3138427734375
0.2908935546875 0.18798828125 -0.256439208984375
0.253662109375 0.1085205078125 -0.27274322509765625
0.223388671875 0.1666259765625 -0.40227508544921875
0.2718505859375 0.2314453125 -0.36928558349609375
-0.3369140625 -0.5369873046875 -0.183380126953125
-0.311767578125 -0.5208740234375 -0.2039337158203125
-0.3162841796875 -0.54150390625 -0.1026611328125
-0.3590087890625 -0.5567626953125 -0.1616668701171875
-0.3663330078125 -0.52392578125 -0.2547760009765625
-0.341796875 -0.5074462890625 -0.28736114501953125
-0.2847900390625 -0.525390625 -0.12038421630859375
-0.345458984375 -0.558837890625 -0.08374786376953125
-0.387939453125 -0.54833984375 -0.23143768310546875
