# XYZ point cloud file
-0.3870391845703125 0.28324127197265625 0.455322265625
-0.3905029296875 0.28095245361328125 0.4437255859375
-0.3946075439453125 0.2516326904296875 0.4588623046875
-0.3900604248046875 0.25647735595703125 0.4696044921875
0.17327880859375 0.4573211669921875 0.525390625
0.174041748046875 0.4569549560546875 0.519287109375
0.1570892333984375 0.459625244140625 0.52587890625
0.172088623046875 0.45703887939453125 0.5294189453125
0.18896484375 0.4514617919921875 0.5260009765625
0.190399169921875 0.45140838623046875 0.5211181640625
0.1575469970703125 0.459381103515625 0.5201416015625
0.1569671630859375 0.4593658447265625 0.530029296875
0.187530517578125 0.45064544677734375 0.5306396484375
-0.3634033203125 0.32045745849609375 0.4427490234375
-0.3499298095703125 0.32940673828125 0.4456787109375
-0.3637237548828125 0.3195343017578125 0.4365234375
-0.374542236328125 0.30925750732421875 0.4429931640625
-0.3624114990234375 0.32062530517578125 0.44873046875
-0.3496551513671875 0.3294525146484375 0.451171875
-0.3500518798828125 0.328582763671875 0.4395751953125
-0.37567138671875 0.30821990966796875 0.4359130859375
-0.373046875 0.3096771240234375 0.448486328125
0.1142120361328125 0.4482269287109375 0.52978515625
0.1131744384765625 0.4474029541015625 0.5244140625
0.1039886474609375 0.43808746337890625 0.5330810546875
0.1151123046875 0.4479827880859375 0.5345458984375
0.127044677734375 0.4547271728515625 0.5286865234375
0.1266326904296875 0.45446014404296875 0.52294921875
0.10235595703125 0.43768310546875 0.5277099609375
0.1053466796875 0.43807220458984375 0.5380859375
0.1276702880859375 0.45478057861328125 0.532958984375
-0.3072662353515625 0.33984375 0.4664306640625
-0.2938995361328125 0.33868408203125 0.4752197265625
-0.3062591552734375 0.3395538330078125 0.460205078125
-0.3217315673828125 0.3394317626953125 0.4580078125
-0.3080902099609375 0.33983612060546875 0.472412109375
-0.29498291015625 0.33826446533203125 0.4801025390625
-0.291961669921875 0.3382720947265625 0.4688720703125
-0.320953369140625 0.33892822265625 0.45166015625
-0.322296142578125 0.339141845703125 0.4632568359375
0.087127685546875 0.39588165283203125 0.54345703125
0.0856170654296875 0.39434051513671875 0.5389404296875
0.0870819091796875 0.380828857421875 0.5498046875
0.0884857177734375 0.39716339111328125 0.548828125
0.0895843505859375 0.4117279052734375 0.54052734375
0.088134765625 0.41043853759765625 0.5341796875
0.0851898193359375 0.3782806396484375 0.5439453125
0.0890045166015625 0.38237762451171875 0.5533447265625
0.091552734375 0.41211700439453125 0.5455322265625
-0.257904052734375 0.31333160400390625 0.501953125
-0.250213623046875 0.2996673583984375 0.5101318359375
-0.2556915283203125 0.3122100830078125 0.4957275390625
-0.2679595947265625 0.32410430908203125 0.4927978515625
-0.259674072265625 0.31366729736328125 0.50634765625
-0.252227783203125 0.30066680908203125 0.51513671875
-0.2476654052734375 0.29837799072265625 0.5062255859375
-0.265869140625 0.32308197021484375 0.488037109375
-0.2700347900390625 0.3243408203125 0.496826171875
0.104156494140625 0.3350677490234375 0.564208984375
0.102294921875 0.3309173583984375 0.559326171875
0.1147003173828125 0.32279205322265625 0.5692138671875
0.1055145263671875 0.33853912353515625 0.568115234375
0.0960235595703125 0.3491973876953125 0.5601806640625
0.0939788818359375 0.34586334228515625 0.5546875
0.1133880615234375 0.3187408447265625 0.5633544921875
0.116058349609375 0.32659149169921875 0.5721435546875
0.09747314453125 0.35129547119140625 0.5640869140625
-0.2423858642578125 0.2592620849609375 0.5360107421875
-0.2458343505859375 0.2454986572265625 0.542724609375
-0.2394256591796875 0.256103515625 0.5322265625
-0.2422332763671875 0.272796630859375 0.5281982421875
-0.2447052001953125 0.2611541748046875 0.539306640625
-0.2480316162109375 0.247772216796875 0.5447998046875
-0.2427978515625 0.24221038818359375 0.5382080078125
-0.2391204833984375 0.27072906494140625 0.524169921875
-0.2447509765625 0.2745819091796875 0.531005859375
0.1567230224609375 0.299957275390625 0.57275390625
0.1567230224609375 0.29508209228515625 0.568115234375
0.1717071533203125 0.297210693359375 0.5723876953125
0.156280517578125 0.3038482666015625 0.575927734375
0.14105224609375 0.30541229248046875 0.5738525390625
0.1405029296875 0.30013275146484375 0.56884765625
0.1719970703125 0.292022705078125 0.568359375
0.1713409423828125 0.30115509033203125 0.575439453125
0.1419830322265625 0.30928802490234375 0.576904296875
-0.269744873046875 0.211029052734375 0.5509033203125
-0.2817230224609375 0.20291900634765625 0.5494384765625
-0.268096923828125 0.20670318603515625 0.546875
-0.259490966796875 0.22138214111328125 0.5499267578125
-0.27117919921875 0.21459197998046875 0.5533447265625
-0.2829437255859375 0.20658111572265625 0.552490234375
-0.2805633544921875 0.19835662841796875 0.5457763671875
-0.257415771484375 0.21721649169921875 0.54638671875
-0.261566162109375 0.2244873046875 0.5528564453125
0.2145843505859375 0.30580902099609375 0.5660400390625
0.216583251953125 0.3012542724609375 0.5615234375
0.22607421875 0.3150787353515625 0.5621337890625
0.2132720947265625 0.30936431884765625 0.5697021484375
0.2019500732421875 0.30011749267578125 0.56982421875
0.2029571533203125 0.29534912109375 0.5655517578125
0.22821044921875 0.31066131591796875 0.557861328125
0.2240753173828125 0.31862640380859375 0.566162109375
0.200347900390625 0.30389404296875 0.5728759765625
-0.3267364501953125 0.193450927734375 0.5333251953125
-0.3418121337890625 0.194488525390625 0.5252685546875
-0.3268890380859375 0.1890106201171875 0.5302734375
-0.3107757568359375 0.19359588623046875 0.541259765625
-0.3263092041015625 0.1963958740234375 0.536865234375
-0.3406219482421875 0.1981658935546875 0.528564453125
-0.3425140380859375 0.18994903564453125 0.5224609375
-0.3104248046875 0.1891937255859375 0.5377197265625
-0.3112030029296875 0.19753265380859375 0.543701171875
0.2440643310546875 0.35443115234375 0.548583984375
0.2467803955078125 0.35149383544921875 0.5445556640625
0.2439727783203125 0.36943817138671875 0.544189453125
0.2411346435546875 0.35643768310546875 0.5517578125
0.2412567138671875 0.3400421142578125 0.55419921875
0.24407958984375 0.3357696533203125 0.5487060546875
0.2471466064453125 0.36721038818359375 0.5389404296875
0.2410125732421875 0.3709716796875 0.5484619140625
0.2381744384765625 0.34285736083984375 0.556884765625
-0.3773193359375 0.21581268310546875 0.4957275390625
-0.3848724365234375 0.22751617431640625 0.4857177734375
-0.3787841796875 0.211822509765625 0.4912109375
-0.36712646484375 0.20578765869140625 0.5059814453125
-0.3752288818359375 0.21881103515625 0.4989013671875
-0.3825531005859375 0.230499267578125 0.4896240234375
-0.3875732421875 0.22429656982421875 0.4805908203125
-0.3683319091796875 0.2016143798828125 0.5010986328125
-0.36553955078125 0.2096405029296875 0.5089111328125
0.2186737060546875 0.36583709716796875 0.560546875
0.2131805419921875 0.360382080078125 0.564208984375
0.22784423828125 0.3628387451171875 0.55908203125
0.2144012451171875 0.37506103515625 0.5601806640625
0.200042724609375 0.37248992919921875 0.5640869140625
0.2244873046875 0.35211944580078125 0.56298828125
0.226409912109375 0.37519073486328125 0.555908203125
-0.358306884765625 0.23607635498046875 0.5093994140625
-0.365478515625 0.22975921630859375 0.505859375
-0.350616455078125 0.23410797119140625 0.5152587890625
-0.3590087890625 0.24536895751953125 0.505859375
-0.3705291748046875 0.239532470703125 0.49853515625
-0.3567657470703125 0.22289276123046875 0.5142822265625
-0.3444976806640625 0.2491302490234375 0.5130615234375
0.1990966796875 0.33283233642578125 0.5736083984375
0.2050018310546875 0.323822021484375 0.573974609375
0.2018280029296875 0.34159088134765625 0.571533203125
0.1892547607421875 0.33373260498046875 0.5750732421875
0.193756103515625 0.31990814208984375 0.5758056640625
0.2126922607421875 0.332183837890625 0.56982421875
0.186553955078125 0.35021209716796875 0.5728759765625
-0.3236541748046875 0.2198486328125 0.5369873046875
-0.330657958984375 0.2246246337890625 0.5308837890625
-0.3249969482421875 0.2111358642578125 0.5389404296875
-0.3156585693359375 0.22509765625 0.5394287109375
-0.3213348388671875 0.23749542236328125 0.5322265625
-0.336181640625 0.21295928955078125 0.5301513671875
-0.312774658203125 0.2125701904296875 0.5433349609375
0.157806396484375 0.32851409912109375 0.5797119140625
0.1506195068359375 0.33551788330078125 0.580322265625
0.1571197509765625 0.31945037841796875 0.5799560546875
0.165771484375 0.3318023681640625 0.5799560546875
0.159454345703125 0.34716033935546875 0.5771484375
0.1457672119140625 0.32472991943359375 0.5802001953125
0.168975830078125 0.3180694580078125 0.5791015625
-0.28399658203125 0.23351287841796875 0.5496826171875
-0.27862548828125 0.2258148193359375 0.5528564453125
-0.2817840576171875 0.2420654296875 0.5458984375
-0.2933807373046875 0.23278045654296875 0.5462646484375
-0.288970947265625 0.22039031982421875 0.5509033203125
-0.2716522216796875 0.23480224609375 0.551025390625
-0.2956085205078125 0.2474212646484375 0.5391845703125
0.121490478515625 0.35329437255859375 0.573974609375
0.12060546875 0.36293792724609375 0.572509765625
0.1144561767578125 0.3479766845703125 0.5731201171875
0.1298980712890625 0.34981536865234375 0.5767822265625
0.135406494140625 0.3643035888671875 0.57470703125
0.1089324951171875 0.3586578369140625 0.570068359375
0.12384033203125 0.3389434814453125 0.5771484375
-0.2649993896484375 0.26761627197265625 0.537353515625
-0.2564239501953125 0.26557159423828125 0.5399169921875
-0.268707275390625 0.27490234375 0.5325927734375
-0.27069091796875 0.26190948486328125 0.539306640625
-0.2602996826171875 0.25585174560546875 0.543701171875
-0.25732421875 0.2761383056640625 0.53369140625
-0.282318115234375 0.270111083984375 0.532470703125
0.10906982421875 0.39606475830078125 0.5596923828125
0.1145782470703125 0.402740478515625 0.559326171875
0.10028076171875 0.397491455078125 0.5567626953125
0.113311767578125 0.3876495361328125 0.5640869140625
0.127105712890625 0.39324951171875 0.564453125
0.1037445068359375 0.408416748046875 0.5540771484375
0.101470947265625 0.38509368896484375 0.560791015625
-0.2759552001953125 0.30498504638671875 0.514404296875
-0.2694244384765625 0.30927276611328125 0.512939453125
-0.284423828125 0.3086090087890625 0.511962890625
-0.275115966796875 0.296478271484375 0.5196533203125
-0.2640380859375 0.29862213134765625 0.51904296875
-0.2782745361328125 0.31650543212890625 0.506103515625
-0.290069580078125 0.29509735107421875 0.51904296875
0.12841796875 0.43164825439453125 0.54931640625
0.1376190185546875 0.43114471435546875 0.55126953125
0.1230010986328125 0.4390106201171875 0.545166015625
0.1256561279296875 0.42360687255859375 0.553466796875
0.1399078369140625 0.41655731201171875 0.5579833984375
0.133392333984375 0.44382476806640625 0.54443359375
0.115386962890625 0.43047332763671875 0.54833984375
-0.311279296875 0.32357025146484375 0.4898681640625
-0.31011962890625 0.3314666748046875 0.484375
-0.3189697265625 0.3195037841796875 0.4898681640625
-0.3050079345703125 0.31845855712890625 0.4969482421875
-0.299591064453125 0.3284912109375 0.4908447265625
-0.3215179443359375 0.32987213134765625 0.47802734375
-0.313385009765625 0.30722808837890625 0.5006103515625
0.168731689453125 0.43764495849609375 0.545654296875
0.175933837890625 0.43122100830078125 0.54736328125
0.1699371337890625 0.44647216796875 0.540283203125
0.1605224609375 0.43475341796875 0.5484619140625
0.1667938232421875 0.4203338623046875 0.55419921875
0.1821136474609375 0.44051361083984375 0.5411376953125
0.15771484375 0.44692230224609375 0.541015625
-0.3497772216796875 0.30944061279296875 0.4736328125
-0.3552703857421875 0.3141937255859375 0.464599609375
-0.35284423828125 0.30109405517578125 0.477783203125
-0.3408966064453125 0.31179046630859375 0.47998046875
-0.3448028564453125 0.32110595703125 0.468017578125
-0.36285400390625 0.3050537109375 0.4652099609375
-0.3388214111328125 0.2987213134765625 0.4910888671875
0.20703125 0.4107666015625 0.550048828125
0.207550048828125 0.401519775390625 0.5538330078125
0.21453857421875 0.4141082763671875 0.5460205078125
0.1980438232421875 0.41492462158203125 0.5506591796875
0.1921539306640625 0.4033660888671875 0.5576171875
0.2198333740234375 0.40222930908203125 0.549560546875
0.2051849365234375 0.42371368408203125 0.54443359375
-0.3693084716796875 0.27294158935546875 0.4827880859375
-0.37799072265625 0.272552490234375 0.474609375
-0.3650360107421875 0.26580047607421875 0.4906005859375
-0.36370849609375 0.2803192138671875 0.4830322265625
-0.374755859375 0.283447265625 0.4703369140625
-0.377105712890625 0.26178741455078125 0.4827880859375
-0.351898193359375 0.2734527587890625 0.496337890625
0.1439208984375 -0.600067138671875 0.6824951171875
0.166748046875 -0.59951019287109375 0.6678466796875
0.14581298828125 -0.58636474609375 0.693359375
0.1201629638671875 -0.6000518798828125 0.6966552734375
0.1401824951171875 -0.612884521484375 0.6707763671875
0.1640472412109375 -0.6127471923828125 0.65576171875
0.1677093505859375 -0.58545684814453125 0.6805419921875
0.1227264404296875 -0.58693695068359375 0.705322265625
0.1156005859375 -0.6128692626953125 0.6851806640625
0.040924072265625 -0.59632110595703125 0.7303466796875
0.0474700927734375 -0.5835113525390625 0.7391357421875
0.014404296875 -0.59369659423828125 0.7391357421875
0.0345611572265625 -0.60909271240234375 0.719970703125
0.0671234130859375 -0.59881591796875 0.7193603515625
0.0724639892578125 -0.5858306884765625 0.728515625
0.0225067138671875 -0.58038330078125 0.7471923828125
0.007232666015625 -0.60576629638671875 0.7291259765625
0.061431884765625 -0.6109619140625 0.710205078125
0.2228851318359375 -0.5944671630859375 0.6300048828125
0.237030029296875 -0.58972930908203125 0.62109375
0.219635009765625 -0.57920074462890625 0.646484375
0.2070465087890625 -0.5970611572265625 0.6409912109375
0.2240447998046875 -0.6082763671875 0.61328125
0.239166259765625 -0.60425567626953125 0.6016845703125
0.23162841796875 -0.5737152099609375 0.6397705078125
0.204620361328125 -0.58235931396484375 0.6558837890625
0.2063140869140625 -0.61057281494140625 0.6259765625
-0.0523834228515625 -0.586029052734375 0.7569580078125
-0.0373382568359375 -0.57114410400390625 0.7646484375
-0.0693817138671875 -0.58019256591796875 0.76025390625
-0.0661163330078125 -0.59814453125 0.74609375
-0.0318756103515625 -0.5892333984375 0.7510986328125
-0.0195465087890625 -0.5760650634765625 0.75927734375
-0.0527801513671875 -0.56499481201171875 0.7681884765625
-0.084686279296875 -0.59333038330078125 0.7501220703125
-0.04327392578125 -0.6015777587890625 0.74169921875
0.263427734375 -0.55615234375 0.6053466796875
0.267181396484375 -0.537384033203125 0.603271484375
0.2546539306640625 -0.536224365234375 0.6273193359375
0.2573394775390625 -0.570953369140625 0.6080322265625
0.267425537109375 -0.57199859619140625 0.5811767578125
0.2711944580078125 -0.55330657958984375 0.5780029296875
0.2583770751953125 -0.51686859130859375 0.6258544921875
0.24945068359375 -0.55268096923828125 0.6304931640625
0.26055908203125 -0.587493896484375 0.58544921875
-0.1029205322265625 -0.5481719970703125 0.762939453125
-0.082244873046875 -0.529815673828125 0.7724609375
-0.1099090576171875 -0.5307769775390625 0.7623291015625
-0.1219024658203125 -0.5626983642578125 0.7506103515625
-0.094696044921875 -0.56280517578125 0.76416015625
-0.07470703125 -0.54518890380859375 0.7718505859375
-0.08837890625 -0.51192474365234375 0.7708740234375
-0.12841796875 -0.54535675048828125 0.747802734375
-0.113006591796875 -0.57743072509765625 0.7515869140625
0.26666259765625 -0.45531463623046875 0.60205078125
0.2602386474609375 -0.4200286865234375 0.599853515625
0.256591796875 -0.4405364990234375 0.6251220703125
0.2686920166015625 -0.48651885986328125 0.6005859375
0.2689971923828125 -0.4655609130859375 0.5750732421875
0.26312255859375 -0.42714691162109375 0.5751953125
0.2510833740234375 -0.4088592529296875 0.6241455078125
0.2596893310546875 -0.4681549072265625 0.6248779296875
0.2715606689453125 -0.4998779296875 0.5765380859375
-0.12115478515625 -0.459136962890625 0.7459716796875
-0.09967041015625 -0.4445037841796875 0.7579345703125
-0.123565673828125 -0.42731475830078125 0.736083984375
-0.13970947265625 -0.4695892333984375 0.7288818359375
-0.1184539794921875 -0.48632049560546875 0.75341796875
-0.09637451171875 -0.4689483642578125 0.7628173828125
-0.1018218994140625 -0.41473388671875 0.748291015625
-0.141876220703125 -0.4363861083984375 0.7169189453125
-0.137115478515625 -0.49915313720703125 0.73681640625
0.2308502197265625 -0.29347991943359375 0.5882568359375
0.219268798828125 -0.25078582763671875 0.584716796875
0.2213134765625 -0.28557586669921875 0.6129150390625
0.241668701171875 -0.33827972412109375 0.5946044921875
0.235992431640625 -0.2986602783203125 0.5621337890625
0.224639892578125 -0.2571868896484375 0.5572509765625
0.2089385986328125 -0.2436065673828125 0.6094970703125
0.2326202392578125 -0.33022308349609375 0.617919921875
0.2451171875 -0.34362030029296875 0.5667724609375
-0.1322174072265625 -0.313385009765625 0.6927490234375
-0.1104736328125 -0.30410003662109375 0.70751953125
-0.1344146728515625 -0.27447509765625 0.675537109375
-0.1497802734375 -0.3208160400390625 0.6719970703125
-0.1293792724609375 -0.35318756103515625 0.7088623046875
-0.107269287109375 -0.3441009521484375 0.724853515625
-0.114105224609375 -0.2645263671875 0.6912841796875
-0.1511383056640625 -0.28275299072265625 0.653564453125
-0.1472625732421875 -0.359893798828125 0.68896484375
0.1859283447265625 0.0532989501953125 0.5189208984375
0.1933441162109375 0.02837371826171875 0.49462890625
0.2218017578125 0.0654754638671875 0.5018310546875
0.1768341064453125 0.08083343505859375 0.542236328125
0.153717041015625 0.0412445068359375 0.536376953125
0.1629486083984375 0.01512908935546875 0.5079345703125
0.2291412353515625 0.0403289794921875 0.4798583984375
0.2147064208984375 0.0917205810546875 0.5213623046875
0.141693115234375 0.0714874267578125 0.5615234375
-0.214935302734375 -0.0094757080078125 0.5404052734375
-0.2570648193359375 -0.010650634765625 0.526123046875
-0.2222137451171875 -0.03536224365234375 0.5201416015625
-0.1769561767578125 -0.00891876220703125 0.555908203125
-0.208343505859375 0.01976776123046875 0.5574951171875
-0.2519683837890625 0.01508331298828125 0.53955078125
-0.2632598876953125 -0.03517913818359375 0.50830078125
-0.186431884765625 -0.0361785888671875 0.5321044921875
-0.1667938232421875 0.0226593017578125 0.5775146484375
0.326416015625 0.1192779541015625 0.4642333984375
0.33184814453125 0.09897613525390625 0.44873046875
0.3570404052734375 0.1442108154296875 0.45458984375
0.319091796875 0.1408538818359375 0.4781494140625
0.29461669921875 0.09798431396484375 0.4744873046875
0.300262451171875 0.07656097412109375 0.4581298828125
0.362030029296875 0.12419891357421875 0.4378662109375
0.34820556640625 0.1651153564453125 0.4691162109375
0.2871856689453125 0.12099456787109375 0.4913330078125
-0.3817596435546875 -0.003509521484375 0.4775390625
-0.4181060791015625 0.003875732421875 0.4599609375
-0.383941650390625 -0.02336883544921875 0.4669189453125
-0.3416900634765625 -0.0089111328125 0.494140625
-0.377532958984375 0.0176849365234375 0.486572265625
-0.4144287109375 0.024444580078125 0.4686279296875
-0.4202117919921875 -0.014373779296875 0.4498291015625
-0.3454437255859375 -0.0294342041015625 0.4825439453125
-0.337371826171875 0.0129547119140625 0.5048828125
0.4308013916015625 0.23694610595703125 0.42333984375
0.44024658203125 0.21994781494140625 0.4058837890625
0.4477996826171875 0.27434539794921875 0.4161376953125
0.4181671142578125 0.25354766845703125 0.440185546875
0.4097442626953125 0.2029266357421875 0.433837890625
0.4167938232421875 0.18526458740234375 0.41796875
0.45880126953125 0.25916290283203125 0.3975830078125
0.4330902099609375 0.28911590576171875 0.43408203125
0.3992156982421875 0.2213897705078125 0.4490966796875
-0.51971435546875 0.04360198974609375 0.38720703125
-0.5474700927734375 0.06272125244140625 0.359375
-0.525177001953125 0.025634765625 0.3734130859375
-0.48809814453125 0.02762603759765625 0.415771484375
-0.5109100341796875 0.063232421875 0.4002685546875
-0.5370025634765625 0.08014678955078125 0.374267578125
-0.5547637939453125 0.04459381103515625 0.3436279296875
-0.4919586181640625 0.00942230224609375 0.402099609375
-0.481689453125 0.04669189453125 0.4256591796875
0.461212158203125 0.41040802001953125 0.424072265625
0.474822998046875 0.405059814453125 0.4088134765625
0.4531402587890625 0.45465850830078125 0.4351806640625
0.44427490234375 0.4122772216796875 0.439453125
0.4629669189453125 0.3621063232421875 0.4163818359375
0.4767303466796875 0.35260772705078125 0.399169921875
0.4665985107421875 0.45432281494140625 0.42138671875
0.4370574951171875 0.4527130126953125 0.4471435546875
0.4462738037109375 0.36846160888671875 0.4315185546875
-0.60296630859375 0.14772796630859375 0.295654296875
-0.6112518310546875 0.18195343017578125 0.28271484375
-0.6149139404296875 0.1367645263671875 0.275390625
-0.589630126953125 0.11565399169921875 0.3118896484375
-0.587799072265625 0.1599884033203125 0.31494140625
-0.5953826904296875 0.18910980224609375 0.303466796875
-0.622894287109375 0.17308807373046875 0.2633056640625
-0.6003875732421875 0.1009521484375 0.292724609375
-0.575897216796875 0.1296844482421875 0.3304443359375
0.4075775146484375 0.5348358154296875 0.458984375
0.4162445068359375 0.53948211669921875 0.444580078125
0.3827667236328125 0.54637908935546875 0.4620361328125
0.396514892578125 0.52634429931640625 0.4697265625
0.4264984130859375 0.51741790771484375 0.453369140625
0.437347412109375 0.52104949951171875 0.4404296875
0.3895721435546875 0.54998779296875 0.447021484375
0.374847412109375 0.53891754150390625 0.47509765625
0.4142303466796875 0.50899505615234375 0.463134765625
-0.5966339111328125 0.259002685546875 0.2750244140625
-0.580474853515625 0.279693603515625 0.278076171875
-0.6042938232421875 0.2552490234375 0.252685546875
-0.60809326171875 0.23735809326171875 0.273193359375
-0.5854644775390625 0.25821685791015625 0.295166015625
-0.571380615234375 0.27819061279296875 0.2998046875
-0.585662841796875 0.277069091796875 0.255615234375
-0.6176300048828125 0.2330780029296875 0.2513427734375
-0.5938873291015625 0.23879241943359375 0.29345703125
0.272796630859375 0.587310791015625 0.463623046875
0.279022216796875 0.589752197265625 0.4466552734375
0.2299957275390625 0.6031646728515625 0.4619140625
0.2669677734375 0.58026885986328125 0.4761962890625
0.314697265625 0.5717620849609375 0.46337890625
0.32025146484375 0.573822021484375 0.447021484375
0.236236572265625 0.60517120361328125 0.4447021484375
0.2247467041015625 0.59615325927734375 0.475341796875
0.30853271484375 0.56455230712890625 0.47607421875
-0.5053558349609375 0.3617095947265625 0.29150390625
-0.476318359375 0.39386749267578125 0.293212890625
-0.5084075927734375 0.35929107666015625 0.2677001953125
-0.533843994140625 0.330230712890625 0.2886962890625
-0.500030517578125 0.35951995849609375 0.3133544921875
-0.47052001953125 0.39105224609375 0.314453125
-0.47900390625 0.39083099365234375 0.2711181640625
-0.536407470703125 0.3281707763671875 0.2642822265625
-0.5279388427734375 0.3287353515625 0.3095703125
0.115478515625 0.6506805419921875 0.447021484375
0.12030029296875 0.656036376953125 0.426513671875
0.08441162109375 0.66269683837890625 0.4420166015625
0.113372802734375 0.639007568359375 0.462158203125
0.150848388671875 0.63619232177734375 0.4520263671875
0.1564178466796875 0.64035797119140625 0.4327392578125
0.087066650390625 0.66815185546875 0.421142578125
0.08355712890625 0.65035247802734375 0.4591064453125
0.1464080810546875 0.62641143798828125 0.4676513671875
-0.404022216796875 0.485504150390625 0.300048828125
-0.3840484619140625 0.511016845703125 0.3023681640625
-0.40557861328125 0.48729705810546875 0.2735595703125
-0.425384521484375 0.45697784423828125 0.29736328125
-0.400299072265625 0.47963714599609375 0.322265625
-0.3811492919921875 0.50284576416015625 0.3255615234375
-0.384979248046875 0.51434326171875 0.276611328125
-0.427978515625 0.456390380859375 0.2723388671875
-0.420135498046875 0.45208740234375 0.3206787109375
0.006591796875 0.66046142578125 0.4327392578125
0.0047760009765625 0.66693878173828125 0.41064453125
-0.013214111328125 0.646148681640625 0.43310546875
0.0122833251953125 0.6482391357421875 0.452392578125
0.029510498046875 0.667816162109375 0.4339599609375
0.029296875 0.67547607421875 0.41259765625
-0.0151519775390625 0.651519775390625 0.4122314453125
-0.006439208984375 0.63477325439453125 0.452880859375
0.0335540771484375 0.65521240234375 0.4527587890625
-0.3217926025390625 0.55294036865234375 0.3277587890625
-0.2992706298828125 0.5520172119140625 0.3431396484375
-0.3190460205078125 0.55841827392578125 0.3038330078125
-0.34344482421875 0.5454559326171875 0.31591796875
-0.3229217529296875 0.5400238037109375 0.349365234375
-0.3018951416015625 0.5396728515625 0.3619384765625
-0.2951812744140625 0.55896759033203125 0.3192138671875
-0.3415374755859375 0.550689697265625 0.2921142578125
-0.3435821533203125 0.53387451171875 0.3380126953125
-0.048492431640625 0.56354522705078125 0.4521484375
-0.0525665283203125 0.56511688232421875 0.4302978515625
-0.0557098388671875 0.53070831298828125 0.458251953125
-0.04022216796875 0.5578155517578125 0.46875
-0.0400543212890625 0.596099853515625 0.443603515625
-0.0440826416015625 0.5990142822265625 0.4227294921875
-0.0594635009765625 0.53108978271484375 0.437744140625
-0.04803466796875 0.52596282958984375 0.475830078125
-0.0316619873046875 0.587615966796875 0.4617919921875
-0.225341796875 0.508026123046875 0.400146484375
-0.2017822265625 0.4851226806640625 0.4180908203125
-0.219940185546875 0.511505126953125 0.3809814453125
-0.2500457763671875 0.5271453857421875 0.3797607421875
-0.231109619140625 0.49907684326171875 0.415771484375
-0.20733642578125 0.4778289794921875 0.4346923828125
-0.1964263916015625 0.488006591796875 0.4007568359375
-0.2448577880859375 0.53191375732421875 0.3585205078125
-0.2552337646484375 0.51686859130859375 0.3968505859375
-0.081390380859375 0.45299530029296875 0.4693603515625
-0.0835113525390625 0.45409393310546875 0.4500732421875
-0.0925445556640625 0.43849945068359375 0.4703369140625
-0.0757598876953125 0.448028564453125 0.4852294921875
-0.071746826171875 0.47271728515625 0.4671630859375
-0.0740509033203125 0.473052978515625 0.44873046875
-0.094635009765625 0.4417266845703125 0.4508056640625
-0.0885162353515625 0.4304656982421875 0.4871826171875
-0.0652008056640625 0.46910858154296875 0.48388671875
-0.1395263671875 0.43752288818359375 0.458740234375
-0.122222900390625 0.4308319091796875 0.4649658203125
-0.13714599609375 0.4392242431640625 0.439453125
-0.1583709716796875 0.44844818115234375 0.4482421875
-0.142852783203125 0.43000030517578125 0.4735107421875
-0.1228179931640625 0.42198944091796875 0.483154296875
-0.1210784912109375 0.43381500244140625 0.44482421875
-0.15478515625 0.4506988525390625 0.4306640625
-0.1635284423828125 0.44225311279296875 0.462890625
-0.0021209716796875 0.520355224609375 0.4844970703125
0.0116424560546875 0.5045166015625 0.482421875
0.0077362060546875 0.5412750244140625 0.4783935546875
-0.01629638671875 0.53514862060546875 0.4840087890625
-0.01123046875 0.497528076171875 0.48828125
0.0023956298828125 0.4857330322265625 0.4864501953125
0.0224609375 0.52197265625 0.478515625
-0.006591796875 0.5597991943359375 0.478759765625
-0.024932861328125 0.508453369140625 0.4903564453125
-0.243743896484375 0.45029449462890625 0.4295654296875
-0.264556884765625 0.46163177490234375 0.416259765625
-0.247528076171875 0.43218231201171875 0.4268798828125
-0.224517822265625 0.43701171875 0.4443359375
-0.24017333984375 0.46884918212890625 0.4288330078125
-0.2623291015625 0.48320770263671875 0.4158935546875
-0.2654571533203125 0.4404754638671875 0.4136962890625
-0.2297515869140625 0.421630859375 0.439697265625
-0.218963623046875 0.452850341796875 0.447265625
0.0472869873046875 0.580322265625 0.4737548828125
0.06121826171875 0.55446624755859375 0.470458984375
0.063995361328125 0.5845184326171875 0.4732666015625
0.033721923828125 0.6062469482421875 0.4720458984375
0.03265380859375 0.5717010498046875 0.47314453125
0.0471343994140625 0.5470123291015625 0.4720458984375
0.0767822265625 0.558868408203125 0.4700927734375
0.0518341064453125 0.61150360107421875 0.4715576171875
0.0181121826171875 0.5953826904296875 0.4730224609375
-0.3188018798828125 0.46966552734375 0.380859375
-0.3343048095703125 0.46524810791015625 0.3739013671875
-0.3148193359375 0.44486236572265625 0.3836669921875
-0.3013763427734375 0.46999359130859375 0.3916015625
-0.3214874267578125 0.495880126953125 0.3760986328125
-0.3379974365234375 0.49156951904296875 0.3671875
-0.330474853515625 0.43932342529296875 0.377197265625
-0.299835205078125 0.44614410400390625 0.392578125
-0.3036651611328125 0.49593353271484375 0.386474609375
0.1262969970703125 0.576568603515625 0.4761962890625
0.1529541015625 0.5693511962890625 0.4783935546875
0.1191558837890625 0.60082244873046875 0.4779052734375
0.10308837890625 0.582977294921875 0.4744873046875
0.1341552734375 0.55240631103515625 0.4744873046875
0.1583404541015625 0.547393798828125 0.4769287109375
0.1483917236328125 0.59275054931640625 0.4791259765625
0.0937957763671875 0.60739898681640625 0.474609375
0.1122894287109375 0.557281494140625 0.4720458984375
-0.3809661865234375 0.4264984130859375 0.3604736328125
-0.3879547119140625 0.447906494140625 0.3525390625
-0.398895263671875 0.40727996826171875 0.357177734375
-0.3746490478515625 0.40642547607421875 0.3638916015625
-0.3648529052734375 0.442596435546875 0.36328125
-0.37060546875 0.46622467041015625 0.35693359375
-0.406707763671875 0.4257659912109375 0.349365234375
-0.3920440673828125 0.3887481689453125 0.3604736328125
-0.3590240478515625 0.4201812744140625 0.367431640625
0.2545166015625 0.53582000732421875 0.483154296875
0.2904510498046875 0.52313995361328125 0.481689453125
0.25750732421875 0.55292510986328125 0.4859619140625
0.2180328369140625 0.54749298095703125 0.4825439453125
0.2523040771484375 0.5194549560546875 0.4794921875
0.2845001220703125 0.50775146484375 0.4774169921875
0.296417236328125 0.53893280029296875 0.484375
0.218505859375 0.5674285888671875 0.485595703125
0.2186279296875 0.52881622314453125 0.478515625
-0.47027587890625 0.3330230712890625 0.3448486328125
-0.4813232421875 0.34485626220703125 0.337890625
-0.4951324462890625 0.30841827392578125 0.339599609375
-0.4595794677734375 0.32260894775390625 0.3472900390625
-0.444427490234375 0.3595733642578125 0.3489990234375
-0.454071044921875 0.3729705810546875 0.342529296875
-0.5079803466796875 0.3176727294921875 0.3353271484375
-0.4825897216796875 0.29913330078125 0.34228515625
-0.4352569580078125 0.34593963623046875 0.3514404296875
0.3620452880859375 0.48308563232421875 0.476318359375
0.3742523193359375 0.46727752685546875 0.4716796875
0.3736724853515625 0.49900054931640625 0.478759765625
0.344940185546875 0.4962158203125 0.479248046875
0.350433349609375 0.468475341796875 0.471923828125
0.3618011474609375 0.4524383544921875 0.469482421875
0.38671875 0.48300933837890625 0.472900390625
0.3549041748046875 0.51206207275390625 0.4830322265625
0.335235595703125 0.48151397705078125 0.4744873046875
-0.5390625 0.24819183349609375 0.333740234375
-0.5558929443359375 0.252899169921875 0.3250732421875
-0.5438995361328125 0.2310791015625 0.3367919921875
-0.5231475830078125 0.24312591552734375 0.3394775390625
-0.53021240234375 0.26540374755859375 0.335205078125
-0.5456390380859375 0.2714385986328125 0.3275146484375
-0.5606231689453125 0.23516845703125 0.3253173828125
-0.5269775390625 0.22743988037109375 0.34228515625
-0.514739990234375 0.25957489013671875 0.3387451171875
0.3924713134765625 0.3961944580078125 0.462890625
0.3927764892578125 0.367279052734375 0.46337890625
0.4087677001953125 0.4054718017578125 0.459228515625
0.389007568359375 0.42315673828125 0.4654541015625
0.3782806396484375 0.38793182373046875 0.467041015625
0.3780517578125 0.36283111572265625 0.46826171875
0.4105377197265625 0.3716888427734375 0.455810546875
0.4045257568359375 0.4355621337890625 0.4630126953125
0.3751068115234375 0.41213226318359375 0.4676513671875
-0.534820556640625 0.174957275390625 0.3590087890625
-0.552642822265625 0.17243194580078125 0.3480224609375
-0.5241851806640625 0.15470123291015625 0.3748779296875
-0.5174560546875 0.17627716064453125 0.3695068359375
-0.5410919189453125 0.1951446533203125 0.3482666015625
-0.55950927734375 0.19551849365234375 0.3365478515625
-0.541534423828125 0.1495513916015625 0.361572265625
-0.5081787109375 0.15760040283203125 0.384765625
-0.5239105224609375 0.1947479248046875 0.357177734375
0.368499755859375 0.279266357421875 0.4737548828125
0.3521881103515625 0.2511444091796875 0.481689453125
0.3858489990234375 0.27513885498046875 0.4639892578125
0.38116455078125 0.30825042724609375 0.4686279296875
0.3522796630859375 0.2805023193359375 0.4815673828125
0.3360443115234375 0.254302978515625 0.4896240234375
0.3686981201171875 0.24608612060546875 0.4722900390625
0.398590087890625 0.3062286376953125 0.4600830078125
0.364959716796875 0.308502197265625 0.476318359375
-0.46868896484375 0.1026763916015625 0.431396484375
-0.4842987060546875 0.09256744384765625 0.421142578125
-0.4427337646484375 0.0892791748046875 0.44921875
-0.4528656005859375 0.11061859130859375 0.440185546875
-0.4906768798828125 0.11835479736328125 0.4114990234375
-0.5074310302734375 0.10948944091796875 0.3992919921875
-0.4580078125 0.07784271240234375 0.4437255859375
-0.427947998046875 0.09857177734375 0.457275390625
-0.4758758544921875 0.12523651123046875 0.4212646484375
0.286407470703125 0.1880645751953125 0.507080078125
0.2595367431640625 0.17377471923828125 0.517822265625
0.2983245849609375 0.17681121826171875 0.4989013671875
0.31072998046875 0.20624542236328125 0.49658203125
0.2756500244140625 0.19721221923828125 0.5130615234375
0.250701904296875 0.18622589111328125 0.5223388671875
0.268951416015625 0.160003662109375 0.511474609375
0.3245086669921875 0.19652557373046875 0.4896240234375
0.29681396484375 0.2127227783203125 0.504638671875
-0.354949951171875 0.0675811767578125 0.5035400390625
-0.364044189453125 0.0541229248046875 0.4989013671875
-0.32293701171875 0.0679779052734375 0.519287109375
-0.3471832275390625 0.07991790771484375 0.50732421875
-0.386199951171875 0.0714569091796875 0.4864501953125
-0.39752197265625 0.058868408203125 0.4818115234375
-0.3282470703125 0.052764892578125 0.51806640625
-0.3180389404296875 0.08180999755859375 0.5216064453125
-0.375 0.0822296142578125 0.4918212890625
0.1625213623046875 0.1603240966796875 0.5570068359375
0.128509521484375 0.16333770751953125 0.5667724609375
0.165069580078125 0.1363677978515625 0.560302734375
0.196563720703125 0.16021728515625 0.5450439453125
0.161346435546875 0.18080902099609375 0.552001953125
0.1296234130859375 0.1862335205078125 0.55712890625
0.12799072265625 0.13492584228515625 0.5762939453125
0.2015380859375 0.140960693359375 0.543701171875
0.19293212890625 0.17754364013671875 0.5430908203125
-0.21728515625 0.09228515625 0.5611572265625
-0.209197998046875 0.07175445556640625 0.56982421875
-0.1839141845703125 0.10552215576171875 0.5709228515625
-0.2258148193359375 0.11002349853515625 0.551025390625
-0.2523040771484375 0.08046722412109375 0.546630859375
-0.2497100830078125 0.0619354248046875 0.550048828125
-0.1697845458984375 0.08304595947265625 0.585693359375
-0.1973876953125 0.12532806396484375 0.5579833984375
-0.2561492919921875 0.0968780517578125 0.5428466796875
0.0482025146484375 0.18842315673828125 0.562744140625
0.059417724609375 0.21091461181640625 0.5567626953125
0.029541015625 0.20134735107421875 0.5557861328125
0.037322998046875 0.16231536865234375 0.57373046875
0.07110595703125 0.17716217041015625 0.57177734375
0.0785369873046875 0.20133209228515625 0.560302734375
0.04400634765625 0.22280120849609375 0.5491943359375
0.0127105712890625 0.17626190185546875 0.560302734375
0.0636749267578125 0.14870452880859375 0.584716796875
-0.1222076416015625 0.15488433837890625 0.563232421875
-0.1123809814453125 0.17229461669921875 0.550537109375
-0.1446380615234375 0.1706390380859375 0.54931640625
-0.1357421875 0.13851165771484375 0.5721435546875
-0.097747802734375 0.136871337890625 0.5758056640625
-0.08453369140625 0.157318115234375 0.560546875
-0.136993408203125 0.185302734375 0.5419921875
-0.15594482421875 0.15625762939453125 0.55615234375
-0.113372802734375 0.1157379150390625 0.5889892578125
-0.034393310546875 0.4309539794921875 0.5009765625
-0.027435302734375 0.451873779296875 0.4979248046875
-0.05126953125 0.43650054931640625 0.502685546875
-0.0397796630859375 0.40979766845703125 0.5040283203125
-0.0180816650390625 0.42535400390625 0.4996337890625
-0.012847900390625 0.44564056396484375 0.495361328125
-0.0420379638671875 0.4591827392578125 0.4998779296875
-0.0607147216796875 0.4145660400390625 0.50390625
-0.02117919921875 0.4051971435546875 0.5028076171875
-0.1700592041015625 0.39534759521484375 0.47900390625
-0.158843994140625 0.40845489501953125 0.482666015625
-0.186676025390625 0.40926361083984375 0.467529296875
-0.181671142578125 0.3830108642578125 0.47216796875
-0.1548614501953125 0.3796844482421875 0.488037109375
-0.139129638671875 0.39440155029296875 0.4932861328125
-0.178070068359375 0.4216461181640625 0.4713134765625
-0.1963958740234375 0.3969573974609375 0.462646484375
-0.1686859130859375 0.367218017578125 0.481201171875
-0.0357208251953125 0.34342193603515625 0.5142822265625
-0.0403900146484375 0.3660888671875 0.509521484375
-0.058258056640625 0.34209442138671875 0.512451171875
-0.0294342041015625 0.32228851318359375 0.51708984375
-0.015289306640625 0.34435272216796875 0.51416015625
-0.0195465087890625 0.36472320556640625 0.510498046875
-0.0648345947265625 0.3675689697265625 0.5091552734375
-0.051361083984375 0.31858062744140625 0.5157470703125
-0.0089874267578125 0.32453155517578125 0.5181884765625
-0.1239776611328125 0.322479248046875 0.5054931640625
-0.1028289794921875 0.33209228515625 0.5101318359375
-0.131591796875 0.3443450927734375 0.5006103515625
-0.1423187255859375 0.3136749267578125 0.5020751953125
-0.1181793212890625 0.3010406494140625 0.5108642578125
-0.09619140625 0.3076629638671875 0.5145263671875
-0.11090087890625 0.35678863525390625 0.5054931640625
-0.1491546630859375 0.33319854736328125 0.49609375
-0.1378021240234375 0.29476165771484375 0.5072021484375
-0.0072479248046875 0.25577545166015625 0.5296630859375
0.0023040771484375 0.23431396484375 0.53662109375
0.01226806640625 0.267913818359375 0.530517578125
-0.0148468017578125 0.27735137939453125 0.5260009765625
-0.0297088623046875 0.24408721923828125 0.530029296875
-0.0207977294921875 0.21805572509765625 0.5377197265625
0.021484375 0.25093841552734375 0.5360107421875
0.0046234130859375 0.28565216064453125 0.52685546875
-0.037109375 0.26908111572265625 0.526123046875
-0.1070709228515625 0.2342681884765625 0.524658203125
-0.1305084228515625 0.23734283447265625 0.521484375
-0.105499267578125 0.2115936279296875 0.53125
-0.0806884765625 0.23262786865234375 0.5267333984375
-0.1099395751953125 0.25698089599609375 0.5194091796875
-0.131805419921875 0.25635528564453125 0.5159912109375
-0.13067626953125 0.21846771240234375 0.5274658203125
-0.0761871337890625 0.20555877685546875 0.533447265625
-0.0854034423828125 0.259368896484375 0.52099609375
0.13909912109375 -0.54375457763671875 0.7213134765625
0.1352386474609375 -0.53151702880859375 0.7286376953125
0.1233367919921875 -0.545166015625 0.728515625
0.1432037353515625 -0.55718231201171875 0.7115478515625
0.15509033203125 -0.54141998291015625 0.7137451171875
0.147979736328125 -0.52860260009765625 0.7235107421875
0.12158203125 -0.532745361328125 0.7349853515625
0.1239471435546875 -0.5591583251953125 0.7205810546875
0.161224365234375 -0.55539703369140625 0.703369140625
0.0705718994140625 -0.5420684814453125 0.7520751953125
0.0882415771484375 -0.544281005859375 0.7445068359375
0.0780181884765625 -0.52960205078125 0.753662109375
0.0540618896484375 -0.53841400146484375 0.75830078125
0.0622406005859375 -0.55550384521484375 0.7493896484375
0.0831451416015625 -0.55855560302734375 0.7406005859375
0.0924072265625 -0.53170013427734375 0.7476806640625
0.064453125 -0.52666473388671875 0.7589111328125
0.042724609375 -0.5520477294921875 0.7567138671875
0.1923675537109375 -0.5263671875 0.6966552734375
0.1804046630859375 -0.51049041748046875 0.708740234375
0.1823272705078125 -0.5325927734375 0.701171875
0.20306396484375 -0.54376983642578125 0.6817626953125
0.2004852294921875 -0.51718902587890625 0.6925048828125
0.1875 -0.4998626708984375 0.7056884765625
0.171234130859375 -0.517791748046875 0.7139892578125
0.191558837890625 -0.54921722412109375 0.6881103515625
0.2124176025390625 -0.53591156005859375 0.6763916015625
0.01336669921875 -0.52301025390625 0.7744140625
0.0250701904296875 -0.52947235107421875 0.76953125
0.02880859375 -0.508270263671875 0.773681640625
0.0036163330078125 -0.51331329345703125 0.7769775390625
-0.00360107421875 -0.538421630859375 0.7725830078125
0.0093841552734375 -0.5443878173828125 0.7681884765625
0.0395050048828125 -0.51607513427734375 0.76953125
0.0199127197265625 -0.49816131591796875 0.7767333984375
-0.0148162841796875 -0.53047943115234375 0.775634765625
0.211151123046875 -0.46881103515625 0.685791015625
0.19525146484375 -0.45099639892578125 0.7000732421875
0.2097625732421875 -0.48758697509765625 0.686767578125
0.2280426025390625 -0.490234375 0.6680908203125
0.211334228515625 -0.44919586181640625 0.6851806640625
0.1926727294921875 -0.42981719970703125 0.700439453125
0.1949005126953125 -0.4696044921875 0.701171875
0.224273681640625 -0.5096435546875 0.6700439453125
0.22991943359375 -0.47014617919921875 0.6671142578125
-0.01702880859375 -0.46747589111328125 0.7779541015625
-0.0115509033203125 -0.48626708984375 0.7783203125
0.002655029296875 -0.4490203857421875 0.7745361328125
-0.0209808349609375 -0.4479827880859375 0.776123046875
-0.038665771484375 -0.48831939697265625 0.778564453125
-0.0323333740234375 -0.506134033203125 0.7774658203125
0.006591796875 -0.46906280517578125 0.7762451171875
0.001373291015625 -0.429595947265625 0.7730712890625
-0.043487548828125 -0.4688720703125 0.7767333984375
0.173553466796875 -0.26810455322265625 0.668212890625
0.1605987548828125 -0.22528076171875 0.66357421875
0.1549072265625 -0.26364898681640625 0.6795654296875
0.1858673095703125 -0.30718994140625 0.67333984375
0.1918182373046875 -0.27327728271484375 0.65283203125
0.1782684326171875 -0.22919464111328125 0.649658203125
0.142486572265625 -0.22216796875 0.6746826171875
0.1673583984375 -0.30242919921875 0.6859130859375
0.2038726806640625 -0.31362152099609375 0.6568603515625
-0.041229248046875 -0.278594970703125 0.7305908203125
-0.018951416015625 -0.27295684814453125 0.7303466796875
-0.044525146484375 -0.2385406494140625 0.7152099609375
-0.0635223388671875 -0.285430908203125 0.7254638671875
-0.0378265380859375 -0.31618499755859375 0.7431640625
-0.014892578125 -0.30950927734375 0.741943359375
-0.02276611328125 -0.23309326171875 0.71728515625
-0.067413330078125 -0.245697021484375 0.7113037109375
-0.060791015625 -0.32430267333984375 0.740966796875
0.206787109375 -0.39215850830078125 0.681884765625
0.2092437744140625 -0.4120025634765625 0.683837890625
0.2261199951171875 -0.4080352783203125 0.666015625
0.2026214599609375 -0.3705291748046875 0.6817626953125
0.1870574951171875 -0.38027191162109375 0.6973876953125
0.188507080078125 -0.39490509033203125 0.69921875
0.2287139892578125 -0.4300994873046875 0.6666259765625
0.2207794189453125 -0.38378143310546875 0.6646728515625
0.1834259033203125 -0.36023712158203125 0.6937255859375
-0.0291900634765625 -0.3958282470703125 0.7672119140625
-0.052825927734375 -0.40966796875 0.76611328125
-0.026458740234375 -0.41236114501953125 0.771240234375
-0.0065155029296875 -0.3821563720703125 0.7655029296875
-0.0313720703125 -0.37433624267578125 0.761474609375
-0.0547027587890625 -0.38767242431640625 0.760986328125
-0.0502777099609375 -0.43047332763671875 0.771240234375
-0.0027618408203125 -0.39696502685546875 0.767822265625
-0.0090484619140625 -0.36478424072265625 0.7606201171875
0.0677490234375 -0.12586212158203125 0.669921875
0.0627288818359375 -0.10355377197265625 0.662109375
0.053985595703125 -0.12978363037109375 0.6727294921875
0.0735931396484375 -0.15316009521484375 0.677490234375
0.0813140869140625 -0.12213134765625 0.6641845703125
0.0765228271484375 -0.09820556640625 0.6561279296875
0.0486602783203125 -0.10822296142578125 0.666259765625
0.0596923828125 -0.1552886962890625 0.6807861328125
0.088348388671875 -0.15142059326171875 0.6729736328125
0.0104827880859375 -0.13204193115234375 0.6796875
0.025634765625 -0.13193511962890625 0.6781005859375
0.0045166015625 -0.1109619140625 0.67333984375
-0.005218505859375 -0.13217926025390625 0.68115234375
0.017303466796875 -0.1576080322265625 0.688720703125
0.03302001953125 -0.158050537109375 0.6878662109375
0.0199737548828125 -0.11141204833984375 0.6712646484375
-0.011627197265625 -0.10845184326171875 0.6727294921875
0.0018310546875 -0.15851593017578125 0.690185546875
0.1015167236328125 -0.25835418701171875 0.7060546875
0.1185760498046875 -0.25949859619140625 0.6988525390625
0.0916290283203125 -0.22136688232421875 0.697265625
0.084808349609375 -0.2592620849609375 0.7110595703125
0.1115875244140625 -0.29448699951171875 0.7138671875
0.129364013671875 -0.2960205078125 0.7056884765625
0.1075286865234375 -0.22069549560546875 0.692138671875
0.0764312744140625 -0.221893310546875 0.7022705078125
0.093963623046875 -0.29443359375 0.718994140625
0.0370330810546875 -0.26247406005859375 0.7222900390625
0.0305023193359375 -0.22408294677734375 0.713134765625
0.0199432373046875 -0.26470184326171875 0.7264404296875
0.0429534912109375 -0.29772186279296875 0.7342529296875
0.0537109375 -0.2616119384765625 0.7196044921875
0.0463409423828125 -0.22324371337890625 0.708984375
0.0145111083984375 -0.2263336181640625 0.71484375
0.02569580078125 -0.29946136474609375 0.7384033203125
0.05975341796875 -0.2957305908203125 0.728515625
0.1288604736328125 -0.3662109375 0.7275390625
0.1312255859375 -0.37783050537109375 0.7296142578125
0.1477813720703125 -0.3666534423828125 0.7188720703125
0.1259765625 -0.34941864013671875 0.7237548828125
0.111358642578125 -0.36746978759765625 0.7330322265625
0.113983154296875 -0.3795318603515625 0.736083984375
0.1496429443359375 -0.3786468505859375 0.72216796875
0.144287109375 -0.3499298095703125 0.716552734375
0.10809326171875 -0.350341796875 0.7303466796875
0.0572357177734375 -0.367889404296875 0.7515869140625
0.0366668701171875 -0.36907196044921875 0.758056640625
0.0601959228515625 -0.3790435791015625 0.753662109375
0.07586669921875 -0.36838531494140625 0.7467041015625
0.0530548095703125 -0.3507537841796875 0.7484130859375
0.0336761474609375 -0.35292816162109375 0.7529296875
0.04083251953125 -0.38056182861328125 0.7591552734375
0.0786590576171875 -0.3806915283203125 0.7489013671875
0.07177734375 -0.35120391845703125 0.7425537109375
0.0909423828125 -0.02297210693359375 0.646484375
0.0934906005859375 -0.01102447509765625 0.6434326171875
0.0911712646484375 -0.018035888671875 0.6529541015625
0.0859375 -0.03545379638671875 0.6502685546875
0.09185791015625 -0.02921295166015625 0.6397705078125
0.0939483642578125 -0.0156707763671875 0.63720703125
0.093780517578125 -0.0061187744140625 0.6497802734375
0.08551025390625 -0.02925872802734375 0.6561279296875
0.0875091552734375 -0.04264068603515625 0.64404296875
-0.0549774169921875 -0.04138946533203125 0.664794921875
-0.0540924072265625 -0.0366058349609375 0.6702880859375
-0.06280517578125 -0.03087615966796875 0.66162109375
-0.0565032958984375 -0.047637939453125 0.65869140625
-0.0455474853515625 -0.05141448974609375 0.6678466796875
-0.044921875 -0.04509735107421875 0.671630859375
-0.061767578125 -0.02631378173828125 0.66845703125
-0.0644073486328125 -0.03615570068359375 0.6552734375
-0.0469207763671875 -0.058837890625 0.6622314453125
