# XYZ point cloud file
0.09371646070497619 0.67030715253800588 0.64389633381070999
0.75738334701476462 -0.45611197916191981 0.58902938448692321
-0.45731016744691833 -0.21121462686741532 0.69618477676783819
0.29687119431067477 1.0207497963524599 -0.36676889702937476
0.22674926430943831 0.66767316111897179 -0.25225385065740458
0.30475554094517987 0.5954474433303637 -0.25898199123407295
-0.0057257818163116703 0.23808413912069681 0.71509023954239259
-0.28542294910998112 -0.14325202127217596 0.75182099953749981
0.10992856835712272 -0.003914071662523444 0.74723621034381571
0.15416748653865808 0.38274916464529363 0.62458894994482561
-0.10068259230744281 0.29665396237667874 0.73706476037011948
0.51089334289981636 -0.29798743205871869 0.70834030957272676
-0.086460852928559095 0.48943855766013744 -0.23565682920648667
-0.073974079776203294 -0.42778187589572658 -0.014401055481200409
0.41113169621908086 0.95852943487509068 -0.12321648174581856
0.1269459677779482 0.44270070846271792 0.62725947031022145
-0.46617420150531408 0.13317618981054746 0.50265971052971725
-0.26386800126576981 0.60742889823872837 -0.63558615178178313
-0.77015486021401736 -0.84523685037646779 -0.42540214601187354
-0.63916126274255236 -0.10509765982896879 0.61037257073335383
0.6231994655758768 -0.3917610859831433 0.66461280445816717
0.035235887534205479 -0.18649772163009193 0.6585959420638674
-0.51962716516080143 -0.078287633361338926 0.65677716827777388
0.13633790112700639 0.49265809566629926 0.62224487156655739
0.089318489576764359 -0.063161602245066173 0.78859042803688206
0.21512748067113596 0.12064752244060517 0.46644301589487025
-0.33483678517722559 -0.13310766359426873 0.78484245850335421
0.20274642186256198 0.44917272603070457 -0.25461361956057571
0.78581862906166577 -0.23242699955835955 0.4910603720927087
0.03601601775253449 0.4206371964890645 0.74524946327264985
-0.22733361697555354 0.31328894258340312 0.79508434794983218
-0.58169889830587251 -0.57768065891967302 -0.23769650640070994
-0.54034829695725517 -0.08255667999796934 0.60459276321728561
0.33949682738532405 0.79803239220676003 -0.3421847176349706
0.54820776810749483 -0.18845143067338499 0.36846068942526067
-0.81653941108241235 -0.75349775501892169 -0.43768710289233215
0.24822330478067145 0.54730301970047324 0.26198692773512056
0.27425671218186298 0.61506382314398522 -0.23533458207834101
-0.46263617325881101 -0.22282927752919668 0.66821400453799784
-0.42981461596737613 -0.13084374734993842 0.77577698284912122
0.56265587246607474 -0.45747279765750193 0.6962835012943569
0.816287134965201 -0.32888466185324328 -0.13034533410439408
0.1958005907578636 0.65540528875732906 0.52378511043696729
0.12772192178940667 -0.12087120051263067 0.75469638022422281
-0.37740932886234102 0.14524248475353374 0.47867651400117461
-0.3962462535281801 -0.62170081112258324 -0.045594322515678076
0.25225184810694612 -0.35813515877598601 0.42279533617822418
-0.53067962017973225 -0.68036546174585188 -0.19874922690502927
-0.74379966627238114 -0.79623381886005218 -0.39430884201192695
0.049735356554091004 0.39126417672371372 -0.44300399194843498
-0.45201941242949228 -0.050640698013299401 0.7650271698886022
0.11837617203945761 0.83750122829824925 0.08478141249733584
-0.26460799573741278 -0.099933033784995517 0.75251366220022931
-0.48763173835027884 0.44872210645889843 0.23094420646573388
-0.20273413235998261 -0.056850581676569645 0.75473710835582297
-0.53950399045794328 -0.68691460681042393 -0.20363848669156859
0.83146706044674767 -0.39621808889716892 0.51536035188222806
0.34415118125606403 -0.44213581925140166 0.46068823701712436
0.40794751294960974 1.0420886518967278 -0.42179161565448675
0.61695521075615278 -0.48727555647104115 0.484008772906241
-0.29335146915565935 0.19662018603212228 0.7834007231851654
0.14404203055558551 -0.079190035444886453 0.78073525421987178
-0.083830190449326381 0.27658784440548301 0.73330006444985818
0.057917026524484938 -0.20990055087273729 0.65427771746690011
0.38506519672984041 -0.011927035802141939 0.57169582315261147
-0.30651874677055635 -0.4284226908586859 0.29113063916915083
0.56329006714466923 -0.34236884473920748 0.68799088143286369
-0.24984603004481165 0.93415498757079662 -0.30927442926460147
0.43338660072393353 0.95182729187462245 -0.43069310336454292
-0.42335008442274891 0.14922869446240528 0.56950294333263951
-0.52939664419089527 -0.41547588078774034 0.45208035952940362
-0.4548449495527922 -0.20625257176223899 0.6933531203601091
-0.28148376865772584 0.4774272443292773 0.67823392793085313
0.19051147574780702 0.010697875900266829 0.76055979062614654
0.19637116726301862 0.88088051777383525 -0.20478351929910765
0.69797660961713015 -0.42833490130369578 0.66057911111036272
0.38816363647692731 0.75645682790413959 -0.36655251298768476
0.43149644135218801 0.84714987317912094 -0.41707652483025237
-0.088798125645996207 0.35557123602029339 0.74987961709176432
0.5039026182174785 0.96705029414248711 -0.45723569384253482
0.59645758252629577 -0.38754645719227809 0.65562118804867175
-0.53852284925462246 -0.71207210582058034 -0.11926725471882227
0.26550120498226815 1.0057207749572257 -0.31580713596085452
0.41066319648860433 -1.3986191468090245 -0.2885877567340589
-0.55231977336405069 -0.51837046802977049 -0.029336217629694072
0.40127321085333845 -0.50603607063091272 0.49575524182536901
0.43287784569430121 -0.051671208672931179 0.53232736444299622
0.25773598160182642 0.33535108578635142 0.30767778165735793
0.34384281343145962 1.1739254041973755 0.16072975974434645
0.27367300988104049 -0.2108866159087297 0.26373231547561238
-0.47594400115826208 -0.013075715739588878 0.740327119719288
0.095501905686715016 -0.053373983269025316 0.78549881327732241
-0.47790669880595216 -0.64667824888828251 -0.058506831828129435
-0.38611233870127637 -0.13696506711101875 0.78974944084786003
0.32957623155474658 0.85139874221253742 -0.34591132783861278
0.081146172297627217 0.51942611376519043 0.63512260206713345
-0.12601622441775318 0.29422703281337048 0.75122602334549393
-0.084216042933750623 0.22419965020530774 0.73851009976272541
-0.33054418066276836 0.23513523568318284 0.59405487400737478
0.20582747817343805 -0.2759914904963735 0.24387601280350157
-0.4009038614079754 -0.2152075303839176 0.70381418442390498
-0.71491695623581364 -0.86376660931826654 -0.30136410802587577
0.36570770162930211 -0.15650934652189052 0.33141979904727092
-0.22837409348282556 -0.2030084302798365 0.71196874964018209
-0.35912565270734353 0.09307880400849855 0.76253903937913092
0.20756107581123773 -0.84820306169425685 -0.40324051705285457
0.31515808632979392 -0.038735424261229223 0.66786592775473608
0.59110442400152763 -0.23847220565697946 0.67157731597152326
-0.024202883725723878 0.53751506625188128 0.69434923118214664
0.22661814758971544 -0.097424153322009266 0.71894785297147612
0.25411030673154766 0.65292613087787565 -0.26745731304860909
-0.73658710496401592 -0.71888340393413519 -0.38460318289759909
-0.36067512219032738 0.082962839721211656 0.76294713817886617
-0.65821743756025741 -0.55006511949826975 -0.25079329881331169
-0.69973027845912361 -0.7415090992528206 -0.34339516915565893
-0.53961341932715101 -0.21897449800409974 0.67303777863728165
-0.73168784574873669 -0.85262308723579139 -0.38436113702110219
-0.036853310744005441 0.37222215084085108 0.77858927416450951
0.049073782956314815 0.53972236859859468 0.66045319255483692
0.022598655765756148 0.30089156222681701 0.76905493792347324
-0.2113828534505976 -0.081864897418735039 0.75209914674064393
0.28800947078865846 0.82176042107657221 -0.31815016805036933
-0.38767084500149113 0.48361185296576881 -0.87659911039516913
-0.76302107050410239 0.20222641461523294 0.43440850103808781
-0.10237066075747847 0.35388734377510722 0.73984227901551769
-0.77343665514285809 -0.8395149838838829 -0.40506040708081215
0.17614161188281485 0.48643581741594966 -0.58178383744745332
-0.0012492030500921292 0.59389919405021008 0.70371068762400402
0.13420380819301103 0.030886569383869689 0.73554648456189442
0.26389149880535934 -0.67108625650436016 -0.29847104324784723
0.099498645316869139 0.55545672016531045 0.62720884333339511
0.44508224171388766 -0.00014319823501907081 -0.45184418274155469
0.73776783643249444 -0.31139052320426774 0.63823278403197192
0.22793468369597325 -0.076307876252520002 0.72869775049648
-0.62445572983307251 -0.33077381677512441 -0.37696569577587402
-0.51909605051121732 -0.67693662804155696 -0.18688253521718279
0.34302091962675862 0.6558337451734414 -0.28824618244797406
-0.5721252573663359 -0.41218200375369229 0.44326779861435428
-0.00019323264461879042 0.39889071903475548 0.76633176931791436
0.82996671489486007 -0.38411057831795936 0.55105695689533296
-0.30986506363134358 -0.36895401809516426 -0.51839171122343464
-0.45336849201368895 -0.55658426019972373 0.031433277287004735
-0.64305040212649278 -0.066852212916226783 0.18306466674278976
0.06324062708780992 0.16328184537787249 -1.1225067556224215
0.33180272102215691 1.0589561340958409 -0.38799987710222572
-0.68449857864905195 -0.35039319692838911 -0.034622713992264575
0.15702757579231452 0.23099702903829833 0.65231455374532121
0.23899005898647563 0.93684600831324527 -0.28477283049069557
-0.80473453593348654 -0.65163856255711905 -0.44304974661916896
-0.31054380295344353 -0.11489112339448448 0.097928695088442819
0.28057748180949627 0.4542255471261053 -0.10624482970575233
0.15380427475255931 0.79901961433440505 -0.33731954946613874
0.47320360321458033 0.70663119539017183 -0.37615534628241409
-0.30035548330570017 0.87707786567811752 -0.33649203801424354
-0.34319883699817727 0.59602394474354337 -0.60616523399848266
-0.69287981711317426 -0.26103632049963932 0.53728754575095117
-0.024755962823921895 0.2939974613463352 0.77163855856911479
-0.43311123865369083 0.53405480614904088 0.24733705230857339
-0.058182607041113998 -0.34567162568190324 0.38139279781449797
0.09672901376960219 0.34293848791526393 0.72836434884158896
-0.75439761739033484 -0.85722574852391675 -0.40613429634024589
0.59988765285147416 -0.51828266785163901 0.65035889686697956
-0.79219793200290956 -0.67274934512705675 -0.44787237764315169
0.10337587218906052 -0.029847473440722361 0.73520462056982083
0.37253563997350925 1.0671192515708401 -0.40967630487579987
-0.62315871155704983 -0.57155139925764042 -0.35350527186915848
0.0072597220872957502 0.29050031881194804 0.76960763048833192
0.25133870183761509 0.53058577649854788 0.31529446335784428
0.25686043879291109 0.018298992266904568 0.643351915857032
0.32648611878852962 -0.45420349396624937 0.47753894071238445
0.21120595787099017 1.0407665804722512 -0.25186376873857474
0.19786683256570836 -0.25906629650639268 0.10873286608315214
0.37378145088615533 -0.50369679693176383 0.59821472293003231
-0.26088096838777325 -0.60662659156102094 -0.22790291985030953
-0.51687972867928322 -0.54036796568231749 -0.0066113160777270252
0.10685498874714694 -0.33179640567316881 0.21580180900006463
-0.26540135096839024 -0.24638578531444666 0.688828925705113
0.12601466289704977 -0.031431917592117053 0.77495990598889897
-0.5528173658521679 0.39692869371627526 -0.25008089310790815
0.32312808545034288 1.0671891120506163 -0.36558906441608219
0.27560534034841755 -0.34623886697947048 0.69416055673493493
-0.077777971333616636 -0.16330826533907816 0.98854193044257332
0.36174630649001815 -0.37481771632467409 0.2113390138411857
0.31383460049497935 1.1684388776473891 -0.34505863062931796
0.94861698147921325 -0.25802032400921382 0.61552938706467741
-0.37633146348295798 0.792447124046332 -0.17941148412318064
-0.084549170760045866 0.39344632827338821 -0.032730459410897694
-0.18480078693721147 -0.078543771533716722 0.67849569498475981
-0.89993282500828009 -0.97462595513702088 -0.57526488210132376
0.34094280386337272 -0.10961730629597055 0.69327132252737922
-0.018292331197113598 0.67149513201052424 0.5795048584687903
-0.14018780554012533 0.50792843138027721 0.75981286730024156
-0.21853564579680007 -0.47403269759747801 -0.074844426923641905
0.44161923322379282 0.20564908425331752 -0.0059065482113958012
0.16158228537315411 0.83018845064835434 -0.12085270808859594
0.13778083226525817 0.35571772583912431 0.65243918675497836
-0.56291456089086522 -0.20157997790494075 0.66572227444508947
0.28310307852969008 1.0939357354972961 -0.30385455861821509
-0.37425443964731864 -0.25692001438357326 0.6461526860298954
0.67649654149144856 -0.47740572444343132 0.64349300575908064
-0.80056622658254861 -0.55792723742052508 -0.46014624572157947
0.69990878284265323 -0.29733956655983007 0.65343414169334846
0.59512899918659856 -0.48726906091201461 0.67805238836224868
0.10320985382968806 0.88566290767157163 0.0070782597748020315
0.20596544277942819 -0.020605692975107948 0.76062815414142371
0.24232945850823906 -0.11262186675162211 0.0057636225218691273
-0.31287120441883065 -0.0032813272161997808 0.80955257958655258
0.81903549327741476 -0.30575421795017121 0.56217722315923591
0.30707632221301728 1.1290795082488998 -0.32007351994971067
0.70430683256761484 -0.18904943365710736 0.43917401526777899
0.14755274072920421 0.50354717979129227 0.52128064569929133
0.20802116758183131 -0.0169654088945137 -0.18496177831916771
-0.25219377402214205 0.53978337258991527 0.6469617811741557
-0.60831084325793283 -0.57599436605758614 -0.24976728072339771
-0.30151954920976543 -0.35755195559123853 0.47881459951105443
-0.28739740862740071 0.089187426055486574 0.76370099755096899
0.2191028596509732 0.031731055921766949 -0.16323121429143628
0.6468281666117458 -0.29465017379232428 0.63214130020530312
0.12658123989971126 -0.11799193536644914 0.76219829922632698
-0.26079416083186568 0.31406884583589711 0.61896005594915904
-0.27795076592759516 0.28853804373338199 0.60450444704397066
-0.55652899877782791 -0.12453535878281974 0.5734665136285817
0.1997345107677192 0.020732580200679696 0.7020038404977389
0.23303329686978735 0.91577968744101201 -0.27344351080689533
0.54032142106138759 -0.34549214365166692 0.71324710323681462
0.61924828475065308 -0.30603462783188795 0.67342194877254258
-0.70728396443796471 -0.77148445925341935 -0.35358270220810217
-0.10777216035232073 0.39674965130359185 0.73806614306881357
-0.41569599378039546 0.051191290350375729 0.753481105580458
-0.09197213313423791 0.63872819582853302 0.64294513929997965
0.13864140575870409 -0.16290581674005389 -0.16556165554745084
-0.022737729106600324 0.12859379589812314 -0.18809762124851837
0.12613188710528578 -0.14718770358147903 0.72661365581727555
-0.38371066810539656 0.76908245845459744 -0.085241635467114385
0.018234285541316786 0.82657813748891451 0.21670538357211244
-0.49632831234663577 -0.68829397810259896 -0.047919457218089878
0.31164755226659668 -0.18735334037371665 0.29870093532956021
-0.69642496153749955 -0.20414705505228747 0.03896204461690278
0.22181574449387431 -0.07032875244527792 0.74218001907043973
-0.25052547385240509 0.062379754219468841 0.69651661377383034
-0.12413675600321872 0.0089928057572740139 0.74261799801145001
-0.57940627229981456 -0.5585028845489366 -0.20401190763273558
-0.35206392717255541 0.021783973489862607 0.78160656115176819
-0.63171597321047179 -0.70849308204524775 -0.27738187311110796
-0.10870763031950947 0.017885969777799104 0.4194504118219835
0.089378887641603066 0.5715543447178828 0.62924436025696062
0.36485282321218215 0.95704046313335389 -0.37845651514150136
-0.40165557811818298 0.0022439490961039255 0.79282246269804046
-0.047373839646465132 -0.36392698162661241 -0.052597306393168619
-0.5237685884477129 -0.21496196943874235 0.60664493605801573
0.41105157877990894 0.73166502779469866 -0.35963648247420776
-0.11582947451617609 0.39913942879461384 0.74330408719429997
-0.24840910606817124 -0.00046880178399755223 0.75530323679467148
-0.23930594700808316 0.933451553224111 0.83714250424243342
-0.12647313913587022 0.401843742313444 -0.64486995604312636
-0.4745944354932734 -0.049469271438657314 0.72626655959244957
-0.65685672405824302 -0.21464991249353882 0.64630061995586008
0.44666712477309078 -0.25972727378123994 0.71015025499443696
-0.39465512142679138 -0.18179154405811171 0.73951513247092171
-0.47638089842877468 -0.27806586861382177 0.67094408683994411
0.004133807685219093 0.23162915394475059 0.72806197218165858
-0.68103244313552258 -0.17436360279603225 0.098213592699340602
-0.64296539714867129 -0.6765654446199556 -0.29036702744902421
0.094218705529215852 0.40764456428699136 0.70515505523236133
-0.44632766656253886 0.053902521995604857 0.74112987463821467
0.077838188877750847 0.33421643408607049 0.74530060018267319
0.047534089750912889 -0.072286693164236748 0.77783195305321362
-0.72126160474837686 0.21455441763464811 0.42622153715420463
0.1682822501774045 0.53933576848358267 -0.38179344691348094
-0.46437673308187888 -0.020552019186432346 0.7359586049173763
-0.26537415334485326 -0.030806493440583393 0.77909813408943274
0.71976784980287267 -0.40206710981883487 0.43124685695629328
0.63699529996261794 -0.2938644777657744 0.64598076479180033
0.29996557870506479 -0.13828039527667291 0.25355719131862298
0.28699581929397744 0.64799361533969224 -0.27975174236272116
0.095569597819311736 -0.31681022650867297 0.34824682838707366
0.079483326760012241 -0.27576867265381377 -0.25844117464849869
-0.41135374189196705 -0.26207735029210921 0.63758944584295651
-0.71039702707010322 -0.85059981577137034 -0.36282277759534498
0.21701349590419705 0.1221589540268907 0.47480933754205079
-0.64920017461273438 -0.7866266611648407 -0.37476546461765459
0.27905898163705301 -0.17166481693226998 0.22063950727932413
0.29365336481282001 1.1488651033947908 -0.3762127391689476
0.21449774414900791 0.014284032857651563 0.74010239505335607
-0.40079149775508782 0.042512260486170961 0.75046059725992142
-0.63013951632087661 -0.67527816344097435 -0.27846248097293147
0.23728203133947723 0.050259694916601205 0.50902536733958703
-0.32021651069463275 -0.43777399396380634 0.098466175737583317
0.29620440647805568 -0.15325818435824756 0.71237184421406807
0.60094541513236377 -0.39350112137863458 0.70404160288470141
0.42595748488436058 0.75981652285525192 -0.36271174356691116
0.82894402655663135 -0.29044047105676885 0.43072874300642128
-0.47590013306765233 -0.035541635464745092 0.73658659192013864
0.11709980373067141 -0.02121711921970193 0.76037750131753912
0.5795766877635492 -0.21156344880190192 0.66249848143875578
-0.62118453490963077 -0.54097019089317278 -0.21071852271189639
-0.59738536830546018 -0.48440204847674506 -0.33993228967965994
-0.39836838427882926 -0.32562990993678942 0.646741159499439
0.39773040330692566 -0.4205786720751048 0.4359053425856203
0.34892038322348828 -0.49491207253868796 0.56355125142309537
0.20225225997965413 0.17074762649710196 -0.23127666477925546
0.49870969287815514 0.88635164351665374 -0.40703714774810162
0.44149946408290119 0.0030867076251804848 0.03582615190760885
0.098440406940165537 0.81933292165616123 0.16350562291387005
-0.44572944972718814 -0.00093953158351123278 -0.60651661727661077
0.68002007275282694 -0.32681453973993224 0.61071848215613933
0.26792217658896156 0.64140236575287546 -0.25305914281977682
0.13038444848372888 0.023979041634126341 0.75106776014930254
-0.10876002249315098 0.22059605177734254 0.74202070528157016
-0.60973315502889913 -0.83140692862568311 -0.17411306394921366
0.22311743413578533 0.53083156450444613 0.53393575490507539
0.22711257752743719 0.94252827818614993 -0.25546004042623949
0.34125166177629696 -0.35902229775266215 0.40515137852216121
-0.52690928220458921 -0.076757218693769724 0.70538840917814438
0.48639520224169353 -0.10414541122532373 0.63339174460057235
-0.55862561703507407 -0.60975231147521658 -0.23612355865465595
-0.14764325568986059 0.85465928372294253 -0.49248269071755457
0.032166610553520103 0.78813015357803373 0.26144333955729415
-0.50926467131239428 -0.67587025671167056 -0.14294318849657284
0.1541395154149422 0.83297630088335883 -0.064887642830044889
-0.45902481144861906 0.07784830851384239 0.7440387701093365
0.026822624038814524 0.67273215187466351 0.64423825293853465
0.22360649266913601 0.74162680995634933 -0.25243256732066621
-0.096392150147364908 0.12804326063593241 0.7306087718525105
0.33546767894586016 -0.07193838612332315 0.33304752231324741
-0.03641961691122908 0.47936465129613715 -0.58036580165212603
0.35070926616655973 1.1863008509430333 -0.3803841392374876
-0.78956697243254292 -0.57247724637022745 -0.41008024785835673
-0.33065029281882874 -0.021999417759302808 0.81526687247212104
0.43002966775102169 1.0032395855313467 -0.39405243957738945
0.0359350353080643 0.24509760826347049 0.71724312015625014
-0.0014233477772264136 0.30911755767472049 0.77559235242278257
0.33396162843409205 1.140029413345315 -0.33722773877404144
-0.45667319540652618 -0.04111623979662804 0.56021318234634432
-0.56334453012704766 -0.64046193435334375 -0.23326304433409639
0.66761724754897811 -0.41375430117459 0.68108752180302035
0.026937563997282643 0.53515698809565504 -0.52479349541388665
-0.64785163758304209 -0.37681567405494287 0.47617950426315714
-0.5142493736502356 -0.20320082953333984 0.63229559545047431
-0.58111363739305111 -0.57103864256333714 -0.22826833537835478
-0.63926579431135055 -0.14325981812690625 0.22913239391691764
0.68366774944532138 -0.35567255325972214 0.61911128860467679
-0.72277762404932977 -0.47973678814811116 -0.30794340580653223
-0.38252667898574499 -0.11374144453394086 0.80038373076547753
-0.81594580560152941 -0.6078305328085345 -0.53404979337573955
0.21962147885613814 0.94721358796420052 -0.24054075560689014
-0.013678429804119818 0.205118096653921 -0.017319140204988148
0.60429733192438273 -0.37283027675211411 0.64235327668698927
0.17783873839768505 0.40558947935120582 0.61243425090463033
-0.21804994414451329 -0.045653631735536271 0.73763072269833163
0.73879845984822679 -0.33693303424525334 0.64582423906077402
0.72915424996934253 -0.33645007710649733 0.64923420061893555
-0.152505651920673 -0.89384251022227268 -0.20730516675667721
-0.032300367750838666 0.16639034911093775 0.72162295785208386
0.099223676153003426 -0.044943880516052359 0.78126668572426716
-0.40074033296750089 -0.067961710230725725 0.80363359128477518
0.15966208396939241 0.035268072519330063 0.70943296063110139
0.022250316496784217 -0.3663322482260094 -0.54748535038636881
0.33023025574500009 1.0226257321197345 -0.38574117489834814
-0.26019831784996816 -0.099952036695002855 0.75695799861209689
-0.22224370889777145 -0.025185577242863966 0.76732602315972587
-0.52565655750563089 -0.68831863562001439 -0.18597838828080571
0.42502220255928091 -0.53707012042704061 0.52420722071930204
-0.66314299016181677 -0.19700204606850225 0.52834598948561595
0.28135599658479937 0.46134454137489089 0.44275043582169893
-0.19272845909777381 0.024989822017170926 0.65799300731740429
0.30075471845649449 -0.53941731278749272 0.093519309056075528
-0.0030212807459677471 0.56491843920344009 0.58776053413648466
-0.012231537418882055 0.49595401452049992 0.70466946037546263
-0.26876284117062088 0.27522161359960085 0.67060691936673855
-0.13731571943397169 0.081528522048206375 0.73659633665738911
-0.43800582368564744 0.019032559872096622 0.72455244490522608
0.21191434195366576 0.85428678683537163 -0.2277742576191164
-0.1922277502274593 -0.44282632574642022 0.08396162090263859
0.66777434453596807 -0.30564702675412025 0.61736880750601686
0.097633118773092664 -0.31601744255027753 0.47271512906494628
0.6721917090731494 -0.34554149695306657 0.61684585492620192
-0.25645548678317021 -0.089585918894967476 0.7658377565256691
0.18290204610147232 0.39221167711433869 0.55125388839432121
-0.39779879239626981 -0.11109915912632595 0.79697600251382128
-0.71226544761910093 -0.85855422889166388 -0.32256001560953118
-0.49801636044355768 -0.12411847857179614 0.69931916853304532
-0.03641468592534336 0.33673363258090605 0.7808064479328678
0.060922155265192734 0.27805022981537886 0.72086833632321223
-0.5257690473127572 0.036565304067573745 0.73836680940210275
0.28096335498285219 1.1085200774701058 -0.30062959805407807
0.2310320863083215 0.64593907879713464 -0.24078525827713682
0.30356052020494473 0.61071186873767191 0.69809264209777311
-0.64183605899106366 -0.37654670124095202 0.4470714064299246
-0.57834985265291206 0.12492146286418859 0.66161500047132593
-0.030547942551280127 -0.14750032393198187 0.14171130478275451
-0.053326961876539958 0.25868646758425473 0.72052467771103279
-0.77796164728214257 -0.53278830269549959 -0.45361041289381587
-0.077361500719135945 0.37484909869064198 0.75620819044370258
-0.28170934456865959 -0.062972176315594597 0.80316704936117445
-0.14820437144849208 0.97943389567124028 -0.35082646525841898
0.21337074597496575 0.57332375815453451 -0.34299018372773071
0.43360448509269256 -0.53992468761486312 0.6005323807217664
0.20000305994363377 0.90453345192383494 -0.20960958409868358
-0.27166867456059796 0.0078752058112088186 0.76503025414084425
-0.7651452142807077 -0.83741933426615778 -0.42243577883864081
-0.54489076154884053 0.30277434593830588 -0.02321274866477907
0.38027287784928587 0.51931633417785994 -0.27171908519637933
-0.37239769882452012 0.067834045386714559 0.13197254963097604
0.20110016915404094 0.98975150087116026 -0.33042765103231719
0.068553237523715005 0.95070786387152384 -0.26197864087728773
0.21956858080708519 0.13573900066105626 0.45055051512380784
0.13574703178447356 0.56117428174177142 0.60417063635627422
0.060432637280983137 -0.07044376504617933 0.78481320867680671
0.040920614327372151 -0.063138839270472258 0.74632658622459758
-0.3153579975851194 -0.12679875461634005 0.78018259267056811
0.080033025098872779 -0.033651678240703364 0.74693652731204896
-0.50749975760528576 -0.66637056601131217 -0.16022535328766585
-0.39592064205746336 0.12782737160451429 0.77100161056033389
0.16554727669966429 0.42281798600840381 0.98612824418163258
-0.13880673663221288 0.18827542455893465 0.74924747192000085
0.24146992390879907 0.72051693449534071 -0.33587332370830048
-0.41388317380829709 -0.31623361856137144 0.48174033626114188
-0.29788540987075418 -0.033758663581865189 0.051038883378041966
-0.58634760679777376 0.040250539406119445 0.69920496645103025
0.13819227428770853 0.71649130118222826 0.57752430165821345
0.072000625955367159 0.35719610121533107 0.74578113753179132
0.052657428773918991 0.19585084211444714 0.62805084095291619
-0.47243938664931612 -0.3221332325793278 -0.49172727099735303
-0.44246377907120449 -0.62901661131795783 -0.028272800037550727
-0.53922017265719435 -0.70614083249049431 -0.17263829881998705
-0.48277685995116848 0.019987204952697235 0.72961005312073901
0.62519457062375272 -0.34654478417302748 0.63415681420257641
0.60345909550822741 -0.38873984600415112 0.66141778693575493
-0.13018815303535669 0.32184994630218255 0.71573128532644281
-0.19520307416170724 -0.076579276400238205 0.69938653127428774
-0.27993504221999232 0.14628139970904863 0.78022440180324759
0.47560159061677232 -0.41339930151661941 0.71202204330819496
-0.30575088768367498 -0.15813031207472195 0.74398928014047971
-0.42056134850041238 0.0315497670248992 0.7473963573922715
-0.59700501289477714 -0.60035979831202635 -0.25505938635651937
0.18499582484345223 0.86031526534868774 -0.19117277004008004
0.18696749771524057 -0.022814812228639791 0.7684023335986212
-0.05082973038015437 0.38795891589319886 0.28180890255906732
0.054552478546280536 0.43257265231445929 0.72946173042187867
0.5806222063171772 -0.47082137248540334 0.4620070743807112
-0.035481271891612542 -0.12364287657543849 0.71975256771302742
0.22021260325453684 0.055076738842458006 0.57445664768637661
-0.63768994156183034 -0.19820860082941749 0.42714238564954776
0.7103288161246103 -0.26174464590849533 0.37540218531318592
0.14266025372093971 0.33333701101631619 0.66124351938985093
-0.027430144653642907 -0.32803377583008531 0.3253693007053795
0.55455824745580895 -0.5501119158717197 0.62150600664180233
0.44973087618477758 0.65706605777527149 -0.3724934290502202
0.0083259223291444195 0.52558140703838485 0.686584142299691
-0.36819759073765934 -0.032379046851363613 0.81371792466385617
0.24126330956807196 -0.12411703467948954 0.71491301182661982
-0.51678677927973493 0.19644668043991165 0.74178156674245876
-0.11610962065302044 0.16422243010204496 -0.21533999164954754
0.14349894248995076 -0.061127069646145227 0.78169213293011319
0.2603817247963337 0.82738300074992688 -0.304138999399723
0.265599813992625 0.31515382474306475 0.040711556001605143
0.67558799839279138 -0.48490456691398276 0.4987996615172916
-0.44043541948962567 -0.55291425619782064 0.057911705887961684
-0.48155755510142018 0.081591854770520778 0.7474836087443637
0.12407858704367491 0.33404239376536049 0.67735802873144912
-0.12013456182486459 0.4926562293691974 0.6323296678558572
0.44927705726874889 1.1107403267755265 -0.46492479236584083
0.30374819162417166 0.96429302793360872 -0.35276070175870311
0.226574774882767 0.69298831935942284 -0.26313936983201813
0.1749952119545537 0.3488262137894379 0.62645198480102193
0.28089022526985108 0.9987191359206482 -0.35128293001201616
-0.65538445079480567 0.019887163102668026 -0.35609553864722887
0.20143689214875904 0.70783626485333595 -0.1435719004164735
0.40043431457685608 -0.15204017467868536 0.3492277361956817
-0.6639748902113245 -0.40857049381378907 -0.0049460695926129006
0.006823746106517703 -0.32040016850811881 -0.32343523166556132
0.18030989400453534 0.80218317624623203 -0.16236644300420133
0.13764590128226517 0.72876944318538051 0.55567283209461094
0.49818048153173755 0.080466368327086313 0.61686094145892056
0.21627177385845375 0.6644844482497777 -0.18997328221304421
-0.67595787900677284 -0.53851168972133201 -0.39905778224765465
-0.19735078578884591 0.063716488840104946 0.27905279677794637
-0.75912142364790303 -0.50715866315321168 -0.39169669248206995
0.45187421508128445 -0.39969663573926761 0.4124185753598808
-0.45401727568146588 -0.53621581891275416 0.11623634911315195
-0.72098194704889451 -0.56638035385202712 -0.33317648682720913
0.0730999776616853 0.52909908382557347 0.64246952711121974
0.27912075923172652 0.63395263268088597 -0.32719125433673657
-0.11193013352289949 0.32120842100950275 0.73918862311869571
-0.12513601060586854 -0.29681289176619718 -0.48239166245113596
0.53312941756602328 -0.5241250349860147 0.66376413288606351
-0.36129589671171392 0.21090333178376008 0.66835626520341007
0.090060033514376636 0.32816435617258832 0.73380336864910589
0.30125006108970753 1.0175179271962498 -0.37219322077210792
0.4221607402215215 -0.31971024552676541 0.24084077494719791
-0.76601218438257646 -0.62052091571133849 -0.41137201907181353
-0.51332880246969481 -0.15740425606424435 0.68120356691818928
0.61984410832560688 -0.40003680219954674 0.6989534210363364
0.85305243345982595 -0.32960505808850304 0.44140305217111475
0.37259233288744498 0.77079516073624532 -0.3598419286436636
-0.41732920754757896 -0.13778242450121558 0.77830591812719074
0.082480147027665818 -0.072768217021642045 0.79025270643852963
-0.74088792283164229 -0.64400572552369462 -0.42592229194621956
-0.41314635110201292 0.1061371412447637 0.75785697787410689
0.72558855670270339 -0.2821089727082785 0.62930797168749786
-0.60813346205095642 -0.79332915172428353 -0.21853425597368581
-0.60116189673943765 -0.052064767061292816 0.69901969416029042
-0.31142383791362893 -0.031020949173898638 0.81580516490616883
-0.33493397922456469 0.10503902176417568 0.66768973468474968
0.074367243466017863 -0.3215670480089392 0.32807722661201533
-0.67174703030928606 0.96043286054177912 -0.51204094660205746
-0.47947994550815737 -0.73904194845315319 -0.10338141539814538
0.5943833394257092 -0.2169017530737164 0.36815623327807989
-0.33667876593053692 0.059627955635541241 0.75993140151592975
-0.14164267639789951 0.37304433718211472 0.75062212732464584
0.80903446524463174 -0.39265076025299739 0.57912149122386047
0.4296111185692596 0.61109576200063487 -0.27311799730775066
0.05982949529651016 0.24654834660418479 0.71062093006310789
0.58717247178378296 -0.3821489577210273 0.64975129447672986
0.69917953689858003 -0.44114628558676594 0.65358816853677126
-0.233565870910033 -0.10608907941866685 0.75341947799526165
-0.68755043340599598 -0.66333749276435783 -0.33616381259112549
-0.23488897204024439 -0.17704742578451604 0.67122158096133377
-0.06207485573079019 0.19750701341206556 0.72924754162169059
-0.77716840075695726 -0.59514969637047299 -0.40207054108541573
-0.030479229512162309 -0.17550387108588295 -0.17156220039257075
0.066040991658219417 -0.075083898063209475 0.78751011548489025
-0.34392551715542208 0.19259180190656577 0.78657282124590777
0.20828809261128933 0.15573415765412502 0.58938552253143506
0.69604130812241338 -0.38839054911687709 0.66371560025765652
-0.07012709756699198 0.34059552308586138 0.76650586451002045
0.40790153482128289 -0.37280239113207547 0.40215669229109396
0.13204918402124211 0.26889359433056259 0.63580873429920404
0.58391376714544396 -0.52417143256897336 0.52055088783827386
0.27440139319928458 0.37876606184947037 0.022684667445290518
-0.1055154029956521 0.54095065128454123 -0.61663406976718838
0.02171742016238698 0.27618763102063504 0.74311303309982701
-0.0075415072844725595 0.31619321364101705 0.7771725952340498
-0.51940133288970014 -0.68265554091493619 -0.18562605279027977
0.044407709714723964 0.25791770465160002 0.71566837373946957
-0.27265514798792412 0.054711585274354269 0.76577125374537935
-0.2769532298860522 0.35866402004304776 0.70401919713306116
-0.27797374726008994 0.86582794105224314 0.28306996889822456
0.38196015411193218 0.8940898324488803 0.15596462377914877
-0.2512853010141618 -0.32380255550780856 0.52879094322329889
0.25019195429212637 -0.61066853633657692 0.72571352585713056
0.24077455638202405 1.0398421143751799 -0.26452422010362042
0.27980352313273515 -0.075003744995055799 0.69761635974105118
-0.51385223924616452 -0.047557094176208237 0.71480951985629781
-0.44824089451986171 -0.56625347335806664 -0.0068730357871902292
0.042259585633832142 -0.063002443763974458 0.76907594733602602
0.72715411633247351 -0.36668554162994826 0.65265193705643987
-0.48764749463885793 -0.54746855902242353 -0.01209544868009349
0.094557422591151963 0.37350470074186781 0.72675408320577306
0.55808643172376859 -0.55498995477663282 0.57495358953871878
-0.65021227130665071 -0.25409577835050845 0.37411245475817134
-0.051854789304682902 0.47927672532373711 0.72616619078697964
-0.60112100278544434 -0.55048739673417479 -0.33490848855473976
0.43915622820984934 0.95768330658708667 -0.41365737005333081
-0.46495656834201282 -0.70065338676661071 -0.1673566202945711
0.22756865992894537 0.16028617604479145 0.43392416381925836
-0.59096269806964097 0.38064505096555523 -0.25356923788697117
-0.26883445261064831 0.42155216283671049 0.77993789225730614
0.23738391455605512 -0.24571459799847051 0.2369333214032241
0.18496424386862775 0.57620100156422249 0.5647076611269326
-0.11447857684326512 0.26182962862877635 0.74769932233023528
-0.13349991281632323 0.028857380492642748 0.73807134490605764
0.090769757515781313 -0.022441066239357599 0.72674601983924925
0.21283456835865877 1.046371737027159 -0.32079177099424383
-0.6502287731367975 -0.42572778542607725 -0.14949685336730845
0.71642460597359625 -0.37284420611771474 0.65383538467650171
-0.42538630810149258 -0.12544449353568421 0.78138242454576212
0.10016860803388039 -0.24863642369650174 0.66007908334223542
0.21285414579900386 0.65499413485008751 0.37507951449512955
0.65066679388667703 -0.42551286656291831 0.43396617917313174
0.19869774439473087 0.76367955794747533 -0.19522427662691744
-0.0035382685808593717 0.011742515634162842 -0.086694737698629787
0.61819733309185931 -0.52238870332141807 0.63038935989533984
0.38395526359805565 0.66088207487010209 -0.27834529467070279
0.19417315889505793 0.85760748117575425 -0.20174171244484329
0.59066100980340808 -0.57687865953195439 -0.064562817750207113
0.17427154169168224 -0.2241008944306111 -0.082879934730060612
0.48647979136346298 -0.38867916116865597 0.71639361951997849
0.061543429538421512 -0.69542615922214757 -0.19930361614344072
0.06597066744260871 -0.10869076927417765 0.75580265403109248
0.14818667879181957 0.50526369854293696 0.61033719504217077
0.22649669397662697 0.74337390309719542 -0.26348652602761558
-0.064307327442312823 0.22721592411388125 0.73733743325877033
0.52208875530366472 -0.20186938449299785 0.67666382720083984
0.093111883183225497 0.68812300604801047 0.63023620999755492
-0.32310131045686785 0.056858246507385801 0.76050454341619123
-0.73492862973170137 -0.5805659833270258 -0.35887804241642085
0.83709663664910472 -0.32822288879627526 0.42028659058723639
-0.8122992655675515 -0.59451639075562768 -0.44928491068960485
0.68689695439644505 -0.3170970605261445 0.62248135248647318
0.46877875600415608 1.0997300639971914 -0.44893924363793625
-0.0096635489854630663 0.2356533983510618 0.72652507140720468
-0.29194367662763421 -0.33108837959664816 0.59912184626395826
0.67816479766770821 -0.4501295657228982 0.66148689028555818
-0.34477687387298694 -0.10777754913650406 0.80731393047289157
-0.36397852190683738 -0.45844920486958696 0.27284502547602862
-0.52118703012837353 -0.78665397520833147 -0.17263448887931387
0.52294819146907701 -0.4976497613003571 0.68205613139673771
0.22478190693474298 0.83981870051014029 -0.34780515382276844
-0.19632728783386744 0.49922592341076522 0.59008573371609696
0.26004703980146826 -0.019414313036136277 0.68385606902215512
0.4444714727628285 0.94417228530219877 -0.47013055072811927
0.054676466360471632 -0.045669868335715735 0.76483789392584178
0.080495331732505782 0.314907447846139 0.73973962471542531
0.30858526834405142 0.55274252111133149 -0.19445041224772064
-0.15882906002612851 0.39126832620717145 0.75128846404650007
0.22302493860719541 0.68487761246549739 -0.23951622936616035
-0.39882242202655782 0.082185330194587625 0.67752530149141066
-0.12459101343838752 0.38729948299140005 0.74709461497827956
-0.11026763708151921 -0.17581883030727541 0.25647657017582892
0.79271464503576428 -0.40804397456665997 0.59116480715893793
-0.2681626133835332 0.29602495369269799 0.70027910756722589
0.3547852063605641 0.0065618658519963624 0.54283929791884455
0.37825932071659119 1.0739607318061482 -0.45720865289053236
-0.096789687852556594 0.42859630106462654 0.71501953401813489
-0.79618850575596933 -0.78031356132747431 -0.46539564059012273
0.092019992551241381 0.38808054845333084 0.72443728660307194
0.76331088335554698 -0.26890971835520394 0.59114385027337324
-0.7151805804520035 -0.62935217657343512 -0.38275215052937162
-0.62322828068349323 -0.76242680775841887 -0.26796563241931848
-0.10349618083308365 0.40725666485458212 0.73624493659416412
-0.31733524691981152 0.19296962430469522 0.78540695164746532
0.35897428110418894 0.92635557064458696 -0.37052475081271297
-0.35196693060578732 0.055798772323147672 0.75488603633791929
-0.15761310237082349 0.31428535908897559 0.68193838875496926
0.2372214823007488 0.1299662226226741 -0.081946547683762194
0.46242153887381243 0.87844732954165328 -0.38215680071185076
0.56272185687108045 -0.33940079055153727 0.69655380835240788
0.83352549959644262 -0.36433614142319948 0.55785810477670306
-0.36895440695306958 0.040529310301797628 0.75589156215355224
0.052104817302603967 0.49496779507188537 0.65817521090970743
-0.13485407200417399 0.41387829332311643 0.68874120113971227
0.22533947339408156 -0.16876002346673546 0.0078989868103298555
0.3804883519135609 -0.13031899465702523 0.69041153525930721
-0.65290929764758199 -0.90182703970524458 -0.5145649343881793
-0.40452963362190553 -0.14531947286644287 0.77620150361292906
0.17309029396351461 0.73847472134466341 0.15254347325487405
0.46717206340723838 -0.37707928939948909 0.71791588602306144
0.25623773264209249 0.62007913058391717 -0.22920536608210362
-0.71689402371789768 -0.64448031454537258 -0.38091994814517127
0.68328120968940409 -0.3179856275037739 0.61787316826160499
-0.40687653409397262 -0.62140873498732585 -0.027198179574593695
-0.53091674199903349 -0.37208862249463781 0.58610629934101022
-0.054082195422847423 0.65371248993664122 0.62657279005788791
0.16407364536911939 0.49205750342457644 0.60144517585959356
-0.18808641665981385 0.52650829610156957 0.78492074442748594
0.038756280145790245 0.29371947841783319 0.761157105920232
-0.53898482356445832 -0.23757276707305341 0.66790740424717976
-0.26478333667502263 -0.2042481627325663 0.6665011857298877
0.79775340634995828 -0.42188433336975883 0.4914836696085163
-0.13044143252696871 0.93790257707924463 -0.41469992498071795
0.67761562059684277 -0.38992285325422726 0.6554782799118577
-0.25981099497881177 -0.21493119210815426 0.64437813221628071
0.2039531742063142 0.6848741422194512 0.451677827329938
-0.61311920839414757 -0.63698011046783187 -0.26659430249721083
-0.7997058010043534 -0.76916494914345179 -0.4500779687785379
-0.65961206463084854 -0.73477183950660296 -0.30589711198231795
-0.13567298651364712 0.74703614102426541 0.3075901685084812
-0.018043285521276875 0.73969637391041076 0.065954397593003034
-0.42919502183780212 -0.21393547318762973 0.69691419630843088
-0.76249888873021932 -0.72036091067589281 -0.43535071441643702
0.60218300697766969 -0.5397932120529616 0.59290178103868363
-0.12586601584656731 0.31279005694067674 0.75134489123252335
-0.11904466105004519 0.4457505373153523 0.73500967798228078
0.27159211772119851 0.52839562897561154 -0.16065541595164667
0.33815949965459702 -0.41777520797941459 0.67925966798558446
-0.69288320499990952 -0.90103482230784415 -0.27661257647438564
-0.68710261998481292 -0.84254286571881121 -0.33936567866120226
0.25533492239712641 0.74056224190249498 -0.2929460980865537
-0.78685919805302207 -0.87899061707435022 -0.36061752453684925
0.10317616187949008 -0.27972778525381337 0.63690310179949439
0.61414957436857187 -0.48522412089112288 0.67287942702746406
0.44530751097429255 1.0296727273372555 -0.38280187080462103
1.0087828366571572 0.067687946041069647 0.21933375595380289
0.070615365170049738 -0.10239377388492632 0.77928897986951196
0.19336414620959586 0.83476356920892358 -0.19978061538216885
0.63437716722320969 -0.31705724697588544 0.63185441511107077
0.093060309865474533 0.32633129028794872 0.72137295308477123
0.62412356243519707 -0.25907215364781855 0.6705221311179046
0.21279755227472785 0.10194702617659357 0.47257728839458579
0.23198738305995636 -0.015112975862480726 0.73585247272961984
0.40794927634013523 -0.46384980026519984 0.67882433444093904
0.31600064164653441 0.020962755787516718 0.48630610912339289
-0.33556956714141084 -0.25864045099170907 0.63105937253547939
-0.14736072979056947 0.34918491568386223 0.69766561423723328
-0.31422563634224288 0.06571937389620941 0.7301925149479338
-0.027579915733344063 0.33199570226689246 0.78010579248408085
-0.088800574992085046 0.18582089306615268 0.73362531495176952
0.83525536061674488 -0.36630743310085501 0.44375764747367397
-0.49427298640762529 -0.50865667666712455 -0.34925678870133936
0.0063525964510928734 0.50417177379035416 0.68588298017014493
0.7805307461919252 -0.28594806814784146 0.58795891462130712
0.22814588620303511 -0.056167167699950005 0.73899585746175633
0.23793073510573115 0.98561846815970877 -0.37391102553584155
-0.47759323498302381 -0.21457778735183042 0.69303500908803217
0.20851507063021291 -0.30835394203500521 0.35422263274461807
0.23757164894974292 -0.065371984317406651 0.71813992708697194
-0.24194857159381167 0.56760306922885007 0.66769814286490492
0.46431590142995827 -0.43809412883132215 0.70434156361254541
0.40645067947524571 -0.72742934852432684 -0.090322679270385287
0.32749408661839186 0.82962269395796817 -0.34093435767711044
-0.24676611784989788 0.061227442355156425 0.75997728291061195
-0.66775629189031593 0.0078446075016276318 0.044719081855737031
0.15481653254977834 0.35414407199053755 0.63037761512608981
-0.62673010570970233 -0.47500653175456042 -0.13771779371044124
0.41347303409742941 -0.17410923031581704 0.43185385865258974
0.25690292301516149 1.081526765689901 -0.28027602361814363
-0.060901723956336085 0.45699044308437908 0.72198962021797586
-0.4568892217603866 0.042006370442351004 0.73747982955277891
-0.68626287837450173 -0.85080213031489804 -0.30560549585205088
-0.77570708450314607 -0.64385176209627626 -0.52616722797059778
0.19583129819024125 1.0087339024193043 -0.23509523964215662
-0.52324449486921698 -0.55611002007403432 -0.14883146366458977
0.055371377039092229 0.29322007000848305 0.74623524518965567
-0.21176496505758224 -0.01057697427222859 0.75972495622638947
0.041749795112648425 0.27040852402750648 0.72765965924766718
-0.42044490270372714 -0.23670074967818611 0.70434539896634085
0.16743404030131748 0.35064904455706425 -0.34891755093429522
-0.4255349982077854 0.08424703278067569 0.74953827849336019
-0.26187924230824255 0.30724228944419951 0.64352073764957574
-0.54572776091867137 -0.6439834005721512 -0.2159698428837622
-0.68798905103074492 -0.26814165358886655 0.10202893257700651
0.18386089919660098 -0.043043124853381465 0.7690758061799321
-0.28056085863586966 -0.047969662191304607 0.80371780479091859
-0.44535933989099968 -0.21900448326318944 -0.54975326601330998
0.12357913493421202 0.63665769138521844 0.6210513135988851
-0.054898433123914625 0.2870824168468743 0.74756218727166113
0.27176789371712018 0.036125459534411264 0.46980574695943877
-0.79749045455913592 -0.74766512651990302 -0.46599311575395141
-0.55972889044988561 -0.014273389006518533 0.50195498345617384
-0.10443998848601188 0.31101575081979871 0.73264733226553735
-0.013624048682533418 0.42610560291618838 0.75923321835296553
0.12587437223863296 -0.11430036251117959 0.76863577989563092
0.48611964001813746 -0.091861123424953339 0.40421086884862456
-0.17481836791496486 0.37262588714404032 0.7600452531410129
-0.086122252711237968 -0.070242109705984546 0.75788350790452164
0.60274741059551007 -0.46654940733535266 0.68617528836540598
-0.68390873698283683 -0.54301868519648555 -0.26808117176317259
0.63751613920091621 -0.39724364268610368 0.69178452137590107
-0.11509802948344761 0.24389465291401757 -0.25826072332420758
-0.1484380921460593 0.59393146223817972 0.17869470632623763
0.63282851161241027 -0.37684367585448053 0.63526795835397332
-0.33668202913414341 0.1172328224497674 -0.66134951957929955
-0.37532907372854007 0.10269699101042151 0.76109776143825503
0.090768183424792537 -0.095245956556226918 -0.39413569221123224
-0.45904006158485544 -0.10085297992000108 0.75973866201363593
0.15597561220673317 0.85898936454967545 -0.30122957039662923
-0.51901546857013503 -0.18639026019819549 0.68364205346610118
-0.42507429472316738 0.0021877451675953452 0.75577989665540146
-0.54843372100085119 -0.06958164836397418 0.70637169513618092
0.7033547020612313 -0.20852717030820667 0.40918506515062747
-0.16782402093256188 0.45413435362511123 0.76095885033402322
-0.22524144588669359 0.28556570570046791 0.7920227791392338
0.065192194195453856 -0.11072371939198078 0.74835351375433756
0.26283789015236303 1.0243803173752268 -0.39471782190296967
0.18577057547166442 0.38613283148619848 -0.3313789576046462
0.36765248263671169 0.6415142100655874 -0.26475069154285746
0.24583552226467953 0.19449373743372633 0.48275931106901737
-0.11150660987764716 0.44129660645090518 0.73548869976101772
0.45788270330434533 0.73523400815079187 -0.42103503014217258
-0.66435885143359019 -0.45033684771683236 -0.28337174195496706
-0.26632550468091198 -0.45543526386096844 -0.31575939551852361
-0.80527403420874721 -0.91079987884795477 -0.39870233192271165
-0.62047765366265417 -0.57485486013570886 -0.25665426322164775
0.27838111011690325 0.47080936932936379 -0.078495743550036412
0.18267957014759983 0.70650158657278217 0.50502609096095741
-0.45863693586026943 -0.11954246197739105 0.75064294061659664
-0.61118777558880621 -0.01332886952589396 0.60561062443988911
0.31504961127986397 1.0403844879107957 -0.38164202448665385
-0.074480707896758869 0.44928886790979317 0.72816496056280045
0.45562431412660842 0.87770607348320384 -0.38530805258267486
0.174556289188318 -0.15925579908241261 -0.17529985016051608
0.11255359129876719 0.73215365383753295 0.44123887825129815
0.21059148708279762 -0.062545294887129899 0.75357293702481298
-0.53400786774884157 -0.61685680888074845 -0.19141944396741106
-0.39016214857059206 -0.15625935785959943 0.76521386655710399
-0.64137751812021782 -0.21016655867685818 0.66034401592778025
0.34026732934839243 0.60366288093301301 -0.23869448028049289
0.28443718984311828 0.14291728533431114 -0.51125197578783288
0.62303829114293741 -0.21494306833278964 -0.51425650567327308
