# XYZ point cloud file
-0.55469491111352587 -0.11611520450760027 -0.34726861907722323
0.35736096389182498 0.27968718602496334 0.046104146461743378
0.014094521157709096 0.032407881632989868 0.12357025771941038
0.040686599079283597 -0.22727545371379793 0.57338601801424316
0.18392353502514713 0.21001574645755725 0.41957009826112707
-0.09351639118075078 0.12728461296702887 0.42013333205934184
0.11754694934442919 -0.23772012260477382 0.58864529502873442
0.11351230205111754 -0.23461910046245277 0.5893833500795933
-0.43627200977241842 -0.50264597673382128 0.087263453201395655
0.032982199127624054 0.17463939892953281 0.43030214567872949
0.0034209048584571411 0.05404711618665177 0.51923775323868893
-0.16712758383779897 0.18943999746684825 0.41158557123550854
0.050699247181358681 0.062941623197972571 0.48634259187833262
-0.18509006386157884 -0.3500456122567146 -0.12150783774142024
0.4552948622536156 0.25702203034953941 -0.010134890314373785
-0.1262103468945166 0.11583072734722169 0.42999773939069968
-0.089337627667794239 0.1445075635434247 0.43065366874715322
-0.4299513612205908 -0.25057366779083984 -0.010898663277629103
-0.10698718630785556 -0.29942834260003776 0.50827387891175346
-0.29591204631453577 0.18685691602682683 0.21863224493157091
0.23507892983357198 0.16803504805908956 0.37246283430117894
-0.060519470714736623 0.13989127962664366 0.37579550304652137
-0.15980246005971732 -0.36168371529772836 0.26353181105080981
0.16201304000715369 0.34445256466211149 0.34074653683252837
0.14002199556214484 0.33870438293486516 0.39382988604526276
-0.012717447927679371 0.30291139060821937 0.32090971391242556
-0.027263694321380288 0.16648698225741423 0.42009489795533406
-0.14711395674674341 0.24102298944132505 0.33908685120527793
0.31481857811605474 0.22860257758220198 0.056248595379363539
-0.23373784982118898 -0.18687817521428729 0.17558094474599822
0.096348886970560654 -0.21388871915854385 0.56010775696509707
-0.10859617224427491 -0.12859855367863321 0.39920287995094067
0.080050999128614436 -0.23370208446692198 0.56415580949033373
-0.121958029365037 0.12159833520785665 0.43358320409598761
0.17679224123400428 0.18686936240129004 0.3951182595619076
-0.17983839105291821 0.16280458812176241 0.41892666445751348
-0.59747893591334056 -0.30347401846060118 -0.11720480340965131
-0.21269320764064462 0.17932826296601664 0.34086192188293823
0.084315308932615546 0.27691580940739496 0.43779531560971879
0.10093379862365828 0.20373828709420286 0.4444053172924019
-0.18195723628577898 0.29553737792365714 0.31578007174668271
0.46198214162283324 0.35429318433153978 0.017331625871167419
0.23864906774529654 0.10598462011499951 0.061728390515650766
0.32754061765947168 0.31272523386173434 0.48649786251038751
-0.34344231231578282 0.056600315723819988 0.22794752250113298
-0.17928027560978638 0.36781725341177479 0.23854624360703014
-0.092364201811566737 -0.084649310098436542 0.20682610382860286
0.054741568381898184 0.22687218723998068 0.41327228426407481
-0.49112028365741489 -0.078724373508666526 -0.29148095443221805
0.080202004375696911 0.30540133616958665 0.4088553713710944
-0.12349945836067247 0.15016341707129321 0.44178209514754191
0.20675930047935334 0.45139527876565433 -0.13042211062206091
0.20157016607027278 0.053726423232414618 0.0086678968518803801
-0.10327836196262702 -0.28950391868260539 0.55521385287316771
0.3300722986996813 0.2673359156407375 0.058888403616811885
-0.094286110564107684 0.17748621284092772 0.41000103015331557
-0.6205238993480815 -0.27851598657118948 -0.20508231772078631
-0.0964283548958315 0.33112421810581927 -0.083391393452194262
0.25778010994168732 -0.013243404297761573 0.069441658695771985
-0.10132160133413606 0.1306335147365143 0.091037019401650932
0.36382632810721016 0.29361671414876855 -0.0048588983002850333
0.2843804770922701 0.3368252521259848 -0.0044078062082198999
0.089658869768517072 0.037751516670434165 0.37265070079790474
0.21969015642865186 0.30210223290431315 0.39396372827402443
-0.018545374699174985 0.051443726992983996 0.51611428327745035
-0.022179760769958132 0.052003893991382666 0.49015133381005022
-0.1551065184725971 0.12306239162624538 0.43447365534967869
0.00083030958193312798 0.056895827457013881 0.4952475795378547
-0.41302252201175627 -0.24095032560063595 0.0050592381644598144
-0.1047426484429177 0.2950107851852416 0.35332968364501033
0.19809003198254693 0.31980630016399636 0.59929970818897393
0.004791327319945915 0.22407152239427583 0.41055296588184065
0.27277851814607401 0.11965041966733253 0.013860294966776585
-0.23777918891281125 0.0085571547921707847 0.29433451003030109
-0.11733452955941936 0.036313841481885031 0.092241692043995821
-0.20710693271246555 0.32306931858072818 0.27520504599534745
0.27164628977404992 0.38683247715663338 0.37181676875380582
0.1316353007483777 0.24694857674845397 0.45234191906347337
0.067546771909901049 0.14519038591838537 0.40693828372183399
-0.28604002734147682 -0.1187773087864382 -0.21018355005977266
-0.37358541674819756 -0.22426443736197893 0.088002215188399929
-0.44249456170099621 -0.25431897905606271 -0.0042010357794525915
-0.16586455987637691 0.26288338595211402 0.3279965317986317
0.06073038813220618 -0.22052264259365639 0.56821586143412905
0.0345251986334454 -0.23115677465838252 0.58658463434282315
0.04671109861458559 0.2848492692227344 0.37992657734945323
-0.095839559696089524 0.09793305614727349 0.41203195915041785
-0.056655634593441348 0.25855405175052737 0.39022721021129203
-0.024482336103074653 -0.20941091858114358 0.60436514807296349
-0.16052905702530781 0.097370068663817894 0.42402945463240005
-0.13872061047173273 0.24481690535111364 0.353472748965731
-0.41802438176976375 -0.18008544451248404 -0.087245495269781703
0.3050728652601688 0.2503498198702524 0.066620046104801711
0.040815789363230243 0.042710238348798168 0.5291400297197143
0.07886374446695385 0.19188736669270515 0.22208435964380457
0.14827235874231406 0.28809298242966264 0.43287667512167094
-0.024727788720410981 -0.30937545487319196 0.47972019921731024
-0.067218852763262046 0.036482829049029691 0.46846760783214542
0.070153238558612413 0.029753057089514839 0.43317017539626046
-0.27592155509821925 0.15977321721141233 0.17431551598572459
0.11271217740014763 -0.26326095671790667 0.43126206470621647
0.14753157449837775 0.19526927451392537 0.43573390303165033
-0.14729819075092881 -0.13222622712269677 0.30731464979225775
-0.062576173742698193 -0.31539045411363004 0.58276125401129486
0.36158921516654935 0.0061075054687865296 0.020736162664406796
0.15683419758886036 0.34413481656184086 0.38992777391349864
-0.14447521667144106 0.19899951818785411 0.41785388867406276
0.017602677445065745 -0.02501100589123309 0.52409911773082352
-0.14114182696325303 0.39509887149663436 0.2846205138252984
-0.03265476631540197 0.010978026259553547 0.013222244485601178
0.011898164573895316 0.037003352250968485 0.53151635722897161
0.32718036144802332 0.17850170623832534 0.029988139252749346
0.13777917225063357 0.0080246503921705958 0.20234328941056484
0.0093377211176687777 -0.32978784610161505 0.511541501256081
-0.33750455934272966 -0.17024315237656357 0.12037229620725066
-0.15085466632590264 0.30315848726231343 0.3241145829027276
0.14145140280423726 0.20435737880433882 0.4377750028246789
0.097365788909796247 0.35797980139361185 0.32590087366326853
0.58424633402428028 0.26453995255836843 -0.043478307475793565
0.41189130578663119 0.2350871008052951 0.0062936899520944639
0.25509686760214467 0.12656983007280861 0.048726943913478801
0.16349828802570054 0.18612713095115896 0.42811011994088283
0.41330834942634653 0.26573628769064872 0.000780252649639393
-0.23043492807762267 0.18801283355847312 -0.25891901969353498
0.25311695582917587 0.1702628527402168 0.099527352538701083
0.033969869785534311 -0.14810515970268259 0.37349607525988643
-0.35588463973407747 -0.0074003527286184145 -0.0094888041173832038
-0.16646097192685896 -0.27093107847627051 0.0026606830818492189
0.2804463718357702 0.22495953801850566 0.081920987406233103
0.27458986672304431 0.3882896454766307 0.36165588931735332
0.19260553297563604 -0.010209797757893491 0.51016472173454319
0.24077783256573373 0.13200673309662497 0.082714057043699496
-0.43482106052668207 -0.12699068927937587 -0.21149346696388638
-0.055510087566270266 0.087262008507584865 0.20651421480957652
-0.4640117090786452 -0.065418107150894342 -0.24890829852931409
-0.043064242040080289 -0.25644885264942174 0.43070254451944234
-0.33353198161029229 -0.14821198071286992 0.14369555560462446
-0.46291421458005577 -0.11358109528165219 -0.18612911274030555
0.18376069694380692 0.31322044239245322 0.39235286408382802
0.25549414511663809 0.063727474774773391 0.026157872793376197
0.052658407612439902 0.28359150399778221 0.39651847634560106
-0.19407327763940554 -0.24838901915308714 -0.10871946826923942
-0.056813578966834116 -0.28903709608767247 0.60202758385023625
-0.062313463103039229 0.30688408122177124 0.29925795141876566
0.12878068330379738 0.22412116273461546 0.45450823614719499
0.43428989342246588 0.26647992646375945 -0.0076163540072914093
-0.031062219847674273 -0.25175048950169432 0.33397714709410425
-0.51695699784322391 -0.13457343006404154 -0.24314040488065969
-0.22821349381320988 0.16353498717193216 0.33491038180085625
0.03901867885383465 -0.23278930111057633 0.61284371949887273
0.15845963077180239 -0.31309785958365616 0.48443426063029243
0.36596950125628508 0.095588626847092545 0.019179225783217457
-0.19436151334160623 0.15190977543914219 0.40978820957985401
-0.012339917368705364 0.046468592873953538 0.52434871203804689
-0.51455521236710822 -0.16309537611885014 -0.23727368937028959
-0.11620791349738779 0.28737047308263419 0.34562265758064703
0.13524207443576464 -0.21305533404657631 0.57275879520856099
-0.51266564148993088 -0.2883927381329377 -0.034500348885585647
-0.23861895308468545 0.27124937871143207 0.29314429786816709
-0.12390603081835766 0.1796124521036056 0.43406767261175233
-0.081039635005632257 0.2348290617565105 0.32608187410132705
-0.12134305363172879 -0.15300670911005437 0.32599894092447068
-0.078036523094451832 0.91087374939741617 -0.59106905557637823
-0.43857051255026075 -0.28648418221403771 0.057220985806752764
0.081069514365733647 -0.21681012161240101 0.41219647709607532
-0.10029409534379705 0.22845322812957342 0.37905004992072877
0.055848535092703121 0.32636242592407028 0.38537963542367049
0.1190762899967009 -0.29581762925017363 0.5624944639631595
0.32559540827940925 0.014212384816633818 0.074277970873667817
0.089863876832777981 0.18611846266808404 0.44214901068882007
0.029956118274118856 -0.226902523103338 0.57673189228165189
0.051020750323782782 -0.27907421002325411 0.6002163369369381
-0.11995827492634678 0.10394271359030405 0.43606844180384885
-0.48917955061242147 -0.18863238624078518 -0.15702631863985123
-0.14206640831737496 0.054265890979799669 0.40670245152693574
0.033073423931544464 0.20040030885877402 0.42195444450118191
-0.51169188754465189 -0.11204801552123529 -0.24700552416030019
-0.11882142965734567 -0.16063476851381503 0.066993395965972938
-0.018491178681148121 0.048511916573291208 0.51953915354196811
-0.068683950900317384 0.31331515860354603 0.36510312101408887
0.10383620916762938 0.07993317960393545 0.43085862119439794
0.075155468183075128 -0.24959085208541071 0.59937188652333029
0.073011405000817958 0.28650311003711137 0.42004253669853098
-0.04687705804455982 -0.23616820454518492 0.41715053432179117
0.11980775315445971 0.16083701582745161 0.42568073932925965
-0.043908028269767092 -0.32592580391514087 0.5204773541084069
0.16382111179628678 0.028840328286013822 0.19523107620021818
0.079533467986389689 0.12044641729793541 -0.21001534708030803
0.086712274404566692 0.21886213111885056 0.44381018967613389
0.088906099618030338 0.25614793697828397 0.44718114998296049
-0.4252588441830657 -0.24953403860421469 -0.0098334060228926351
0.088280167070798082 0.19704128637858909 0.4391649169953904
-0.080069899485965532 0.20291469914458665 0.40142746284662112
0.0033959540285945222 0.36389284247709253 0.31978801194136286
0.12541976995650789 0.61170243327624663 0.061568239792282861
0.45170312373590599 0.30302107919311649 0.263479769684419
-0.19812308158801042 -0.038244699314803968 0.35919867367586766
-0.20371831364164911 -0.28160091455489572 0.63323209723211438
0.40812486402002279 0.32795417316258124 0.032166258172473483
0.049251236447368937 -0.014287103850609162 0.51713379696352146
-0.19715351214163657 0.23414541246404325 0.32637203512560919
-0.3464945272774308 -0.18410415878083175 0.087131763525943595
-0.021570322089960708 0.056089760030573727 0.50244345471004737
0.098695937386915317 -0.24793926168343985 0.59413681426459453
-0.34958087652060765 -0.16029496887634559 0.070302829137281461
0.14526688060869261 0.24445862662642162 0.44888489548680688
-0.06546357116628003 -0.32725450682371093 0.5553466268976649
-0.29755005376518023 0.1252357908471271 0.15616127186007389
0.11946025268008627 0.34859748843608129 0.39160478115614983
-0.40353397193673807 -0.16044941003231883 -0.14208824510065804
0.500412238921359 0.17280080119098581 -0.0078268975719502643
-0.41669992544022771 -0.27740398508258868 0.018507052828696871
0.099799428116332065 0.042697289476500033 0.36602217337916065
-0.10291190785194256 0.37820985910191773 -0.22863331421628952
0.015973882483435314 0.41871694212323562 0.34721878519593857
-0.057262868328477302 -0.17571705123344236 0.30275638290414791
0.24497816721097671 0.28567281798243216 0.39188376813167036
0.034644694325167091 0.25438103227343722 0.40724345266235712
-0.043095783692322101 0.13943589208945414 0.42980018034939449
0.0078727555169849986 0.055657446138090455 0.48584368687441909
0.39403638176448591 0.32957629502044872 -0.0022691269917500118
-0.36204528642218542 -0.042277373595854512 -0.077524429170017783
0.090902091962590637 -0.24836741966781478 0.59418055895365873
-0.19340439838024712 0.16239960193261516 0.40636302704502364
-0.077102956464455613 -0.063709205998105464 0.48565010017382815
0.27333509403179801 0.26969187557821717 0.31862521668863852
0.020694662467673274 -0.30910698886991095 0.46660854235808485
0.27236590935046251 0.18937192263997255 0.073007569267809352
-0.048188217217011019 -0.069491942116391439 0.10367577706014872
-0.023473017899317349 -0.31068649124480097 0.58967163548752366
0.32189034931566407 0.052993216922153391 0.065955630629305095
0.30811654591091731 0.24295996098034811 0.064131844920481323
-0.082400197238536504 -0.50551840257621039 0.19905256464325083
-0.083682853990126288 -0.22298534974732742 0.14392733283124531
-0.0086487869384823529 -0.19791429250288647 0.60420461060326713
-0.29197325250143386 -0.44576224971110756 0.096976114406698816
-0.031406389053163619 0.026797473719299372 0.50754650693954517
0.20632317576432513 0.26934257555113639 0.40415080636192835
0.27550576497940493 0.15311160118169054 0.046966448738080827
0.04148588902643352 0.21792973499596022 0.42157301578561879
0.086162556072594085 -0.12360807272048124 0.56230363215304646
0.24220013096501208 0.39905913024643469 0.38010098840661816
-0.096351859667897582 0.22174767402641385 0.38384191297414677
-0.47817261756730511 -0.11857872322856175 -0.20491770292766065
0.14886137129461985 -0.31399961404975141 0.47107117732871251
-0.53762058897310583 -0.099562603287072213 -0.2927569482733835
0.10021678807955978 -0.22222944883396364 0.56658604632717691
0.59388996679083306 0.25438840222813086 -0.031220277656993672
0.062570494583501002 0.20358484858927109 0.43120864892641808
-0.21517422235305031 -0.020083921510131525 0.38842472743703926
0.038058357853693402 -0.27778726259583048 0.60394963679938229
-0.16075723843483858 0.14763455698444156 0.43776575531111417
-0.27680203432420125 -0.11339905608283232 0.23094714959277574
-0.47713349657888121 -0.31036777349034483 0.015799477525609451
-0.047364397594568508 -0.26904260501701671 0.60727134633300772
0.31374127022259696 0.18890825965863411 0.00048429107214592593
0.071324616761472809 0.38412135359108113 0.27974444469107335
0.063155141574448445 0.011587895743255597 0.50065942185078804
0.49984821836332127 0.14993164902489681 -0.040362447260026107
-0.011328025991849414 0.06056248278033835 0.50049468605211911
0.12093015151143451 0.22141158798935132 0.45563375949873647
0.23735279317495894 0.045116882646528779 0.098954410838471507
0.054155937463533227 0.34386368034668602 0.37740712640720148
0.25064822450699886 0.12890983331990999 0.059825689845022345
-0.11063753975558877 0.2513129767683665 0.3149257353146766
0.066114741214339662 0.32724209579449237 0.38757998855205689
-0.11342703778057266 -0.05324751402693273 0.24222168501558355
0.10490534083392535 -0.29665299848607662 0.56920864938081317
-0.00843350534744991 0.32148584677775693 0.3311863310908667
0.0960275173144296 -0.027521473651355224 0.44871228421556242
0.51322888299995029 0.26111646872508776 -0.045786880823437237
0.08825723610272343 0.33258326605665545 0.37732391768644086
-0.61367976994113516 -0.23109550707799228 -0.25790186787613367
0.14896048405307258 0.25219064058618801 0.44589279530583736
0.15579855683893401 -0.22464305824923228 0.55514827453216165
-0.49096475192674527 -0.16084667037069161 -0.20247715843628927
-0.50457954014995299 -0.26882367089318127 -0.074956690972491385
0.079637219766860529 0.32814599093361974 0.38718058538375616
-0.058167507694858026 0.30162041599960865 0.3729078255793144
0.42941856145166379 0.18852159226773638 0.0073802259121065056
-0.10652661337746672 0.2314210183649795 0.37272445564430312
0.035582029593269456 0.28278731872507562 0.35698294443686196
0.05490901485204374 -0.091151513417835839 0.14510861474027256
0.47738424453148331 0.1231877819849144 0.014780225133319821
0.042924975467195092 -0.19177256817272009 0.59540735137440581
0.14282460679534772 -0.29341677547898054 0.55056813552715533
-0.11726047220626856 0.22987653404608038 0.37127835660680991
0.16485826903043499 0.30473330631791995 0.39510915630873683
0.0704962085891567 0.33192140097266382 0.35467490925582618
-0.046734349560363452 -0.19173793015472887 0.19171402608621499
0.062637549450839408 -0.060588815784331798 0.53827069137633687
-0.6039778319818514 -0.37951334691330163 -0.2143848119877424
-0.19211303851239969 0.14267975057232679 0.41378529212075954
0.27006306833379951 0.26929076482096048 0.2148432390097722
-0.010599979270357732 -0.1880668406090239 0.60049225894561353
0.23988998049206803 0.087062803230405286 0.072410247207385273
-0.49838065571938917 -0.16916252122325776 -0.19928939384025304
0.097724057215429899 -0.22288122280787137 0.56355044261714793
-0.36059554562038032 -0.2318427813438606 0.096321728854481731
-0.30792712821217633 0.031983116180424515 0.33414558361973895
0.1660153716625426 0.43028508119517961 0.32772730974206454
0.20804940287724935 0.25551808311617552 0.40595501332479339
0.072920480701589158 0.45050735874817727 0.36250215616738246
0.09888843640885206 0.22723009908153061 0.45558619722448773
-0.26582913172903244 0.12490720852118559 0.3412922700138673
-0.16056184093892251 0.04835347699489434 0.40259313566510407
0.092179273386467822 -0.3287565185268857 0.51283503141684006
0.19979850717863901 0.39948831247778649 -0.14542980022923191
0.065426963376332511 -0.24819850142407565 0.59238486854700745
-0.16212114132025801 0.037863833588870854 0.39444424452527527
0.28613797318291179 0.31082910335728736 0.34499499999359973
-0.44099989333382628 -0.19621221512967132 -0.093436685931969424
-0.60899926526138881 -0.22025699831365925 -0.2515522016989919
-0.50815001333779763 -0.2413254993825267 -0.11522661458945339
0.15648805113030506 0.4391840866453241 0.16300819005507169
0.18844741769820833 0.3184575271368435 0.12232997203678589
-0.21813596165805058 0.10105949806356698 0.38008690358911107
-0.56221970443699498 -0.20289183514417528 -0.23739201601016291
-0.040154859750870429 -0.32424838012565677 0.56795160066857353
0.045122866069590387 0.28676482649580021 0.39880056051333046
0.083992422304743644 0.35629480936634428 0.37643349519260977
0.211813917029786 0.053768970719750342 0.10951524770867105
-0.076711464742260024 -0.19132696642991537 0.56645236053175485
-0.6102515239614742 -0.33589260388516989 -0.071609159150530483
-0.57742715074060402 -0.30433313506091564 -0.12329994791728476
0.28801751567887379 0.13484423162084999 0.037693340091553826
-0.65117000210986853 -0.29238318187592427 -0.1618728362252792
-0.089187053466240201 -0.083247792975443075 0.47903999071336312
-0.0051637363969532432 -0.28146406399627732 0.60939389660232335
0.53970040157439847 0.2262616626171306 0.0078084035785046801
0.45907987988247223 -0.26604584733839565 0.37877466684577155
-0.027428810208065257 0.033096322392980382 0.52030011614958072
0.29847346466883057 0.23031808374078211 0.066170306700351664
0.077837974866327597 -0.20893290326411967 0.56498134357839314
0.12887618955054958 0.21937648821428815 0.44972481027481104
0.10336660936224126 -0.17164350393772262 0.58006878567313913
0.077067535945422455 0.029666493006133984 0.3825940776156741
0.057975592954993098 0.030101252177601803 0.52101285429678756
-0.07415134293085418 -0.22919128168867164 0.58474461399777555
0.082876003219096425 -0.025398492898424121 0.41396938621221802
-0.20008756514675599 0.03587106537031759 0.3785849671654517
0.048468671374865747 0.30204439999485677 0.36274541874989624
-0.088707669138736511 0.21733108915338525 0.36954041062054055
0.086214117372201748 0.27141196862522199 0.4407296299448305
0.020688121914364296 0.2035452942399352 0.41787679543771528
0.13232493573003043 -0.32446197055490661 0.48573247008689285
-0.35158154257245722 -0.18590181283730489 -0.11768105103434942
0.14972726670160275 0.33214550403313048 0.39108914101040848
0.15603959124073369 -0.2371189906890554 0.55659302164974567
0.04093292636165638 0.01308476994463359 0.5262388595944486
0.38244997718605533 0.26767394554133506 -0.018582737469867716
-0.235631283935064 0.11787679183134608 0.36552618134817766
-0.081704492638491735 -0.17234330126921693 0.35878990610281436
0.039569072545101516 0.0028247388301610582 0.51823917475840087
0.065529711640874566 0.47311749682221527 0.28301516723813608
-0.040617498630404619 -0.22164649346827933 0.60269195218256877
-0.20909362171693521 -0.5385446200649654 0.18563179480574882
0.3655348657385849 0.14819728565106799 0.021971107129562961
-0.069187412177523097 0.19615793583861135 0.40465792218155022
-0.22346889381594831 0.24460168099662041 -0.063651161422656866
0.15767029597505752 0.19487303722719848 0.42397334680973414
-0.37109478164232029 -0.079789282785019747 -0.053787017775890525
0.036366954430225452 -0.14165784287171512 0.41625823971254466
0.43543978363393898 0.34791659611602882 0.024446638986818064
0.10974726906839058 0.33771719766230979 0.3892188220677571
-0.14957097213857326 0.2654404627993539 0.33513167104276342
-0.57991961790002899 -0.3064670655929988 -0.099818366205520537
-0.54413541893422124 -0.15833562104197385 -0.31696753244580378
0.37026742954518294 0.33015696779695314 0.037755603408165847
-0.36850938643266001 -0.17069027975809239 -0.011065541325120318
0.10456599953577633 0.21883267381189761 0.45336434151043015
-0.080850458694675775 0.14731886956696824 0.42679929706028913
0.091713168995041977 0.20675701334810814 0.44284663309255468
-0.22450125025817036 0.086325839363415785 0.39221209933401602
0.10188068639247874 -0.03489234850229378 0.0013314126300000562
-0.12630374451656104 0.27841777907355891 0.34202386638988064
-0.0011681323485257106 0.31213767226965305 0.30642820305153412
-0.41723730707183548 -0.22102223397941295 -0.041177525129153528
-0.31494769207940165 0.10021582393390469 0.0083632282178740663
0.032045711818644247 0.034273521290065029 0.5312239312816579
-0.1180759693286382 0.15788208039726223 0.43922736791847561
-0.24700206182065798 -0.087136075014829284 -0.24268891383986338
0.24005763281541245 0.35459206044127545 0.39145884704941658
0.062852304951149865 0.24835703572705306 0.42213481846931461
0.072212068350179473 -0.012657903014823751 0.39701420301181978
-0.59874212663130721 -0.20861593869618847 -0.26584965656254744
-0.19000980617421664 0.24133080488850026 0.19713768007176991
0.052489874670761855 0.27388872312445295 0.39714458251760781
0.11941502639035786 0.31349106207824684 0.42520617950399325
-0.014584186473595773 0.013601072583132673 0.52818006478182933
0.092929232663686162 -0.12967325944419511 0.40980412070906103
0.042989066959291083 0.34146154998337741 0.37862027425822026
-0.063166659150788645 0.081725694392604631 0.46780234790982123
-0.00028808135313487804 -0.26664444122449904 0.61327932773162619
-0.43054107136782782 -0.10929955532237616 -0.13685621038223333
0.047384297936200769 -0.23630077335280497 0.6102877928457342
-0.010048352846277898 0.039100586745768648 -0.01011103523261267
0.10621790261327313 0.31678938313685967 0.13227981740330808
0.050273995814174001 -0.23658843582619155 0.57334173667478872
-0.1161324864671358 0.013299402857329362 -0.29144364537187417
-0.10246468709832587 0.26910234353903806 0.35965026362093977
-0.072502170402184568 -0.21436204047707547 -0.028675400071390245
-0.19576168659984772 0.18624306218522424 0.37915803477579441
0.28820652364673555 0.23588899517820183 0.0081526923603814361
-0.24080535179202506 0.14922123191313574 0.34200794697988707
-0.1498251883668979 0.2312284758899861 0.36285131140992244
-0.21837758822561676 0.23552848563727288 0.31699179336752781
0.13587476781595786 -0.22959402787426123 0.44622480124761921
0.066047389324341538 0.38812895304426076 0.36981160154609866
0.00011229766781992168 0.31859354069258206 0.39005190506689291
-0.032473281890996533 0.024633015888670742 0.50369586434343816
0.41385533328872093 0.27975731441220542 -0.02725713785177189
0.12113919565825246 -0.021500348562915373 0.012899205009929832
0.30418085934678152 0.051919704774158124 0.071141620884209777
0.12275036314256912 0.06417673016156912 0.38981477296359662
0.085724946029330978 0.35084724639281639 0.37982914896309228
0.40606207159457486 0.033238451981074016 -0.0071577227978344427
-0.38562284989793655 -0.066657085819306877 -0.15301797954907481
-0.2722497742896986 -0.24118263077065147 -0.039149331156759656
-0.68225263291035787 -0.31209513364857144 -0.18549445706033696
-0.41615394405284045 -0.15537671376168627 -0.10066563531453554
0.19529285267869548 0.044541969859239819 0.14961845748672231
0.28691725518253897 0.34547852332905782 0.35827557367341933
-0.20083181211120188 0.17382629096592556 0.37877514633886616
-0.2231874011829599 0.28671607627433782 0.23076063225827559
0.45344197618660476 0.27515734645574585 -0.011698846738926211
0.10230032996016261 0.33976142422328032 0.38825235174043049
0.47221360324504702 0.12412683165363167 0.012289943729477684
-0.065559502441966219 -0.2170687317366739 0.097151199398297694
0.25859963852181583 0.36481908072069347 0.30748572918244654
0.033069855811114025 0.016738245600118454 0.53102510331054886
-0.40012691350810387 -0.20663127215429367 -0.02816786608219321
-0.18978325641025029 0.12976651667406169 0.41396928301073532
-0.3029461719686114 0.18492073639565118 0.30188453918755997
0.27343568009260238 0.048559867090591763 0.081116049921786518
0.074752993738444129 -0.20800883144905669 -0.076981664370539105
0.10663662408657014 -0.50242236725083922 -0.083164633767341956
-0.031539960406667164 -0.15937444633666548 -0.083654742556081102
-0.014532299235180249 0.31088911234490457 0.37409071644204206
0.22148042668846471 0.51310544582585393 -0.05019669581657174
0.53947205716330748 0.21882600160585933 -0.046782964949617395
0.16543429624860853 -0.30910178767925883 0.49892342802580691
-0.034844692778012443 -0.23761454412984417 0.41338636200009188
-0.32927635901889429 0.17304204073147381 0.27569443230152735
-0.050654814335143426 -0.17007179507369466 0.3212495784338415
-0.16243710398779082 0.29133039937292382 0.063749750951189482
0.19286798076745226 0.30263245308905995 0.16767372378313883
0.089980847713597184 0.44305035808937132 0.27795686116588081
0.068022737818970697 -0.10322692612183096 0.55749427149866337
-0.23495510208646084 -0.23859396042869951 0.10269604861727064
-0.05992730453913378 0.00078915787381944602 0.47445060934465133
-0.16406674161388834 0.085708103307613359 -0.30722497973634733
0.13042210109156169 -0.28536621085050695 0.564200376135087
-0.21131273308371601 0.21320047907896347 0.17305972855714433
0.23212037245231634 0.064936214600014308 0.085481168992379244
-0.027970354339163506 0.28756426580706068 0.38656387328504049
-0.4252084303665748 -0.09881754543803592 -0.13361249998932551
-0.14770944933024155 0.085754413639766713 0.43347254258445495
0.052982353107524603 0.29379246815831395 0.39529847963318043
0.34550535078832828 0.20125264227644435 -0.041593117840408533
-0.14050892100417456 0.64932560219627078 0.09343870937180522
0.31791534455835868 0.2893865353823229 0.045435774245575197
-0.0068811367633197368 -0.039155238356024219 0.5294439058736693
-7.2299627498953467e-05 -0.15166025067560895 0.19023694458574175
-0.030859212280746062 0.036005837810804533 0.50671045968101558
0.047293623292902418 -0.0036542690295793684 0.51355245963050167
-0.10904412728114052 -0.48108435388691329 0.20856176112529395
-0.54896117975722492 -0.24809804661060125 -0.21794242463356672
0.29549792365442307 0.097691965461689081 0.041257322956092496
-0.10457302821160218 0.051275396008317597 0.38308072603086674
0.016633875473072587 0.0087196180430269554 0.53156306154640709
0.069535328878653407 0.012207445352374738 0.38013138578339345
0.40810391415742886 0.21187362625937309 0.012030649640053181
-0.59638493960632366 -0.21889693975102448 -0.26254097619378464
-0.25160907882602329 0.15716576536120011 0.33282727334635087
-0.55826266223251875 -0.30332552078873709 -0.074795297813084569
0.0095419534967656136 0.067435414303435096 0.2118743014808106
0.014640915280404551 0.075102489045703727 0.14336378153043133
0.13000556682482306 0.094532363293576616 0.18861208950478392
0.32332725692646902 0.20831991428443503 0.036330635577550813
-0.38235395701741159 -0.18757631900102059 -0.041771452392297917
-0.4898367388157594 -0.23082713627408638 -0.10576816507805932
-0.099656855912606715 -0.050698996790450757 0.39678383677804124
-0.40646897690558903 -0.23375599644484246 0.067017422665639231
-0.11800260752410485 0.098409335725304581 0.4362504576924866
0.016904035594746167 0.17238317136350756 0.42661464745919703
0.46783927841043238 0.12009785871582629 -0.01357152117425095
-0.048494942981015823 0.40756928726127667 0.069868249222426251
-0.079548347162722077 0.15486950317728401 -0.31929342868798305
-0.13672928592156791 -0.1324554609095196 0.3195396560791911
-0.58408996552552461 -0.31115024599339913 -0.11414954198302099
0.41623009883739559 0.35394660088318164 0.023536696557009101
0.070891728582527569 0.19226160072087597 0.4395583646466607
-0.31897518084254295 -0.02737471087600607 -0.22480443490833291
0.0603477747456505 0.49434289837438911 0.31097110862549415
-0.04362553222720239 0.30041168698215193 0.34179533354019787
-0.2465754498841313 0.16894595576535887 0.13501350023541503
-0.085410141521801694 0.129032055218118 0.43287914297411684
0.16615863115814983 0.16365279687186579 0.42542145220047101
0.032736183844263744 0.021759701555214547 0.53163900281102416
0.028361588257103609 0.35629073607213069 0.28817880845597937
0.055752456162223421 0.061206921212528798 0.5157656860023131
0.10192460393944688 -0.24726315633519769 -0.24423081472175978
-0.18640444568974562 0.18818129881472181 0.39626286431646818
-0.38686241684807776 -0.10994302095276141 -0.072937486216976169
0.014367190199737825 0.05477691271447184 0.51045641360446115
-0.034870464411960983 0.28291365526803647 0.30587691630326974
-0.32626367232038067 0.060874951578866132 0.13722569190825767
-0.048203912968402575 -0.31723697955724828 0.58178419229394795
0.096535851710241011 -0.01432447880562867 0.20002111557381638
0.24736739646537548 0.11529966843448435 0.049671656591689858
-0.070109101244264657 -0.18622363815001286 0.38336775522675176
-0.53939000597489717 -0.30064192555002178 -0.074011462549807658
-0.23331852589325278 0.16191897478011691 -0.27586505049986326
0.28741825293147438 0.34517371018934229 0.084232490834621643
0.1819507775762709 0.32280429117180931 0.39193396951255771
-0.34821856926233363 -0.15749548670128319 0.085053108978503156
-0.45865588187160133 -0.12878996534178369 -0.1769571552844395
0.067227666947041312 0.26308545165806441 0.42313976869653508
-0.38223466465135741 -0.1902827135038283 -0.031820653532018392
-0.18694988222254416 0.1369806127108926 0.42025437323896303
0.28472825065640983 0.40867073489103478 -0.0046862495784922159
-0.62041842862494312 -0.26487200659267884 -0.22329653398608393
-0.021075967201197837 0.036796914389284632 0.52654682288574439
0.21057867633680749 0.070820466087534437 0.15044000705004268
-0.37516384076599818 -0.15171957733482611 -0.033604310177239916
0.28599995482826945 0.40704565362373274 0.05143846279131057
-0.0033034885025699859 -0.18955300189395147 0.38356133557714001
-0.28318994476599491 0.14802529024478969 0.31937643362047696
-0.0046490251362849982 0.20592633728653928 0.41362750940946258
-0.062901256653668317 0.16690351622149405 0.4160296181965753
0.38735261341724808 0.30797509453384175 0.037207950305609916
-0.012008650811814847 0.05590855903756492 0.51443724411698011
-0.5776126206356148 -0.15781985233695545 -0.2746353239808505
0.50383853173071014 0.18916050077061514 -0.019463399931196168
-0.41069685530599143 -0.21359406552241178 -0.044753599527225074
0.20195999040439069 0.018205037813101572 0.035011069168396025
-0.28294192660064721 0.16854056598681766 0.1906499939915704
0.0067404684463519687 -0.18774805387124915 0.60278793809888953
-0.11291053148325267 0.23313218454846771 0.36710718358827149
-0.12771276365324305 -0.035764257226476859 0.37793212515671998
0.056788724508117359 0.017657791832622199 0.50760000795019355
0.1072097815223359 0.32793251996897232 -0.24399150507818376
-0.1046766796172653 0.13209200013327194 0.43202685965272447
-0.022399873342327556 -0.23692485735085386 0.41018294780518266
0.15722371789539155 0.31737760712961027 0.39029273806945852
0.50430259792036003 0.27421376935684161 -0.015030409634410713
-0.2139692791992121 0.20102723958481164 0.33964631624099317
0.083320607408808728 -0.047875431492312104 0.40410498651870019
-0.11158360632878697 0.24007034747611833 0.053708036414829616
-0.21948219618706749 -0.27250098131988454 -0.028743034210277268
0.27798911517004188 0.17654559645207035 0.061514904091936745
0.43566253173445763 0.22703685687594846 0.0041629363461751223
-0.18762394968434482 -0.30246869975165214 0.093469303588851818
-0.057090853147648946 -0.20591747417942211 0.14476679410943596
0.00073682149335461966 0.31097339778805549 0.28466555323558224
-0.10425542061322357 0.20109680912511327 0.40097827900778488
-0.18868064802346518 0.049221194841720106 0.41923443452034792
-0.12216102744998728 0.40007009940492444 0.26106786889739303
-0.083986680256995683 0.31982774079428411 0.36210916018045336
-0.60449456896544329 -0.18089745196166729 -0.34869200514037041
-0.26705267180177156 0.026730899611981662 0.37432598955771279
-0.25716351502981205 0.12923611671816726 -0.26521451571528748
-0.11097605048131015 0.1932876270668473 0.41992933463932552
0.30866498687840277 0.098590163696356925 0.040276312163319727
0.038047421157781057 0.48601518097592483 -0.16822960004552728
0.26496261539582538 0.13955912392941294 0.047813643032454639
0.41572459839744669 0.26072739064377759 -0.0013876595976103218
-0.14006256144820725 0.2557282075647041 0.2809874969479581
-0.13278287850761888 0.20610716150843858 0.41606905369944691
0.030894807063228343 -0.12469107431613502 0.3527086292957024
0.20273711417895321 0.12181814173985811 0.29929728461254118
0.056822342452836308 -0.32715855693312873 0.49297533330060617
-0.19643602861373599 0.046779625212518161 0.38746654463642805
0.13925158627265671 -0.012424534483546766 0.024288841469622735
-0.12860901494576926 0.25099983207605725 0.31876978276264367
-0.4564117979355421 -0.14097234149267923 -0.16995679855753748
0.18295180985921891 0.1190135993888975 0.39742700693831406
-0.04602054205321051 -0.16790194042214351 0.3343080278999449
-0.15493374103853183 0.13700445274915013 0.4425403932924149
0.11868046248573808 -0.28682374440010289 0.56959922068175051
-0.072328508028675451 -0.32762352492329982 0.54017311034978377
-0.4542603832232136 -0.090894853413660034 -0.18428694814146351
-0.031681464482658031 0.039283801993905951 0.49263572419446838
-0.24480378961587232 0.1494371851216591 0.34175153863571872
0.032455529783630241 0.42065371066085266 0.36488864509514291
-0.26044039072028224 -0.2495106383671134 0.13448897646834465
0.32648956378512012 0.055465769276214189 0.047120509860230503
0.22641775247580873 0.26466079986469004 0.33157920096091104
0.18033490977234962 0.26700933224729262 0.28227517492446325
0.22234712366729231 0.39217420655229984 0.31466003893424077
0.025875793134088422 -0.023943077355214878 0.52343211468126227
-0.16398955908056553 -0.67074238692813015 -0.05927196803233005
-0.2202522800861858 0.070056704812743675 0.37384973115326187
-0.12191881330695495 0.22603882563822678 0.38003997668314421
0.043160875162692153 0.2474756182864373 0.41321931672562873
0.01099487098769792 -0.29348752551227142 0.44993004431386346
-0.11078168569123253 0.39661519999822092 -0.058944190948121838
-0.07688876980732387 -0.29118921829808708 0.59184878004301278
-0.0076535495257574436 -0.12749601930528523 -0.20339572446139947
0.040068323793106889 0.068965348806433208 0.51081545353848845
0.10713702935745034 -0.20323244021824863 0.57478455530522732
0.076717497991315053 0.024720562131296975 0.37626412986387042
-0.22283863504650583 -0.41708222985052568 -0.23588689737676255
-0.032396394800306025 0.054733918091386419 0.4876318072021405
0.27031264419516821 0.072355125755665883 0.049288636508495368
0.036536514078605413 -0.16406117605872805 0.38365682819406421
0.18505288052502236 0.034313414739736516 0.15742233361470953
-0.079422528363504524 -0.089357790846017929 0.50385208059308928
0.11628196346802404 0.25303044968665722 0.45262769509070194
0.093436288787816582 0.39176089002347819 0.37216924292597658
0.01418008123958267 0.27908301109646583 0.39736728468055582
0.12011583446294891 0.11690808464858815 0.44025081592718107
0.16495029862372243 -0.22477799443037388 0.54352946739980479
-0.4900965762469105 -0.14473974393175087 -0.21621771261934564
-0.25431712614894947 0.13875275968586909 0.34294699466063483
0.11896051388830045 0.36270835451320521 0.379951381516552
0.27692054529813476 0.049230932291470193 0.068771328398556444
0.52769410964398755 0.24640168289489001 0.0037766569316615983
0.11311831006561464 0.22391056500894721 0.45723890644291226
-0.19849245034076154 0.16753685079247579 0.39400407746924354
0.020685794090482656 0.3844217206876101 0.18760977696280884
0.1687166297487423 -0.30227184140957619 0.51285737131418796
-0.22909998480693505 0.25665586988078648 0.31132416674515173
-0.16897043436194126 0.28922758047873309 0.32003981609933368
0.044077916907108189 0.47826459158286561 0.32119126581899049
0.19015582559772337 0.26857282032300211 0.40481971680791079
-0.27887474609026841 -0.029309181806162987 0.3078549792098374
0.14288071913555173 0.79121183346534207 0.1922963657653794
0.15161468091799832 0.40148883592330664 0.38323195794092058
0.22568333087665879 0.32259542851086964 0.39129363009198398
-0.24618469803866588 -0.20713946092566077 0.13713325698585455
-0.1291362274833053 0.063799454842898007 0.4425810054222804
-0.098932446880108105 -0.20758023583019772 -0.10846875797835634
0.057736873415382063 -0.11599555517701374 0.37698475585135599
0.035514252123915513 -0.21300167095757019 0.60335261880685465
-0.11078056051304237 -0.18978645493593449 0.45728399766215638
0.033802012330040973 -0.02159417414382489 0.52213145140420403
-0.23729178465770628 -0.34626148448570376 0.31864531388296502
0.022001166140432914 0.22629480199316981 0.090415641322837387
0.12037412426265393 0.2118444979470242 0.44774313718377334
0.098737719749912731 0.13761607824482008 0.44848820901868747
0.16904108627782652 0.38171330495250633 0.38554395804066882
0.19063096389646003 0.27176119337987065 0.37879646172812853
0.49033705581680115 0.3011422287299822 -0.0026424600037254914
0.060495861755267819 -0.19308366777723882 0.59102164247923517
-0.10748758458515908 -0.15694383187219346 0.48474151470885063
-0.19909044475714069 0.057321526275379675 0.41287033838635301
-0.027364276233367082 0.04616036235793336 0.49035423324652028
-0.13451233493451084 0.15271960185703021 0.44491091586770781
0.33326238689121068 0.10696161077308761 0.033864587348468658
0.097791893007839109 0.35400556368115377 0.33921030620072173
-0.2712375852426625 0.11229092769112983 0.34429962298635547
-0.18343556176969769 0.2368619656081043 0.33911716185879864
0.26475844855251363 0.21800391421360116 0.35857502094229449
-0.55778310738091663 -0.1301294403603899 -0.28120518422907259
0.25058892737648764 0.2647973654304267 0.38902738772231976
0.27369399426198843 0.28964672064026153 -0.023183425739783312
0.055035567338567758 0.054493352274138637 0.49253176157979633
0.086745067743622367 0.039211866943582627 0.38972187526114704
0.091074791735158811 -0.056733861612483824 0.1094533354890489
0.21626877076673268 0.19381378174340969 0.20869530497397512
-0.18658629331391907 0.11477823949373131 0.13225137417369309
0.078667843083880196 -0.025217303459910717 0.51154507436031194
-0.093219811841241937 0.14576578995545433 0.42686931773314546
-0.40509402976957143 -0.14637215684886193 0.17472168674427194
0.22360994753068245 0.36525060227569428 0.037324840734703685
-0.050205929656825896 0.094082285256732096 0.4635251949348817
-0.35524957328190809 -0.044290719612119486 0.080744820962554864
-4.4975040847744507e-05 -0.15589329276107042 0.58850431567021777
0.18670458873909365 0.26821144433702898 0.40302845822602296
-0.37568480211143229 -0.065322345515923558 -0.10209481657387495
0.19830181442480507 0.31323062960025128 0.39417656338244667
0.046067889209552723 -0.26931050261320133 0.60601480993924117
-0.21156974760185959 -0.010113273155278255 -0.2816286329015335
0.049450179465549332 0.35193685305075095 0.3755945354140634
-0.06782908875000751 -0.3157766563906016 0.50556618266700948
-0.35240815803377801 -0.0091512682066129392 0.046939981205376569
-0.6299988525263196 -0.30279096753450357 -0.12720283472860594
0.18098270187039581 0.25759943001159585 0.40463506574499614
0.10404340627042882 0.052662978596571014 0.394217754585175
0.20683497530686834 0.36876668359522635 0.24343081470800595
0.38965888738456034 0.27735300930007811 0.022354640237077963
-0.28218730863034525 0.22583180361594316 0.27894689898590791
0.073099568900646089 0.44618756034540197 0.27323018339500721
0.10772989004871525 -0.21946460528262399 0.5770715919098619
0.24969983925214495 0.10822007327164079 0.044764178591771758
-0.087987502214197655 0.24152031105428465 0.37905276011625105
0.09276520012319725 0.47664666077385431 0.30170676696002535
0.57296260391087162 0.30760144848486304 -0.042925292605059617
-0.43724676312228178 -0.25139680436473255 0.013062699186366683
-0.4148954481865923 -0.23668979701773846 0.054814545756633623
0.12215864131085344 0.072164237474892992 0.65634038765325631
0.052252680447812457 0.014771749919187518 0.5131802644881609
-0.11141949049665198 0.23646631564792975 0.36864619726456183
-0.33953526374543558 -0.22886369403872922 0.088758456427229002
0.033400949317198225 0.13052361126138179 0.45435213914395023
-0.34808807094545557 -0.13187006775192278 0.10850815491737324
-0.053980314293923796 -0.20067300226368989 0.39233306989161748
0.080741228762378214 0.10239463841918535 0.46239907568277722
-0.02246373995489262 0.05350268367596106 0.49391360254524425
0.53753401592787464 0.19141975913355533 0.0077111313656553354
-0.044073277450868698 -0.17119083237652521 -0.010708180659318417
-0.24315435775588537 0.11400230511637943 0.36628967029365084
-0.14651884706936574 0.32934710794246047 0.21051318372972661
0.2536175673617822 0.35430797947283432 0.21482908704079695
0.25014774085752767 0.11474981103766438 0.045857771038024839
-0.10170838756502643 -0.00029533565559897168 0.43170518365755489
-0.58305967947852544 -0.31016704262169631 -0.11948800837181048
0.17961737950386017 0.10599826844243561 0.37839264248136834
0.10403600839770639 -0.17434526857188859 0.42029806605008863
0.033396572410409747 0.07021811593571739 0.48924875949268753
-0.14961478824060223 0.10155569726768057 0.42702267634633151
-0.017364374481136223 0.099315125001183391 -0.40460228432428247
-0.30104796066480116 0.20530657036565367 0.27821633638468113
0.17381745826322023 0.37866023727825937 0.24265754302220827
-0.44549134546727953 -0.2808375233069561 -0.028612474173839289
0.14997916741041842 -0.018632271279214976 0.061919296203313934
0.24675484376926457 0.48419336062106211 -0.0042428669476077679
0.12322250311392238 -0.24511158450080617 0.43536311745013317
-0.068877953115863422 -0.010194348482512341 0.4604229107352753
0.0029273198782149984 -0.037547442755839343 0.52992182216099926
-0.23004507033687913 0.063817451761399108 0.3931217326923509
-0.058829637192674353 -0.17182868561220377 0.34551664894514894
0.14446835295012544 0.25510487755983047 0.44700834367356829
0.19162348790693784 0.37391906825056354 0.24218033868166838
0.013278108562156662 -0.1997720202491054 0.39378193806888234
-0.15369123390883066 0.18298969551140384 0.42527416781940452
-1.0373787104490373 -0.76556759143965847 0.34799390444079714
-0.23421321814660626 -0.27719382896882999 0.033657742646275871
0.059439156951663512 0.044120954848803309 0.52458936997761785
-0.62096753184983877 -0.28623427512271005 -0.16793609038822799
-0.22173291586587168 0.030327864861241172 0.40397637148524068
0.42193818681384959 0.085056868064128002 -0.00096770462646875166
-0.18425747456076735 0.2933745932440186 -0.20807735129457433
0.040386388041371846 -0.08236126822512578 -0.078638279972835956
0.050689495779558037 0.20758199543044978 0.42837485012374782
0.14221921684848682 0.42045175219249675 0.2982015532446905
-0.24083800128081734 -0.15309945555543941 -0.010599185045841189
-0.3332072618795725 0.12997619382586942 0.20685808018690163
0.0092177299590045711 0.05248202643440783 0.50044634370801933
0.053336890364471881 0.02436947786805152 0.52219106180657171
0.25845555974075463 0.055957566978074538 0.059179045049737602
-0.088732099275327908 -0.030903644041319941 0.41570855057315687
-0.079294903069114173 0.17297413486476151 0.39814991231439478
0.2549642238211125 0.057532436137637616 0.064546611593856579
0.15042437905281755 0.21279761234314523 0.43480722127940152
-0.51776487258574355 -0.17959539995110255 -0.20956932140953513
0.13149691900863655 0.38063220040490714 0.37897138636177324
-0.53939690944067364 -0.2304803806974966 -0.16135197928688494
0.29668788397726581 0.57708875944694493 0.11705862706512245
-0.11881163066730496 0.38333232577140286 0.23532705330563544
-0.28337747607013897 0.1761740969147858 0.31238761258902081
0.12058249331381954 0.21632404072392702 0.45079042141818437
0.17432902569638822 0.23447029033602956 0.41601762933747793
0.10187621668846208 0.34586402753909512 0.38783733893211758
0.24664713360457613 0.098132810212813767 0.051785995243227648
-0.31281976501297687 0.091144981411914405 -0.15480480254895551
0.20560674988443653 0.30601648034803802 0.3949233966854922
-0.36241264853803923 -0.097867682405316278 0.01345181403456891
-0.02881999484030448 0.29490808249380929 0.37452172331780198
0.52890750587467505 0.33842714161377424 0.0050788717190370924
-0.13356431067848396 -0.12794576698968779 0.57623603813779578
-0.22735070431360718 0.1428721642376351 0.34535962262320996
-0.084589469312683754 0.22049483354164159 0.39120221960385132
0.25443325578336817 0.46147150991023544 -0.051037098462484387
0.45635310310394367 0.093520131518092423 0.022882395672572012
0.0088821952963165501 0.043331323211542663 0.52911056389350397
-0.026429150661402903 -0.061853448228598076 0.53573758780714531
-0.098224338908954892 -0.063053987878053372 0.41034755514313043
0.35771502284960577 0.20932542475466309 0.021362584535981985
-0.14443525612278238 0.36530146153643905 0.21233648702846167
0.061303179964858179 0.030409089183105475 0.49850360912458025
-0.35842884105258022 -0.13077780927469621 0.023834167817427046
-0.019257628836801252 -0.18254358215944999 0.3738462914328427
0.083542096181990474 -0.0053881860268034792 0.4856850162119809
-0.006644056610730309 0.30294990887872292 0.39270177465320216
0.062279699151782122 0.36250378187585136 0.24652705088882323
