# XYZ point cloud file
0.14467680690264473 0.32383659397793707 0.67130501948099042
0.68171010835152757 -0.61492643617281573 0.46299640796818942
0.36980753563398849 0.48696046871182475 0.010742534551287264
-0.15556972136995029 0.50551271545863941 -0.67526348524402291
0.0015800989728944614 0.30549259289744768 0.78042095092217778
-0.046420165945406211 0.34838071270758775 0.81737735699290948
-0.44695488500638447 -0.75134199893895826 -0.31469505258041386
0.03547362218333916 0.28816243259351637 0.75068083746349501
-0.30331227454821175 -0.016137229675127429 0.77116834648771926
-0.40673572192719121 0.337913163083428 0.71223135733538268
-0.59888859809169759 0.79160950939654739 0.25958356632684687
0.3544966190518295 1.0959802465216075 0.16327382898042408
-0.16314216550335203 -0.4514342144910195 0.45067223966585468
0.35672854829394041 -0.87395741333803478 0.62642729827149823
0.18085382811484152 1.1069353376971058 -0.31763160146968605
0.34518954353973896 -0.093055363726161744 0.73078966445803673
-0.59235237511348515 -0.15599436404132661 0.72591293395609879
-0.36340296045488429 -0.64277529636617814 -0.14068761982975242
0.089788425345901146 -0.12885331495949259 0.78528553183306116
0.77944471629211165 -0.38891524844264502 0.69742679549978881
-0.42520067189857969 -0.62690682912838724 -0.13167604977644254
0.066837037943031419 0.44436756184212456 0.77602547639023101
0.64813538247116398 -0.68178088985266427 0.51030470769929881
-0.73623175282024533 -0.3780298395217585 0.36676457676458285
-0.14203182381159962 0.52789667731016365 0.75384772519880894
-0.63778908339244111 -0.61176656182194478 -0.3990525010030499
0.46911738422105742 1.0861643673764654 -0.43411904984699845
-0.36220019632759914 -0.76467003058648686 -0.31800351562466433
0.29999962974260796 0.22033618546467437 0.44127342756601884
-0.92028996299425359 0.24006183183741214 -0.23774045134235411
-0.42007740843595087 0.41565552681265316 0.79860713552246709
0.38557815619802938 -0.24003669815416728 0.15391846884021998
0.14620315612219059 0.70621707667949352 0.60619952039785208
-0.16116945838646046 0.25842170298678724 0.76843865399642564
-0.12350186891983839 -0.030136609582957163 0.74154005191963357
0.1397028806541627 -0.061847482646552265 0.74536272666483327
0.14627108002286349 1.0911863784983264 -0.37934554086310346
-0.7311291059121956 -0.51264321090552301 -0.1869748551570547
0.76959727547612289 -0.4014077202063806 0.69443879350196891
-0.44034402935205463 -0.25352771709106392 0.7828952870785848
0.19310340566770634 -0.35239936443089803 0.62946429226129652
0.18748129181008011 0.78858091439321853 0.39478799150334254
0.75710631420471231 -0.43930189603173453 0.41095293089360929
0.2131624798081333 0.83992730887011646 -0.23028022221799027
0.094986717620088257 0.04656222637855123 -0.18005677207321202
0.68711100869309405 -0.63927133894310906 0.59774521106568468
0.47135274334871013 0.79215191445616995 -0.27327135335750796
0.17966187727371619 0.92697757720691953 -0.24265340278703107
0.76200430860053103 -0.51457981205147618 -0.14123713235315272
0.33525421378319464 -0.17008589773889682 -0.18624755559990014
0.55416234174827395 -0.49998456764597599 0.71718208211244949
0.26638031410241325 -0.68108446190493055 -0.40122890682771928
0.12404621774975766 -0.18515168193166787 0.76563234626320753
0.113842328380521 0.61336350544076268 0.65237419449403067
0.25909197108472881 0.82316282487894199 -0.2946542306326343
-0.089186828902114712 0.2264874465811566 0.76018672719864089
0.58942044245006286 -0.21127120233308538 0.72472088529537704
-0.010431105398971852 0.80397964335413086 0.66130593828821826
-0.36922278541013753 -0.018275961447685063 0.76586494739727451
-0.84128048131168853 -0.67663539172549392 -0.36270429884797784
0.92691043416904861 -0.25552841526443615 0.47594336002989834
-0.97568018673479529 -0.71024473390010456 -0.40247290930169211
0.75153669621753494 -0.32217640827862049 0.66666899540972757
0.45608931188677815 1.2275094263375657 -0.49438452794946031
-0.02444743605789057 0.24829685229073206 0.75464855391461771
-0.21088329443645648 -0.47872278857461481 0.53379097826907884
0.73265864543473569 -0.52753607926717905 0.67078798707925102
-0.34407708626809352 -0.23014522423578043 0.80897701319845972
-0.26517312648052638 -0.56705697202423977 0.15256255762938187
-0.40957269013393471 -0.87016745419457919 -0.32503225583325723
0.59458677101442703 -0.64192693695490277 0.64876961956084589
0.23522793181462021 0.90381197671889879 -0.38634150544820134
-0.33513465700504241 0.49959704882652289 0.58728564722553767
0.32127371551263906 -0.020098872145599245 0.71970292518749268
0.48105098566093574 1.0633963492231757 -0.48688634157855581
0.10046976547759101 -0.10319262417942454 0.78384892979158849
0.062130964362182795 0.36838328812169152 0.78712707397207904
0.3976380156971473 0.66761762639839262 -0.20232688602709281
-0.25720664240788693 0.40144781690800713 0.77122492830674716
0.26754225565727552 0.76786328848137231 -0.26847908168727841
-0.4809654691249392 0.0073625682785909419 0.67672855694766199
-0.21044500219569784 0.40432311079619865 0.76944232339382435
-0.016353074752714747 -0.21142173971625411 0.15893150697826108
0.84934936778935111 -0.41548351165102915 0.63016650448604761
-0.37239058932417635 0.26894558048416783 0.70647716851040432
0.43792009509771646 0.050551340767096775 0.57214829975126058
0.35742321213238171 1.1638540336063521 -0.50540187963837369
-0.18419771953281128 0.45671975464659553 0.73586046653582571
-0.8735446036065575 -0.89415371304117386 -0.46313371610608511
0.060707941572090363 0.4613924090019168 0.77320178882211366
0.82766269079143839 -0.22395850294218356 0.66202920847367164
-0.79540582228457524 -0.71898598172045425 -0.40245680514383508
-0.58061317623521802 -0.84748410304838728 -0.36866954211557279
-0.18815042223449296 0.43182231720318498 0.75930734442441139
-0.40690782918261448 0.14475355146745628 0.80104130024898179
0.38016778709886978 1.0331753166265187 -0.3973810632043282
-0.40706630783071063 -0.021996650641366244 0.76045399522540613
-0.22710037745039813 0.30983904964586273 0.69035105039943545
0.36774245582543585 0.2161749391529213 -0.12594024559380035
0.51805713802976783 1.0222601842844341 -0.38583084012652513
0.62495253832329212 -0.40441798145793229 0.72158718917628484
0.89439827066042454 -0.33286466429512807 0.61649613715787677
-0.42457820371867427 -0.041969549941953233 0.7616329942607889
-0.0073277192186651519 0.57235950939505997 0.69115249991257155
-0.22802653454336763 0.42880128235042392 0.70201259726365972
0.38224091548580219 -0.11476183372458948 -0.077418699891792286
0.44973739407455326 -0.14654910647848673 0.72953336959644144
-0.62032519554373522 -0.97443177139234649 -0.60215181899326886
-0.40691368475867762 -0.27727659800748938 0.77301051625755179
0.14631262020171221 0.83928497424269821 0.13877213289884693
0.53658470551536652 -0.48760777711775383 0.71899754993363452
0.32284893163541994 0.71611812562606758 -0.24973142066149911
-0.79172194065464296 -0.73509722687092705 -0.40270171016429113
0.74931007082078693 -0.32355618514626272 0.66016350252219436
-0.2919799629381572 -0.69490877520714989 -0.18163097246220239
-0.4958463912582971 -0.53901491425319037 0.54570288272200196
-0.19357852409092402 0.71084182147085428 0.63803660979614563
0.13745519275177287 0.60268843225304991 0.64490670909335623
-0.34495777765253166 0.55115096835325161 0.80600195074654923
0.015658873607677037 0.33164835069106147 0.80482559592236935
-0.55418550259753374 -0.38438356188283151 0.65828725977266289
-0.2158688337492336 -0.32785266679183778 0.62963415033869374
0.8746611234902737 -0.41065292535196463 0.51515941333093362
-0.31381042596184727 0.83620212532500204 -0.48580434681228901
0.73488944878844364 -0.43798312050632049 0.68228299423300509
-0.20627060930252838 -0.33723327179782814 0.602056380420251
0.155585665258549 0.82605462177134825 0.4787669733742943
-0.61399510283881398 -0.71079501341276696 -0.34611968537903737
-0.88043764774409183 -0.88468958263084474 -0.4456116061971227
-0.65298080667789549 -0.82133600043956534 -0.38099666087165396
-0.3127441422444619 0.73876805669705803 0.27761155876308319
-0.10377893766846569 0.75592581610987963 0.020394821182470935
-0.41690681154992149 -0.35404769742848785 0.67633395522218342
-0.84207045704476258 -0.82314110773740623 -0.44175704106177882
0.6817140464276541 -0.65613819796777229 0.54495049073976887
-0.19025369818704263 0.31689376745825726 0.77305657164948283
-0.22049898121616707 0.47218666359369266 0.75636237776519355
0.35544523205675205 0.63423655135337853 -0.17608117748191354
0.43186502605307098 -0.56079011593180006 0.64071621269525014
-0.62096146923932949 -1.0169639973134323 -0.38324419490379347
-0.65447620701043618 -0.94090430743879239 -0.42372744931998696
0.29797968161994959 0.82717899514545579 -0.31908588171316765
-0.78708276955275025 -1.0061441267347497 -0.40487134657307378
0.20368905613670307 -0.3888991806279769 0.59564064325970456
0.67449778584438747 -0.59916203325831141 0.65925053747796358
0.4508197287166098 1.1651329779790913 -0.41566267843795224
1.1314543035631104 0.33993014709026426 0.39603222501046353
0.12483697021505691 -0.17954145143724887 0.79560704567357821
0.18566211111193809 0.90528361303834259 -0.23938198326597249
0.70267036848330022 -0.33871980542249425 0.66570176789826263
0.076444703908649103 0.385528043771874 0.76811153533277654
0.68495252254384198 -0.26519567852861847 0.72483727126803732
0.28702281842930688 0.14364960224969536 0.47688723969546043
0.28395642138556099 -0.025928178066443763 0.77849698888646568
0.49562629057724195 -0.61506924152050857 0.63674365512636477
0.40561170095164556 0.065266258071773109 0.5002883507717284
-0.28537243473358842 -0.39473285278263148 0.58495041076170118
-0.22524230858274308 0.35267951483719884 0.71012625857200007
-0.36004235016048369 -0.0052555814732251349 0.73096725520486183
-0.074982075924751257 0.36295086138190769 0.81834078669686683
-0.10828048328042428 0.17133768842881025 0.75106849332813574
0.91934634832716 -0.31263739298389659 0.49022735249870664
-0.48993774140310364 -0.54277285724867852 -0.44509070329786771
-0.070744639269982201 0.57063272085785854 0.71579361352175663
0.8434388029473574 -0.24252679394500731 0.65831744979963691
0.28466627772054665 -0.083258855333891546 0.77556326875305004
0.20696602000309383 1.0394904905485607 -0.42453297627830722
-0.47972384333628781 -0.35645149763750084 0.67851870992830721
0.34997767541536717 -0.34596142060406265 0.26847135147512535
0.29856811368679104 -0.091290397786291777 0.75031924901170477
-0.43306865535070926 0.56879176285810829 0.67304007237115648
0.53848262368217092 -0.57404722833371657 0.68419113341764515
0.60236346176923306 -0.70853176355858771 -0.25737652495427765
0.36763624208839474 0.93256520728606596 -0.36123205972796413
-0.27218106357810257 -0.0050258435205599028 0.76503851062521289
-0.90276433629234987 -0.10007247390064933 0.063470898267377951
0.15410343575108953 0.43498243560329897 0.67342446611391615
-0.6742080784617599 -0.55883527953758971 -0.19313045017719066
0.53007544163946818 -0.15636521645960855 0.41982442939460718
0.18615841806656874 1.1493077041723367 -0.33712212290518107
-0.14663055645226564 0.49936627034934133 0.74804817685754177
-0.54608909775372894 -0.046587659270485915 0.74922818749175457
-0.64184591271995828 -0.95450059338578441 -0.39695026816961754
-0.91307975924849316 -0.74490779006939078 -0.49815597832560465
0.13038828863594887 1.0626731441711978 -0.28858690909902673
-0.4904487578027954 -0.6211344427571639 -0.25554687564899958
0.036910969256389592 0.33496035681659109 0.78988817532308886
-0.2085853328246472 -0.090614408057440698 0.7602006542327655
0.028199841466701514 0.30303870972068125 0.76499674841932741
-0.3975029773730725 -0.38397128706390049 0.68112083910642873
0.26068987141849931 0.42237611353224835 -0.38752639804932087
-0.51766899313415138 0.0055362788057138346 0.76174522974714964
-0.36499872502352559 0.28039760364457322 0.64215548088841512
-0.50310297822968408 -0.70992682380557781 -0.32654314824905628
-0.82106862643129119 -0.37803996713947186 0.099152814172048021
0.23358547295318743 -0.077733926102435902 0.80712800302996612
-0.28338406657189807 -0.1485948640304926 0.80830854359363791
-0.51587376816316777 -0.24325902867945004 -0.60927996081861979
0.045590329258743623 0.75734895285657444 0.65808985371320183
-0.093851564537807519 0.3012529662789305 0.7756917097929259
0.35993291592664178 0.075807360539034363 0.47505894439516894
-0.89036283250687731 -0.86059504751352378 -0.45548857019581801
-0.68712297925576848 -0.11194097032912964 0.50258529713015831
-0.16098359522672467 0.31874728818396036 0.75348347119672177
-0.081012320580327923 0.47880742185017766 0.79712741312604329
0.18467958331276435 -0.18582416975861449 0.78771402661940293
0.60015578712089734 -0.030061805517476614 0.42020490951527645
-0.27310056660434867 0.37703763888065112 0.77988114594463109
-0.047485775827269094 -0.15361312205629574 0.75867628189090652
0.66193851977830676 -0.57851602363024135 0.67880504488733973
-0.75894878867455873 -0.63078004253639008 -0.29993203674267854
0.6915238200848961 -0.46873777459170185 0.7143417592062189
-0.094021995875856135 0.25396654970137433 -0.34113793803391346
-0.25823298499909697 0.57882064831396107 0.13340586955116329
0.7003545421124393 -0.42625049761163858 0.65236893425787201
-0.42892885636739209 0.080922380907448854 -0.71163509611776954
-0.45472719472088841 0.03168970556498607 0.77162397398700522
0.2184716117765646 -0.022369488279018412 -0.47422008736365928
-0.49424851626125843 -0.22169501254600021 0.76400348718611766
0.13583021284766517 0.9010711371093052 -0.35058456570705143
-0.54652379500532788 -0.32198838138330999 0.6781633186428393
-0.48669300004181792 -0.092728981134282407 0.76365084148916496
-0.63272786812849802 -0.18397679950634682 0.72133036893033264
0.80947346858527425 -0.12919510940064072 0.45482006362802352
-0.29052754730746955 0.47202720264106546 0.78149229133614551
-0.31391001201546231 0.26743885253999622 0.81239974845231888
0.12451566019821314 -0.18685246206369044 0.75620809320791782
0.22659847197957106 1.0816368920254433 -0.44721328845927744
0.27844735706992196 0.46155264831024212 -0.36591020841892874
0.45521360687197898 0.76900859779981801 -0.2622528446806438
0.30782287177215295 0.26476198930815542 0.50524425278372398
-0.20912971590780671 0.46901814455657842 0.75768039396051989
0.54645004461769275 0.86910393826341448 -0.40349429096734113
-0.76447913624707553 -0.5312623489470063 -0.30962569054474609
-0.17426785272304812 -0.44686540426021537 -0.45643958237376392
-0.80712353020056682 -1.0422560541922152 -0.43752295297268828
-0.64630528366629392 -0.6487462171223477 -0.32320586241367089
0.36802287796956534 0.58177531961763762 -0.090945149789458668
0.11423868361613643 0.84700771908345196 0.53443345176614798
-0.48722036316760153 -0.2440010281500733 0.75180560523969353
-0.75756777352565763 -0.11863841286049492 0.63109433664908177
0.28691865730304755 1.1207759786109559 -0.43025448014057943
-0.16245977895566455 0.48726837895674535 0.75345188924114392
0.51044032915937265 1.0184727215750229 -0.38991100872016737
0.32959344257412226 -0.089849409597142937 -0.26597398902512204
0.025749518980418884 0.83754922012003163 0.45096627293946767
0.26551210704862171 -0.097392473296228133 0.78951782341364485
-0.49165392892640369 -0.68201442671826129 -0.30274499704922331
-0.38530323693831292 -0.2890902878720496 0.75789359233234288
-0.70783329306394904 -0.35525648017339506 0.6783235012288712
0.42856515099731496 0.72495419172045139 -0.24076306726456309
0.41479069058426887 0.23862143717741446 -0.51218106591466928
0.77472705093501659 -0.085666742955938346 -0.40382688774095232
0.16394640838502994 0.11664528101673355 -0.54424233225240304
-0.34133299863407984 0.23534457130589104 0.78478298439999072
-0.38491832343013499 0.91576608004150373 -0.2155101059116058
0.43591803396057571 1.1538886273958529 -0.51026407805785645
0.94064409909811886 -0.25821943259738411 0.5322806864328351
0.56459466754728993 -0.38607809101646495 0.33338194881156902
-0.74896610405130559 -0.39681065269568805 0.63448572259666081
0.39538266355197038 -0.24242543550191442 0.19615925769016584
-0.79062913313141792 0.0092813246170564412 0.28766871456864562
-0.052076607364739402 0.74025549696431625 0.11213749769725734
-0.3666212762432508 0.58788638934040094 0.61559886406969433
0.52943265438383946 -0.21094826912038656 0.72999794604703361
-0.00013703044729140856 -0.46198558653528821 -0.25017938764206926
0.10395184484872289 -0.24271021670798021 0.67911221227478347
-0.65462543781288218 0.010740345535968032 -0.61542621873464565
0.86880316415816239 -0.35660805583246002 0.6381599819949475
-0.70478138589828632 -0.1685695875480846 0.44252043167908872
0.35305548881403581 0.68240669761526007 -0.22601856901398154
-0.32892290302681459 0.1808094632208217 0.79629940871688465
-0.76571233918464543 -0.61837434286190174 -0.28631292214058668
-0.23287671380388986 -0.27991193107204992 0.72660220341696746
-0.18732795426320337 0.34111265983765904 0.76661628074423938
0.23862855968005903 0.95071894342812691 -0.46849304612011089
-0.98968007705849104 0.42145821199419942 0.63195380280846136
0.11791167995755814 0.97065085260508255 -0.26604946207349833
0.29158997596793768 -0.2366606373363922 0.73461703795581457
0.39980421188992921 0.015565646391504373 -0.058424841554907125
0.10870385016653472 -0.17267358701096214 0.77388090411120913
0.32260211889965973 -0.080454943149746327 0.73388537468830606
0.70356072537057202 -0.53288862449561769 -0.14600617234719415
-0.74961847326990494 -0.83780240850586196 -0.4850751702104934
0.363125354501598 0.80557209064450142 -0.31743588423936497
-0.12235443719369243 -0.2134297178532627 0.57464464904225165
0.2503927743957064 -0.13787828959977588 0.78494346591693631
0.30482245382344075 0.11327476583232965 0.45863606020714975
0.32708614412968728 1.0293390816657411 -0.38334207854460978
-0.87187175027833774 -0.8649232528521118 -0.46601053906184742
-0.57975719545639492 -0.32592828941704965 0.67648470123357063
-0.60258243559210811 -0.93601306198667089 -0.37699552666957414
0.01024649221043461 0.17752453521895717 0.14718172754258152
-0.025831549471050153 0.24487171940783625 -0.008021041307833876
0.19615383213727 0.48099604367071791 0.041332233980198474
0.23779839049462481 0.92727026557778736 -0.31576805800520358
-0.50237786305643084 -0.63673481827467171 -0.31166325055810129
-0.63812233670789453 -0.7944888094577216 -0.36905643044659131
0.088402518552442189 -0.30886296937009661 0.47545498833068711
-0.39410426482339034 -0.75417481573283141 -0.19726074087627332
-0.1961746513684659 -0.21640628734167322 0.73670851529274861
-0.063181996727927014 0.12564260250320203 0.74055835799313385
0.49809638397114497 1.01030044300688 -0.43404158951795324
-0.71774753735833485 0.31339869666799913 0.30024633937434864
-0.58892218006236874 0.2118978808971903 -0.66818611412137763
0.13609328148602629 -0.38221503076327323 0.23463236972976631
-0.64794424915996274 -0.95628380533950974 -0.41732610757362121
0.15355175020324197 1.1311821777226658 -0.32853352438821748
0.011740915326775792 0.24790626121697201 0.75709127835962153
-0.7452918316288546 -0.36767392341206317 -0.43599201601224236
-0.43938720905135398 0.57868180880857523 0.74727666968056461
-0.40277325222149329 0.1769408540998505 0.73265354550930128
-0.73107236392863939 -0.25582373862264518 0.34811360310148787
-0.18538380057587744 -0.12234328199360078 0.75336359028766386
0.21907974398466479 0.41911990460496895 0.64659740247297393
0.2563960757971202 -0.092308480688146233 0.79562963300583256
-0.37567671645741285 0.38610102115665867 0.62037742816240593
0.22558060220148946 0.012424966847859764 0.797720362219974
0.36858440034931306 0.24734266569437935 -0.72102278610275494
-0.46895423410693837 -0.20925738353315992 0.79130519933227195
-0.66025528898095587 -0.59164668292547162 -0.24851248595835029
0.16104478513370424 -0.069311565842973266 0.79100858854866907
-0.39124432579776425 0.18485180430527492 0.63907179153612148
-0.70518621750846933 -0.47079427641766003 0.27093975029239181
0.65932585876134908 -0.6728886210751277 0.56895355575615447
0.33657268758651782 0.32077189610969015 0.01721400562068176
0.27811051606999371 0.75483614540336319 -0.29082202479297692
0.40628101632006519 -0.36339163863209478 0.30624685134070084
-0.57913640735619865 -0.91056868940771807 -0.38516281832185739
-0.89056569439737387 -0.10199697392059193 -0.38856306735692225
0.0081853207682058837 0.95027695915480237 -0.13060268757666904
-0.004750886115125752 0.62308080949330957 0.68425362545757906
-0.41841320683450078 -0.63114854067902826 -0.10549846680195585
-0.78756534975871872 -0.66600699356764892 -0.35554120160771774
-0.10592639996528419 0.32510023589166437 0.78768127584070768
-0.4916059956149752 -0.64281245617295824 -0.30093097238044964
-0.38598160958153471 -0.27815069980321994 0.7758033586152826
-0.12149835920315866 0.98253656022138358 -0.27653468025221972
-0.81872145120869888 -0.9337656009971127 -0.46048110931404462
0.13223116987802541 -0.16803944993360531 0.81007018271680575
0.34826830441941325 0.62861062979461835 -0.084889568221191425
-0.54891642690703435 -0.61209109792661565 -0.2576055683057793
-0.094265848490763915 0.98046764510818107 -0.15678124048566833
0.53576801739549751 -0.24366873130838229 0.31522255385044318
-0.62507909012622775 -0.37618558400407665 0.65666642351158111
-0.16136637530906484 0.12559927448543107 0.75891022916498141
-0.21118899165812621 -0.030715594166323967 0.75308783675144264
0.18296796910522062 1.0706285505934368 -0.30617806096889577
0.11211654502966439 -0.11980908886825148 0.80565760526970642
-0.93835382064875716 -0.80180795927300252 -0.41930775468125514
0.44714659946595958 1.1021864383689604 -0.45628305442283157
-0.50714723662817107 -0.69418778173831797 -0.32693323222709414
0.35210703983742775 0.61241013310021231 -0.32534639568917179
-0.74421184856623057 -0.32400289445448749 0.46862118811733233
0.56328430995363021 -0.46283422252022888 0.72782195422905094
-0.42421751166774158 -0.029670905704143991 0.75522931038143026
-0.0099082965957464353 -0.3345554997412421 0.46451382948262498
0.30083744600037932 -0.031339876207166384 0.74045157306928999
-0.43006548159022628 0.63918403520755973 -0.61802605557143409
-0.22632338194512158 -0.15291198367870251 0.76244434062539401
0.58422531460875149 -0.36021413641390154 0.33159543545800041
-0.039281893055338912 0.57173942348121898 0.69646897707618649
0.34451360072458215 1.1685662455089165 -0.44863198909911439
-0.57017061302765626 -0.22255961646338918 0.72091917254513005
0.44459130893232413 0.052539291530504073 0.46138702081342053
-0.64536019981219539 0.069456699574686809 0.14619659197412482
0.012650123899618393 -0.35564234658835403 -0.48904445574086886
0.23486711718822306 0.84114670347658915 -0.26002808660185028
0.33551810504502555 1.0691920827857864 -0.4024567269031003
0.22726732858982501 -0.39322765380334701 -0.32121276091324269
0.35857377759327136 -0.10356133860419092 -0.17432516986078817
-0.37465725005854011 0.28925835881985407 0.59428328760597093
-0.34411907425949551 -0.061157372514053066 0.7797007259338975
-0.25879468055711641 -0.38052074915000134 0.66967842134539879
-0.68922955658292295 0.16330163665305264 0.72482211167128385
-0.47744612759510829 0.12269340091624414 0.81205243831737395
-0.96579832789288034 -0.82142232733945164 -0.51489399164828908
-0.39215028977330491 -0.50307294978987827 0.58974807964713971
-0.8834190322253761 -0.16512593234217476 -0.37992629994382809
-0.33236808060141954 -0.087838202297756851 0.80850871920225931
0.37767753807266047 0.8226838216755521 -0.32090107035019422
-0.75635330394722899 0.55704853112420238 -0.22191146392491135
0.26518250646839192 0.79838392719736007 -0.29338784464353385
0.26528206971720181 1.0723091169234724 -0.40348399226162979
-0.56114709021425568 -0.031513239874637833 0.63708174445056787
-0.38882377829341408 -0.10779289210349319 0.82345446553362045
0.47728038828262243 -0.073445604570540723 0.29835154437651834
0.31268977678429621 0.55795397160497018 0.29112584731493296
0.82827614676354955 -0.43768465013270053 0.46514988307300431
-0.29049845035539335 -0.38163412655578099 0.61338916151527467
0.30014722244401071 0.49473543167620804 -0.344954327080357
-0.50813479891110802 -0.025152643038996558 0.69421361269699844
-0.76281667015757293 -0.67224557728542322 -0.36387962235211457
0.31387559216717875 0.43144993954696886 0.53779402128209508
0.40514792193605587 -0.24593735980030829 0.22475359421142027
-0.31608462936416259 -0.23531927918766371 0.80359360609238495
0.85530133682799203 -0.38242321076782915 0.64170038840882881
0.63891347468902282 -0.67674884765552967 0.48166471503301445
-0.84052437419180492 -0.63531551589226254 -0.3204158398502992
0.096296766704242032 -0.16038177295503431 0.75088172279369925
-0.5531184830515059 -0.32735885440050794 0.67959501048977511
-0.38209516332737792 0.44546377692912742 0.82096544521637149
-0.014876943653924002 -0.54310899829518533 -0.19743061195413802
0.46261085444892558 0.80322384516441936 -0.30896543121714348
0.12721727231904367 0.69337743092029669 0.45934383241362298
0.027919872398861401 0.63678234193137229 0.37745613512627685
-0.063713369982821177 0.78937237628024093 0.52393211289711061
0.32221395847932399 -0.15378524934423154 0.7361643565754159
0.63618991144285886 -0.60581221901678717 -0.52673379284315835
-0.37923912832135898 -0.38885870309236026 0.62806595372052465
-0.42135308197644861 -0.056584590703685933 0.77566842564195593
-0.13285705362986988 0.26535321149310676 0.76901648036561365
0.72231327352726638 -0.41620795581014214 0.38506252541410824
-0.886139115841452 0.20772858998459043 0.11255062482318057
0.57979276985249939 -0.69287039245509519 0.59353379312546473
0.0698679796845596 0.20267240440062295 -0.70592833959515389
0.18327705776764702 -0.0039495216574110259 0.7993572415602479
0.73462848290102656 -0.29525797118747832 0.69518194216051921
0.29382759366301769 0.14449104139049851 0.45823351970204751
0.094917436778231945 -0.36535670168619916 -0.79268590620604273
0.066067486866799641 -0.1403289423078995 0.75821434405933363
0.37211962274132304 0.75011103980176586 -0.30069805477237477
0.56143459805208096 -0.14229164988394061 0.3387370705763022
0.37370041248142627 0.55180762614541834 -0.075070056743248514
0.24097520241652148 -0.39903820125378076 0.63485838385432025
0.0073662847434405876 0.39525404625095462 0.80911736539992773
-0.2466402214749408 0.52695734715649678 0.76722896007300356
-0.23662469954751231 0.24856983228043106 0.78371156424780608
0.22347919324655408 0.26673479180695736 0.66577630110033592
0.83990699597319107 -0.19576165797532674 0.64398302792496587
-0.82385700540738327 -0.70342639244555016 -0.40053961582424291
-0.55320852369876405 -0.35320557446162582 0.67289949020376061
-0.16614538049905292 0.54482457698442133 0.74060663819729644
0.42487935954130052 0.73324611935626471 -0.26489814760907748
0.41197383112911012 1.1703274005993958 -0.42089366351363289
0.045717520562163827 0.3548426014316064 0.79717384231694055
-0.46421754093221779 -0.25179327295438725 0.76961039065400039
-0.48949263364226425 0.41578455433628747 0.44135208662284553
0.93665998670834938 -0.2608084553778216 0.55967493052993778
-0.6744752311999207 -0.17299356395957588 0.73819075230294462
-0.61263410605910451 -0.04656980960985635 0.75594026526280045
-0.4450344308892511 0.5324953288655685 0.76950346393173152
0.089188924877817044 0.58181002922309588 0.66545236918724715
-0.36895832090727509 -0.54642753379973641 0.40626906484450043
-0.57711685779917588 0.98939549196015086 0.61739164252503853
-0.15430232172698055 0.64230382233182581 0.74881870626030533
0.065129051640035129 0.70409974661484043 0.64684281617345629
-0.069122926669585638 -0.4964266043414618 -0.15293851360516908
-0.15706490660338801 -0.2773756313280451 0.71104058876496179
0.094528810056317525 -0.035423521239991373 -0.59033708846153488
0.5146437575029168 -0.040751702916900001 0.35678275205642684
0.6433371580795253 -0.45055571726087251 0.71636417515300987
0.35184168222806989 -0.51345514087429578 0.43954786712262361
0.3318244375245385 -0.13519271795134102 0.73522466595446812
0.33228841931038033 -0.7175762405378201 0.026872298974451425
-0.31527523274958469 0.35848299175169274 0.032239666342187334
0.072491324529487144 0.36213725231194616 0.76280608795215699
0.1533165860693444 0.23912547800923889 0.71222911083178086
-0.10231948793898482 0.65533366824949368 0.72480636210499583
0.075531951482673776 0.60181913546961852 0.60723296234618207
0.30041122533465625 1.1751070813642919 -0.41937198963939615
0.6531665324486795 -0.3739025925017625 0.71778638672459838
0.30536092462423881 -0.50058850049714465 0.52463013742042541
-0.29482753384199611 -0.3852804926243607 0.67203405470281297
0.091579286205885069 -0.14279071111955588 0.75296060281848565
-0.30112426337294806 -0.18413564320424314 0.8183214240139689
0.39226103023974446 0.85994130949093694 -0.3356667897138772
-0.21565398549851977 0.5091500335979191 0.66481548412744562
-0.54370193080951879 -0.40674560282237948 0.65011841888511324
-0.56456066383457681 -0.13429860746597555 0.74400728917801584
0.2665332603626922 0.70537027034469446 0.46420278046031616
-0.95473890718279009 -0.75837185116930783 -0.40889898712995887
0.18393448504171772 0.69976725006662477 0.58035008668559041
0.021312446258221485 0.91213086491578466 -0.38207302924854236
0.23006071291530361 0.022438855413945191 0.74502343916277169
0.28909116105779731 0.16604328753079045 0.49803716798442732
0.34927138461148388 0.33759607455059992 -0.18860215017744242
0.18035504451190576 0.70053182762191568 0.10773304240169335
-0.55777246512278111 -0.19597328035434458 0.22052609307087012
0.41339148117035762 -0.046136021314630682 0.70683070401337211
-0.22907067018827831 -0.11476127027625438 0.76362330266100198
-0.47719597581037476 -0.75494557886636215 0.088346126729311858
-0.14657762916980488 0.8608593274295302 -0.16835130028343759
-0.045559149637227847 -0.11307456908642521 0.76014327901182011
-0.62912954846743929 -0.57241158825688387 0.054521246000783341
0.50445539093316683 -0.42086061304393674 0.72966862659589982
0.083417575405057676 0.57603472528795407 0.66365811537578967
-0.72828116534227405 -0.53668735842172666 -0.24225398526008224
0.03556697298259337 0.64398279468354858 0.66878910871509323
0.73294320774183674 -0.50752551406576174 0.68325631706299017
-0.58873721659985279 -0.12916000856680654 -0.62179328137317791
-0.27574270376547361 0.40129440650235537 0.77756359510746087
0.63136736738522359 -0.62291165414908889 0.43347092458461578
-0.69967942401031991 -0.52958662379396415 0.047101812627316386
-0.72811162361776738 -1.0010446643918449 -0.3919153605416521
0.090148180585508442 0.55422968647526361 0.66332888878229035
0.29685439800164914 0.21068272321721793 0.5133668235138984
-0.091901922434715289 0.77274900672878388 0.34756088705832511
0.22113647503556422 1.0546090332744562 -0.34634873234995833
-0.74066665839828971 -0.27667571199012642 0.67745230377313714
-0.40204413322241805 0.55897194839261388 0.6249033408790039
0.75692187059874527 -0.31842645176105044 0.68902174172619901
0.28931953704763913 0.75348299766422855 -0.30220178006707688
-0.3829921558094469 0.020605568289159493 0.77255733880089528
-0.377826112947929 0.62060514353579066 0.68767954993045777
0.36744287411069365 1.2482964709521518 -0.51078886495114695
-0.45018209004584975 -0.78237308364733948 -0.27671576110025686
-0.41162391880816074 -0.76230676927720253 -0.21321754821429229
0.34072745013569161 0.034622883046658615 1.0545268439911997
0.29901418489419029 -0.04846239555844889 0.74968907683166908
-0.42463303183460255 -0.023639387899503816 0.76060589518898958
-0.26074214497151615 -0.6524356448515185 -0.20325060802366857
0.047934959823905388 0.095767914272055776 0.74816247876119135
-0.45010815413395733 -0.62937767447874648 -0.031742464497338974
0.46498472661215828 -0.35781510070415834 0.31468038683488597
0.18506272404984969 0.15325680711035616 0.71832459007829463
0.089388692704943651 -0.12762986693378764 0.7664868070041706
0.49102118395703798 1.1346082892313554 -0.41338160196851881
0.21424513395262323 0.05629087946068978 -0.43423180159273933
-0.48590977297861571 -0.37183939985818881 0.67793904108688707
-0.70241497998149072 0.048430087818559286 0.58783974761095426
-0.005822663319307253 0.86138362978555705 0.21815385548645949
0.28074870596718426 0.75905599103808186 -0.29897370023358505
0.0039902434135541398 -0.29021196632574586 0.60518954571178707
-0.65095764694461877 -0.95238317511593706 -0.423028235867005
0.32609265602447124 0.42983365822711406 0.48462203270536364
0.68724281044808322 -0.07818469013856344 0.41993038307955288
0.16268511198093449 0.0016153427022480571 0.75965064411188266
-0.26509536038557258 -0.26246996747896389 0.73441048101254358
-0.40615550543775925 0.3109773940713545 -0.87394387741752633
-0.7448551446686551 -0.32483490135716764 0.66244517987359364
-0.16333692884157358 0.71493618122980962 0.38947948564344781
-0.4367044967572582 -0.78756631979616998 -0.3666424525045745
0.35039392624826604 0.49335273684813075 -0.27604893049067947
-0.28489953117874478 0.94913663016559724 -0.1740388282312848
0.81256739060353311 -0.15694019743250465 0.42462657296869022
0.10105467994355877 -0.26059888135557685 0.6412811546345889
0.30645469343211573 -0.21761949352108445 0.73667283316695453
-0.37280018224883094 -0.4173100196162558 0.65652765268634794
0.39075644662579379 -0.28704154365109247 0.2435531615149209
0.049527685536396859 0.45512265045253031 0.78080796479137682
-0.12581972298482924 0.74711510459382069 0.36499043640750628
0.58266338097901382 -0.23696385308747026 0.33280793566064304
-0.38785682827542445 -0.17222008345197182 0.82320337968220869
-0.3870149356642294 -1.6674834173118622 -0.28794798372350128
0.032654620928745715 -0.42873581035564712 -0.3948885823895365
0.263190651758336 -0.0089733606938366961 0.79829842775499937
-0.76209015016468484 -0.96660443234413762 -0.42339107931323117
-0.29821295558406291 -0.44517813111570703 0.62951310464938226
0.50113986536942434 0.93519053222867576 -0.40363403800420095
-0.95536479875043057 0.039259190185273241 -0.18355541140766685
0.17506486082312733 0.30098421422667698 -0.5247720437147505
-0.053541545955880565 0.23027410488181488 0.75927898786576709
-0.23977726099236207 0.66554154752753547 0.58859207433560723
-0.26266519043706893 -0.36345406621702381 -0.34305633464344831
-0.75519692025951457 -0.43438393933602271 0.47697186885201948
0.15246151777742512 -0.074141443704011323 0.77045736179908531
0.28601374853523964 -0.04271242534154851 0.7763148307456893
0.38639754609335597 0.71784150492012699 -0.28155975819251644
0.081216119122885289 -0.28447546508089872 0.53389122274954559
-0.26195254540581914 -0.047113785462318702 0.73331488431933733
0.38266498385836911 0.71332851280430631 -0.27080312224323322
0.11752541881230627 0.43096388974881705 0.71682654762560105
-0.80673160087714635 -0.76310841354256809 -0.41309725551999632
-0.16641716585341726 0.58623511847976673 0.74170818442479014
-0.73702101567971212 -0.83863497175315871 -0.40108533057387108
-0.25123910458789567 1.0651198061307987 0.13437973580780671
-0.69040890546409628 0.15069942237412803 0.66277723468956862
-0.66353186021229504 -0.34243939542247048 0.6775830483102786
0.067256413129818782 0.36533545575873561 0.77289301701686952
0.11780220519234064 0.51195857128228894 0.67593948023502382
-0.17079837253170638 0.49264031018748966 0.75770068911424104
0.30408737130033359 0.73970069623406687 -0.28968686887805362
-0.88315559106130337 -0.32185437725875587 -0.18405002461730335
0.057418638898695917 0.6507111830995278 0.65920516624543612
-0.59337480405051934 -0.58615673594393769 -0.12225131495498442
-0.34737921190264132 0.19063526406007369 0.78055402670513896
0.30109870656422544 1.2361468060076124 -0.40951262232946029
0.22602320404072884 -0.58174014340456814 0.71663831689422164
-0.51484519678114538 -0.31056372735535476 0.67089631520867599
-0.34175056241225832 -0.00090737044312660942 0.77228123460880793
-0.26163537291286332 0.95394671404628184 -0.30276888080721687
0.53811882710411396 0.97506181143108606 -0.36512519832806589
0.17623515666426215 -0.10751093634548425 0.81629234374428794
0.29743974825778707 -0.30347084021413551 0.72346781535253513
0.12154507681447768 -0.32861986334861015 0.48744731082377868
0.2736914841135345 0.97099871243572977 -0.35421506990014962
-0.73091214549729955 0.090980370420190582 0.62385900486640611
0.28462505131446392 0.00080299248760695718 0.73304797522086673
-0.52355205998277654 -0.60243141973382919 -0.15573695208282101
0.49331307573184091 -0.25441341457565159 0.29753122158180645
0.38364159451842283 0.013314525322265069 0.67039729682777871
-0.3057337551301984 0.23648467871336365 0.80845916072132784
-0.34714361692284257 0.47182437477820827 0.50326842801344718
-0.55497669583381537 0.60323445355059135 -0.57430827055394573
0.84138790858994028 -0.47465890570789959 0.55464591308403932
0.41325292718064333 0.67843606841524817 -0.195759625898277
0.34772137931791747 0.28513846058666203 -0.19644393199313015
-0.15909771272669104 0.89569875660399134 -0.4604347959771351
-0.021044543929001236 0.3110603912837604 0.7994370914851725
0.30666606338489544 0.26605861326721936 0.48297277852364306
-0.44430132934130029 -0.41671880003655914 0.65554704216562509
-0.66474370392855775 -0.31152345436439433 0.68998991300339563
0.86222732261856905 -0.44113602158093457 0.54904345581523994
-0.40123209494689149 0.12837240312807907 0.80905871048511857
0.040275931738840143 -0.28271701018607942 0.56864437385463029
0.2893111650164073 0.11396079364574163 0.4841618895321913
0.34021926823937321 0.89307369097717704 -0.34091626225630556
0.67266273279678046 -0.81439728006772327 -0.22166141804738348
-0.96674058525180584 -0.67093457482165064 -0.3948292634253403
-0.79456285106761371 -1.0192274100642535 -0.41145274176286595
-0.058400204192913918 0.21564200695576474 0.70585807174790194
-0.25270485099864004 -0.093696470846289515 0.74936712547245321
-0.2871955442885934 -0.12963108321846306 0.80172194850364109
0.095919070857348743 0.91586287775182385 -0.2657061265426055
0.75929370124234907 -0.18759083072459859 0.38490446786550603
0.29382583930568273 0.71392172340084059 -0.2372740287598516
0.36062424463577258 1.0289593335927378 -0.38918943185473154
0.0089827166171900785 -0.64499725885321268 -0.098591506836516185
-0.30628594503219375 0.604578054687817 0.78180033436728902
0.48447344380807067 -0.6097230448811537 0.41656099312105255
0.43989172239298924 -0.45182110057877622 0.70951292806485888
-0.58534465635550248 -0.59493215759716023 -0.008806153318249299
0.65157537510309993 -0.089103425017167837 0.39064688475376741
0.73056961281463728 -0.43690969410106995 0.67155797358309588
0.050435311084143564 0.15171679563634655 0.24480715396335029
0.30685252783916894 1.1401019497328519 -0.44381435772731415
-0.29034100862516965 -0.13035304149536131 0.80923790087535075
0.30586589479846538 0.35703923006979821 0.10678324730906841
-0.91409081559196181 -0.20655716963441506 -0.25969756628901963
-0.30076846229205501 -0.042167579869275329 0.76370605441079409
0.098568977306570105 0.84798832689765291 0.18317635350416062
-0.43449369829333762 0.16901647176506529 0.70250807563671192
-0.27017343870878818 -0.16855303025301893 0.78912706737171678
0.16529441176576398 0.80674782113056054 0.24915125997248477
-0.25096884026181954 -0.30608601942207869 0.71873290284329761
-0.10444297734643015 -0.42947416105494796 0.36225540980558435
0.65265118714150105 -0.019811147489635417 0.57425565407879908
-0.25659696685592337 -0.58372481724647329 0.069415267560379856
-0.88049750095194668 -0.33719203144429244 -0.068467777494778392
-0.17476713008197464 0.67515396576057896 0.7421863753377993
0.68174237959660644 -0.39900753182114101 0.65941280258908819
-0.76945063589788276 -0.44059917209325761 0.54268385412068765
-0.448532706674861 0.0059006893735187305 0.77016510083297041
-0.76966597008528481 -0.53743761636007648 -0.28238739445617056
-0.62101047299570666 -0.22801617061122315 0.70212359354715259
-0.14430250165612435 -0.94566147252125887 0.31489087129124493
-0.2441008551532633 -0.60850991554146105 -0.2563655932792932
-0.61776167074578581 -0.074117924372345101 0.74958141566082848
0.2892725370152931 0.10156013024898414 0.52417641182802921
-0.94418385600217647 -0.72306294633914803 -0.39496213128631252
-0.72243732397960514 -0.78719516405046264 -0.38545036738845684
-0.21509879918496466 0.36810388676241601 0.77306650778664832
0.41671988431966156 0.71340747430961216 -0.25629048883064609
-0.058191821213036121 0.52336767982010457 0.75330572452758915
-0.26738305955841923 0.70869309011900938 0.32808308906288008
0.31323841301457378 1.1242374735282912 -0.44003604629679494
0.14765014326847137 0.88089332393856878 -0.068782106249226871
0.011626105404623388 0.84617572162675891 0.59899481602229798
0.58801918602650716 -0.12370534841762826 -0.74050857418029636
-0.0783100069417344 0.27313924908073162 0.3952724423866858
-0.58110708209254369 0.090076017375938733 0.80431855316863654
-0.71695632892688366 0.07339144173341694 0.60327028659640858
-0.42952379618912317 -0.59945180051616731 -0.40883783672982221
-0.10994208556164153 0.43634214626836609 0.8094228792127236
-0.25974587510555125 0.43193855932959124 0.65524984810108755
0.77304478680132149 -0.48310620541171367 0.66733245851756351
-0.5342620200509316 -0.31245006210567894 0.67109117761258519
0.62459552739164792 -0.38511168624786585 0.73543368640591034
-0.52420815855045078 -0.47034192068144876 0.61696772848338277
0.29701031193159366 0.72881070187566976 -0.26806873998560832
-0.69722829614967452 -0.40565557356999449 0.65010363290372841
0.39123972226948922 0.81495819739071784 -0.317101445960839
-0.98311148592429021 -0.90458364027101013 -0.45730692958083319
-0.606576135273734 0.36332921846410571 0.38073120840881636
0.11021303658064596 -0.31752367520374136 0.49304266027883337
0.43626624620630849 0.75348834448396573 -0.26997796274460839
0.53173109032834986 1.0196379294820694 -0.46694099337323713
0.6304716380747557 -0.38656472036909761 0.73258767134241154
0.194873075610424 -0.36953893411178029 0.33984489530989581
0.44424094693737004 0.62789749492995739 -0.28044861612310967
-0.38762738101955563 -0.63759471931234657 -0.16610550188215656
0.027244179029779048 0.61631114255740727 0.67254226106972048
-0.50358550350031805 -0.402224000095039 0.65881171630669288
0.26357147699145145 0.036645255571659874 0.71428351294426307
0.58499149437217923 -0.56171464681450267 0.69513255486370351
0.75742145649412151 -0.39985696485407196 0.66845237897040555
0.13145900016714052 0.4874383885580329 0.68492330079931207
-0.32729634387651174 -0.081139578930393697 0.79171664924934682
0.25688623265904909 0.76825994973612666 -0.045663370191588726
-0.4012509108114628 0.34422491322148474 0.67969141991906667
0.45506789073201048 0.80998143015010804 -0.31773872394954861
0.13731412546317046 -0.27381163064668357 0.66239337252438446
-0.47186114479047347 -0.10474231069240503 0.79400454579565172
-0.45499885422071173 -0.5872320249996541 0.2109487203036724
-0.26953747471047507 -0.49622460216095376 0.55655853000345923
-0.86321818386197435 -0.27643211315649197 -0.34995173094755272
0.14892195588726054 0.21707084179951508 -0.55497231202257069
-0.74388387750445872 -0.55329057817551686 -0.24677381118440533
0.73215057914987369 -0.4534614744345653 0.70345685825208193
-0.56132394086155557 -0.24615459245674387 0.70135749549796977
-0.58236821853303411 -0.63381933964264192 -0.30083838870013457
-0.60321731196632555 -0.58439070663056114 -0.19492105590902231
-0.82499212513225828 -0.94154397510444809 -0.46253173940758074
0.35259127075727292 0.36990234216405682 0.14732009679008495
-0.53204613083345365 -0.92227074035125867 -0.30710317410711507
0.40616214846718179 0.54790113564564891 -0.24766736901805952
0.13186851073179184 -0.32723766962874379 0.55252632638038079
0.096160130867680493 0.36571251490580892 -0.5756963385995677
-0.0092189151489776577 0.81662443067122936 -0.4942838746868734
-0.064585320057005902 0.18589487990005793 0.66063353318527174
0.050355141893852817 0.83335130024171633 0.39409161789442049
-0.62711735982284011 -0.64127162405864979 -0.311707190547585
-0.32777220633460757 -0.56978544796083952 0.22415260795732472
-0.60886512845915775 -0.39193442607400186 0.65094677828447212
-0.36799309568336724 0.60692753417071899 0.63257793669466178
-0.0014551203522188416 0.65307216106076993 0.67473204619702543
0.2695722100520328 0.79996832406347451 -0.30239425966452593
0.4988436027259624 0.85300077385632278 -0.31801866591979078
-0.74684376050531398 -0.54145708054975117 -0.25470722514467159
0.24660065041373969 1.0501980280960854 -0.381411120852861
-0.43257217631227718 -0.0084890364615546332 0.72637149300158965
-0.49690131588207009 -0.25175309781999644 0.73678219853773741
0.024228557241599447 0.045691110417703129 0.74040991673554846
0.15765697890396524 -0.033875592040384817 0.78412362820368919
0.12297618024158652 0.71069586161241816 -0.47251230108655662
0.49616087100209683 -0.16800992672903448 0.7279242575473992
-0.1139284539088905 0.40560810298496719 0.8144604215258342
0.61243942053917522 -0.097839410285599726 0.6835532841755505
0.76962248716150938 -0.31082552320738621 0.70849504112030104
-0.050430910597576428 0.62586935586827508 0.69666167698813375
-0.020314506352946182 -0.29551943142240944 -0.44543906145937351
-0.84790808497904635 -0.18960691833306953 -0.42522294893463441
-0.37429869444214603 -0.55099955144600088 0.35544279827116054
-0.73013302124634549 0.054068439811192803 0.60442650374295359
0.66656582763025085 -0.29417162701469124 0.35392775305931856
0.23843500548493068 1.0507019872508732 -0.37171916945299976
0.053291611170237729 -0.2913400533959134 0.49385477738589634
-0.42790426899881595 -0.74031554158403168 -0.28580446852050445
-0.34532512961597206 -0.43771953708868239 -0.59100951065745511
-0.72625855865848621 -0.52373441483627658 -0.33692893672425228
-0.52573827411558938 -0.10480780996849859 0.74583975761208743
-0.45568810992675424 0.20488532577390828 0.040252314465293537
0.66995340303914475 -0.51971473820131031 0.70577656314776149
-0.068485737704413907 0.2571395378276371 0.74950701431443978
-0.53431949391795541 -0.10023508491765654 0.75143032916884045
-0.13154844789120546 0.6123501811723564 0.72876691880248323
0.17996722469511184 -0.040483854398818409 0.80668465728734873
-0.88435853522309316 -0.58588566534691822 -0.34519434843119234
-0.30440489659910952 -0.21958936446667821 0.80792244497336085
-0.76272005731165393 -0.008181791168141217 0.6852792875501621
-0.62976974418168652 -0.96403422582150355 -0.3653971288727822
0.72325763156151268 -0.42264398326043207 0.65365330423221835
0.38470158289171508 0.57179594848437176 -0.28857125996887678
-0.5622581111402738 -0.98006001197289905 -0.3448419656423396
-0.23562820102508653 0.96534377168770646 -0.17325075704043513
-0.24486424678756435 0.33492147384963644 0.77627843660294626
-0.11292829055400233 0.043694373150952259 -0.69623043200000412
-0.72948050325265967 -0.45904884837063165 0.42684879985118462
0.3762057375170258 0.70673331153931329 -0.25782728421655587
-0.029716862049937731 -0.34783482999685233 0.50382428147654013
-0.90425132021538346 -0.9849593235944738 -0.5039110864533618
-0.041091909366194557 0.58946741978926909 0.67332570558370364
-0.44445961772669307 0.24351537669060974 0.56280808458939813
0.17488057205174812 -0.33380856734875763 0.62713739477741726
0.40197084868317035 0.68269636915676912 -0.22058813486696582
-0.65328357306766804 0.088037220255934301 0.79969394585142317
0.053732899283588154 0.049944927946697248 -0.11883318157580103
0.80142831042837059 -0.21373379986965801 0.39375807700853116
0.10318771307059649 -0.15418385043604843 0.79827363793511541
0.368689653304763 0.59203025898171546 -0.13122992958556434
0.14715207552841036 -0.004894079149195818 0.74011091049016642
-0.1867935012431019 0.49398345841839841 0.71046753822319708
-0.0073431295138846053 0.058719082537489697 -0.65812810350687556
-0.18868041591942131 0.35957364339383346 0.76209237881462322
0.27332061525561357 -0.03075067126809472 0.79177387399103427
-0.17632410170880775 -0.26710360995780036 0.71632639933527553
-0.4328254939886591 -0.39094712690920375 0.67461423576408874
-0.40200107050200984 -0.66684344997011635 -0.22320132270223569
-0.49093029635925234 -0.56796051166258366 0.48474473793380246
-0.51002323698115504 0.10077753086586938 0.80862845442764542
0.26693482434863114 0.19514673284935213 -0.41922584029540211
