# XYZ point cloud file
-0.27585130759941734 -0.00041533421486938948 0.68998115143052807
-0.1079306817831025 -0.053067387353710416 0.7456854871910874
-0.58395686911790889 -0.63155556333424734 -0.28830060398269897
-0.39629942807344776 -0.062805905725632272 0.78886351723561177
-0.61767811554713603 -0.79101619342873342 -0.36036379980124078
-0.069327321033753719 -0.015575121397173319 0.3680891143026237
0.027185719697982336 0.66694050046337594 0.66170669285901695
0.37881101742961576 1.0599162971846035 -0.40603686956669094
-0.45485498748638875 -0.090608973313115015 0.80364747065808562
0.096679688844204748 -0.36538005135132323 -0.19430712685092644
-0.55102957750445825 -0.34409751186465165 0.58754737366444054
0.48791742739127386 0.85667677762529948 -0.35062868069775455
-0.19763171727861106 0.41866653213126348 0.76536582396346198
-0.25696785993046234 -0.079620422120250112 0.75506316452325972
-0.56066837719820484 1.0053870704298422 0.86116735685636048
-0.15534871749791179 0.3884405670121911 -0.69934219782598994
-0.53801758473620609 -0.15362358716561175 0.73066751006914465
-0.7316319599510166 -0.35428678302645977 0.66315391606089591
0.51720154936613483 -0.31406765339541742 0.73778147613755074
-0.38559994652792895 -0.31349666282076605 0.72694412975861056
-0.45923270349681289 -0.42760013647363593 0.64650243827555975
-0.004489220105636349 0.24496935835510847 0.75603655043118678
-0.84655863816504962 -0.27715914629500915 0.094071489142496745
-0.6494404907880913 -0.75848397505765419 -0.36191372531416333
0.06608122121730986 0.48167887517075592 0.74880151819796481
-0.5358800566464339 -0.02930983209726179 0.75102523429775569
0.05884074407110873 0.38939034175719556 0.79105628197784661
0.097439986178013527 -0.13781537369795238 0.79563675539237622
-1.0359556192583241 0.13054578481094303 0.49586094558856075
0.22960958863771097 0.59890511362061005 -0.41462642739590727
-0.53406251202148169 -0.11890173864760811 0.74251708615077838
-0.26998231152361996 -0.12056604690934236 0.78100228659539539
0.81708812008205456 -0.3933137409075762 0.43208308474605772
0.70245209805210962 -0.30548311511303261 0.68851627248366398
0.43536949692947147 -0.10866985016953201 0.20490303564518797
0.35466609596063492 0.74540775649153979 -0.29262966052550787
0.23283325073253991 -0.37017873204241525 0.25307648611688993
0.22870959117972589 -0.2256221342096314 -0.37194860763914761
-0.38302874945621213 -0.39981133306066496 0.60140121635253418
-0.68891688224766057 -0.95006370170525223 -0.43238642273083716
0.28793232578200545 0.16643829518250364 0.48127481683384943
-0.63055360747211964 -0.86613535110066309 -0.45464939998783516
0.42041964127592379 -0.14703665396333498 0.15911796324782479
0.22157596457281414 1.2087180667586317 -0.44048679623769615
0.26445871826124545 0.011618642073242924 0.78273031417814032
-0.46892951029806795 -0.040060427404542409 0.75671034050740982
-0.62866035737082981 -0.75561953112968538 -0.35608926427475129
0.315472117287662 0.080492291222585166 0.51597666028895972
-0.22597640450907974 -0.50657453121796614 -0.033605581874923018
0.36851620480739911 -0.19594016487643273 0.73735642833215564
0.65718442891924056 -0.47100010215621602 0.72454389864551239
0.49953104701573281 0.88897332544698138 -0.35358145817473563
0.91622066621552989 -0.21336338070323535 0.49082799839243485
-0.54431805675763201 -0.13754318284519762 0.74370830359026918
0.16501742898176985 -0.056733403874908106 0.78888147214014914
0.64682264172141402 -0.20542804590414399 0.71573713276623607
-0.654505251682302 -0.62101759671691426 -0.27644569947825692
-0.65580663721672749 -0.54696529544221839 -0.39737744873670966
-0.34480701295504446 -0.48028912573167304 0.60321858672837791
0.52922743030196173 -0.48146633336697597 0.36685185910122975
0.46721433380719546 -0.62445900040711955 0.48994506459626397
0.32158815312953593 0.24835726039675698 -0.27527747521897084
0.55497745216480965 1.0312810498575633 -0.40275031399697347
0.5905518970862822 0.10548687073529806 0.026628166620334071
0.022572697892627502 0.88807818785816295 0.13803232298820234
-0.56688315565548208 -0.042240288514722835 -0.64706656344158198
0.74770441339826021 -0.33486163616388076 0.64778521324761584
0.33155227619940675 0.73550616592189577 -0.26972063345954922
0.17340679093430111 0.0062928140755875717 0.78448595043465019
-0.14034890734791716 0.20890828421354257 0.75937216710867439
-0.51392888886427812 -0.93412054591839322 -0.30050225904177363
0.21209812545505358 0.65961242322985925 0.57531724390665495
0.2026742303115654 1.0123259072692647 -0.29858642670684787
0.4770651001656887 -0.40255930092534342 0.33777083968091759
-0.6013250563415049 -0.18762409702333649 0.71287668755871891
0.56166345711802279 -0.074919017852401737 0.68437817130560319
-0.53974608868903573 -0.67717016742144764 -0.33310790840278059
-0.2898705941122941 0.77790642877107885 -0.56384485018647368
-0.070742176060420547 0.84058194228733107 0.23869510000492866
-0.43113036488987433 -0.75143566440933007 -0.27233216740760913
0.12260260664844935 0.90118689558175724 -0.10193111346180572
-0.56218118995874278 -0.0018554499897120991 0.75730014304465598
-0.08477700159696866 0.76004390002937683 0.6677740440157045
0.25470870539963286 0.81983272093567905 -0.28177194365247082
-0.10180256813156419 0.098871391456190949 0.74207881589165847
0.45618956470246275 -0.032340144868175713 0.3117443344060824
-0.0367506575167873 0.48145218350017771 -0.63377923498654454
0.27704549014895363 1.264843117301373 -0.44658456438373939
-0.9371077546239448 -0.67800471629077741 -0.38281663166608126
-0.3543843991297706 -0.11737210616695037 0.82508551414805176
0.44261116837983394 1.1249611249526144 -0.42062036804396996
0.031254223577235507 0.2686496045329676 0.74827589570343633
-0.032699619577897465 0.33939848601330347 0.81421161887841187
0.27201868146459773 1.2244170220094173 -0.39575124580763621
-0.52357631062555399 -0.13351535305251439 0.53901917541755306
-0.5353227627738022 -0.71062727391638347 -0.33368185184990518
0.71955390285446086 -0.4785944113571432 0.70441963492263859
0.043003093417755878 0.550215988927647 -0.57492723967445869
-0.66950591519139024 -0.5276456084190162 0.45372319535139738
-0.54061974321907158 -0.33235405982183508 0.61610946172815506
-0.58565788260796126 -0.64223362397391881 -0.31215854272220733
-0.78033141347711421 -0.24538934039219917 0.2154579453096872
0.74862403991286541 -0.37685025797180671 0.65075734975231825
-0.85016238476043782 -0.57296193289125874 -0.31295125167602045
-0.39097998929202404 -0.23439039433891828 0.80342655021811105
-0.98646728653867299 -0.71572810608878079 -0.48109914237212492
0.19002436239062703 1.0156457471069107 -0.2845925371229221
0.042577477785062712 0.22917352834083182 -0.089649712300026607
0.6737825341295256 -0.42621947082141354 0.65722259617249712
0.17607972953069151 0.50025272847900304 0.65531002066347632
-0.2068028075380397 -0.13122575946698056 0.7312305537227326
0.79178903406095458 -0.33974371002822146 0.69931108233228834
0.78258408611949548 -0.34243164600176534 0.70125927583068126
0.074203339144666813 -0.93177502648621235 -0.44563552636901171
-0.032948684778272508 0.15748050338743269 0.74029766766199678
0.14729441579900993 -0.093582519074645987 0.80908560084405856
-0.42938865442178198 -0.17806734248412326 0.81174512685205524
0.20806822168682615 0.03011184935496658 0.73994451027192021
0.14918210890405348 -0.3000516369246693 -0.64200080746588473
0.31614303423880585 1.1077270752031332 -0.42773454973374214
-0.24388394976976002 -0.20473104630268324 0.74933423202179306
-0.2182956861803973 -0.10868607475551251 0.76802749288099559
-0.45616062446975292 -0.76094812627498598 -0.31019562272545631
0.54318280448526934 -0.65897946657793582 0.4420512783087478
-0.76424344625905505 -0.3239249696726727 0.53774098701879947
0.30786547026158573 0.59222763283991853 0.48085933579076645
-0.19074984827931374 -0.036167402307912155 0.64326435257149939
0.486770856457305 -0.55341980983395445 -0.05028325328800598
-0.085122748198074305 0.62509269822741409 0.60149966165386282
-0.088033825518287756 0.55441222368487431 0.7334984761256873
-0.36325279790526821 0.24455296466933873 0.6705917890224411
-0.14068563993185279 0.035401125235587472 0.7429698325014833
-0.51261773181366976 -0.069625852403186528 0.72886148817489094
0.20811752180759413 0.92662022588729087 -0.26516443409756896
-0.061889955451185585 -0.49453723789908821 -0.062501354014250055
0.73573579080443707 -0.30908940637440807 0.65836591055076177
0.22230006056944518 -0.39547913550350522 0.39744367231657396
0.73920085305661942 -0.36487559262166869 0.64833060558047784
-0.24238569665103427 -0.1923480347729658 0.76077033630102875
0.19254882409527951 0.48295639397802326 0.58501758132278248
-0.41132511127705129 -0.23141630575629435 0.80061708823124711
-0.67857648824629635 -0.96377890521686105 -0.39865493174606881
-0.54386923753083494 -0.2427924349418209 0.69726033200140058
-0.082405621706602261 0.36489955420451814 0.81646371571386744
0.053340087549077708 0.31523127637458614 0.75773216381755226
-0.64113592457503188 -0.054117305311017105 0.75846549193466384
0.21473564183753524 1.1797795254770822 -0.35786972641238002
0.28457330611128384 0.72973933211136455 -0.26495803737198109
0.2657788525096052 0.80234871487347448 0.77412238377789855
-0.6650386276075082 -0.52290739176717516 0.42045461533712292
-0.75916182763276652 0.045858180124723091 0.68997932569541298
0.076038108659972181 -0.15748235302777935 0.041387507209398322
-0.079580583416213102 0.2654193260392308 0.74149491022681779
-0.94141191478734498 -0.63266799862741685 -0.42131690823924517
-0.14193741855660491 0.39973017676921607 0.7838184587121102
-0.28119775449187401 -0.16440704150104501 0.80728180496938418
-0.34431771961552826 0.89074550302116862 -0.42331239814130051
0.27988749989168937 0.64614942884523963 -0.36831492879376171
0.53550281686778334 -0.6856669805289517 0.53225859650968488
0.175590475159904 0.97174484409604922 -0.25171327335109872
-0.28869470998738933 -0.072184464874339938 0.76696027890353147
-0.78872063481133026 -0.94451742953249074 -0.4553574590469931
-0.7893931254854003 0.21189446971814085 -0.042648524940816834
0.48574071786163131 0.64254219074281949 -0.25934906343158737
-0.43594470330693369 0.012367659592920077 0.06191123660753739
0.1592001967995138 1.0360016677855093 -0.38345940612241236
-0.01340809891210526 0.95691155380525217 -0.32460669973046485
0.29190799229314024 0.18465863818593498 0.4550461670807735
0.090331513102459127 0.66908792986129129 0.64057076404702151
0.11003599324022417 -0.13426090958488146 0.80575732732483552
0.092202877920115611 -0.12303196555988904 0.75785456276908825
-0.30364859576513226 -0.24505748672527261 0.77551326346620364
0.12917857055222726 -0.078225632257812094 0.76649622273770213
-0.43456652379640204 -0.73815909169988281 -0.28757150300110501
-0.49101128440000252 0.061425518562094439 0.78460074305508609
0.12038234208414522 0.54039835358075372 1.0853771380232136
-0.17004784926543337 0.16473408991557825 0.76386243973956613
0.28602350941793375 0.79703921132127853 -0.36111811616878953
-0.37338204675124942 -0.44118122969665485 0.41646951269900701
-0.29886965018603462 -0.072290330494142907 -0.040596921749071591
-0.73307026281789334 -0.051892130349676435 0.72737890886102718
0.052360027290262678 0.84247325086993285 0.60717472476488155
0.046864912454431362 0.41600741188739754 0.79136787638005934
0.070103166669259309 0.21283411470189861 0.64257690812197588
-0.5265264258374529 -0.35048148984317251 -0.55840287248145781
-0.34071268819636202 -0.70994310572689656 -0.17048698161731934
-0.46663784883253001 -0.78460332810030309 -0.2966770309901241
-0.57489773906133834 -0.071334387144794675 0.74043041556263844
0.69409829807136347 -0.3817397925513486 0.65863477560389683
0.66881112945562649 -0.45361720577964348 0.67541579986766109
-0.19286682531848598 0.32419635107536493 0.73055294673237547
-0.16967329911748408 -0.16368993107241536 0.6836299761763085
-0.34048430757853154 0.094449509989008362 0.79227294996314601
0.54642322847657709 -0.5297024003035915 0.70738303069818187
-0.28255439326623133 -0.27965330174520098 0.72951235038151463
-0.49216437728587792 -0.0544080149250874 0.75422395265701869
-0.60319921740466853 -0.67299052837897655 -0.33545266633532345
0.16811393573064848 0.92627894018848167 -0.23170303533036574
0.23696150460381915 -0.046416407545949667 0.80818318110041609
-0.068052042736162832 0.40416010796303503 0.24461319051285102
0.0098648915030139506 0.50130318022489462 0.7711267750013473
0.68940581254596367 -0.52354506169882242 0.41571930768042797
0.022812657345024689 -0.20872382633582021 0.71153171227051715
0.28769899952414235 0.078117624906894889 0.59084530581214878
-0.73778608961014314 -0.31620479256644174 0.41972070619982293
0.81977383128536729 -0.19753066166482292 0.40454704914163209
0.14393331502662221 0.40371584029406193 0.70332095290692642
0.10239462841864722 -0.39298791456569759 0.21809606009833171
0.63368252518359469 -0.68481240193076154 0.57251554269049887
0.54569659989618557 0.79056374540902574 -0.34731401963546737
-0.06844600124759026 0.59304167372147631 0.71553804050138403
-0.39898501299895628 -0.13264618030979136 0.8239946195986354
0.31134692169536393 -0.16689708888910104 0.73710107548593307
-0.69017384016465755 0.13322076079981038 0.77057493080501605
-0.083033616037571534 0.17376521208733031 -0.30225839175723657
0.19558209144911842 -0.10773589885114099 0.81340283287375748
0.28263546396892636 0.90944595376739734 -0.33319490760220738
0.36380257768797009 0.41045856170584472 0.024823961800651162
0.76405508232065955 -0.53271750647663474 0.47352114537134149
-0.35494514498191876 -0.64116278777811253 -0.071277136958121545
-0.59510922584179582 0.0011949586731567763 0.76451108319480632
0.12031272017610206 0.3997515189646581 0.71908917380171822
-0.22411675134861753 0.51554946599642371 0.63914776417683683
0.43206379961479158 1.2197303081015871 -0.51123578271406167
0.30035620915071348 1.0484921373576768 -0.38979662219381339
0.27019436811938746 0.77253778565622433 -0.28990647504144285
0.1824965926618809 0.43107726578316452 0.66894832186853748
0.26041244741168157 1.072155729997661 -0.39570518069639427
-0.90189767083531081 -0.071549867591574667 -0.34356571860057006
0.22680018088006548 0.78905219613853106 -0.17264372588672572
0.52677545802781012 -0.12016068015641679 0.32794904950521264
-0.74181776492315521 -0.51088143487614346 -0.043713995601156519
0.14555820888022808 -0.27484559706553036 -0.44491339293846721
0.17643321233135367 0.87190270773434975 -0.19928421914706007
0.05046096909851272 0.85312368307089415 0.58209862716008764
0.56454823909898266 0.18229165797809799 0.69631797697126707
0.25913557288278355 0.74739732011609661 -0.2166423095259038
-0.76965387010205788 -0.61539222724230491 -0.42426779842338691
-0.18745157581869876 0.030124299050383385 0.21100411953281295
-0.9109177461141087 -0.6048462152427998 -0.37332460517789956
0.58156163889768209 -0.43939155795764506 0.35416594332861528
-0.37390804773180619 -0.6346911460642648 -0.0054128006834552878
-0.81905113640191374 -0.65903334182684503 -0.34845480548939856
0.016857632409184475 0.61387999363387991 0.67451540758245798
0.34938509458473277 0.72490153459722073 -0.34065285518866162
-0.17053365647060303 0.328086543438042 0.75937313130416584
-0.036062009848251364 -0.25843307185085074 -0.58942198997370543
0.6064099358113566 -0.66481253011534847 0.62704651185721261
-0.47248910564015389 0.1595756023311754 0.66816072135668847
0.075650134002902547 0.38487274034704555 0.77933057477372714
0.28105449701961049 1.0941322954216659 -0.41684991600885901
0.57339803154768987 -0.30496349291819236 0.17705024800055469
-0.88181087927547352 -0.72071650275389665 -0.40358570136558836
-0.55332463745774163 -0.28211488081063507 0.67608524215673516
0.67458920935450806 -0.47475131654237757 0.72020506980726573
0.93425806411124412 -0.26197025236767679 0.49935571246389898
0.43499414129757241 0.88395510265416455 -0.3627178782546423
-0.42791121020613687 -0.26386607744931467 0.778131847903615
0.13294793202085486 -0.13462111477526406 0.81464774711409937
-0.83643056888328005 -0.73716938670859378 -0.43251952879673183
-0.50771069044020223 0.034508091395263563 0.76978153087986811
0.785139043839024 -0.26123849426080881 0.69118566031862372
-0.53717826807529434 -0.88484598717859164 -0.33293938814899748
-0.71639778240390939 -0.16111755265471217 0.72326536771376748
-0.32742076927888775 -0.12736916536387533 0.8247547412287215
-0.40065611611144192 0.041245431494782991 0.66040640225538993
0.21271069364291861 -0.37427516226986413 0.2276507109998871
-1.2181105891801884 0.80473795510325452 -0.37000442344706563
-0.36117769983735215 -0.82290329617736724 -0.25515763853103923
0.71375250747172458 -0.16475062674021856 0.37764206468233574
-0.3884169180311936 -0.014818327466846526 0.76508560339258302
-0.2243711371679602 0.38320873396352084 0.77113471316480897
0.86537642797324565 -0.38740228908076979 0.62358115660231661
0.52801417553988372 0.7503032176455573 -0.25211497894532719
0.0596371389490713 0.27604656235924274 0.74395464466332051
0.65714071776882577 -0.44527746262201617 0.66022497692336124
0.75201707965745257 -0.50387885003040545 0.67051339959131617
-0.21002339707355944 -0.21001960122388397 0.74468906552207059
-0.73031638181402769 -0.75051069854898245 -0.38169632509194251
-0.19029312852634916 -0.28870700755979506 0.63992545525204392
-0.076405707032733972 0.18971982417071764 0.7478303941508937
-0.90747132951500831 -0.69828059902873463 -0.38575140636049454
0.08526463282903407 -0.14922460841209428 -0.285675084472782
0.11638678670066582 -0.13993620160243836 0.80912502212492665
-0.44118634394405731 0.14275065742247151 0.80246633445452886
0.25822337217979197 0.20122345569287248 0.61756778740122442
0.74883706087248214 -0.43018052865692091 0.69688729733029753
-0.12436057317030347 0.36121251941609778 0.79590600440547554
0.54120487121797112 -0.40917416329042133 0.34159194650064961
0.14725586887448117 0.32129524294122547 0.66847446756837492
0.68061388999325345 -0.61220802047649236 0.46783153337030914
0.36608689831664876 0.48112903060986945 0.011626573406672946
-0.14830507239329549 0.51638968343968905 -0.67413627436272883
0.0052756152990518501 0.30378023462374237 0.77815312968207451
-0.041877392671988645 0.34663633212937128 0.81544298531285264
-0.44930415654691913 -0.75381453409537258 -0.31078889637110008
0.038676341428168115 0.28638447011853785 0.74826976263296707
-0.30355761212140209 -0.01501458957147328 0.7707166876596947
-0.40282862245293316 0.33931453105644671 0.71165129702890972
-0.57760141254355801 0.81515689823175208 0.2599578991065421
0.35667427554897202 1.085806325085942 0.16382573169701331
-0.16692615025690216 -0.44794051325902018 0.45474893301252006
0.35501432798952948 -0.85581398238078066 0.64202673622661877
0.1865908159045091 1.1063243135150422 -0.31611842922725941
0.34724549041120412 -0.090452153559343884 0.7297067443315246
-0.5937180856841735 -0.15264937705024373 0.72362143070362617
-0.36744489542368441 -0.64557044229827909 -0.13721037669271752
0.091203915274455483 -0.12526727833178519 0.785518353742094
0.77908902167802196 -0.38770157032167951 0.69663306498473432
-0.42939624795782549 -0.62985610728309993 -0.12950744729451724
0.071897553489716159 0.44146012172007865 0.77316493717640533
0.64688726146714615 -0.67657162036746854 0.51695814879587232
-0.73893409684186651 -0.37572370946432621 0.36050134001427203
-0.13610051694401548 0.52589627330240241 0.75313360157279519
-0.63921253340440387 -0.61492026160444091 -0.39966819725209168
0.46808257269193021 1.0805743515304673 -0.43087646648539568
-0.36429682303982602 -0.76693999652270861 -0.31250028490199977
0.29931649966341567 0.21687522587703789 0.4398594119199366
-0.89562757853886765 0.27155084703960597 -0.24891423392515488
-0.41391365345346642 0.41784010771508306 0.79952660399130338
0.38326328080282579 -0.24390369157446123 0.15699915768136385
0.15133957945656107 0.70091168641810597 0.60367410963807977
-0.15847765369246147 0.25735287522884853 0.76716266077841233
-0.12346365411887206 -0.029187377059720632 0.7412130689511045
0.1411823043448166 -0.059702520927013225 0.7447706613672338
0.15321205569135543 1.0928895307551212 -0.37803649033553022
-0.73249283473474947 -0.5137596786811649 -0.19177932033153056
0.76926310917269802 -0.39990108590577833 0.6939612859141846
-0.44238564471702446 -0.2490515907773645 0.78342751344685002
0.19289283763663789 -0.34672447451844057 0.63312808124672504
0.19057564313596131 0.78288974215836049 0.39325087014918303
0.75585625453794592 -0.4410447150297987 0.411897607442409
0.21346918110037905 0.83814378582276383 -0.22860247038472359
0.090220888758668849 0.038877704282718639 -0.17790015399979708
0.68586578491678196 -0.63449170159396751 0.60274960475061423
0.46718037576590987 0.78742715868734514 -0.27075623150231465
0.18188147354775097 0.92602868141524652 -0.24115556060768917
0.76185276608752872 -0.52546160561658262 -0.14549599659723
0.33176006235353483 -0.17881044663388046 -0.18333941446276114
0.55472258109459816 -0.49270597713653963 0.7208956337248269
0.26797934745190588 -0.6870667916643356 -0.39447429615656571
0.1252186942074438 -0.18076266640195371 0.76651882626220669
0.11874861808868431 0.60889786185451378 0.64967925574131336
0.25860679751587767 0.82141676152420473 -0.29254451818053617
-0.086764451470660475 0.22534040541987999 0.75858857166970495
0.59103402715215125 -0.20847571017597133 0.72351721564541016
-0.0021800836822052361 0.79968624786394393 0.66077566679214605
-0.36963074774058668 -0.016980785249813835 0.76519240217542794
-0.83976955267476328 -0.67520255446361865 -0.36671664261139014
0.92409501464525334 -0.26120553441332284 0.47216354709858166
-0.97073375349271629 -0.70470253997155297 -0.40820095219588337
0.75148516998477177 -0.32129416485520856 0.66559768399880603
0.45773709083338332 1.2200011132612243 -0.49121816009208352
-0.021706857795656731 0.24688362374826944 0.7526725186542258
-0.21443638517048313 -0.47318434625275785 0.538162547399609
0.73189961165736861 -0.52426950435404152 0.67283055201371589
-0.34550656946747793 -0.22565890827972801 0.81019723513149078
-0.26991828059900413 -0.56667839950944376 0.15664290580011908
-0.41040141336604918 -0.86928157324436661 -0.3185049945508327
0.5939043471934724 -0.63406414302799874 0.65515574819028899
0.23675382926871436 0.90393620793172502 -0.38418384168005026
-0.32997291668030826 0.50096607677529015 0.58673500148908531
0.32334736313751833 -0.018604166972266967 0.71803141170624762
0.4799193743232415 1.0588361843418284 -0.4837003471078507
0.1020413108389171 -0.10002114604832357 0.78374373391494245
0.066638305208602588 0.36612870089706639 0.78431525645414446
0.39376794768548606 0.66295406123622236 -0.20028234665871913
-0.25257040815407805 0.40085648458841661 0.77085800326458731
0.26622593908390257 0.76554314938352519 -0.26641191473641612
-0.48161055764126814 0.0085528722612693286 0.67469785436265273
-0.20591439828049118 0.40320737882650981 0.7687590712562713
-0.020922129763231823 -0.2158618169158526 0.16107198171791026
0.84789410629021944 -0.41661080551781993 0.62889156022322368
-0.36989015468944331 0.26943725998835966 0.7054617242733654
0.43852929608054581 0.049502049530255832 0.5704393492870885
0.36102326569129417 1.1608175218023113 -0.50282860181441613
-0.17939163001586422 0.45525090350667519 0.73506264766750462
-0.87078866201130012 -0.89029434860154844 -0.46406801044514023
0.065891482577807636 0.45836585418667219 0.77040793030943533
0.82707582068028884 -0.22534926461018578 0.659063318380122
-0.79453947226758004 -0.71850753489902708 -0.40476194571691559
-0.58144474738826091 -0.84761512826928609 -0.36552961467099276
-0.18340501104448492 0.43043778046889081 0.75853101548065638
-0.40510320388077403 0.14594135118919738 0.80040945514682704
0.38033276657379389 1.0297095578815476 -0.39455665580128851
-0.40755172665118877 -0.020542957226298952 0.7595915108963025
-0.22471957029549117 0.30872013105795659 0.68909783248082412
0.36313903245558166 0.20891383243148098 -0.12435625789397164
0.51497105165537249 1.0160989114948809 -0.38252968496080086
0.62573297825487373 -0.39967996767560621 0.7228026879112246
0.89258257222324033 -0.33572124727844255 0.61368603978325709
-0.4252258335642658 -0.040274170502371476 0.76075180118146513
-0.002002473212797895 0.56895438232205464 0.68925802158169347
-0.22386170743445533 0.42780486724236688 0.70121257798907344
0.37872330637533835 -0.12253107348573167 -0.0750187206668258
0.45178224759687424 -0.14350311564955121 0.72849538466389774
-0.61814805395735561 -0.9730465369902408 -0.59656032473021359
-0.40911064215629978 -0.27256160087230619 0.77399394671700605
0.14831966253178663 0.83522669320696963 0.1385919648670626
0.53727026266104261 -0.48022216884321978 0.7226557784526344
0.32023693458745228 0.71274552269517244 -0.24757749276863095
-0.79092722444619667 -0.73459991412609504 -0.40475480169424483
0.74923388347154685 -0.32269690530580242 0.65917344341265149
-0.29523706744887335 -0.69695838886538652 -0.17618727846925175
-0.50014405606036405 -0.53264384263130715 0.54732863644744612
-0.18551780065928725 0.71019380375828156 0.6387223333481753
0.14206549333251317 0.59816215013304408 0.64205165317652835
-0.33683904629910799 0.55252217968498307 0.80791487779595883
0.019993815510318313 0.32983935525682817 0.80239725254636163
-0.55764266770807325 -0.37946153970950647 0.65765870695130069
-0.21871282437260575 -0.32414753607874047 0.6318837254596481
0.87260082431646779 -0.41397261956418419 0.51352311604377654
-0.29507342662096292 0.85807304194858247 -0.4883823377063834
0.73462539872396704 -0.43550395962080124 0.68286415254110189
-0.20930141157195337 -0.33377293227365712 0.60440909921557839
0.16041404279782867 0.82012701610540972 0.47708740328648958
-0.61580740086400709 -0.71322740222971071 -0.34560106094874321
-0.87772506246141191 -0.88078171500995239 -0.44698243900718726
-0.65360642500182919 -0.82166442095340742 -0.37953594767906829
-0.30396690371673429 0.74463698458619554 0.27710901853856562
-0.09939753705445753 0.75779712102162122 0.019728661320126406
-0.42021133913146969 -0.3495249458751406 0.67734357680166113
-0.84011149037727506 -0.82082718296931034 -0.44328705429597903
0.68039480266749663 -0.6517111721739326 0.55046527600506501
-0.18684884640671484 0.31578495008533025 0.77199586328062608
-0.21509546795314094 0.471165016134524 0.75603798295138702
0.35187725887627153 0.62963520545837426 -0.17421036381571753
0.43198514968017321 -0.55162093979900995 0.6472501960904653
-0.61939340904071116 -1.0113700582381995 -0.37776022350945038
-0.65366445513442883 -0.93851961224231673 -0.42020806982733916
0.29697451002689945 0.82516146781613386 -0.31675512067287137
-0.7848412593150087 -1.0004141086341534 -0.40284622829777117
0.20322574325654585 -0.38299762112153601 0.60001226681525921
0.67367573717161378 -0.59374786229828658 0.6635224945792686
0.45105176258198298 1.1580444399915262 -0.41243830064375153
1.1209102947013747 0.32883185196486409 0.39092451944320494
0.12639584698527884 -0.17482606038261927 0.79633739915254154
0.18741786514228664 0.90417525618772032 -0.23784849035788014
0.70292163825479292 -0.33678264644610145 0.66542909452363475
0.080841594768251923 0.38303363422515346 0.76521417490447874
0.68594864896232721 -0.26302181897056087 0.7234326677971108
0.28651298718104812 0.14095015238314268 0.47564806062224285
0.28666565394907551 -0.023692126058977081 0.77669634989124425
0.49541670802257443 -0.60580463947814778 0.64385474204134496
0.40541490314150508 0.063359067108285316 0.49912080259265146
-0.28899584329115413 -0.39065250521285755 0.5873879357647267
-0.22208094692941671 0.35160172257296196 0.70905555578076296
-0.3606721599118039 -0.0044466695712106485 0.73004797291363932
-0.070321894642461302 0.36121190532492164 0.81665599872382799
-0.10654087486709685 0.17052572468514704 0.74967559281492058
0.91673291530788958 -0.31780372450225691 0.48691660646266932
-0.49249640425907515 -0.54848870594170407 -0.44360900065616615
-0.064923508826648657 0.5677943499678193 0.71449689776208025
0.84262410386494579 -0.24416678407349934 0.65533236162687558
0.2871264907532769 -0.080222015182458861 0.77440539336094716
0.21167293675977561 1.0405610867301078 -0.42269702769007189
-0.48306698619510868 -0.35184538964106693 0.67880315165516159
0.34830878130991039 -0.34653584150226813 0.27269278000290598
0.30073095291508878 -0.088442048454917099 0.74933276078526312
-0.42445361668115211 0.57326706568947827 0.67443527829539995
0.53853744252413094 -0.56567186146537374 0.68973478667126908
0.60486550152156937 -0.71608627932505797 -0.25602562840544607
0.36668711606684568 0.92971607972650183 -0.35853429176400198
-0.27232207062604985 -0.0041267038948866741 0.76455799625892329
-0.89533042584891476 -0.08956709095036075 0.052172759413847025
0.15756484979976904 0.43163083112943035 0.67030573135894578
-0.67658720261404781 -0.56099480258250978 -0.19632335549524127
0.52928650946947897 -0.15769700689100041 0.4204153202702603
0.19273786340389165 1.1484796661579963 -0.33560501729607672
-0.14117100923443004 0.49745858068988547 0.74720042042191004
-0.54644170612283816 -0.043968580308938243 0.74737618166317965
-0.64106176498158618 -0.95141674720928471 -0.39306008916502488
-0.90904330696548996 -0.74100616319505797 -0.50116896677118916
0.13643576195235951 1.0633597674555268 -0.2873936083101416
-0.49396732777789154 -0.62525072628110046 -0.25430838822551838
0.041103727367197251 0.33302309150520237 0.78730952413583566
-0.20914299899638777 -0.088825617086294884 0.76034607038972979
0.03171846255522226 0.30123245312621982 0.76257340218442593
-0.40080673189957494 -0.37869279012291379 0.68279512191897496
0.2570921484063966 0.41860564026886671 -0.38518293876020415
-0.51748343338252667 0.0078281677666591776 0.76020215334366981
-0.36292185578145819 0.2806766375938885 0.64074320319945066
-0.50564666246459922 -0.71317064193739732 -0.32414400862418269
-0.82133920289086504 -0.37574082440562151 0.09045891319505639
0.2362756711264602 -0.074423368728318451 0.80601187982130007
-0.28410895891522614 -0.14541557908386871 0.80900758190298649
-0.51484320647129067 -0.24418850841578177 -0.60871059797911009
0.052690106354340571 0.75254123409453477 0.65657039406588247
-0.090488256587658356 0.29975354477245553 0.77405342410902556
0.35941601143673196 0.073579434691675161 0.47411961964495575
-0.88745230282312448 -0.85681100527914111 -0.45725913279511632
-0.68780096367022381 -0.10911130233057165 0.49687799118516995
-0.15779645137019926 0.31737100232342996 0.75219248680292061
-0.075282566189226685 0.47642711976414454 0.7957194887340453
0.18646351041464726 -0.18099903574270648 0.78830431737148388
0.59908219761500092 -0.03288074136457908 0.41933198013784612
-0.2686769861545919 0.37663929162635235 0.77954448622039507
-0.047411139925820578 -0.1504376075428091 0.75951368076353631
0.6613783515666114 -0.57280214635694904 0.6828040624163334
-0.75938699006429289 -0.631382222601367 -0.30338417614503133
0.69156244780583975 -0.46459228495826999 0.71581972431398633
-0.096301297953182541 0.25099917612705092 -0.3399717538771192
-0.25444590337820472 0.58159542520060192 0.13164378349119765
0.70025313059493755 -0.42351868810608728 0.65340494274703431
-0.42283175465840372 0.088664684937134197 -0.71084002807674196
-0.45443733209128823 0.033354848042549179 0.77053073220075419
0.21453087699380902 -0.03107509853904844 -0.47151620522554083
-0.49625451927171582 -0.21786537412797635 0.76356597178297925
0.13920172580722223 0.90279333000972706 -0.34907942787613422
-0.54962203088086525 -0.31783611853287397 0.67715354046991028
-0.48767990033186237 -0.09026535631953081 0.76254711964002819
-0.63408581588466006 -0.18008178581372292 0.71858500763627653
0.80764358641376788 -0.13328438133843257 0.45235014203977286
-0.28450627466677858 0.47203287517467096 0.78190801935025078
-0.31057427193499265 0.26761319256521965 0.81203267720800731
0.1255738299554956 -0.18256684488245867 0.75714048221951202
0.23177600214858884 1.0822996089720096 -0.44532007075302538
0.27484269809546902 0.4578889663200929 -0.36361101152413688
0.45114429364088693 0.76439499905070107 -0.25982163956920346
0.30803533134575645 0.26153448824132752 0.50316774947684451
-0.203801683432701 0.46785133607451179 0.75725147849923324
0.54176666395259332 0.86476413430301236 -0.40073305873863418
-0.76429118149581043 -0.5316355258086638 -0.3140492774491892
-0.17777543145766472 -0.45573285533123631 -0.45206072010936893
-0.80413052733080903 -1.0354784139001136 -0.43502182047790905
-0.64816065386759547 -0.65133729918068539 -0.32414688879943876
0.36424991977776244 0.57643688552111882 -0.089485307788846669
0.12042530674840179 0.84119876326824716 0.5329460378625015
-0.48947602793620959 -0.24006883672478274 0.75150537760086067
-0.75688005097676481 -0.11357821491121634 0.6253954646260631
0.29095001588093794 1.118990946238446 -0.4280074417656472
-0.157061901068694 0.48554873077176097 0.75270488860388163
0.50750950104998083 1.0125735196675674 -0.38663944232063763
0.32567187218664273 -0.099143960862308589 -0.26349128660868892
0.031771381338831617 0.83356903844767416 0.45016834051313026
0.26802717016549948 -0.093971230106790316 0.7885504028353818
-0.49456316759927788 -0.6856035005477974 -0.30059870547788581
-0.38763647103187893 -0.28439930432143434 0.75907010336329694
-0.71012330109864763 -0.34952005188323376 0.6750144165549834
0.42461249054258943 0.72042481556522553 -0.23848810466316905
0.41031637244492813 0.23373204767218958 -0.51159635076433929
0.76922961178182447 -0.094088651659630429 -0.41628601081710492
0.16046765183318357 0.11075511948261507 -0.5414545972655791
-0.33867462734766463 0.23569659927247599 0.78419385480641157
-0.36460706450321467 0.93756521025363782 -0.21774496783718256
0.43726431697965396 1.1489991011091725 -0.50723801804326207
0.93788609842758319 -0.26350346840493089 0.52827296136018909
0.56375538033946881 -0.38641216575790338 0.33652508967227845
-0.7512473273215754 -0.3907637270895048 0.63028834836888326
0.39327621423789694 -0.24563857959127056 0.19913744895839258
-0.7864299841351432 0.016667628736851015 0.27906444538136199
-0.048818199573574361 0.73988197397801336 0.11147963062677846
-0.35901954699597383 0.59086988532078344 0.61625924010254884
0.53125309630982187 -0.20752644227484573 0.7292201712034565
-0.0036436011534917156 -0.46918457021086191 -0.24478808690441323
0.10386533265222653 -0.23860197631747937 0.68104940489992138
-0.64431633480123907 0.023350749376724877 -0.61837886790829888
0.86734083618611635 -0.35844934148767393 0.63592370662746767
-0.70595693591998554 -0.16606059519866712 0.4362155078767902
0.34979455772643675 0.67838880213883535 -0.22391735715867433
-0.32686952123737001 0.18118639531183867 0.79566253489984717
-0.76610641680325742 -0.61884444002707539 -0.29012975186997148
-0.23481510617627066 -0.27558665831435292 0.72850708027486011
-0.18370258002250139 0.33989449731406296 0.76556182387322025
0.24152544817698285 0.95222164026204936 -0.46630433394751414
-0.96620847964638656 0.4502338644011612 0.62814602657148377
0.12236717813308218 0.97152308505392782 -0.26490022287526749
0.29310089035339004 -0.23165744590490966 0.73567477356425215
0.39582529978813596 0.0078908327275986068 -0.056692575428840541
0.10992522454950304 -0.16843037754399859 0.77463019283480339
0.32467193428711383 -0.077973308962057786 0.73275493824907123
0.70378849245312836 -0.54242046878339778 -0.14772243225965909
-0.74856693529579488 -0.83715640981160355 -0.4843587214897096
0.3608310023840211 0.80262372822405226 -0.31493140289347643
-0.12487650423011942 -0.21228674189441143 0.57584092064460624
0.25263770465835123 -0.13386852473501776 0.78458334037343569
0.30408227139087174 0.110606591302437 0.45767110674955092
0.32832166477710345 1.0268176735199841 -0.38079080384639319
-0.86918732274376254 -0.86151352001937553 -0.46728000312620277
-0.58276390858376459 -0.32159167276589784 0.67501218608169555
-0.60226093230037137 -0.93345443269227601 -0.37274726629347477
0.0066768623547304173 0.17241870506571466 0.14704368134708723
-0.029386634098433007 0.23992273582229906 -0.0079007877406755966
0.19351687150945907 0.47614707651853649 0.041740307213929739
0.23915246537185908 0.92616712352187314 -0.31375193976347937
-0.50545712065005688 -0.64101095741807157 -0.31021697585808283
-0.63912179018861082 -0.79541633163908543 -0.36776296284605436
0.086331224926631478 -0.30684654480186602 0.4787156869594078
-0.39695371289870351 -0.75498159389793607 -0.19252768658467367
-0.19756521713422615 -0.21299375512801078 0.73803042813897601
-0.061782881416959867 0.12508988020193001 0.73918342451856667
0.49562702926909452 1.0054298826701231 -0.43084460341236763
-0.7083421907525782 0.32615051592544475 0.29432475330404451
-0.57421517341331096 0.23104834395739005 -0.67095128665252801
0.13315563431944355 -0.38280334416606721 0.2394543102482114
-0.64700197591925956 -0.95336634686835176 -0.41344383381799021
0.16064984158267848 1.131422129459029 -0.32722244983503934
0.014627610898219956 0.24649251261316785 0.75491675560967941
-0.74257974941586724 -0.36585049185544349 -0.44006792314497378
-0.42996946620977639 0.58309890053945779 0.74971584372835487
-0.40120274189836636 0.17769739597806478 0.73153087500564329
-0.73277262632628748 -0.25378008546870845 0.3411212840709279
-0.18608239411233995 -0.12016624661866082 0.75379522754878181
0.22201061137328892 0.41568659262935448 0.64332024816818034
0.25897309570657256 -0.088894865072312257 0.79461823635461393
-0.37193266640412403 0.38726681671942842 0.61934598364510762
0.22849570817884413 0.014288685467388262 0.79574926797026357
0.36590335485460557 0.24814495634364597 -0.72155244045749001
-0.47066345922025477 -0.20527552589359921 0.79127492794163157
-0.66248900065532368 -0.59411140969766585 -0.25079244236595422
0.16320324209080894 -0.066438649614697809 0.790242258023234
-0.39041702399698153 0.18506541953523481 0.637329514337444
-0.70872106235809085 -0.46929638312957955 0.26576834796891813
0.65803404814032262 -0.66729207144532587 0.57515822678056594
0.33261031244650496 0.31454025123679052 0.018157910641521724
0.27656626287883412 0.75260389735083244 -0.28864592430097957
0.40503407096749555 -0.36325429984988844 0.31038801826625217
-0.57914885398935922 -0.90904578548255799 -0.38089844054346189
-0.87718626765266805 -0.086007282810300012 -0.39736451125356709
0.014315276776887487 0.95220134745381024 -0.13030745273965572
0.001128909277053225 0.61944193139245129 0.68253620833313278
-0.42267643846804503 -0.63367586653922281 -0.10317526357111806
-0.78713070444764455 -0.66591570918481047 -0.35871173250310617
-0.102163789373094 0.32357174530442379 0.78614708055551752
-0.49476202258921731 -0.64700273396905494 -0.29927480661284989
-0.3881052764336097 -0.27336309023242578 0.77699433287828157
-0.10963811295761516 0.99206765364990446 -0.27702772250544427
-0.81651700631823587 -0.93013423964952224 -0.45987717418877927
0.13405866522630561 -0.16331586731745951 0.81057648011387506
0.34493593230526898 0.62351825264698135 -0.083454152652779001
-0.55214047908513564 -0.61585431636284937 -0.25751458020413676
-0.08441866013993149 0.98658580618925384 -0.15694861126612025
0.53452069531230606 -0.24570007780034864 0.31703414748860936
-0.6282124662005657 -0.37113143191990083 0.65477925543250404
-0.16011061627307299 0.12523916560941117 0.75783129295714247
-0.21144400818421616 -0.02972969021668348 0.75277195424066967
0.18787859874637647 1.0700355599881597 -0.30462992803964184
0.11396812222541541 -0.11604221720577534 0.80564717510185968
-0.93472419081506075 -0.79731179978212907 -0.42310128187254259
0.447010821750915 1.0971466585796072 -0.45313754678100615
-0.50978513611066845 -0.6976891803691796 -0.32480573753832864
0.34854757051583363 0.60909627557571433 -0.3230555948529048
-0.74635877639906312 -0.32075337487640354 0.46243566484832055
0.56406592726336413 -0.45616113715566087 0.73067900780805406
-0.42480573471281957 -0.028121963696930763 0.75426057054804385
-0.012718987427309258 -0.33262309020448377 0.46782059252012775
0.30308159976467053 -0.029458360590009391 0.73885819699664168
-0.40937094419915354 0.66568292593242262 -0.62138966097790771
-0.22730430866499063 -0.15024148239190183 0.76310653781940996
0.58331876202031196 -0.36112988213329444 0.33420157770901682
-0.033800034587333272 0.56860773332800463 0.69485669857217935
0.34793059710205299 1.1647584351780775 -0.44607290081402162
-0.5722743244101629 -0.21892503982869371 0.71919404104027329
0.44400385338014203 0.050242263787641406 0.46045718636005084
-0.6434624463060139 0.073518911848513113 0.13962202182949479
0.0094567523365576278 -0.36562977324983947 -0.48446663394000566
0.23489647788537837 0.83936513772999177 -0.25814253558582934
0.33725056387541485 1.0663475262871476 -0.39986482726417982
0.22498617899753981 -0.40216938097509392 -0.31652545371258256
0.35481057609452549 -0.11225976885127231 -0.17186920307216802
-0.37273982685320561 0.28966059864150928 0.59259599600558577
-0.34472932370304221 -0.059424168400978417 0.77940425174228434
-0.26162874977032757 -0.37510432244646985 0.67257177575628813
-0.68462784454741055 0.16962805934035075 0.72209454881071089
-0.47553632826675596 0.12478118667240423 0.81134604743324079
-0.96078351810849583 -0.81579511793638027 -0.5177065636574405
-0.3961332804358797 -0.49655226304256495 0.59271437075218358
-0.87235216801267867 -0.15218268085160958 -0.38834744070605698
-0.3328541107040337 -0.08547820076324264 0.80860258877965574
0.37530753363989078 0.8195682543280931 -0.31834029720539903
-0.72885692813605019 0.59252925692922354 -0.229678776907555
0.26430892240701809 0.79648502646310249 -0.29125232788605615
0.26882999649204464 1.0711768030489406 -0.4013171855987121
-0.56192426142231255 -0.029652295594507549 0.63403999034518321
-0.38942731787293283 -0.10489221060649712 0.82356257166086166
0.4754569018906345 -0.076904230201400026 0.29912602596647275
0.31178387018849563 0.55258568258793872 0.29003122151427441
0.82655435316668857 -0.44034435143949047 0.46471048687862293
-0.29392796220017914 -0.37734976546533261 0.61572175192444334
0.29647440119693869 0.49105021262612425 -0.34269727125799143
-0.50887215136430441 -0.023492120011004758 0.69214975541527402
-0.76275728133546039 -0.67268596077441956 -0.3664420773698871
0.31522609285583769 0.42734565289394943 0.53493740246001842
0.4032094563967128 -0.24869380816719122 0.22765885541195097
-0.31748233429604511 -0.23078984941693115 0.80498100740128375
0.85393438265533206 -0.38374580058769858 0.63993260919950856
0.63776657292959271 -0.67178510435248029 0.48839900455844543
-0.8392111513655145 -0.63395659220976874 -0.32524265852712464
0.097208608103258598 -0.15671515067451836 0.75156062044563754
-0.55621341184070872 -0.32307239721089154 0.67855839048542421
-0.37550658569756123 0.44702174044709864 0.82219066943352104
-0.01796946580265768 -0.54827666671658193 -0.19113760533828383
0.45869339255945007 0.79898167380132712 -0.30636576451844988
0.13043345348818391 0.68860600610424605 0.45747177937950134
0.030289815720962565 0.63334464483530262 0.37601132629640688
-0.056757926126127956 0.78672126184951807 0.52355454206727714
0.32409050047026966 -0.15018100914654475 0.73590766322368673
0.63880520736906021 -0.61898007226477425 -0.53851072386643395
-0.38288953821756877 -0.38441012412219422 0.62963694647456059
-0.42200955162219245 -0.054648768903646783 0.7749708240639599
-0.13003548738984705 0.26414409497327185 0.76760005936114695
0.72121694907757572 -0.41782368645141688 0.38635664196171504
-0.87088593980160667 0.22819511314146013 0.10236123961033883
0.57878448976297747 -0.68454693149144674 0.60141098685629402
0.068999823384444881 0.2024174742173166 -0.70291535181987008
0.18595339118309795 -0.0019033796259346758 0.79776676100746435
0.73496908172435127 -0.29396304586123811 0.69381780439344709
0.29312723908995508 0.14161240768996208 0.45710163984115404
0.094041242199963904 -0.37399113514101145 -0.78989124052911031
0.066949648072011314 -0.13699280032778383 0.75870921540403202
0.36918833437637844 0.74683400208490092 -0.29827779746194771
0.56006100597088704 -0.14508669698467003 0.33934616194371792
0.36980540004081064 0.54628110921420614 -0.073704634569018879
0.24098956540782268 -0.39228448470761279 0.63922169165817078
0.012370358102334222 0.39298885750795343 0.80672576533719997
-0.2401040401818193 0.52638579726177603 0.76759824034189705
-0.23392478942379924 0.24801982834089742 0.78282384231449331
0.22575027623592803 0.26461990037236305 0.66284108675745301
0.83909248866915576 -0.19776405314966716 0.64074818084771046
-0.82245772113039095 -0.70234353995957832 -0.40355984380960264
-0.55646170857068711 -0.348600640134201 0.67206872739877799
-0.16003370608271084 0.543110529361158 0.74017271890886605
0.42103580133890972 0.72900110821760045 -0.26254715426960828
0.41333610885232375 1.164195868194561 -0.41789561352946336
0.050221455259407577 0.35276688811938861 0.79448918973218241
-0.4663800945104839 -0.24752150591799804 0.76977974379637448
-0.48425582445432269 0.42082361943436375 0.43906964983428409
0.93408741081010049 -0.26565002327619425 0.55573793672221328
-0.67523905537187545 -0.16844604896495774 0.73501479402413583
-0.61241856591566091 -0.043033791651488684 0.75352203880336344
-0.4364193085359922 0.53643383916275411 0.77159822842837755
0.094012153617111238 0.57769496838598933 0.66283621012827076
-0.37363331723492976 -0.54227516456755254 0.40922183299389037
-0.55065377190266673 1.0127138524870656 0.62867447816592659
-0.14658985582616779 0.64037531978878803 0.74904493883717649
0.071241769252175402 0.69943735871621904 0.64485852118101405
-0.073061200731022069 -0.5018650787942871 -0.14765176863427953
-0.15868970435198193 -0.27307609450022063 0.71318795480809616
0.091262045007827197 -0.042794742524181473 -0.58708513665704842
0.51319906588437902 -0.043825422849238294 0.35684715956497293
0.64377533605446047 -0.44561481592670127 0.71815125974095295
0.35114472175715861 -0.50788411596062311 0.4461782166134709
0.33377367569936922 -0.13189880788796771 0.73468777974665578
0.33234742484665958 -0.7145906118611336 0.037124907660198936
-0.31459051969431684 0.3595394224416264 0.029778146135793548
0.076593629115233597 0.3598115762685552 0.75998024473791936
0.15593548875206764 0.23753437466978866 0.70948236459321912
-0.094992949972187546 0.65266307313992833 0.72439953612282437
0.079817072493192143 0.59768837446757495 0.60490907482203937
0.30489749028399515 1.1719228384463989 -0.41710044300056559
0.65391168599762395 -0.37007459030589196 0.71824024449289148
0.30485620528910218 -0.49358167526950858 0.53103135311126248
-0.29783029311039044 -0.3798475768122227 0.67470904877721871
0.092551085419323442 -0.13940854328920693 0.75342768008472571
-0.30202763203808658 -0.18025607235253283 0.81935004878490592
0.39002303586558185 0.85671985493586611 -0.33300283890920745
-0.21069998911832855 0.50816510913758073 0.66419241537355411
-0.547302327169227 -0.40155413082059077 0.64985303624181334
-0.5657686281799208 -0.13114875945273319 0.74213730019797808
0.26899241071430069 0.69943172664665099 0.46190125794700876
-0.95062582104217341 -0.75355536104679821 -0.41363037764145005
0.18842793057716278 0.69427305908046044 0.57767827545904282
0.028061096244694994 0.9176918148512776 -0.38138295382386467
0.23231229835921496 0.023601726893383912 0.74322115054655669
0.28888533606039601 0.16338993357652321 0.49652649909405255
0.34464466724744369 0.33121318438678138 -0.18685418867567449
0.18010369587496911 0.69630154234143582 0.10764936197541353
-0.56137285866184783 -0.19751357742073772 0.21600206480579676
0.41540275709251162 -0.044566956939855018 0.70505015441667496
-0.22983596770679426 -0.11263293659787976 0.76394169328179107
-0.4809731351003208 -0.75091400954391396 0.091898860898909529
-0.13810145397942009 0.86791143165614493 -0.16899849413379009
-0.04527250762353674 -0.11053097139589596 0.76053197594929411
-0.63316420887372971 -0.57298982618636707 0.051792145808837731
0.50558631081552718 -0.41400585599778417 0.73234471145384106
0.08816708471735879 0.57198837643260703 0.66107827947048925
-0.7293932837721151 -0.53797826166165486 -0.24643866485458465
0.041348756269439235 0.63989594933023497 0.66679297424654926
0.73233688174314793 -0.50431258187616734 0.68491824223649012
-0.58390638604291567 -0.12433170906296276 -0.62277411766047486
-0.27097100996074985 0.40094532071152145 0.77735858678507519
0.63049334406978375 -0.61930578242954581 0.43933033282567369
