# XYZ point cloud file
-0.76745018431234358 0.008806833865077357 -0.35878548612104888
0.21263804430498923 0.73954265987915868 -0.15022083611855486
0.44904949262308758 -0.1473962922856695 0.34013993707669687
-0.70118480464928523 -0.4403046254105602 -0.022194234631019327
0.077992761660332283 -0.32427701028990824 -0.36372383969800381
0.18240602631471364 0.83165559196309591 -0.16931838629587403
0.12223833193335243 0.77261233300956955 0.5662150059485791
0.52429099029176052 0.11339162136199449 0.63279324109129842
0.23311933037034016 0.69573160116066968 -0.19704062772934083
-0.70858965377031913 -0.55648043973061889 -0.41493678867488226
-0.19537602071013749 0.055686800212554781 0.26192445371026896
-0.82047004207482799 -0.52480897935997051 -0.39790738863109176
0.50486286167605476 -0.42348093759623634 0.39806177339762261
-0.42576923020960833 -0.58304539011977441 0.083405819085842658
-0.75854709725754876 -0.58858235724999952 -0.34671555733733328
0.062854339718290797 0.56175702641321301 0.65429963110797029
0.30578618885649966 0.66514178343951846 -0.33311336069523634
-0.12834008081551052 0.32903839610318508 0.74887867176659961
-0.069140098051307275 -0.29772294384257081 -0.52069483871988353
0.5685186275754609 -0.57525154199108619 0.66150720100138249
-0.4044141282319802 0.20025964856599776 0.67039118376963502
0.091202483641014576 0.34975614659955268 0.74828831976583166
0.29882284225101235 1.0430160246144224 -0.37812883590945834
0.48390971920117998 -0.32783580576901872 0.22110002560692088
-0.80919059767213186 -0.6404629033284841 -0.42016449610545559
-0.53577574495494695 -0.2012822697828579 0.67752658780951069
0.64852085160899919 -0.42439009835701202 0.70679777995165649
0.89131704836682901 -0.30942871810042666 0.44824873721522618
0.39516495243157823 0.80588653277811162 -0.36113393952828066
-0.42607223934140331 -0.18301575055696107 0.77848541480497246
0.10296782555096207 -0.093282068420784237 0.79959746090579253
-0.77363004245987033 -0.66393224578629284 -0.4379110285827279
-0.45152106501404271 0.084686748164480116 0.76195306420213882
0.75436826668469303 -0.27430901441175143 0.64171891935193859
-0.57537342865015573 -0.83479019040512603 -0.25170750683686727
-0.65430242099369773 -0.088218312534237925 0.70063524601537708
-0.31915846448459484 -0.06414029519816733 0.82036578688167339
-0.36149578527785886 0.087841177163903689 0.66744084374869272
0.12664981586210239 -0.35186289135949705 0.30343259154822455
-0.96350851599125975 0.94190268162462831 -0.47764846401990413
-0.43004439932665395 -0.7864573089419491 -0.14350285789383488
0.64245100552353196 -0.20511451332804592 0.36482494287397138
-0.3577219796909567 0.036424569953672811 0.76316403695455293
-0.1660540060272977 0.38255003119565723 0.76109699570380407
0.83944810027053196 -0.39081125473328759 0.58737592707651265
0.46469912754202836 0.65331110929979419 -0.27238737389467804
0.064139872734242043 0.25975328587404761 0.72162464187667608
0.62009856625014126 -0.40431517375120879 0.65414747511277094
0.72848428277723354 -0.46200155344530625 0.65956697683307741
-0.22672410348352667 -0.14261017863755771 0.7536340733813307
-0.69934829789284125 -0.68916104287774238 -0.35623656348808286
-0.22123884948978312 -0.21786123174789226 0.66517534161959713
-0.064178834180565913 0.19880543455317587 0.73732763932316336
-0.82774802336899078 -0.61478822372788167 -0.40896778825926905
0.022462595042666067 -0.17919861565804202 -0.20619971974677043
0.08630016391392703 -0.096714122878678588 0.79619887015232571
-0.38036482289893997 0.17950225097431569 0.79357652506611487
0.22840325604000544 0.17277685149861538 0.5960573589946816
0.72441354546365366 -0.40148664348280921 0.67248717489254251
-0.083728761333793811 0.35210588269588239 0.77881957484130293
0.46141825076838627 -0.39554125997653206 0.38699899717910746
0.1414697088807586 0.28953373624242856 0.64519568246340508
0.62809949602273218 -0.56176974365801824 0.51110067352236133
0.30817496955020174 0.41295526450680886 0.015816752966754777
-0.1199205853346324 0.54498840665546999 -0.6324244240163841
0.020924740163214328 0.28892662074927922 0.75542459225698355
-0.013747702571507814 0.32981346981000842 0.7912351698292186
-0.48657645726730969 -0.71972865318822965 -0.22154993020614278
0.046908987400501645 0.27096567684128137 0.72674435559426698
-0.28484882330129624 0.032971900100332525 0.76962034438272164
-0.32090932334865002 0.36035216524017055 0.71040498675889285
-0.38505416522821251 0.87584723516091634 0.28396963926747887
0.38484563369715508 0.94863440917625286 0.15877991591408325
-0.22385629191991813 -0.37408691169928232 0.51157873602436821
0.29269565500602279 -0.70248775417721088 0.7178407253684651
0.22970131466249405 1.0655768582360816 -0.27197034085081295
0.30681275465945945 -0.07980272065125793 0.70640771849237582
-0.55072420102634689 -0.082715170271789831 0.7149952335240024
-0.41631180865615469 -0.60746070647360861 -0.042557578034806642
0.061670762391008549 -0.083734399430751116 0.77628154811673555
0.75506191656499655 -0.37257245162974506 0.66285287369547063
-0.46517355555005135 -0.58698227506247314 -0.045296958371742413
0.093635265508848931 0.39876185420556348 0.74162679287194599
0.59942210346617952 -0.60316160975361388 0.56656167658373668
-0.69569085669087405 -0.29341952080823452 0.363917294248703
-0.073344040867149629 0.50076456849164419 0.73859059414081241
-0.61002142514007518 -0.5719405386275298 -0.35920941057044997
0.45061515996418722 0.99081877427503739 -0.41427363734918909
-0.41959709835856673 -0.74045794711622348 -0.20715468778885304
0.25435020183441226 0.18039129221511704 0.43352481842061685
-0.73207882253641721 0.36959239283334566 -0.25340831017489229
-0.31772123164005384 0.42705535554450991 0.79077261697337153
0.29458008928421697 -0.2568265286416006 0.21442397731957907
0.18304406538992513 0.61904996151453673 0.57627071109731354
-0.12660780328879639 0.26509736716949656 0.75681770001355897
-0.12938466212944111 0.010848276355988506 0.74175452586564194
0.11086604033287073 -0.03417982849550158 0.73352143922354385
0.19880646559101967 1.0676528297887058 -0.32917754204142291
-0.68588005446554312 -0.45157203053297607 -0.16781844454580996
0.74466505584513232 -0.38089432970442494 0.66343669645958858
-0.43656752725029868 -0.16960681759331164 0.78199782829897391
0.13467668657715826 -0.28559398178197704 0.65649150138567958
0.21362486172703099 0.69979072665616238 0.38043427656558837
0.69763203764071879 -0.43804995302222344 0.42674575988962493
0.20640726218124106 0.79355634453873214 -0.20211827442971142
0.036035678494621415 0.015423011796566688 -0.11387267700016235
0.65276684142809427 -0.56335703687379612 0.62866193210317745
0.41385019174991566 0.7002455322194131 -0.27933854468717367
0.1938146714281806 0.88622348601282186 -0.20860694532158597
0.67832900323083956 -0.58510188291221288 -0.096517914202802757
0.24315291313115928 -0.22518538382296316 -0.11518465403969369
0.51819915943222461 -0.42431203428481312 0.72169981717275933
0.15944650465831536 -0.72840188163130504 -0.25208009638746764
0.088974412512985102 -0.13333466634725688 0.76155858189011383
0.1464285048318934 0.54233124853098991 0.62239779418497454
0.23963623483280067 0.77298987396567254 -0.27011423953354186
-0.068818850986962832 0.23073154649821767 0.74636510700697656
0.55185749119878758 -0.20363768411674721 0.68762850576767898
0.074381018311361013 0.72846330940035209 0.64290104917343438
-0.34197386402852215 0.033809293535676591 0.76376671274277941
-0.77479147664337777 -0.60193117824493347 -0.37090036713270402
0.8774114005217637 -0.30895351243248803 0.42552931395656923
-0.87486660824055607 -0.6118090030921961 -0.45084966853480157
0.71772641609688848 -0.31832273492106128 0.63152911932676314
0.46953853752567237 1.1279634104879972 -0.45249496103819631
-0.0099805841858017219 0.24327835955811933 0.73640536905304455
-0.26777824515007259 -0.38703028945563156 0.58534901463030087
0.70773037839465647 -0.47502100472918757 0.66681478645385495
-0.34814914732481061 -0.14972788714043866 0.80969484443003026
-0.33213142682932734 -0.50835979935959164 0.24307704987914303
-0.47273963481414033 -0.83200593941029299 -0.21190069053774652
0.5571618828879642 -0.54637449123317106 0.68179075275105783
0.23107712224401433 0.86538576158433189 -0.35458569414519037
-0.23983375996050538 0.51194800649408989 0.59436778455576622
0.28532185430792723 -0.018465829270613354 0.69283124281524744
0.45742709595888686 0.97507462723421678 -0.47017339501740674
0.073670009110039958 -0.063470079608196145 0.77250974185718402
0.08161770463439888 0.33476006726688406 0.75408134301162288
0.34009783531501958 0.58909406333671421 -0.19952934322537974
-0.18715539984512009 0.40092897759269563 0.7617498738827333
0.23995190277574918 0.71516104922470247 -0.2465597723025823
-0.43333638140267361 0.061117995119653934 0.67749250365912506
-0.14796613941576597 0.39872765110038422 0.75791214105036975
-0.077407436068005875 -0.1961726392524851 0.23181785683818212
0.82293325532248951 -0.41083639146667572 0.59866427363518504
-0.30398099424970404 0.29433920164975513 0.70546320861249079
0.3864981514542627 0.020508510702778426 0.54749253653509422
0.37653841587641351 1.0979856751268318 -0.46220724887138376
-0.11970646205622792 0.44428675361883724 0.72534638289388242
-0.81823249473220727 -0.8029021626022903 -0.47532392004185597
0.090149054181508093 0.41416483838416096 0.73930738610060942
0.79333498997616658 -0.25404562354848964 0.6035752189853798
-0.74198529700383764 -0.65114052711646231 -0.39795932591361094
-0.60051555337765983 -0.79809987789017267 -0.29828960763463286
-0.12574431190326185 0.42123468551502274 0.74720467600590856
-0.34961630788110509 0.1809088793627692 0.79248739809381963
0.36854838904694037 0.95773570583530088 -0.3733737950049747
-0.3748266532409939 0.031944816359571249 0.75775379304974111
-0.17855411608622745 0.31944826104625235 0.68781749458015717
0.28794933341720064 0.15115219493974882 -0.099542468233059012
0.4809033319570597 0.91619391765160496 -0.38061087165647312
0.59270505523265571 -0.3592208171753889 0.70484699787207328
0.86441575092854606 -0.35476558630812133 0.56740569099819416
-0.39255194560387885 0.014821482441220519 0.75848985731938567
0.041774429778320021 0.52443080164315758 0.66989338476640548
-0.16135374651658485 0.42639060833063769 0.69689813592521244
0.28930785906727124 -0.16651698428601475 -0.0191816668558209
0.40962376400854739 -0.13449289244262613 0.70010596507322642
-0.62137524773360475 -0.92725568583464923 -0.54252855667356714
-0.41086993516602566 -0.19108277091932016 0.77608409008426493
0.17130718906406217 0.7765488454037861 0.1506606967613644
0.49917287303395563 -0.41251383182260404 0.72320840183193846
0.28039838900284247 0.65266111833981211 -0.23568726479991309
-0.74133461060119876 -0.66692258258521286 -0.39650792138968027
0.71454537426559905 -0.31954162214835546 0.62648086769436473
-0.36149529280371778 -0.66546635598731063 -0.066618998768375626
-0.52810001907384652 -0.43321478185845286 0.5738649487404488
-0.08897346655342131 0.68187814182276651 0.63601844348120329
0.16443086351348701 0.52963935632871539 0.61339746462735922
-0.23378436013478321 0.54202592139707906 0.79819107906330355
0.037800682504575689 0.30882610535546851 0.77521074701067016
-0.55432683569716168 -0.28901363794654339 0.66235546379250687
-0.25114300883437218 -0.24860321534624108 0.65939574107732879
0.8352940278897163 -0.4221469715533312 0.49350503709875548
-0.19245867543204748 0.93620372279528818 -0.42630225821889667
0.70721846941651301 -0.40479642592561066 0.66302329032320539
-0.24458660173564806 -0.25927906345743512 0.6358462113248966
0.19998692974104126 0.73117464933921017 0.45964783651466723
-0.60912258253847396 -0.66593599574505591 -0.29353331126289506
-0.82408880725428413 -0.79224660496901145 -0.45961851047305879
-0.65096915243600595 -0.76603368103842695 -0.3315791342484582
-0.18861959786844817 0.76582942497846918 0.30548649033284736
-0.042017276967055428 0.76130825031884208 0.058167068394143762
-0.43177203146496679 -0.26355540537913791 0.69150438639847556
-0.78675680388345859 -0.74246950389548783 -0.44750344674254006
0.6403319987967786 -0.58276525174664828 0.58761778678465015
-0.14333413559641206 0.31913185649065867 0.76125708927825642
-0.14651197048699716 0.46103455057907511 0.74610625655533536
0.30155994876065284 0.56281033865687446 -0.16733139238815653
0.37681675146218718 -0.46737595324889952 0.67692202296480675
-0.65876310135221838 -0.94470063860440256 -0.30619445344828078
-0.66605179126952185 -0.87738558192245519 -0.36594599260539384
0.27159308851064629 0.77108405368463051 -0.29873487550034916
-0.78037308631914182 -0.91368668626122296 -0.37858273452993263
0.14028799699663386 -0.31956671611157716 0.63096461221401956
0.64550840962520106 -0.52292640366022791 0.67528540587162489
0.45089408559219202 1.0626534197626467 -0.38497431611678534
1.0475061319914096 0.14561700006177147 0.24627331535443853
0.092672397926582883 -0.12693453561188353 0.78685733469030872
0.19481937329192794 0.8636344749981113 -0.20665604993036979
0.66617131075920966 -0.32383926898885479 0.63950321054324988
0.094779078307149489 0.34807344424125231 0.7352377416987288
0.65287181528969285 -0.25949586472239905 0.68247349288897086
0.2403275229697065 0.11583889606320674 0.47191716835218855
0.2546219782655571 -0.017053175822416833 0.74734209785689076
0.44578428919692359 -0.51600887627202741 0.67653216230951241
0.34936941709671887 0.034427595004274836 0.48715085531475921
-0.32308010588350283 -0.30855007009276503 0.62080183767849739
-0.17008171157803131 0.35707450881145575 0.70505676708806897
-0.33307627583672222 0.044551803124357477 0.73214746503033545
-0.036615451720551362 0.34547491915690054 0.79404882945682864
-0.092503419514991303 0.18458045691035471 0.74114324265901255
0.87441654544231529 -0.35303783273253825 0.44805820926047524
-0.48387393382999888 -0.52749009916227418 -0.38031103613371764
-0.0097577784782024723 0.53090285561138806 0.6979262249011855
0.81041845244770638 -0.27161491302314311 0.60021976519773546
0.25225825565424598 -0.063540201588038692 0.74943919288583993
0.23278616984024381 1.0079617661355642 -0.38113164165871449
-0.4865027504127154 -0.26452648858299954 0.68797934800417204
0.26216967496151999 -0.33250645397439138 0.33381008183983862
0.26299914000823998 -0.072590302249044059 0.72726319837980924
-0.30242797764030238 0.58113213382468309 0.6759181034823607
0.49827514433006304 -0.48312416195707486 0.70628101701855561
0.50403506287550792 -0.7591810853387404 -0.13660671567447524
0.34263897928426862 0.86206958368380793 -0.34410537710958522
-0.25657059774783547 0.041176325826116925 0.76390913875874844
-0.77269207829611219 -0.010452270649820905 0.040465958077796405
0.1612101391476809 0.38275308430834853 0.64165898808107835
-0.64802356405332051 -0.50344884039397786 -0.15959361287855423
0.458130910182176 -0.17331439626101525 0.42629962771859464
0.24360069185283756 1.1063861490231865 -0.28812181807388271
-0.081707147431696048 0.47662862398011629 0.73375772529665495
-0.4952159223668407 0.014790766340679884 0.73971930953378795
-0.661935069727001 -0.8887268226042373 -0.33322983826074681
-0.82229726047891738 -0.6584785356971149 -0.53151708999874359
0.18252701248128689 1.0334538431857705 -0.24296707646038573
-0.50884437356844436 -0.58797125538632966 -0.18065199475702487
0.055903412152240817 0.30956004385554892 0.75990142930851245
-0.21146563876630503 -0.036365748615983753 0.76260231979442583
0.04306523722309441 0.28416934795483195 0.73954767355895701
-0.41900730659412527 -0.28918800426873648 0.69871970304216191
0.20614107308716595 0.37288727716260228 -0.36463902324765041
-0.46351284142170163 0.060911128732359293 0.75289842586481681
-0.29776179988312168 0.30689271829490589 0.64638606981710556
-0.52453678118737046 -0.67662644898992952 -0.24874268974253733
-0.75136100882188095 -0.29775131793395898 0.091188064487402798
0.20570507957880824 -0.052753770971944225 0.78054896555446485
-0.28347281746294012 -0.081547858644172272 0.80754230604958543
-0.46246163917518268 -0.22321573445437165 -0.57315017358843523
0.11156639623923381 0.67757370077982071 0.63384358146173359
-0.062910255836756912 0.29575539233560061 0.75839312513141532
0.30435050212977577 0.04816046025307022 0.46885694965793778
-0.82654337331311889 -0.76893903643902595 -0.47446935012447033
-0.61793669958866826 -0.041259852342946907 0.49701025173500479
-0.11913174508778368 0.31861575631052164 0.74198854400595415
-0.027464851589626749 0.44706829553774646 0.77362142003163159
0.15000882328036713 -0.13681785761616927 0.77658706146277012
0.52918404038539524 -0.075699090815284475 0.4031792051765315
-0.20375635062938624 0.38018208876342735 0.77041014859418278
-0.071751353405289486 -0.097585438056680684 0.76139172164811253
0.63345527092111109 -0.50297469160441965 0.68986370149761145
-0.71309878028006812 -0.56771078411260567 -0.28567715214708622
0.66604958638434275 -0.4190381631716224 0.69987627313169964
-0.10518279317903304 0.25044668472759801 -0.28134021164850775
-0.18466389973311897 0.60739270226172326 0.17060787335030358
0.66521337705866557 -0.39317022645872607 0.64055920906969499
-0.36395569814600048 0.11760281373722531 -0.68039698502400547
-0.40696799906546682 0.081974954913735132 0.76517109228341651
0.1548896506956482 -0.085891991294447564 -0.42559561196175011
-0.47845497583504304 -0.1419746829304426 0.76001388650471746
0.15288481600297105 0.8814635251634706 -0.30981832230098494
-0.5381550865104856 -0.23328572630180749 0.67950870801566055
-0.45258824263073555 -0.028323892757798008 0.7577560347048804
-0.58861211639987143 -0.10683712407503929 0.70643845128315519
0.74618352344793348 -0.18709620249675862 0.41287316442805411
-0.20321363609879717 0.46695874941854565 0.7725689195008969
-0.25324488485736202 0.28432506323481477 0.80191782736595218
0.088519491908245151 -0.13536577528373964 0.75355455939576377
0.25656907804847467 1.0462799174104778 -0.401795101294673
0.2232118162313535 0.41005645306458421 -0.34554715489211141
0.39786078890747678 0.68027429323572541 -0.26657884616945804
0.26962459907719982 0.2183724761190089 0.48616603925187896
-0.13758670956246088 0.45679445168930932 0.74669541165299247
0.48731194149939583 0.77294119863298694 -0.41847266089651747
-0.70425446297831373 -0.47104754800640292 -0.29969332053225672
-0.21778942424316036 -0.47164478784830899 -0.35676106010963338
-0.79789495121017051 -0.94440105344267766 -0.41517624695405031
-0.62793806677001673 -0.60149029276659205 -0.28111063641447931
0.31014218550249817 0.5063340837328586 -0.084955297991340828
0.17417583011530147 0.75257045708348835 0.51454208808637425
-0.47583102427073343 -0.16215208976879086 0.75009537506791801
-0.6773120505445831 -0.043701740448748028 0.60565819608246052
0.31169061845969898 1.065598448693581 -0.38761617316012043
-0.096405174926426418 0.46760189279372461 0.73985619670442393
0.47394072946595356 0.91493794986769095 -0.38400719496570712
0.24301579674588469 -0.1538795212332621 -0.20643645175085545
0.096956630005019973 0.77198555290147508 0.44683395702904516
0.23419283770355659 -0.072406967318454862 0.76427264769880665
-0.51388668534776327 -0.64953854956092916 -0.2242767830827157
-0.39375179126800164 -0.20246910685916961 0.76427319329057708
-0.67827852331781635 -0.25893546921141586 0.658114539020481
0.37114142449563958 0.64131276893678657 -0.24200589357973268
0.34833856212297076 0.16683532574287302 -0.52782098649674936
0.71353677293093487 -0.18475307541500882 -0.52356740848128824
0.11666777033452694 0.065606566811454131 -0.50881850895838898
-0.28160039631961759 0.25861710038257663 0.77730308216428057
-0.21661118120681944 1.015596886959687 -0.16179178318428544
0.4372445646754663 1.0703090678829716 -0.47594293094023543
0.89853103218387542 -0.30947904595628034 0.47384298065563435
0.48460388720150105 -0.37910336557971103 0.37707526261045521
-0.71784178719740654 -0.29662552451250013 0.61117336766538388
0.30625830478490323 -0.25506997064441472 0.25222363147137195
-0.67638908178519797 0.086796702157261874 0.27953878574176017
-0.0010463170811194633 0.72822568920357234 0.14123675491542453
-0.24796663502633637 0.59649304054606844 0.62168943582009328
0.49048005614392021 -0.19517162139692878 0.69884998658685582
-0.081708551634430249 -0.48023616305184336 -0.13191121454674803
0.058508551576350931 -0.18558929790784423 0.69291476688412379
-0.54901845688828077 0.07748450317922817 -0.60140060221643665
0.84131021287714269 -0.36728899342032695 0.59393114012850434
-0.63991356269276456 -0.094982676586443021 0.43858136522551217
0.30296072251992501 0.61277953244140326 -0.21652645741806964
-0.2788735357339116 0.2086882068204628 0.78827070476282834
-0.71777631756485416 -0.55418527892528857 -0.27389271804226389
-0.25720698644350865 -0.19965139142356012 0.74200251492878033
-0.13776975133624647 0.34049029707101797 0.75488268577645234
0.24130864759149706 0.91937750579155353 -0.43348693883198841
-0.76516924112430518 0.48953768058318492 0.57884949057914303
0.15402798362482573 0.94555263754349927 -0.22434049966994429
0.24843530862712082 -0.1899868016758664 0.727960327271715
0.31060553675034336 -0.043185321519254777 -0.017962008524503581
0.075703631015738182 -0.12158908831071397 0.76859639534843538
0.2853982643800731 -0.067070965465004018 0.71004934790487706
0.61329204915174307 -0.5949886785842432 -0.0791425679410942
-0.71446107668317949 -0.77378623297326132 -0.46554239425554922
0.32305035307622265 0.73719576556496236 -0.30652799058224556
-0.15631980376286725 -0.1570344669059377 0.60469485522730171
0.21690805860436402 -0.10380641133994672 0.76507193453186906
0.25348882611448131 0.086714383395617184 0.45660727332477968
0.32525962873645853 0.96457692992054 -0.35398391239600979
-0.81214346696028328 -0.77670185033547201 -0.47963485925468374
-0.56676782851844953 -0.23617720230689737 0.67415862331511933
-0.6308466843191296 -0.87549401163715745 -0.30391170066398487
-0.020702624804166458 0.1705449617326143 0.19135530941773204
-0.049324619252490265 0.23734343188109441 0.043615846619611709
0.16008191532761562 0.43555835777550522 0.063920390520284087
0.23765213664646495 0.88047418673971556 -0.28476299116288395
-0.5158949512143266 -0.60649060454025583 -0.23874858761795448
-0.63694336524937112 -0.74241298750951845 -0.31741375762159718
0.024319755636432294 -0.25880758042804053 0.52287397962788784
-0.45311331733018095 -0.71348794170175545 -0.093285434728164862
-0.21606196654604187 -0.14594036669620289 0.74793890300630084
-0.058596131367996906 0.14113031820637026 0.73120667904794656
0.46277215577082997 0.91600274230059231 -0.4267417603929653
-0.57131656352613513 0.39113444627505717 0.30570428152538121
-0.47948728715921179 0.29435856879805827 -0.64603684099308367
0.051157122296122459 -0.35282061116390384 0.31697632276952969
-0.66445467492594679 -0.89137279593495766 -0.35589901665744472
0.21512040279175226 1.0972301935508499 -0.27880126575421382
0.022027759342471032 0.23908598406612211 0.73589363406687802
-0.66247304980149924 -0.31345529698847202 -0.42850463163221164
-0.30495421891174151 0.58331120475305198 0.7457245637079275
-0.34245367428493184 0.21142587189550621 0.7298308560299116
-0.67216404485768511 -0.17896910083961104 0.34617761451471063
-0.19473890062033145 -0.064957011932803774 0.75783438810070791
0.21458910884030191 0.3605330981266161 0.61178109948375337
0.22611194253780698 -0.067159779577289913 0.76988368246391925
-0.2901166065662561 0.40770299166433632 0.62562651870029473
0.20226971445342545 0.020722911172254888 0.76639799492057659
0.33093786844677597 0.19856698946808699 -0.7727602595829417
-0.45476905962002856 -0.13041739951449477 0.78636699515045727
-0.63751118427331455 -0.54020318794152589 -0.21091241810981787
0.13458942172943256 -0.040136829434115839 0.7719426887928198
-0.33371159444737852 0.22027180991504064 0.6443457257762546
-0.68261862934799067 -0.38685270228854191 0.28148047751974747
0.61937683652213626 -0.58940681556712626 0.61323547119557276
0.26834268701522779 0.26021159428789636 0.035546925132631912
0.24684767345868952 0.70196300278935819 -0.27009288100607698
0.32044607971875272 -0.34755414234374388 0.36535940796109934
-0.60752460834931732 -0.8565984407606515 -0.3088645712595155
-0.74758520271584605 -0.0090056080504579139 -0.40968374590790768
0.073001868194859931 0.93925749750060517 -0.088830668952285308
0.05090928688670282 0.56853432506326473 0.66290386145477687
-0.46157223521139767 -0.58858099664099206 -0.018221543772842352
-0.73398513069543447 -0.59990375819775399 -0.34914850250248275
-0.069671778534481144 0.31732294487372081 0.76942333713726185
-0.50902616784913435 -0.61247894049851737 -0.22527379149226423
-0.39252272391863563 -0.19196415119488236 0.77986505219244062
-0.018702265363574555 1.0204891817488295 -0.22058402710662328
-0.78409642465865315 -0.84817152452021616 -0.45290383852621119
0.10187514965710309 -0.11725231885117876 0.79791654130058687
0.2974140254337041 0.55429340301526264 -0.07756193540154932
-0.55346202389372179 -0.57333700955262534 -0.19493941036853402
0.0045196677751485614 0.99820914354343049 -0.10771445968272975
0.45412303254199338 -0.25784786781007685 0.34451596060230916
-0.61260303496273005 -0.28055263053342305 0.65123909484437092
-0.14393800781952226 0.14886328761999368 0.75206881396084668
-0.20685069244184678 0.01545058762698763 0.75379489233708252
0.223200646812243 1.0293795150282969 -0.26336497371329326
0.085383125717778618 -0.076851750815862346 0.79180179528177508
-0.85785894546886776 -0.70473074590857421 -0.45412775121342941
0.43561864962603525 1.0133636696823323 -0.43136276303188525
-0.52562806132619566 -0.66149728153183096 -0.25119298308812743
0.29619147848642297 0.54974362628466322 -0.31655686132016836
-0.69634016647646046 -0.23842540475607771 0.45713353122482436
0.52868975591346445 -0.39573939737686314 0.72455889038806198
-0.39054446709126178 0.025697074588008663 0.75247211367228273
-0.070687521799069453 -0.27704350156017882 0.51700379546245623
0.26700433657176859 -0.024619814971718224 0.71352411236761615
-0.31215480615474017 0.75213941559141262 -0.56937957325276933
-0.23468060631629389 -0.089196372910381377 0.76740833731058533
0.50484134953158266 -0.35996051213057295 0.3693989511563891
0.015426516796924972 0.52848456663705812 0.67759777657575659
0.36721600513324437 1.0973246329029689 -0.40587994330203525
-0.54273502379228744 -0.14288922626433467 0.71368983637299843
0.38272229872197194 0.017068367555163277 0.45005364918139446
-0.55659295192817715 0.13611888255127291 0.16716294375440999
-0.046591947873636581 -0.40439687134149527 -0.39303479857748513
0.22320812474229013 0.79261674617399103 -0.23316617763000469
0.33928279151825397 1.002093803027567 -0.37016480966184506
0.13490101479767111 -0.44433456023701623 -0.21420201253985471
0.26758438737082352 -0.16244388393018525 -0.1141349277851651
-0.305451582243149 0.31794470673833708 0.60226343934867632
-0.3260118745391366 -0.0047290420670418817 0.77792564294780053
-0.2949702067835353 -0.28914417199176318 0.69667155431118255
-0.57699725803608581 0.21496464791781603 0.70485279351689467
-0.41173847456025625 0.16433607290981184 0.8006065580408519
-0.86950323945464458 -0.72030886953416051 -0.56264129110301342
-0.4323836779806276 -0.399326814058857 0.62353483033080304
-0.74918422216423342 -0.078202401468902838 -0.40039258444608894
-0.31871656710102375 -0.027659601829267008 0.80483353996512941
0.3371524323124559 0.7511993551701498 -0.31138078466386432
-0.55940054727977184 0.7010656702838659 -0.2019256061680057
0.24140983867966603 0.74743435953453008 -0.27019477243490364
0.28474983115239499 1.0221915023805461 -0.36381587217080469
-0.50513333678448769 0.028821861080742792 0.63554420205792539
-0.37036426194471461 -0.04287171909438435 0.81721691250135686
0.39758472316634574 -0.1056434438250794 0.31526969734062593
0.28140867037252548 0.47952123552388637 0.27873965907516762
0.78063673927405552 -0.44143217553060327 0.46208218186797101
-0.32525038688947011 -0.29459452128809438 0.64509002713681651
0.24360075027698225 0.44003981605860099 -0.32765942187938357
-0.46056647881058543 0.032583573009578259 0.69208739545887799
-0.71540974054830775 -0.60999327128063896 -0.35097801991353172
0.29056164874457369 0.35985719331527966 0.50479518947949131
0.31737133981418442 -0.2558822819754224 0.27757681551610514
-0.32400191746229418 -0.15495830353309903 0.80606184019373917
0.82885677238436917 -0.38492568912665065 0.60286003533309929
0.5852961168480012 -0.60223925251263621 0.54249267319320538
-0.77294371207931678 -0.56093526922255055 -0.32818574212193985
0.062801951790653066 -0.11207479927849112 0.74851650923354862
-0.5445821084327449 -0.23779056643598945 0.6802066164523457
-0.28161600591039282 0.44907157872413583 0.81151811466926516
-0.10393261272915071 -0.54791755042425228 -0.070499253300212672
0.40728545368879099 0.71564249669594826 -0.3132302402870355
0.15493125645037087 0.62338861241829635 0.44574775314806292
0.060455935501593228 0.59708388150545566 0.38119888555045911
0.022228224701785537 0.74023934992120077 0.52126972859165832
0.28233404925404371 -0.12612610107629535 0.71871392435709813
0.58408229109733045 -0.70761281044560476 -0.52503792963285933
-0.40438080758740302 -0.29802992562192343 0.65271629892196215
-0.39174475448417007 0.0019393387812944828 0.77162806258882899
-0.10138229672751564 0.26852786908801735 0.75567996378149394
0.6567093261829936 -0.41733496821629701 0.40585966517224126
-0.71477578488827587 0.31030421489044646 0.097840529513665508
0.53477172317370492 -0.59121803633181236 0.64532893748168751
0.052788337722770154 0.1750239105244005 -0.68726580514121505
0.16093386271227261 0.011587857853409989 0.77267942470884199
0.70247096723418134 -0.29255015173819338 0.65458514723760963
0.24517561114959141 0.1152448753453614 0.45479068179532156
0.072458373378106872 -0.43783690919842055 -0.75964414139113767
0.036083092070258171 -0.093092413386553663 0.75505067753391364
0.32490108704691784 0.68037654156310068 -0.29280310773247198
0.48272630140029105 -0.17202548994062428 0.34925522771392981
0.3132046795357708 0.47613394601541015 -0.069492946527049071
0.18083017572263527 -0.32583809060947033 0.66368309165090489
0.038216935198886803 0.3636112280956646 0.77811520171120296
-0.15887461179450058 0.51226299632229055 0.75758775224843511
-0.19162712005583071 0.26250446269812644 0.77398212233156105
0.20667577610536059 0.23074468474648691 0.63559931938300096
0.80251859054495478 -0.23487735080837996 0.58250208617897359
-0.76141895437249674 -0.63173866294744496 -0.40445573040362559
-0.54868446389129744 -0.26084402174428634 0.67482748115176294
-0.091134775264020806 0.51992207366793208 0.72812834499726353
0.36851252360852593 0.65175957670487505 -0.2653891115806486
0.42086760420425173 1.0776991461812182 -0.38551245107372445
0.066350086474932346 0.32505288455156378 0.76498594646277729
-0.45712212113534662 -0.1684329087668342 0.76823852251196012
-0.37829766303722828 0.46000193688267632 0.45726849204869691
0.89772625755587854 -0.30897340900056097 0.49951452545352026
-0.62154658157923315 -0.095451297816276121 0.7165495256612191
-0.55023395886287585 0.017045653015630893 0.73984437909098499
-0.31774725435023882 0.53894911257487954 0.76559588784639931
0.1223627991985472 0.51867405982798398 0.63721475432634778
-0.41944367813535544 -0.45670950142435213 0.46283659859775694
-0.32414878840621114 1.0097120410035736 0.63536060024736729
-0.065390728230610873 0.60373744581252342 0.735127264766958
0.11846757806398378 0.62918442208812964 0.62156329054766157
-0.14915295655607178 -0.49452733594482728 -0.035818344005487113
-0.18838758272585687 -0.20066908482691059 0.72911063076287519
0.053390024219456614 -0.088180964281359353 -0.54289645653126151
0.43925516192664715 -0.077590078494636144 0.35924652178269234
0.61328091677884511 -0.39787469265955494 0.70467536986626955
0.27160618547494275 -0.45016105017093677 0.50526224243950812
0.29247597443886542 -0.11216704393093091 0.71530995813024756
0.216780841920311 -0.68621987812767027 0.17330963521098575
-0.26567505945500247 0.39512691509712805 0.079156467778502382
0.088366930388016018 0.32899811214142172 0.73163243098349495
0.14456410269357645 0.21593275353048974 0.68459655796757035
-0.021971848897249013 0.60924429658158719 0.70877510261766918
0.10962155306770982 0.5421750086510353 0.58574834377029106
0.33476568115696603 1.1106254036485905 -0.37332878113218904
0.62150047867421376 -0.33983769707244915 0.69431995258015133
0.23199973190047918 -0.42502487724684679 0.57878704100335643
-0.32804100631892003 -0.29242310433506546 0.69733970156422398
0.059766622958077775 -0.097121451756184418 0.74924432222667825
-0.30355395552117109 -0.11095611186296472 0.81753354777902798
0.3536515563863234 0.78543981241720606 -0.32640692450984954
-0.14015036933896752 0.49999495592527077 0.66162738951543876
-0.5489074595736011 -0.30922913785417072 0.65695737210277461
-0.52430513520729094 -0.063633900408139391 0.73411248599328305
0.27243523008950921 0.60616201224917743 0.43563907201825636
-0.86509630656874381 -0.66103298001475863 -0.44984914753755501
0.21165856721448695 0.6084036095586205 0.54899455859733282
0.067209585417296491 0.92267003411913906 -0.33135916034409618
0.20234082107995277 0.026973863245766505 0.71975628981831274
0.24534601053318905 0.13547884371928143 0.48862130450439967
0.2766695818394988 0.27222372776089182 -0.16830196323604962
0.17547610108763545 0.64366114173985567 0.12028527372758813
-0.5259349724150626 -0.13768822452186991 0.25217354109350332
0.37318201309644927 -0.050723664144940006 0.67484724794143602
-0.23247525249794737 -0.056220442249056035 0.76674785434974302
-0.536407538605014 -0.67318380739074613 0.16751872522371825
-0.06083172907896689 0.89208717118170733 -0.11845715461791695
-0.065979523465804601 -0.063524061180927877 0.76008234575483469
-0.6292993057947196 -0.50243831547319084 0.093813429597352282
0.46521776940416315 -0.35621934808082556 0.7263217134222848
0.11660577399956118 0.51480643409678573 0.63627998686710718
-0.68282840993681482 -0.47817777018613278 -0.22222933238035969
0.086437355300066465 0.58097623628809836 0.64480528058256281
0.70876053162628583 -0.45831277788605651 0.67425718807458512
-0.50917265171731385 -0.08825251339856699 -0.59904158134911567
-0.20230917363258455 0.40227605724587573 0.76830000432535517
0.5694028368150309 -0.56585910093885927 0.49324728940250928
-0.67768069616056115 -0.4569973627961596 0.070228216894886231
-0.73662423271386612 -0.91712158695651314 -0.3478434767940497
0.11942803445181871 0.49502444349637531 0.63572705347567826
0.2566322613894243 0.17326820412275781 0.49810846423021449
-0.012424879124248389 0.74774557764494587 0.36095877738075188
0.24782162169607774 1.0093906685451117 -0.30595842728663847
-0.69168840938087972 -0.18812805053828879 0.65115722012727684
-0.28075102441675592 0.5729173738636455 0.63057994828621933
0.72631534365121486 -0.31462278557059919 0.6493102180781376
0.25586586105790649 0.69931433296345902 -0.28281727057948824
-0.3480753644780421 0.069004371851145649 0.76867600064579111
-0.24922077989773067 0.62123626127077991 0.68975832678102877
0.40495117734122199 1.1723586388545817 -0.45783742601941002
-0.49667678315903496 -0.74356414246007441 -0.18088637220041681
-0.46747554533590596 -0.72136379770576031 -0.11161822958964196
0.34242690954051336 0.029378975371460059 0.97418558052668303
0.26533164686648203 -0.037973993282401586 0.72304061571341682
-0.38994523254261659 0.031159458284981172 0.75722642257725736
-0.32883506572730126 -0.63170447148832176 -0.08775547793112537
0.038681438602065743 0.10592835271843629 0.73242236844846698
-0.49056182608643067 -0.57655099975218393 0.047728455322505248
0.3806771921706904 -0.34729145482007073 0.36696860752567417
0.16695556026556191 0.13999138544128148 0.69185404611570966
0.059888793465519452 -0.083705129253291766 0.7599496065503657
0.47746387640542354 1.025779951130241 -0.3907878582155293
0.1510090507372428 -0.0023038115389989039 -0.38772832274672275
-0.49415685663898806 -0.27781472091055015 0.68741684210566767
-0.60502824313497405 0.11199773259443568 0.5746999089971534
0.062867705037876309 0.82373875335786262 0.23579556791674872
0.2494278299572904 0.7062073597454932 -0.27842398979280514
-0.045705792031830783 -0.22630678076813684 0.63620415489809146
-0.66539306321419101 -0.88801655318833095 -0.36307894978380117
0.29676593290497233 0.35815655794635304 0.45639255379721622
0.61655419742207795 -0.12843066542736725 0.39585899712294204
0.13833099586465369 0.016858999922479107 0.73961560439743268
-0.28386404429955303 -0.18349857803628572 0.74721832844297342
-0.31701245076365225 0.38479200227187105 -0.85652896335812612
-0.70291303263572824 -0.23159682183168673 0.63691889173071647
-0.075868720948241597 0.70391581926425861 0.40409706189434669
-0.47868532305451555 -0.75962998130646731 -0.26902995437651978
0.28643080371260232 0.42864328448932576 -0.2642339958086275
-0.13769667286383891 1.0194367835116611 -0.12037944792075272
0.74727514678817952 -0.21260805389499327 0.38873662670653264
0.05151694453205391 -0.20336039754011409 0.66195847957110487
0.26427033212455353 -0.17588893191078664 0.72663387647408229
-0.40226287897070351 -0.32007440787871577 0.68026736439621605
0.30301447343676013 -0.28820097573484138 0.30093641865826992
0.080214987397556059 0.41005353468319228 0.74737222947584403
-0.042320348494282456 0.72904955482374501 0.37922921008137767
0.50323631939679925 -0.25582696160704732 0.35345455118731994
-0.37856626387284997 -0.098593412955685328 0.8187462965572756
-0.63649347878648987 -1.461917929787115 0.035011876534641662
-0.041767814128685479 -0.46901423135636444 -0.28308099778271067
0.23730718306163823 -0.00050825625264938612 0.7649980537661909
-0.75204748574524527 -0.88425755694230279 -0.39412486036637562
-0.33998140956526779 -0.34717189971008855 0.66299927806154457
0.45510860319052338 0.84258875442093861 -0.40487034271308975
-0.78638673958098448 0.14996050946756789 -0.21237258814246252
0.1321805864248527 0.26065258376332584 -0.49713171602437178
-0.037281078053188255 0.2306014436644149 0.74318496227334663
-0.13540139273390694 0.65289739265165614 0.59252085004233646
-0.29234362704344841 -0.36899240630338126 -0.25393552057055846
-0.72368732178698059 -0.33845598229185192 0.46424315489203405
0.12427159547064737 -0.044269135771496188 0.75520128136607667
0.25558026842293768 -0.030918082364681465 0.74661833357408947
0.33407931413466796 0.64497942205261938 -0.27644391165033699
0.023134649345275871 -0.23189120713812578 0.57171961296329643
-0.25413582466466211 0.0030286951470003681 0.73691752488481832
0.33053847445449464 0.64048343550191011 -0.2651734421683809
0.13208387901698015 0.38289672011817166 0.68408904518461533
-0.75522116739716827 -0.69127410518848165 -0.41027699772591353
-0.084719484986961135 0.55656215572528578 0.72919054549891182
-0.71509424896365814 -0.77134584787053839 -0.37383997735752272
-0.069924121729964761 1.0896586247324982 0.17336140905115727
-0.57920181467745868 0.20616134853162554 0.64690761551431697
-0.63942496036595042 -0.24880086732323978 0.66412717045676706
0.084812372043104878 0.3320327249485937 0.74100503866340972
0.13865662900079156 0.45370966565058779 0.64523124635700713
-0.10232279169551495 0.47310983247497979 0.74426976342512097
0.26673817709342945 0.68203917314413076 -0.2725354736630381
-0.77680984528130614 -0.24135318060415567 -0.20264171773129469
0.10493146341601756 0.58370192590105607 0.63388243212521989
-0.59383256927552064 -0.53300322995730554 -0.070488076357746454
-0.29334122737455137 0.21903629917938483 0.77389051867931524
0.35107176412618901 1.164327042264794 -0.35798245327662936
0.16631266931113575 -0.4593513001793682 0.75526893501355552
-0.50952884570989765 -0.2242931997108773 0.67599654631728123
-0.31589185690774119 0.048109398517293164 0.76974408020912044
-0.12456276849307524 1.0320254783320104 -0.24397802229492882
0.49133714592740729 0.86688574888412151 -0.36808024253127858
0.14904847716620639 -0.071316900382346116 0.79542439525646547
0.25070283649233704 -0.24477491394993711 0.72487046331912097
0.055268947336910679 -0.27627881846246749 0.53438521635693448
0.2728356183397676 0.91834947996852689 -0.32375579051859837
-0.6208410777641642 0.15311770640425248 0.60495384280772946
0.25222211027218822 0.0030804016930304767 0.70608342671858493
-0.53920664790467099 -0.55794010060873256 -0.08868376669200817
0.40978548989842212 -0.26422059536745268 0.33500884308322032
0.34233550342653751 -0.0001258824960860272 0.64138828406962212
-0.2509852594491061 0.25633321472280635 0.79843546320962044
-0.25669846420175946 0.49310131585104544 0.51678754214892519
-0.40858903359804688 0.73655098365107607 -0.53352335234789372
0.80799493893214869 -0.46350765716222975 0.54368689288822925
0.35454827670934697 0.59634604181120632 -0.19536432748997967
0.27280280403849838 0.22019822726714552 -0.1726586981369449
-0.069358157660597108 0.95837122870529057 -0.40047403820481975
0.0028954025399586802 0.29569060555973664 0.77407830965036739
0.26683037009104316 0.21962957790032889 0.46654971979532256
-0.46494791536846408 -0.31881604765857058 0.67316786789427896
-0.6355318268879081 -0.22085399348741447 0.67484356962368031
0.8278977185529468 -0.44100070198239993 0.53007590113227243
-0.34717894874297345 0.1657845429759707 0.8000263607298943
-0.013192295489486083 -0.22499690828108609 0.60292837027858637
0.24118625028505913 0.089988193854430493 0.480430117111732
0.31472463787380084 0.82808007786479387 -0.3228516399298238
0.58234820043601832 -0.85323028354746477 -0.092865197554696799
-0.86399278394919077 -0.57598432282113421 -0.4409114711692883
-0.78758557637374416 -0.92442159491017384 -0.3864246588440472
-0.046292290912762879 0.21901533352746463 0.6963641024731908
-0.25133956487085646 -0.03758605444727732 0.75309179693506723
-0.28463695683763868 -0.065438056798380301 0.80089695065934352
0.12674607388236619 0.89733959827183196 -0.22396011315800202
0.68907685958713238 -0.23312239416347319 0.36661688337378973
0.25609581849121205 0.65513699131909742 -0.2196415802298457
0.35204932050757265 0.95723472240118279 -0.36347914737511733
-0.094331726139940009 -0.62699507105545327 0.039715144400385149
-0.19369512982874415 0.58797842159474378 0.77496147567902529
0.4076597626043067 -0.54200921584664719 0.49084441281561864
0.39410619766573285 -0.37547504738960219 0.71921998840754142
-0.59500935885477269 -0.53227919926709899 0.042524128252140692
0.57788798547350884 -0.13454466819545652 0.3764978507251362
0.7009896545515133 -0.40426417728986047 0.65437981815355917
0.015394899542270024 0.1442118586574819 0.28075888421498352
0.33140598250226933 1.0802653637539152 -0.4006952938332029
-0.28728825845291867 -0.065661717187152219 0.80759389060586706
0.24735184665078325 0.30005913699246817 0.12075961932443846
-0.78251612305880069 -0.11800913791564721 -0.28522714087203305
-0.28630614214083405 0.0098511088979455069 0.76371700548620858
0.1383575554979577 0.79115145491022254 0.19553419508739545
-0.37026685788362879 0.20696043852881976 0.70154228580845013
-0.2748443220339663 -0.099900657903707918 0.79143040979971957
0.18822995344277771 0.7333128252420229 0.25015276850972867
-0.2770500082634712 -0.22206736492706952 0.73603649716711184
-0.17104286656459311 -0.36698696527061286 0.43320990562875572
0.59723506995950826 -0.06711604107788427 0.52974353944815711
-0.3259287285873827 -0.53424315709047876 0.16798171045604793
-0.78274515094888009 -0.25526366430896574 -0.086803017518457537
-0.076610015453776215 0.63654028771471227 0.73090656409074484
0.64508821483925405 -0.36850939482872308 0.64503920892584121
-0.73869552319219145 -0.33971298802912725 0.52279386553099227
-0.40563818117960138 0.058575715493150077 0.76442260370960557
-0.71104178964205855 -0.47519104235597359 -0.27299371455864785
-0.58577334315533491 -0.14716894474391609 0.69072354721409468
-0.26974842776845853 -0.80144101668540157 0.44841451609880201
-0.30677581548496025 -0.59890982194100539 -0.14271320090015926
-0.55883831545226359 -0.0077759112950465392 0.73351295266732297
0.24365372358299597 0.080490641022398057 0.51649332392975555
-0.85401700409567516 -0.6294532575861842 -0.43310188408441919
-0.69828841993386437 -0.7251422019905942 -0.35691158246432453
-0.15700414168107335 0.36688402138996229 0.76178722836352941
0.35981168283242426 0.63346353020265511 -0.25587013514624246
-0.0042371858489163028 0.4853080807578225 0.73140621293902397
-0.15888147722808027 0.72299101640766394 0.35152696725676158
0.33287480966642918 1.0634822301338311 -0.3991872865273125
0.16780580261963873 0.83337754939878139 -0.041953651901827982
0.09619878179298591 0.76712998658833209 0.58394358559918835
0.58420024052734731 -0.17256058015077086 -0.92654330882258451
-0.073574194203443632 0.27552240266989969 0.41605317468076297
-0.50263043549632014 0.1394191362340253 0.78744535601836096
-0.61251560011205453 0.13625237082377806 0.58741393341063786
-0.44566743051446306 -0.58754473616546887 -0.32760787187103269
-0.057246526597162672 0.41324048669982938 0.78754946343896393
-0.18846040433080297 0.43561355942380103 0.65528758140012133
0.74906384686956151 -0.44735518105553529 0.65180809577567844
-0.52626318023321361 -0.2255481838720042 0.67416664048692887
0.5936678418516057 -0.34306427101305703 0.71394373360882346
-0.54209775829745244 -0.36716824228598194 0.63172174229168299
0.2598990313631977 0.67116817791725936 -0.25032143205691515
-0.67736886692164278 -0.30506160774913116 0.63473158168497346
0.34771107146063451 0.74083903811473872 -0.30987075799074848
-0.9019354662553889 -0.79140250748387353 -0.50325449346466833
-0.47790922234455402 0.42478907273631239 0.39339953399877192
0.045581056247813168 -0.26563206478782159 0.53847835129301957
0.380091516023362 0.66953864062823598 -0.27176430840043686
0.49327106139236143 0.92207257088382288 -0.46284880863944133
0.59961285241380702 -0.34523460813945922 0.71107627803971774
0.11367992211378453 -0.33240899031962795 0.40745852376670655
0.37724789820311067 0.5474387870872659 -0.28589652229383233
-0.43414009207103749 -0.60370100263480153 -0.071894369657049317
0.075728981740403323 0.55822354013762954 0.64927162140070394
-0.51398315771195935 -0.30527645152283406 0.66937554489788509
0.23228569702100832 0.034238762231777076 0.68908705364062417
0.55041205730220799 -0.47794481632820124 0.70912826849035282
0.72782705040665074 -0.37988226598526259 0.64286791201054871
0.14819994968614647 0.43022750473201188 0.6525350052152219
-0.31380814672209673 -0.022486707130621134 0.78965663598442326
0.2384418594721055 0.70172497146005508 -0.031091574131988153
-0.31608020040645779 0.36757687420672241 0.68041350080415963
0.40146891320100597 0.72426859689140755 -0.32050730454871879
0.087344600461176869 -0.21467273373551676 0.67971242334380921
-0.44166559375597214 -0.038759096680437893 0.78646884741428824
-0.49647354391437476 -0.51158625627525423 0.27424336394214288
-0.32254525154243596 -0.39844376534867171 0.60340591201194815
-0.74732148611410243 -0.19907288401638457 -0.36627018887093099
0.10800249878047855 0.17498404201088505 -0.52422304297844224
-0.69632216329895547 -0.49246120405014376 -0.23010517360937532
0.7079962245084408 -0.41446114541250234 0.6834506452861846
-0.5388862041071445 -0.16482498884362118 0.69722600047203942
-0.57879075117262491 -0.59361412221811294 -0.24459744966606722
-0.59659085154642222 -0.53605324070826388 -0.14479972203399072
-0.78979842446433501 -0.85418992102857383 -0.45636028855024025
0.29159803247917859 0.30506930455747905 0.15234912671335099
-0.58084008293505085 -0.86389774719469403 -0.21583342457296384
0.33857759366265283 0.47318691042082905 -0.24542091925506959
0.069927397785157996 -0.2689949936998226 0.59036086772991059
0.07050771101691089 0.34315377187140739 -0.54474572779121821
0.026809794996885905 0.84112576725287558 -0.44356481649250146
-0.057662823505360894 0.19377521441137385 0.65757206991453598
0.11184110586305263 0.76859718633571916 0.39263574461437756
-0.61329488717779101 -0.59602899229940509 -0.26527651500261928
-0.38683840990171947 -0.49957207044569552 0.30248406104622205
-0.60153058050206754 -0.29505777275823619 0.64869422161947998
-0.24511221152025664 0.6128677167802743 0.63778223916897891
0.057600344983830043 0.59474935762246062 0.65374742040647327
0.24508463333214009 0.74883142617189535 -0.27955439845584795
0.44341839771752678 0.75678313367026395 -0.32538073663015155
-0.69649365478009762 -0.48097600904878712 -0.23916544656904737
