# XYZ point cloud file
-0.79297611143580404 -0.93630386219567663 -0.43621252667852772
0.23653374998437116 0.53541235931960629 -0.60575922748680355
-0.080538973610934761 0.65834172631528176 0.7322359043256732
0.17992231798579539 0.018132016289050423 0.76143104885758994
0.4444712358272529 -0.65799540612232854 -0.40845024142767983
0.060429057351949922 0.63650069412999188 0.65550672556763168
0.58003967850724791 0.092050702036597931 -0.42998284644086837
0.79507487742157679 -0.30198129286783154 0.68732953446459177
0.29086483018588538 -0.10364639575351714 0.75401825666433808
-0.74160871265734762 -0.39439703714550889 -0.4119383862165904
-0.4567506450690324 -0.75310851156595104 -0.29047137459122752
0.41008168101426179 0.75802040516852365 -0.28851863237629516
-0.56216723753133735 -0.5461926965298316 0.39401240397749859
-0.038354791007503053 0.43973338006940765 0.80128164406428759
0.88731661480057511 -0.36585428819468052 0.59428061830847412
-0.27667855213855219 -0.37644157764847419 -0.60744396948640755
-0.38345627256783033 -0.64497233607819526 -0.075239428622749571
-0.80815416775679694 -0.14708898809111806 0.16563935045404854
0.056874488412415047 0.1721760957603734 -1.1174050211143101
0.3139020351656292 1.1328348993833173 -0.42583884624461632
-0.79422268401178542 -0.44070505177179986 -0.066327679956089014
0.18458313642813096 0.274079489382204 0.68106743433494366
0.231003550895025 1.00634795141751 -0.31900837241440527
-0.92763022632697201 -0.74615348681079341 -0.43237145430149226
-0.29703441431688304 -0.15637299873960842 0.014649183450709202
0.36118275172251657 0.54905430116653808 -0.11575368330761293
0.16140711240394978 0.84930214285796668 -0.37654180121113967
0.54660082489471407 0.82842145353011465 -0.35290434937240178
-0.51465657500867579 0.80883869384832363 -0.38697101739248474
-0.50758762066076102 0.53328884365452001 -0.65860265288180742
-0.78023069988378424 -0.38497985846105487 0.53576758315405648
-0.046903844619542667 0.31216232528708343 0.80209323855146231
-0.66059858530593019 0.49682467351141085 0.23144539197503811
0.051776831725586447 -0.42712641589760825 0.30024837952571914
0.090910567184522506 0.39379071677679472 0.76636541491888899
-0.75773220585855228 -0.95141893264720745 -0.44665324071588408
0.66393837096413044 -0.62546698050887672 0.63864145256315119
-0.90090816884559288 -0.76498879996692537 -0.44423625521107191
0.15476164207048981 -0.06396199111085088 0.75275578522913733
0.35941410760462844 1.1481748021393221 -0.44462250955076499
-0.66438958560689265 -0.63917624178786325 -0.40909991878121765
-0.0076840179037205303 0.31366223248877456 0.80265430927014769
0.27746287279299153 0.63816028618600928 0.32778815435738196
0.31997096711013384 0.03143612830727982 0.66724637627731731
0.44296112649877628 -0.54462324862259415 0.42109051635280181
0.16541178010272972 1.0979950578307793 -0.29644366024644242
0.33504742729861547 -0.25636955224840713 0.033200798614760885
0.47191047349228477 -0.63255319825239797 0.55522296997746601
-0.13819548946283433 -0.64467663511954454 -0.35953317559024711
-0.47865302811372246 -0.62765135118387683 -0.10045943152935344
0.23942734830437828 -0.36757452958706333 0.12863015848834536
-0.21708445233746332 -0.36762436992409558 0.66112626561842447
0.17572786206612179 -0.066675966114629615 0.80188821078970207
-0.80648286658854573 0.32453352455673862 -0.2678048421073207
0.30015641033298479 1.1407797747282131 -0.40483574564295921
0.3624949170734979 -0.45214562556813787 0.68407197898546457
-0.034567311260364164 -0.29580526709396854 1.0317516541879908
0.50129453616763087 -0.38786762963260973 0.14677643389030592
0.25584078839392177 1.2313285464453871 -0.39726274558273289
0.99084268232452644 -0.16399847129861536 0.71377481158853584
-0.62434161293704094 0.72735045255108588 -0.21460562597322586
-0.083035926662443416 0.41066382186894551 -0.091772721945652336
-0.15898260709428058 -0.15205893305129886 0.66267050479167366
-0.94316107345601274 -1.0841321720718757 -0.55837401591704428
0.41095858249619255 -0.12318802460459582 0.72236435505579166
-0.11323164155905019 0.73201639223001114 0.59134257133449708
-0.24361267210642268 0.53839557689112794 0.78545929190836539
-0.10506321574262145 -0.51742148987284786 -0.19850675887023961
0.55807076387335997 0.31681104604770244 0.0081238566296093495
0.15042340227065765 0.89792145133646684 -0.15336313705884663
0.14263762305904493 0.41806416769798321 0.68457690794603998
-0.60925030003734548 -0.32118932651781962 0.65811907640389045
0.24051159024104152 1.1611519754984649 -0.34839793692162502
-0.34610365231236884 -0.37924583752747876 0.61373873168493454
0.73377117787294921 -0.54986233910266957 0.65030750798965187
-0.96042069079119585 -0.64969339349332833 -0.43899343988329953
0.75900174930117181 -0.29430023194078658 0.70053290698165149
0.65649297360854852 -0.58908043679952615 0.67614152162257923
0.048866814110489543 0.94404101140510677 -0.02664593323737563
0.25951759141047148 -0.038120315940812832 0.79458449986090329
0.37446242524805129 -0.072866733923400928 -0.049565980953673261
-0.33700417272177319 -0.081479879256573629 0.81917914223094357
0.87914588038095687 -0.26264783855555307 0.61954140926944135
0.25898102337945872 1.1975569938970494 -0.36706853921632998
0.79235927450914545 -0.12197178185361723 0.48295773171891909
0.13920436765146249 0.58764149755161554 0.54131969738374863
0.33444829639502771 0.038378216368473383 -0.23623660889576925
-0.40395169656616403 0.55073405289249244 0.65645437071936108
-0.62634627476308857 -0.65021135077579295 -0.31751824586679689
-0.23066927760398315 -0.47379744475382501 0.41017340008739467
-0.32877112672705167 0.03552863923891042 0.77045860532424015
0.34174285604360577 0.091156853035672114 -0.20878761038942173
0.71374806828234938 -0.30056667117227065 0.66809033652825889
0.1878154807290926 -0.17792447679844459 0.77883852019672872
-0.34909144952079529 0.30047270987921681 0.6151897507814521
-0.36540875079860058 0.26974686560239319 0.59763515998988659
-0.63481066606083658 -0.22159245828478918 0.56006495190192851
0.25399544663445894 0.019271148114100134 0.72871804396089246
0.22843165980609825 0.98602001205662348 -0.30659260596969062
0.60496141326161279 -0.40829319887223958 0.73661706396347881
0.68271021457142211 -0.32899523228307215 0.70882305956941316
-0.71645877495469534 -0.85946446751071615 -0.40391096846104801
-0.17136240085254428 0.41759510396194327 0.75987027234664062
-0.48865694113404601 -0.018466513756338121 0.76026935570273402
-0.20795505620376886 0.68473484244138083 0.65768054622096095
0.27114479525192436 -0.1288970913979256 -0.24142033040190825
0.044841530971147847 0.15410999908505785 -0.25967809238307993
0.19392423660263702 -0.2114750958810882 0.73363423174148501
-0.63553362246544154 0.71078407954050393 -0.11580352489621148
-0.070220783159122391 0.87708871343692696 0.19309271971139097
-0.40637240475267689 -0.78357246264939517 -0.16158682986938722
0.43079641353860865 -0.17943731889301096 0.26081878624370702
-0.85697846646743869 -0.29266141908491927 0.02401553050704841
0.28268876569837786 -0.098366867155534776 0.76982940028924318
-0.27325871452404726 0.010529150838678614 0.69126031850401404
-0.1076238872146007 -0.044686773418803727 0.74633119789088731
-0.58348485144824203 -0.63224467676225649 -0.28046001706166557
-0.39453570529835602 -0.051380425097615923 0.78846521680321402
-0.61816843711501868 -0.78996992979471559 -0.35043697581298261
-0.072389959991575381 -0.0080263262100049304 0.37528536019626202
0.044295107678724577 0.65191387346769569 0.65678429702839303
0.37816019749205765 1.0477426705348336 -0.39948730483975581
-0.45369525253526888 -0.07876194247817403 0.80219000335887714
0.082185524926224218 -0.3819691587636227 -0.16526576252408631
-0.55553873360136663 -0.32942263691148232 0.58521712855492147
0.47505967687829198 0.84192709814379552 -0.35077194705968751
-0.18263802126528716 0.41906250151445973 0.76542553143700509
-0.25654305390330734 -0.068929323009444488 0.75614874784655584
-0.52138345959732035 0.99927657441085826 0.88437814425950556
-0.14734789557724071 0.39697800934407557 -0.7043255924357279
-0.53786505179375155 -0.13998850549700942 0.72745566130306294
-0.73536853075776243 -0.33860120525777937 0.6513327801155917
0.51797136134639743 -0.30777243853900299 0.73503021578925143
-0.39135383871618856 -0.2993662000111022 0.72852537443294452
-0.46779318966680705 -0.41258357438071991 0.64792212187166953
0.002476620614789482 0.24385311605018878 0.75169656620073866
-0.83780432570902441 -0.26184321892717177 0.081134977271139164
-0.64838298773368308 -0.75659399952424278 -0.35547205650107827
0.077829662348229078 0.46906089041345417 0.7412437573034083
-0.53193999339464781 -0.016476703345775501 0.74844212055021053
0.069142903176391712 0.37942386042001086 0.78346117355732758
0.097249788194840647 -0.13085064323167084 0.79441270096135241
-1.0214992214450422 0.14900398752167732 0.47587930246929844
0.22577941253724632 0.59823433707275264 -0.41280705528391692
-0.53293673608678205 -0.1055786310686217 0.73947889390183441
-0.27048612916177106 -0.10947510286952555 0.78205664612609205
0.80567671222612525 -0.39800044987807898 0.43891098245530991
0.70285414784161304 -0.30383337853768189 0.68238060499831121
0.41916962245683465 -0.1171166201915379 0.21652652729307675
0.34729313338733903 0.73823193745660887 -0.29058629516611489
0.21596949849297431 -0.37203112654658427 0.27489331069037348
0.21587819066037284 -0.24966014478535203 -0.34951881326747269
-0.39135872755755585 -0.38586277411640363 0.60569457583146935
-0.68903015939539181 -0.9419994559131637 -0.42223095865148252
0.28296207548474328 0.16234917608923621 0.47827750088334398
-0.63008447321506011 -0.86425728137785818 -0.44337529522670671
0.40338116295718507 -0.15638376589571773 0.17375049746494753
0.2408477009984864 1.2046887355318241 -0.42861373131590241
0.26659683693218028 0.010432379450936891 0.77455995366971564
-0.46587112617730853 -0.027712968916262348 0.75544129957378914
-0.62821576794478773 -0.75461417405296682 -0.3481452841078827
0.30975984009356594 0.077382038136410203 0.51333363152931
-0.23695887491563283 -0.51060646727936077 -0.0107667490782557
0.36768393837233404 -0.19158132098950753 0.733982126466735
0.66034063168795853 -0.46089045531954392 0.72535577249932359
0.48658590534569512 0.87283924419887093 -0.35325417010635718
0.90600779272521592 -0.22407390849649184 0.48351571415269134
-0.54372042633452011 -0.12410963798403812 0.74028262489250629
0.16620035412770662 -0.053374462333707795 0.78459676774317622
0.64755756048625557 -0.20644219446866524 0.70603602735318738
-0.65221510383398495 -0.61883374166349336 -0.27366491728724185
-0.65039555539592797 -0.54699396969658665 -0.39686773340529413
-0.35593630454371805 -0.46589645186510353 0.61019235925484949
0.51311203786209703 -0.4819498109890254 0.38820703794991118
0.45401410594691072 -0.61571652103071617 0.51442806370009642
0.30996822084113163 0.23624704207176356 -0.26875731408609838
0.54182869100101527 1.0079195003958088 -0.39950522205122851
0.57093894974244108 0.088059798902944686 0.031484959497475984
0.043511421471873035 0.88890501128749477 0.14227920868309951
-0.55534525119090716 -0.038206622424549419 -0.65504675188123507
0.74644348410399886 -0.3337789307875062 0.64352871571873749
0.32532186342033853 0.7292905298537925 -0.26705835367592101
0.17538757209625899 0.0074148014208540447 0.77872176021799966
-0.13271681651464107 0.21269014621377019 0.75805303463832097
-0.52285259232807846 -0.93336282119014147 -0.27643067994430304
0.22104701360729706 0.63785854284132604 0.56564504241341851
0.2131385877855756 1.0113102668364495 -0.29075455020309704
0.46052580442606228 -0.40475959572843057 0.35699863047701719
-0.60158776318548135 -0.1734568236928869 0.70751061610430455
0.55987712347986118 -0.079585201703294139 0.67398542423952001
-0.54061238452503169 -0.68033657621776311 -0.32110063372621056
-0.26062461204165643 0.81444296830930829 -0.5589141384249281
-0.045612619455237535 0.84575937079071783 0.24312107180912435
-0.43836015193401678 -0.75685096090507253 -0.250281400429607
0.13532940546016192 0.90264470381274353 -0.095679741102234317
-0.55722486362327217 0.010887181241653165 0.75428810363330356
-0.060291366638566046 0.74753225557142788 0.66761253333674553
0.25478967175153855 0.81792782058934954 -0.27709055561162543
-0.097745073590939313 0.10438657506889426 0.74104080004809703
0.44238846733907522 -0.039404849631583638 0.31688689838504303
-0.031136884360851269 0.48954027545747669 -0.63593407797960921
0.29550979035319003 1.2529396744278736 -0.4335031034039929
-0.92950370516785874 -0.66472353024813169 -0.40046143551885116
-0.3543812927360257 -0.10613888337872535 0.82501190336820329
0.44010926413815099 1.105484375683436 -0.41281576559582689
0.038218659010528455 0.26581677812038146 0.74295555525187673
-0.022068599161897851 0.334133470549205 0.8093860324726645
0.28826069123058318 1.2128180417104848 -0.38390119169654469
-0.52129402395036095 -0.11847343965667761 0.53794932777511484
-0.53702172842945828 -0.7137409281928937 -0.32031436533396196
0.72266730650824229 -0.46977078690908231 0.70469385580109112
0.046751549073992038 0.55755357298026142 -0.57516763118718828
-0.67638613982905049 -0.51228894490395249 0.44789216442281976
-0.54513990065677476 -0.31767011322861566 0.6138610175735284
-0.58493263047677324 -0.64331491748284209 -0.30421489711329919
-0.77323945596508636 -0.22959809104373394 0.20573619480196825
0.7479165629053881 -0.37406486046631637 0.64817040694107497
-0.84286019116941269 -0.56416440831385584 -0.32499173360180045
-0.39431994622747268 -0.22124940340884319 0.80349643531014436
-0.9781838137642147 -0.69964645783943646 -0.50280697394927998
0.20166531531839738 1.0150627088903321 -0.27660766900311984
0.040342717747641643 0.23074260077354825 -0.079301959854223725
0.67280787197259784 -0.41996065267820148 0.65883052039344037
0.18385107124035116 0.48526636290227881 0.64570862933043216
-0.20823384920641175 -0.1202859898585501 0.73327870307918985
0.79414065410963275 -0.33839587385573416 0.6912308376767875
0.78499316990300372 -0.34072119192591488 0.69349693607374974
0.049566967027297792 -0.9598341192028409 -0.38132139161370837
-0.028080765686265607 0.16001537854097292 0.73759356794927378
0.14850926488984939 -0.088823273671890024 0.80554060276724293
-0.43098324521485054 -0.1655314216721625 0.81072682077319236
0.20898987186616935 0.030097745114334329 0.7339940550269759
0.14304046119819702 -0.33028188524937319 -0.62872469365944106
0.32204054824031303 1.0993106216867419 -0.41923845098137846
-0.24700319287121886 -0.19259058647770161 0.75181638783807614
-0.21874767244017335 -0.098164764900937063 0.76931993586834757
-0.46198216565872308 -0.76625567795728389 -0.28943848231761748
0.52888979629778632 -0.65233703405497101 0.46974747403850259
-0.76470260250157729 -0.30805114428802688 0.52533765118217168
0.30957125416444953 0.57256364832089068 0.47122482140148847
-0.19039273292638725 -0.025862966052935255 0.64556220544993259
0.4619401739123532 -0.57320862896092772 -0.0099035760103802772
-0.066361235120922402 0.62146694689686077 0.60077706151857413
-0.070811448596238336 0.54711840902171016 0.73139001998715436
-0.3514825583264205 0.25606525785575662 0.67225169329394596
-0.13796568376997698 0.042866917025889628 0.74292749057084961
-0.50997183464311036 -0.056398724190492022 0.72670699218743806
0.21480997965212723 0.92608116700038656 -0.25864411340621274
-0.076686198530772742 -0.50348022799799663 -0.033497938839023078
0.73474975841801182 -0.30856083684107216 0.65285088498597688
0.20753206307229988 -0.39193498104303803 0.41558667312641617
0.73813934653756519 -0.36242487346228175 0.64562586452554349
-0.24508046222591773 -0.1804090684908875 0.76296518937858515
0.19794826894247919 0.47061484119863517 0.57666194640779977
-0.41453383739403904 -0.21822597851124115 0.80026049661581133
-0.68016425099835764 -0.95533202881365487 -0.38689218850634965
-0.54620665126860146 -0.22849033553733261 0.69395395136523952
-0.070437819393635692 0.36047469376401675 0.8130290845716317
0.06129530395729077 0.30968070166273554 0.75127295512515602
-0.63742089196686536 -0.040977477239395765 0.75253420779260161
0.23305035993934808 1.1740000292640451 -0.3468625525440423
0.28079441102902081 0.72614529510145198 -0.26137182538968062
0.28138527868432561 0.7553957216769791 0.75856931758518265
-0.67135480711618278 -0.50805453639689757 0.41524064274389438
-0.75049121922114104 0.06063768586673024 0.68144578696435332
0.065011620253045521 -0.16174474595502603 0.059533162746941315
-0.071319912915292605 0.2665760991421261 0.73897734524972591
-0.9330860327672319 -0.62041997035688401 -0.44022168965606845
-0.12837662698267138 0.39776662055391188 0.7823099000549405
-0.28271369552660275 -0.15282304635891558 0.80835004858363746
-0.30331608436995339 0.9347751413274219 -0.4140950464229789
0.27444836941010564 0.64347418956965208 -0.3663759332910459
0.52526729494426405 -0.67388276039529416 0.55721173658111844
0.18649942491149218 0.97229718444688396 -0.24428006785923984
-0.28782444112091099 -0.061364023317099836 0.76773210131038994
-0.78556240773905905 -0.93109342975822229 -0.45412630624654149
-0.76533542717858083 0.24078178250361776 -0.04701330814666882
0.47064973524825859 0.62873973662609206 -0.26092382249567692
-0.42748799951517213 0.026776015217956084 0.067857707964398273
0.17349529147896092 1.0406907939907049 -0.37473963315510517
0.0098829759188063804 0.97456284048758079 -0.31517447814255206
0.28652745486104791 0.1801699597847739 0.45239377280226734
0.10509791883625397 0.65112248074438184 0.63370071236228398
0.11028986854790901 -0.12761295037156734 0.80399066641194494
0.091158073658789363 -0.1163217763198241 0.75725975712554217
-0.30755780258559895 -0.23206066087693639 0.77746650758427016
0.1292313970478105 -0.073401376949530917 0.76400723564339401
-0.44100270388953966 -0.74396001152970181 -0.26624212017264703
-0.48471657063965878 0.072730154370486133 0.78348776314187418
0.14011888380839466 0.50360819813247248 1.0727652898892561
-0.16331599739319103 0.17006556503812748 0.76310097363990614
0.28330913914582112 0.79482814958968795 -0.35791900384884912
-0.38252329103332983 -0.42998733350850421 0.42455410213403155
-0.29648751380143068 -0.06600005307805229 -0.029762520163258088
-0.72835784260237091 -0.038068417702211532 0.71806604286797793
0.074433254810205796 0.81924569639339895 0.60300878674855163
0.058017203615676749 0.40538075946569035 0.78406286834741223
0.073252596328256203 0.21292327949378032 0.63894061838976057
-0.51937812025488306 -0.35607020279988366 -0.55731335978788543
-0.35183201757284976 -0.71585720902462202 -0.14479074403178238
-0.47304032849799604 -0.78886933079936705 -0.27573014155877296
-0.57193280620910869 -0.057984683327089559 0.73653576460648118
0.69321401837540364 -0.37750347163714232 0.65753352701115553
0.66900555956923924 -0.44572778761557563 0.67754267190395367
-0.18120213544758101 0.32800789266865271 0.73035769321583466
-0.17261891451969191 -0.15267373205419865 0.68695854870225226
-0.33424557010330957 0.10348410687574322 0.79247749678771662
0.54637496849015577 -0.51627004154610634 0.71498121008142768
-0.28775576185571339 -0.26636370385490526 0.73277228752106893
-0.48937724984268272 -0.041783785683899399 0.75244581544965072
-0.60219893564323179 -0.67365750417775438 -0.32798949144553546
0.1777508915833792 0.92772303011371959 -0.22477238576544423
0.23928461224105035 -0.045019059347404189 0.80141131824298739
-0.060158794453389675 0.41379152157274574 0.24907723386861491
0.023665728934446406 0.4895144589071152 0.76521730774205743
0.67650880214688769 -0.52330295766250634 0.43389100464588104
0.018838467533445424 -0.19919572290489135 0.71487761185249532
0.28433565455213028 0.075668821365323546 0.58640424175503014
-0.73649155549112777 -0.30065717418375476 0.4100125528897447
0.80597216336780519 -0.20833428904742618 0.40362487854450535
0.15128194375784432 0.392802654710114 0.69442206365738457
0.086283864155632273 -0.39391489098829668 0.24084070171745964
0.62791915860705316 -0.67214569929544976 0.59320069202271064
0.52891685022867918 0.77408839540566277 -0.35045105637173535
-0.050518598399630577 0.58410343169048562 0.71311382572618598
-0.39932750649362703 -0.12093386035888626 0.82336432979310459
0.31022525860549166 -0.16254150296087316 0.73410947618149791
-0.68029356304524669 0.1456517395467114 0.76594935876413217
-0.081293615352311832 0.17492916978671841 -0.29183608782104642
0.19709506133549937 -0.10335811888022201 0.80903194904287545
0.28339936515499886 0.90584560184703711 -0.32809876919659331
0.3528937401444594 0.40115065873597644 0.027560830075078258
0.75481954284784614 -0.53092413482633227 0.48721882656972149
-0.36541721809151184 -0.64369580193438591 -0.04991037867112702
-0.58993011297625131 0.013905354726707397 0.76063396047554832
0.12836916748002025 0.38947302883189944 0.71065037044655277
-0.20524685620268457 0.52025731068779646 0.64113098440733651
0.43493554713985105 1.1996349157021871 -0.5002138860434453
0.30484192969856139 1.0420235005556304 -0.38248641041943188
0.2680885177992991 0.77008585399778395 -0.28593587034575307
0.18885669171278607 0.41845760623099293 0.65936127493142038
0.2688735975491916 1.068244104646789 -0.38740067118782306
-0.88608194613311575 -0.054957604675872851 -0.35952964317036873
0.22835121967209204 0.78698718899725462 -0.16782275410063008
0.51194837680278127 -0.12754018558344865 0.33442605073879506
-0.73878629747446389 -0.50166268879547982 -0.049072627457316997
0.13524222175119149 -0.29995653105118258 -0.42222140533749375
0.18363935417397315 0.87276533059931594 -0.19310499399503911
0.072775426718429514 0.83090838668641243 0.57839248163207202
0.56324390194529883 0.1655132845479198 0.67832528565209849
0.25742185185352184 0.74448722434132142 -0.21239027389960086
-0.76284727403611008 -0.6109090845460311 -0.43067399220406699
-0.18657957346903231 0.039837687713287939 0.21965863601527147
-0.90285049197946066 -0.59395699158293047 -0.38986880535918012
0.5656110464438413 -0.44194987495485777 0.37299991834659352
-0.38467468911398228 -0.63469283456586056 0.013888141499462492
-0.81298510658154832 -0.65098850573237488 -0.35714775911132257
0.032664719732327541 0.60132314545604537 0.66964259232986123
0.3417863545432489 0.71882544210922328 -0.33931199398173462
-0.15894444783712203 0.3300441608805782 0.75852755262453186
-0.03907102731204759 -0.28086423467816557 -0.57520278200570729
0.60322781937446912 -0.65011298999841394 0.64437856563269591
-0.46207400946795829 0.17342613125451595 0.66872625272127628
0.085362898681008659 0.37485985574266678 0.77137977853663386
0.28895153478852365 1.088617099782057 -0.4083065451147263
0.55374147098845228 -0.31639570119581495 0.19599301122150337
-0.87495963684663991 -0.70921190829788938 -0.41629970099660341
-0.55663562229767294 -0.26752963042312727 0.67263269592104891
0.67784070519549289 -0.46488550610058643 0.72088535711410806
0.92503671255441944 -0.27127478785257697 0.49294995939455077
0.42562856351944944 0.87197473150882554 -0.36121855982526796
-0.43201557652786704 -0.25013966407866678 0.77774364577704524
0.13364711224096126 -0.12833185427793625 0.81224725226944905
-0.82999407618186005 -0.72774573119983876 -0.44153789692273548
-0.50205878713292762 0.046472037986384884 0.76821862275479624
0.78601872514361659 -0.26333300196749032 0.68052105441502775
-0.5430347736442922 -0.88498825372126688 -0.31299962577961793
-0.71516259117199255 -0.14697488571513379 0.71325760665329518
-0.32775249753565205 -0.11617445795169357 0.82500463327144047
-0.39519904120215088 0.054287990165210631 0.66108825565954277
0.19566226475448545 -0.37672583989483588 0.25033713530900314
-1.195326312706797 0.84680435222124562 -0.39057173611976737
-0.37316214956894456 -0.82968973859354123 -0.2252336281895424
0.69916703900230814 -0.17453516379660572 0.37966059737146374
-0.38518939731251578 -0.0034920966580370694 0.76498297281596805
-0.21012729807282682 0.3852029460337224 0.77154158198683476
0.86430590870491386 -0.38740875962744781 0.61900006064287361
0.51189321666943854 0.73313247755502142 -0.25382837704116312
0.066325107118856863 0.2721015553524021 0.73787985889561192
0.65618357498347279 -0.43794091991175615 0.66305866283176229
0.75374602232483312 -0.49560977909349324 0.67276458505662795
-0.21341122947811897 -0.1980689998695479 0.74756681202039488
-0.72679258706821592 -0.7453295729719791 -0.38177108868347531
-0.19684337849497169 -0.27647849377788131 0.64598263692339231
-0.070150239254353153 0.19248775730309231 0.74558900637473968
-0.90030169009950711 -0.68593220991859516 -0.40077685830032728
0.075982200569796987 -0.16418065109930335 -0.26564880040295691
0.11670286516733341 -0.13321863318675331 0.80730012820421493
-0.43268967771359002 0.15236996558999838 0.80256987545916481
0.25770098024009869 0.19574821377499041 0.61037527323334473
0.75148440836771258 -0.4241084951544648 0.69433934143494902
-0.11215164493170704 0.35927318886325693 0.7937670726196675
0.52486938464748079 -0.41213246803923526 0.36009814533134232
0.15198067982966279 0.31464902022800811 0.66103738457040073
0.67002750061892336 -0.6071591200376858 0.48861446757095628
0.35587691273010336 0.47142809645102191 0.013551931813712059
-0.13749600030239506 0.53144687699222559 -0.67696131072604615
0.013955096706421699 0.29971741804002439 0.77283267451086424
-0.030926690374879939 0.34139799498485573 0.81085824672338447
-0.45515116951952272 -0.75948669067595542 -0.28983571857062529
0.04596640642954597 0.28269795136561704 0.74260443717502156
-0.30092186270079679 -0.0047380488488073524 0.77115209214785452
-0.38723549997386186 0.34968064944672433 0.71413603095262879
-0.53020166520849088 0.85270207617876226 0.27155400227755422
0.36449160057381036 1.0462301451269385 0.16262721366932809
-0.17934657657724173 -0.43805305819193346 0.46866045134129131
0.34478232377236928 -0.83248689259178899 0.67471306764520911
0.20299944354407629 1.1043193981661286 -0.3064951009325938
0.34666284161979988 -0.089449601621699071 0.72377925590808267
-0.59304398973278083 -0.13874029811715949 0.71865031130075963
-0.37652984053154626 -0.64976772996916865 -0.11577030450225045
0.090892762401516336 -0.11854120824489517 0.7843397294584129
0.78168367131042693 -0.3840496950113817 0.69118858277896855
-0.43629105010231228 -0.6319360336913481 -0.11230434376211207
0.082939086048302357 0.42934771756133061 0.76517455973585946
0.63825261751277118 -0.66691680513410623 0.53978226843304355
-0.73850984571609679 -0.36073432564335678 0.35116306733658753
-0.11865701944468654 0.52102279443639699 0.75225872803143901
-0.63520497049594482 -0.61559373180169197 -0.39660030001310709
0.46204609657458562 1.0619228258885682 -0.42493508574218097
-0.37321615736185088 -0.77588453958085468 -0.28520142427450246
0.29391319394894566 0.21151642506198559 0.43685591985639149
-0.86943431501068957 0.30356021955640744 -0.25878109275888406
-0.39603571453413267 0.42366934398194139 0.80314136599000108
0.36551657145015071 -0.25240672643936563 0.17605727689801043
0.16429859431678651 0.67921586207312734 0.59535650434048648
-0.14915560858039356 0.26032784914120904 0.76598688634056167
-0.12254577235279029 -0.02092184270510089 0.74173569800323058
0.14092161917504953 -0.055531181202653879 0.74216924468294287
0.17110550753734088 1.0965639666778926 -0.36818940767949115
-0.72759729989528132 -0.50738215614588078 -0.19595177457918922
0.7716960827469066 -0.3955830264904836 0.68952282512253937
-0.44600352435102408 -0.23546577718479372 0.78254795640315145
0.18507145959162585 -0.33723319872307911 0.64158240530242949
0.20079093560798356 0.76450698913689596 0.38831284410467148
0.74334421538825701 -0.44410131015094934 0.42401301217753229
0.2169476783984301 0.83761501404392003 -0.22308885504642006
0.083005175572246515 0.031968707568607702 -0.16320359364046411
0.68295488848101904 -0.62283142319790796 0.61752505213777908
0.45458269515480865 0.77317083033962486 -0.27063508632165778
0.19049889569754441 0.92673237791056717 -0.23436575340303989
0.73866459004611507 -0.55382483564068019 -0.11515871451224768
0.31506299278252925 -0.19816498136297289 -0.16132984548493212
0.55558368000260216 -0.48037844008056807 0.72582462438960071
0.24600901311707801 -0.71962206938580098 -0.34345505785184649
0.12363835456844541 -0.17297793010657142 0.76664202573106088
0.13090016062498933 0.59189504196441844 0.64166541561418633
0.258440667038073 0.81947164602770739 -0.28795859121775891
-0.07930401278443 0.22724054332910981 0.75620079285709352
0.59170741055790543 -0.20805231442448485 0.71522471865415049
0.020899238647743346 0.77978759300204559 0.65784568606697746
-0.36660598964107294 -0.0058327839917852176 0.76526721229589789
-0.83337833987961929 -0.66621189115258328 -0.37679638918436176
0.91358797657948898 -0.27092835280652344 0.46731452294116949
-0.96292800256107647 -0.68935135822435012 -0.42822872127481659
0.75117943626949391 -0.32047184527718298 0.65974728542772709
0.45867576271478327 1.1967336047079211 -0.48021565940252131
-0.014540724043815345 0.24636224444434879 0.74878646714760144
-0.22665665854779959 -0.4608537852359626 0.54991432181355648
0.73360209865398573 -0.51476886870382366 0.67661747235436387
-0.34864663275724084 -0.21284747851491859 0.81097629981852748
-0.28339387890258649 -0.56384306748993351 0.17653221152331966
-0.42053249346381705 -0.87510450897764769 -0.28957349179562009
0.59206717254518537 -0.61916573822068699 0.66962345909142762
0.24004019102017082 0.90478755164161329 -0.3788200557796344
-0.3087810818317287 0.51259366751251156 0.59075442148612467
0.32286554506355358 -0.019586796665328587 0.71107674530581022
0.47230272374673277 1.042447549125844 -0.47931438557822759
0.10214897291548652 -0.094176466167904149 0.78184006647448001
0.076136069959595432 0.35709675400392987 0.77668689974219696
0.38342118945872272 0.65272612239969652 -0.19884552947529244
-0.23728993596085957 0.40342019203151297 0.77195350761236625
0.26428870288040684 0.7629560611627989 -0.26229282437737922
-0.47630151563455669 0.022322255770703403 0.67397951258418587
-0.19129481581015995 0.40416185189375625 0.76890103369821183
-0.030793943323466522 -0.2149846020509707 0.17754623726384011
0.84735730485265748 -0.4149286230520578 0.62596983043885857
-0.3572843236641674 0.27982695797207952 0.70713849893975222
0.43283767633512937 0.043590800719013389 0.56402289021453456
0.36606148885233836 1.149537479939494 -0.49350789871576595
-0.16358192629863311 0.45527930685419699 0.73505129513436351
-0.865070733906256 -0.87431654481408749 -0.4718622182723351
0.077421835361118241 0.44587560701718998 0.76260951277698119
0.82584714352136146 -0.2305095510932933 0.64724468216830111
-0.78891390116221061 -0.71122009518733598 -0.41073320831477211
-0.58413522865210332 -0.84718559542018868 -0.35068852649660798
-0.16828266408556658 0.43027203734143565 0.75835217951401468
-0.3967526087109583 0.15510288606862349 0.80072363409031411
0.37846916737640512 1.0181426869249133 -0.38879217953764922
-0.40434766718429671 -0.0088863471350257295 0.75930270483011242
-0.21316088530020849 0.31523151888497997 0.68972437136869935
0.34950378107352975 0.19694630495756943 -0.11638407412061014
0.503926056764886 0.99534129447827391 -0.37905261019721337
0.62772727886260071 -0.39202196361688435 0.72135191625940642
0.8904083174538151 -0.33867319314893229 0.60639350036451134
-0.42251291524006618 -0.028338301960133483 0.7601771371077426
0.013063493591790376 0.55870518286004311 0.6847602128236101
-0.20819788910369041 0.43168357654016459 0.70223613533113216
0.36133375024732928 -0.13847240947110051 -0.056347984600911616
0.45148557167059522 -0.14273372763094783 0.72158484692871738
-0.61655206069219304 -0.97011195179625465 -0.58081271356358677
-0.41353661219904936 -0.25878554218855382 0.77416689488162227
0.15917046097732879 0.8283963936670582 0.14029210099889511
0.53782119717502042 -0.46811137925575702 0.72735902361384319
0.31426593037012651 0.70691191362483163 -0.24466455249989849
-0.78558103951624147 -0.72715758624359639 -0.41007077299300398
0.74854212341606541 -0.32189603553689333 0.65377557965726396
-0.30730799367550787 -0.70453965842500732 -0.14826163234344314
-0.51098775569821697 -0.51765765259815621 0.5496721047918367
-0.15982775257450399 0.70774514669432087 0.64160853793503669
0.15304528799245176 0.58072733251521536 0.63340912684448014
-0.31489979263793089 0.5527243204993284 0.81267766183076695
0.029562934420088283 0.3234202694481017 0.7961710513241016
-0.56381158035529566 -0.36431065457585032 0.65450964349678564
-0.22611835742587871 -0.31146921440479608 0.63836786057006378
0.86566894101436276 -0.41637961977623561 0.51550562196623773
-0.25992810915195719 0.89803728267441485 -0.480574788544196
0.73621695303629053 -0.42929677313225367 0.68174710278536388
-0.21723402609172027 -0.32140254240407817 0.61171818174791959
0.17480880787841713 0.79752827619146383 0.47119944715791107
-0.61507439406447872 -0.71317720763150128 -0.33794887345779756
-0.87207153227665657 -0.86467373434246264 -0.45556362311347165
-0.6533100713071569 -0.81859563371907362 -0.37140236356227341
-0.2712789573427834 0.76587331455373231 0.28488681114638581
-0.077933415740993439 0.77359688331091325 0.026951114655119568
-0.42679562321647424 -0.33511112272917665 0.67887064201474523
-0.83442914767412546 -0.80897231273232417 -0.45053476533490766
0.67431496350314823 -0.64168409853789887 0.56918146704995642
-0.17534041142468837 0.3180999690980022 0.77136308106851814
-0.19799458368996881 0.47127332463812183 0.75692472613078898
0.343203686369975 0.62141303635613876 -0.17180535866286206
0.42603122206498156 -0.53833198409565086 0.66117922143541996
-0.62472840686366027 -1.0040817000804734 -0.3584598905659977
-0.65487793473008793 -0.93268254536434569 -0.40752535632376308
0.29450226247876898 0.82128474944888175 -0.31295826133720084
-0.78404066999657474 -0.98422757144306539 -0.39872973594500927
0.19389418235986255 -0.37358847211941443 0.61084703980168875
0.67409232751365344 -0.58099445239510916 0.67317736857797961
0.44943407557965642 1.1356066494022374 -0.40356010065976733
1.0943466355584732 0.28877098204078966 0.36691450211330867
0.12585509256019378 -0.16718256679493926 0.79552826603290505
0.19482950647916653 0.90476616964746903 -0.23136681648025004
0.70222280691785244 -0.33431874403341766 0.6617437617402615
0.090146240266989253 0.37342821836344664 0.75733001101027497
0.68789711761195349 -0.26230673413280492 0.71438814351773772
0.28107085394489673 0.13748283031554948 0.47342075489585511
0.28827155935011106 -0.023995836109959534 0.76897103810372869
0.49050834532793886 -0.59139509520461886 0.65958664819953405
0.39790635331403834 0.057983612937059725 0.49567076497930884
-0.29797685595941203 -0.37753989690544121 0.59444448968909036
-0.20907983713277645 0.35660853792170349 0.70961920907168974
-0.35730187584383799 0.0070953700709562306 0.73047776669712583
-0.058607453807393739 0.35645881495421916 0.81287279372489962
-0.10044777495622981 0.17450064680674221 0.74807688759316271
0.9075942439666953 -0.32513366472884953 0.48411373313035888
-0.49023415154607441 -0.55588360187280994 -0.43326061200945354
-0.047966850800243321 0.55972390237580694 0.71183857932679651
0.84146869718890471 -0.24895293366009266 0.64391591037734486
0.2881006048169823 -0.078413277460060105 0.76822734334088061
0.22208134987462458 1.0422694892228987 -0.41465127602191743
-0.48921210135634752 -0.33713597993281957 0.67823131172864137
0.33123646370222914 -0.34972863801264031 0.29275952638052161
0.30072614636110728 -0.086552921924140047 0.74383964529555513
-0.39880069317582212 0.58361448243367908 0.6807254982490818
0.53730916424959929 -0.55139864134500971 0.7001987133177856
0.57827325693843079 -0.74829779028289101 -0.20404219530619727
0.36261046670159658 0.92084460658288525 -0.35467003986235923
-0.26959715263420492 0.0057142543502174958 0.76508126223643735
-0.88060023005090926 -0.070081841939069717 0.038425313127840255
0.16452779754738955 0.4200947262069884 0.66145337904295154
-0.67382508544264041 -0.55660668712431649 -0.19613442946990389
0.51688077872922378 -0.16234226367195814 0.42473586304471311
0.2110304834325305 1.14509627298346 -0.32516599337097674
-0.12463119593614991 0.49404658085021758 0.74633259296708587
-0.54286609014722131 -0.030957474048862565 0.74443933838086451
-0.64367111505450758 -0.94541711974730047 -0.37864592689929388
-0.90110189250805028 -0.72828414853765411 -0.51652122445439907
0.15456583744966679 1.0659497700517853 -0.27810806167072144
-0.49651547163601606 -0.62848807156309605 -0.24070057358684771
0.050211266302842006 0.32623168513371847 0.78063371581665919
-0.20916478340675226 -0.078624079626747001 0.76154637016808024
0.039720991621862822 0.29682559613610449 0.75675760306859274
-0.40842053899987008 -0.36407796846522139 0.68520072128870524
0.24970710333423085 0.41229013766888944 -0.38260342132554115
-0.51255053742486822 0.020208316928534586 0.75827276350167239
-0.34974569862692562 0.29290310956074733 0.64282444848933729
-0.50847898162340499 -0.71726105355600178 -0.30860158711844932
-0.81544083136614809 -0.36203486161741011 0.078656944475270052
0.23820245943563023 -0.071956000214974503 0.80001885609670431
-0.28508904985866224 -0.13410813059887283 0.80987856336082942
-0.50646680564066848 -0.24846671918468566 -0.6107331482424545
0.071878346856212971 0.73161955831064096 0.65116973900592789
-0.080743535547309619 0.29927681107881571 0.77129578650228936
0.35191867977032487 0.069275965099153458 0.47220022876283707
-0.88122424872024574 -0.84115554865621855 -0.46745002012893622
-0.68176506260044789 -0.092321020848264379 0.49037259306096637
-0.14677710901751695 0.31942481495134911 0.75112856924683591
-0.060328216703936732 0.46852189882806244 0.79242574390031706
0.18608504195306708 -0.17401378061435918 0.78678066013766568
0.58656832974299533 -0.042019464373460658 0.41763367960817988
-0.25399587215822095 0.37989400105223409 0.78071824149804137
-0.049239452699524122 -0.14114459652016109 0.76107663030799166
0.66262846268086406 -0.55998385095343051 0.6907005905537531
-0.75456252772581323 -0.62551237513445679 -0.30794376546132796
0.69477452507814697 -0.45554926829221049 0.71571809017854982
-0.092421332904070397 0.25499226590142932 -0.33115267464301468
-0.23214928670914503 0.60351852139886342 0.13876339925260339
0.69943393926132202 -0.41793316087073007 0.65430013547260302
-0.4124586977349729 0.092406962580032115 -0.71829928417677991
-0.44921505165542541 0.044859781583887093 0.76979286041865436
0.2056446013239146 -0.051691608038649917 -0.46096976844173199
-0.49860535272186368 -0.20428561705263265 0.7612714164691301
0.14906587112066561 0.90962284186753384 -0.34206295410636045
-0.55409788217989586 -0.3030829328473556 0.67390666106850894
-0.48611497027520656 -0.077603959665233813 0.76066402480593887
-0.63392535086345703 -0.16591795168045637 0.71196349570747763
0.79531125541449654 -0.14459566027732568 0.44727098813783428
-0.2662114677977776 0.47357518245422864 0.78433516158102101
-0.29908206674119597 0.27286547350245421 0.81286473340485266
0.12367971873437256 -0.1747631204179706 0.75754859601271818
0.24266019882556122 1.0821621815423992 -0.43667419975621513
0.26711324880664122 0.4519077032927265 -0.36117613193608733
0.4390922777727404 0.75113956936111448 -0.25949863606691892
0.30456003297980772 0.25407725904371609 0.49713909589168281
-0.18702530130407879 0.4675352192637614 0.75782866197805099
0.52604872671645353 0.84836580381599269 -0.40299975866949822
-0.75760538389075371 -0.52619780369036451 -0.32046365447636838
-0.18243521508012606 -0.47422883627835222 -0.42900410202989292
-0.80271569039559054 -1.016649856338306 -0.43104057754571734
-0.64580520007433151 -0.65011937081826399 -0.32036750098716205
0.35467578093436103 0.56697384999171652 -0.087355932657366964
0.13839995748286071 0.81719472717508557 0.52737229431286892
-0.49248575192337896 -0.22625360938183636 0.74953392202691482
-0.75226071940962491 -0.09801751872885367 0.61474133387504537
0.29931192088691461 1.1121765585578136 -0.4189591017958989
-0.14058213354082838 0.48295977270862928 0.75218779606861652
0.4968262062604083 0.99262952471467658 -0.38320327550796662
0.3107723571090375 -0.11945847360639306 -0.24549559470882798
0.052727424974118975 0.82124550066001722 0.4487901215223431
0.26929845055252954 -0.091327536916347041 0.78279226262386992
-0.49758387490097888 -0.68976881311230775 -0.28519064450965814
-0.39249582077107448 -0.27054259461425145 0.75999178650664767
-0.71408077897646294 -0.33397371556453848 0.66429019640924736
0.41337774646304482 0.70871994639756553 -0.2377497406049045
0.39814411968520247 0.21679743243259164 -0.51892129356010486
0.75433254707093589 -0.11841523660559239 -0.44096362937117739
0.15485143186614181 0.095800899358471359 -0.53819266469736249
-0.32790300169055442 0.24309211726051494 0.78512918324917003
-0.31734798812049547 0.98061592005163001 -0.20617910387365868
0.43612882780956141 1.1323929200645564 -0.49903581633187599
0.93011874282106533 -0.27220746452199368 0.52048015757428168
0.54747774823673723 -0.39031178870385158 0.35372489852060518
-0.75540815372114167 -0.37466062557732865 0.61749853096603502
0.37596370309904259 -0.25284726618671188 0.2169236448546279
-0.7718670075627827 0.037926309884843357 0.27140164945050493
-0.030494243544019639 0.74992439957214241 0.11687512848008552
-0.33343590615268681 0.60133734128887995 0.62183760964209434
0.53163473438014464 -0.20584486601135321 0.72234902181264538
-0.017160376609979267 -0.48647807160306844 -0.21332501368147128
0.098765170888277964 -0.22967661193457861 0.68530364249110676
-0.6304924702053345 0.033216275508391346 -0.62836345691159856
0.86665424680587222 -0.35937317378949796 0.62935887602070828
-0.70066989458891982 -0.14947306196435434 0.42892832491604338
0.34177730399011352 0.67071977344128042 -0.22159954849717423
-0.31800729352525892 0.18874236984052584 0.79615867625449432
-0.76113262632122236 -0.61261704425403041 -0.29535124331683171
-0.24004442084832078 -0.26262800101491257 0.73238268561029329
-0.17151062128290917 0.341772812174228 0.76497070121743072
0.24586706272580017 0.95436788178615273 -0.46109986759275756
-0.94434107698768521 0.46728128353958398 0.62107123438895329
0.13698287948849242 0.97662130703700645 -0.25677812075212003
0.29118794817062721 -0.22490481394727474 0.73523146058199096
0.3794690966734251 -0.0063662461537797865 -0.043437175633364689
0.10868942869323917 -0.16076352434524432 0.77446516167790946
0.32422001317585369 -0.076932330263105642 0.72692025200067256
0.67974433168025428 -0.57040870585374548 -0.11271072579829777
-0.7441008714705859 -0.8301292218388252 -0.4839974822967239
0.35415599375336981 0.79509222125498358 -0.31265619087574947
-0.13051052465926105 -0.20186960855259017 0.58220466881562771
0.25323672880918835 -0.12950909437114799 0.78042306963256536
0.29749515193122988 0.10721330680777025 0.45639841685385463
0.32997683293298508 1.0186389031498959 -0.37431292318014187
-0.86312506729699301 -0.84678771131818842 -0.47588358298076372
-0.587026922912397 -0.30668747104950467 0.670433383429895
-0.60620643038333633 -0.92978561116675729 -0.35587647792303123
0.0050059812991243291 0.1773173920809353 0.15537659741576348
-0.028559680916306007 0.24578053601871341 0.0016467440416363388
0.19079685774520172 0.47475106029698899 0.046010114546227499
0.24343921807049895 0.92476657250496541 -0.30767104722643523
-0.50697258579628368 -0.64514669265088487 -0.29693283572912854
-0.63894768695476323 -0.79341535733653501 -0.35936145564433275
0.07547530004863745 -0.30004637528637979 0.49082670304417064
-0.40712338959619387 -0.75938902502226846 -0.16843449655479148
-0.20112723871792682 -0.20110282440068339 0.74112818705745198
-0.057457722844144854 0.12915858352236192 0.7373331161020733
0.48542159365071313 0.98821592732128805 -0.42797167838579142
-0.68331785699074743 0.35496280774238759 0.29446822139921558
-0.55778627894241239 0.24833669193839725 -0.6801369271089257
0.1170171622427425 -0.38347233361409871 0.26154550697319046
-0.64893661215882759 -0.94727806006962312 -0.39948723902237404
0.1805711966969632 1.131236456525359 -0.31686589703078383
0.021385950474833493 0.24473850919578477 0.75010444510496299
-0.73280272293920845 -0.36185079231034023 -0.44821737941221507
-0.40483011353834186 0.5893807447255337 0.75649731899240535
-0.39149028853071144 0.18857789337651887 0.73238986425060837
-0.72847293062328689 -0.23802942284610018 0.33278947891030164
-0.18708653936614539 -0.10973332580053624 0.75543947788908028
0.2265482778030723 0.40283038467755222 0.63329221605438946
0.26046762837775006 -0.086283397665533779 0.78876682061586756
-0.354472495505469 0.39994133257704201 0.62249246319559504
0.23105200715797736 0.013715273965267283 0.78811887179661611
0.35710695002942927 0.23556267185273438 -0.74818865194394846
-0.47287805500138802 -0.19211119432846196 0.7894770662966426
-0.65988864640507927 -0.59122965919491599 -0.24906331447351704
0.16428291509129522 -0.062738200160742719 0.78618847842750306
-0.38014569529127584 0.19826946867015788 0.63882953884048277
-0.71014777254590911 -0.45592824832616674 0.25938892194448293
0.65295416360186209 -0.65536452400061518 0.59405090851327813
0.32160270237744015 0.30651115679634677 0.023180734664286717
0.2736350553496969 0.74980028207180716 -0.28492868579415287
0.38826986521003803 -0.36584586308848821 0.32951511879762485
-0.58301482002784333 -0.90744070572389712 -0.36325309247898296
-0.86200456438239037 -0.071027024649813919 -0.41290796624661574
0.036799365301551035 0.96201331656041134 -0.12199931126156827
0.017687457324420564 0.60713886059602273 0.67813158032005028
-0.43034378053802058 -0.6352123559960926 -0.085671635974799543
-0.7815514115134139 -0.65927794936024298 -0.36492993553491537
-0.091455131513896504 0.32236296607195786 0.78351681448472554
-0.49692964369074843 -0.65127404787368537 -0.28509164545563159
-0.392619011857402 -0.2596546236498935 0.77764016206615594
-0.076776041006674234 1.0163656909219327 -0.26634032564496479
-0.81241865656329182 -0.91569137794323052 -0.46162367349693056
0.13421682056851836 -0.15613040554824081 0.80897763331507377
0.33703993011363309 0.61466453566217383 -0.081240907672050611
-0.55275238583250541 -0.61708144687830058 -0.24792162427620035
-0.052928302658934001 1.0050363484779279 -0.14697274211399147
0.51860006993527108 -0.25183645051691261 0.32892636414449328
-0.63337123059365297 -0.35573870594365642 0.64838571048088056
-0.15464181405452493 0.13123627192966991 0.75717328249316651
-0.20991068833552262 -0.020238369632693931 0.75354245373330109
0.20226718208596495 1.0687283040883457 -0.29569143852517499
0.11452939668579987 -0.11000735506425036 0.80337930584459727
-0.92780814274675727 -0.7810068643600625 -0.43853355819596018
0.44300326337474871 1.080141336719985 -0.44653686948174354
-0.5121317536094967 -0.70174362490058662 -0.31006961463966221
0.33933170297630255 0.60226915767430889 -0.32200379353442443
-0.74574231286344528 -0.30504294196006143 0.45179603343541963
0.56560376262454781 -0.44511685993650485 0.73316611623503469
-0.4216903710996931 -0.016160500555029156 0.75376429184881033
-0.023574258568551443 -0.32461396017636335 0.48051810473305956
0.30324893256031871 -0.0296790143886006 0.73203095595546053
-0.38100953185233877 0.70309487590511388 -0.62062165539832215
-0.2288863512837942 -0.13901291049773096 0.76487376852953304
0.56715439406209711 -0.36586870461100068 0.34989235209044445
-0.017819167302516092 0.55980991189158658 0.69135444613074526
0.35428356821518392 1.1519272028958918 -0.43626128960157473
-0.57381870430804227 -0.20476862173061655 0.71473249353683066
0.43478734660051899 0.043903360554316928 0.45796880084814617
-0.6279817111057362 0.095041914444678355 0.13901880101729525
0.0018886811284666294 -0.38979124936678144 -0.46037120615184612
0.23689517689565065 0.83806123784944486 -0.25291839812325634
0.33981947574529769 1.0568137337249008 -0.39260087278639588
0.20852447308807243 -0.42765345774255792 -0.28398622582907329
0.33837442657875627 -0.13068208898405898 -0.15296957900314823
-0.35883088361343241 0.30354719402969771 0.59506664800252729
-0.34314381153782136 -0.048341939797496958 0.7796263842763409
-0.26993830018988874 -0.3612407209471955 0.67861127887626438
-0.67262718853650938 0.18370656796098217 0.71848581938426648
-0.46747643543089623 0.13468869830342767 0.81095513652904394
-0.95277793165585933 -0.79778116588490677 -0.53558438807924347
-0.40728788329711563 -0.48189270835879705 0.59832620485815546
