# XYZ point cloud file
-0.68194580078125 -0.2777099609375 0.5281982421875
-0.66851806640625 -0.2427978515625 0.563690185546875
-0.66595458984375 -0.2127685546875 0.567901611328125
-0.69512939453125 -0.2218017578125 0.51385498046875
-0.6988525390625 -0.2852783203125 0.49822998046875
-0.66546630859375 -0.2684326171875 0.557037353515625
-0.0404052734375 0.78271484375 0.700958251953125
-0.0440673828125 0.791748046875 0.68157958984375
-0.0885009765625 0.755126953125 0.703948974609375
-0.03466796875 0.767578125 0.715362548828125
0.011474609375 0.8046875 0.686676025390625
0.0072021484375 0.81201171875 0.66290283203125
-0.0889892578125 0.769775390625 0.688751220703125
-0.0841064453125 0.740234375 0.72625732421875
0.0152587890625 0.791015625 0.699920654296875
-0.66064453125 -0.077392578125 0.570709228515625
-0.6539306640625 -0.023681640625 0.58056640625
-0.6702880859375 -0.0762939453125 0.5438232421875
-0.6666259765625 -0.1280517578125 0.562896728515625
-0.6458740234375 -0.07666015625 0.598236083984375
-0.64117431640625 -0.02294921875 0.611480712890625
-0.66363525390625 -0.023681640625 0.55474853515625
-0.67938232421875 -0.1292724609375 0.534210205078125
-0.65411376953125 -0.1298828125 0.58868408203125
-0.2294921875 0.7071533203125 0.724456787109375
-0.23626708984375 0.7193603515625 0.70013427734375
-0.265869140625 0.6915283203125 0.731231689453125
-0.2174072265625 0.6922607421875 0.742706298828125
-0.1846923828125 0.7200927734375 0.720550537109375
-0.18658447265625 0.7310791015625 0.6986083984375
-0.27398681640625 0.7032470703125 0.710418701171875
-0.25079345703125 0.6776123046875 0.746826171875
-0.17633056640625 0.7037353515625 0.734283447265625
-0.64617919921875 0.124755859375 0.601593017578125
-0.6434326171875 0.1650390625 0.607818603515625
-0.656005859375 0.126708984375 0.571746826171875
-0.64825439453125 0.080078125 0.5989990234375
-0.62957763671875 0.117431640625 0.626068115234375
-0.6298828125 0.155029296875 0.63604736328125
-0.65423583984375 0.1689453125 0.578094482421875
-0.659423828125 0.0830078125 0.564117431640625
-0.6343994140625 0.0732421875 0.624969482421875
-0.33905029296875 0.6180419921875 0.7275390625
-0.35321044921875 0.627197265625 0.70147705078125
-0.3438720703125 0.5908203125 0.73065185546875
-0.32086181640625 0.6080322265625 0.750640869140625
-0.32122802734375 0.6446533203125 0.734466552734375
-0.33258056640625 0.6571044921875 0.70513916015625
-0.36212158203125 0.595703125 0.70361328125
-0.33087158203125 0.5828857421875 0.75079345703125
-0.306396484375 0.6329345703125 0.750885009765625
-0.60418701171875 0.2523193359375 0.638916015625
-0.57720947265625 0.2711181640625 0.654571533203125
-0.6141357421875 0.264892578125 0.6123046875
-0.6268310546875 0.228515625 0.62493896484375
-0.5911865234375 0.2364501953125 0.659912109375
-0.56536865234375 0.2525634765625 0.676025390625
-0.58538818359375 0.2835693359375 0.63067626953125
-0.634521484375 0.23974609375 0.5968017578125
-0.60589599609375 0.2149658203125 0.647979736328125
-0.3223876953125 0.47998046875 0.727996826171875
-0.3304443359375 0.4833984375 0.7059326171875
-0.30206298828125 0.43994140625 0.733184814453125
-0.3023681640625 0.47802734375 0.7454833984375
-0.33447265625 0.51708984375 0.729034423828125
-0.3515625 0.52294921875 0.7061767578125
-0.31201171875 0.44384765625 0.7115478515625
-0.28924560546875 0.438720703125 0.746612548828125
-0.3148193359375 0.51513671875 0.74627685546875
-0.46856689453125 0.2772216796875 0.696380615234375
-0.4298095703125 0.2784423828125 0.703369140625
-0.47283935546875 0.2891845703125 0.669525146484375
-0.50885009765625 0.2789306640625 0.67779541015625
-0.463623046875 0.2611083984375 0.713775634765625
-0.42236328125 0.2655029296875 0.723602294921875
-0.43017578125 0.2879638671875 0.680145263671875
-0.51177978515625 0.2921142578125 0.64837646484375
-0.5010986328125 0.2598876953125 0.699005126953125
-0.2740478515625 0.341552734375 0.729888916015625
-0.28533935546875 0.34423828125 0.709503173828125
-0.2733154296875 0.318115234375 0.727569580078125
-0.25830078125 0.342041015625 0.749420166015625
-0.28448486328125 0.370849609375 0.734588623046875
-0.2911376953125 0.3701171875 0.70855712890625
-0.28582763671875 0.3201904296875 0.705841064453125
-0.25860595703125 0.314453125 0.7489013671875
-0.2650146484375 0.37158203125 0.748992919921875
-0.32733154296875 0.2796630859375 0.722564697265625
-0.30096435546875 0.2869873046875 0.720794677734375
-0.3341064453125 0.2874755859375 0.698150634765625
-0.35400390625 0.2769775390625 0.72137451171875
-0.32159423828125 0.2681884765625 0.7369384765625
-0.28857421875 0.274658203125 0.73785400390625
-0.3115234375 0.2960205078125 0.703704833984375
-0.3602294921875 0.2855224609375 0.696502685546875
-0.35089111328125 0.2630615234375 0.73516845703125
-0.24029541015625 0.474365234375 0.74371337890625
-0.2186279296875 0.47265625 0.737152099609375
-0.24847412109375 0.501953125 0.742584228515625
-0.2657470703125 0.47265625 0.752288818359375
-0.23101806640625 0.44384765625 0.746612548828125
-0.20758056640625 0.444580078125 0.73602294921875
-0.22247314453125 0.498779296875 0.737457275390625
-0.2713623046875 0.505126953125 0.751495361328125
-0.2510986328125 0.438720703125 0.75762939453125
-0.43768310546875 0.2025146484375 0.71038818359375
-0.46832275390625 0.1947021484375 0.7021484375
-0.431396484375 0.1834716796875 0.703948974609375
-0.40960693359375 0.2073974609375 0.72100830078125
-0.44573974609375 0.2215576171875 0.71685791015625
-0.48297119140625 0.2176513671875 0.7110595703125
-0.45672607421875 0.1771240234375 0.694000244140625
-0.40118408203125 0.1910400390625 0.71160888671875
-0.41558837890625 0.2266845703125 0.73126220703125
-0.24041748046875 0.5745849609375 0.744354248046875
-0.2158203125 0.5623779296875 0.73046875
-0.22802734375 0.5921630859375 0.741851806640625
-0.26715087890625 0.5870361328125 0.75408935546875
-0.24554443359375 0.5513916015625 0.74359130859375
-0.2197265625 0.5430908203125 0.729522705078125
-0.19989013671875 0.5784912109375 0.726837158203125
-0.25225830078125 0.6085205078125 0.753692626953125
-0.275146484375 0.5621337890625 0.751922607421875
-0.533935546875 0.1693115234375 0.67364501953125
-0.54779052734375 0.15087890625 0.66363525390625
-0.5147705078125 0.142822265625 0.67608642578125
-0.51922607421875 0.1781005859375 0.69158935546875
-0.551025390625 0.1917724609375 0.67742919921875
-0.5643310546875 0.1734619140625 0.66949462890625
-0.5286865234375 0.1298828125 0.66668701171875
-0.5010986328125 0.1553955078125 0.68731689453125
-0.53070068359375 0.2027587890625 0.683624267578125
-0.1612548828125 0.6395263671875 0.735626220703125
-0.13031005859375 0.6524658203125 0.733489990234375
-0.18109130859375 0.6544189453125 0.74774169921875
-0.19012451171875 0.6246337890625 0.739837646484375
-0.14129638671875 0.6231689453125 0.727447509765625
-0.10498046875 0.6395263671875 0.7197265625
-0.15008544921875 0.6671142578125 0.739776611328125
-0.209716796875 0.6422119140625 0.7506103515625
-0.16455078125 0.6114501953125 0.725128173828125
-0.5704345703125 0.076904296875 0.650360107421875
-0.58831787109375 0.094970703125 0.654754638671875
-0.57440185546875 0.0458984375 0.646514892578125
-0.549072265625 0.058349609375 0.649566650390625
-0.5616455078125 0.103515625 0.654571533203125
-0.5838623046875 0.126708984375 0.65985107421875
-0.591552734375 0.056884765625 0.64923095703125
-0.55499267578125 0.031982421875 0.64459228515625
-0.54412841796875 0.08642578125 0.6593017578125
-0.00775146484375 0.714111328125 0.70782470703125
0.0311279296875 0.736083984375 0.696075439453125
-0.01666259765625 0.73095703125 0.718505859375
-0.05035400390625 0.691650390625 0.71661376953125
-0.00140380859375 0.697265625 0.698028564453125
0.03179931640625 0.715087890625 0.6846923828125
0.02471923828125 0.754150390625 0.703399658203125
-0.0640869140625 0.707275390625 0.728424072265625
-0.03851318359375 0.67822265625 0.70684814453125
-0.5938720703125 -0.082275390625 0.62396240234375
-0.60699462890625 -0.08203125 0.621612548828125
-0.60064697265625 -0.125732421875 0.615936279296875
-0.577392578125 -0.08251953125 0.615997314453125
-0.587158203125 -0.0341796875 0.63226318359375
-0.59930419921875 -0.02880859375 0.6334228515625
-0.61102294921875 -0.126953125 0.612060546875
-0.5855712890625 -0.123779296875 0.61077880859375
-0.57012939453125 -0.0419921875 0.62908935546875
0.1109619140625 0.7628173828125 0.6495361328125
0.13238525390625 0.7620849609375 0.643218994140625
0.1107177734375 0.7891845703125 0.65350341796875
0.08868408203125 0.759765625 0.66741943359375
0.10833740234375 0.738525390625 0.647705078125
0.1279296875 0.736083984375 0.637908935546875
0.13134765625 0.7872314453125 0.642425537109375
0.09112548828125 0.7821044921875 0.669189453125
0.0855712890625 0.736328125 0.66168212890625
-0.602783203125 -0.2188720703125 0.596099853515625
-0.61700439453125 -0.2252197265625 0.5863037109375
-0.59783935546875 -0.2371826171875 0.591064453125
-0.5809326171875 -0.2100830078125 0.600372314453125
-0.60198974609375 -0.1922607421875 0.601470947265625
-0.62030029296875 -0.2020263671875 0.592681884765625
-0.61309814453125 -0.2471923828125 0.580535888671875
-0.573974609375 -0.2237548828125 0.59759521484375
-0.58837890625 -0.1875 0.599456787109375
0.1912841796875 0.7159423828125 0.606109619140625
0.206298828125 0.6881103515625 0.592620849609375
0.194580078125 0.7396240234375 0.592681884765625
0.16937255859375 0.7381591796875 0.616180419921875
0.18475341796875 0.6962890625 0.6044921875
0.20159912109375 0.673095703125 0.5985107421875
0.21527099609375 0.7115478515625 0.58282470703125
0.1759033203125 0.7650146484375 0.610595703125
0.16571044921875 0.71533203125 0.619537353515625
-0.54974365234375 -0.2825927734375 0.601806640625
-0.5648193359375 -0.2969970703125 0.5831298828125
-0.5206298828125 -0.2933349609375 0.604705810546875
-0.5313720703125 -0.2708740234375 0.60552978515625
-0.56634521484375 -0.2650146484375 0.59295654296875
-0.58746337890625 -0.2830810546875 0.582977294921875
-0.53924560546875 -0.3099365234375 0.596038818359375
-0.50897216796875 -0.28076171875 0.616363525390625
-0.5513916015625 -0.2567138671875 0.5986328125
0.2412109375 0.579833984375 0.585296630859375
0.2518310546875 0.541015625 0.589141845703125
0.25372314453125 0.59326171875 0.5650634765625
0.23272705078125 0.618408203125 0.57940673828125
0.2294921875 0.565185546875 0.59576416015625
0.23876953125 0.529052734375 0.60552978515625
0.26629638671875 0.548095703125 0.574188232421875
0.2476806640625 0.634521484375 0.5609130859375
0.22137451171875 0.603759765625 0.592529296875
-0.4189453125 -0.3046875 0.64080810546875
-0.43182373046875 -0.32470703125 0.632843017578125
-0.37884521484375 -0.300048828125 0.65240478515625
-0.40533447265625 -0.287841796875 0.651458740234375
-0.4569091796875 -0.305908203125 0.6300048828125
-0.4697265625 -0.327392578125 0.614349365234375
-0.3880615234375 -0.323486328125 0.642425537109375
-0.3695068359375 -0.281494140625 0.6639404296875
-0.4422607421875 -0.288818359375 0.640533447265625
0.241455078125 0.420166015625 0.615814208984375
0.22833251953125 0.384765625 0.627197265625
0.2535400390625 0.42529296875 0.599853515625
0.24945068359375 0.46142578125 0.60479736328125
0.22808837890625 0.418212890625 0.62725830078125
0.21099853515625 0.387451171875 0.641876220703125
0.2415771484375 0.381103515625 0.615509033203125
0.26397705078125 0.465576171875 0.587310791015625
0.23651123046875 0.455322265625 0.61907958984375
-0.28143310546875 -0.251708984375 0.69647216796875
-0.2816162109375 -0.273193359375 0.69097900390625
-0.23846435546875 -0.2296142578125 0.712249755859375
-0.27923583984375 -0.233154296875 0.70281982421875
-0.31317138671875 -0.27685546875 0.68585205078125
-0.31451416015625 -0.29638671875 0.67364501953125
-0.2354736328125 -0.247802734375 0.705902099609375
-0.24481201171875 -0.2127685546875 0.716949462890625
-0.3095703125 -0.25537109375 0.693695068359375
0.16741943359375 0.2806396484375 0.694366455078125
0.13818359375 0.2552490234375 0.715972900390625
0.18096923828125 0.2579345703125 0.694244384765625
0.1907958984375 0.3077392578125 0.67315673828125
0.15234375 0.2979736328125 0.6983642578125
0.12066650390625 0.2779541015625 0.71533203125
0.1541748046875 0.2261962890625 0.72216796875
0.200439453125 0.2972412109375 0.667144775390625
0.17584228515625 0.3204345703125 0.680572509765625
-0.14447021484375 -0.1177978515625 0.746429443359375
-0.12347412109375 -0.1339111328125 0.7545166015625
-0.12091064453125 -0.0828857421875 0.755340576171875
-0.1669921875 -0.1094970703125 0.746551513671875
-0.1724853515625 -0.1600341796875 0.73419189453125
-0.1566162109375 -0.1759033203125 0.73138427734375
-0.08770751953125 -0.0958251953125 0.7626953125
-0.14715576171875 -0.0733642578125 0.74658203125
-0.1868896484375 -0.1485595703125 0.734161376953125
0.04278564453125 0.20458984375 0.73114013671875
0.034912109375 0.238525390625 0.72216796875
0.0120849609375 0.20361328125 0.72735595703125
0.05584716796875 0.1708984375 0.737701416015625
0.07598876953125 0.2093505859375 0.73419189453125
0.0626220703125 0.2418212890625 0.726593017578125
0.0103759765625 0.237060546875 0.7164306640625
0.0140380859375 0.16552734375 0.7381591796875
0.09613037109375 0.1741943359375 0.744476318359375
-0.100830078125 0.01904296875 0.748748779296875
-0.10296630859375 0.043212890625 0.736114501953125
-0.13323974609375 0.0147705078125 0.749267578125
-0.09765625 -0.01123046875 0.757232666015625
-0.0634765625 0.01904296875 0.757293701171875
-0.06768798828125 0.05322265625 0.7420654296875
-0.1385498046875 0.0355224609375 0.740814208984375
-0.12921142578125 -0.0096435546875 0.75213623046875
-0.060791015625 -0.014404296875 0.76947021484375
-0.2012939453125 0.3603515625 0.75384521484375
-0.21087646484375 0.386474609375 0.74798583984375
-0.22021484375 0.349853515625 0.75885009765625
-0.19598388671875 0.337158203125 0.75103759765625
-0.1884765625 0.372802734375 0.74462890625
-0.1929931640625 0.395263671875 0.742156982421875
-0.2301025390625 0.3798828125 0.757171630859375
-0.2164306640625 0.322021484375 0.759765625
-0.17669677734375 0.350830078125 0.74365234375
-0.3165283203125 0.2149658203125 0.739349365234375
-0.31378173828125 0.2349853515625 0.7454833984375
-0.34808349609375 0.2120361328125 0.7335205078125
-0.3197021484375 0.1929931640625 0.7301025390625
-0.2877197265625 0.2137451171875 0.74334716796875
-0.2818603515625 0.2349853515625 0.751190185546875
-0.3453369140625 0.2330322265625 0.74102783203125
-0.34759521484375 0.1937255859375 0.7254638671875
-0.29241943359375 0.1895751953125 0.735321044921875
-0.15380859375 0.279052734375 0.7413330078125
-0.1749267578125 0.296142578125 0.746246337890625
-0.1761474609375 0.2578125 0.742156982421875
-0.134521484375 0.262939453125 0.734283447265625
-0.13507080078125 0.299072265625 0.734619140625
-0.15478515625 0.315673828125 0.739471435546875
-0.1959228515625 0.274658203125 0.751800537109375
-0.151123046875 0.24169921875 0.74005126953125
-0.11663818359375 0.28564453125 0.732269287109375
-0.2318115234375 0.1824951171875 0.736663818359375
-0.21551513671875 0.2080078125 0.73876953125
-0.24542236328125 0.1964111328125 0.73834228515625
-0.24310302734375 0.1610107421875 0.734832763671875
-0.2125244140625 0.1658935546875 0.732635498046875
-0.19024658203125 0.188720703125 0.732940673828125
-0.2349853515625 0.2236328125 0.74371337890625
-0.257080078125 0.1744384765625 0.73583984375
-0.2271728515625 0.1466064453125 0.73236083984375
-0.06268310546875 0.220703125 0.723419189453125
-0.03424072265625 0.211181640625 0.721099853515625
-0.0516357421875 0.251953125 0.721893310546875
-0.08392333984375 0.232666015625 0.729736328125
-0.07861328125 0.188720703125 0.727996826171875
-0.0482177734375 0.172119140625 0.723114013671875
-0.03363037109375 0.24267578125 0.718170166015625
-0.0689697265625 0.258544921875 0.7249755859375
-0.0989990234375 0.207763671875 0.733245849609375
-0.14520263671875 0.1131591796875 0.728179931640625
-0.17572021484375 0.0950927734375 0.729034423828125
-0.12646484375 0.0926513671875 0.727783203125
-0.119140625 0.132080078125 0.720947265625
-0.1702880859375 0.1304931640625 0.730499267578125
-0.1907958984375 0.1107177734375 0.730712890625
-0.1585693359375 0.0777587890625 0.73046875
-0.09820556640625 0.110107421875 0.724761962890625
-0.1453857421875 0.15185546875 0.72686767578125
0.63201904296875 -0.419189453125 0.646697998046875
0.624267578125 -0.412841796875 0.66845703125
0.62481689453125 -0.43896484375 0.66571044921875
0.64227294921875 -0.425537109375 0.631683349609375
0.64556884765625 -0.3994140625 0.63568115234375
0.63311767578125 -0.398681640625 0.655029296875
0.61883544921875 -0.429931640625 0.67822265625
0.62872314453125 -0.448974609375 0.648193359375
0.65924072265625 -0.40673828125 0.61297607421875
0.58258056640625 -0.4891357421875 0.704254150390625
0.5968017578125 -0.4732666015625 0.697967529296875
0.58416748046875 -0.4700927734375 0.711669921875
0.5673828125 -0.4976806640625 0.715789794921875
0.57989501953125 -0.5047607421875 0.69793701171875
0.59979248046875 -0.4884033203125 0.6900634765625
0.595703125 -0.4583740234375 0.7042236328125
0.5709228515625 -0.4798583984375 0.718414306640625
0.56195068359375 -0.5177001953125 0.710540771484375
0.6651611328125 -0.350830078125 0.60968017578125
0.645751953125 -0.34765625 0.63287353515625
0.66424560546875 -0.36767578125 0.6190185546875
0.68072509765625 -0.3544921875 0.5872802734375
0.66571044921875 -0.3349609375 0.60260009765625
0.64300537109375 -0.33349609375 0.63153076171875
0.6439208984375 -0.363525390625 0.639312744140625
0.6744384765625 -0.3701171875 0.593963623046875
0.68292236328125 -0.33740234375 0.58294677734375
0.52728271484375 -0.5157470703125 0.751678466796875
0.5408935546875 -0.5120849609375 0.74188232421875
0.5316162109375 -0.4893798828125 0.752899169921875
0.51263427734375 -0.5181884765625 0.76031494140625
0.5174560546875 -0.5467529296875 0.7515869140625
0.53387451171875 -0.5374755859375 0.73834228515625
0.544189453125 -0.4881591796875 0.742919921875
0.52105712890625 -0.4876708984375 0.7589111328125
0.5037841796875 -0.5509033203125 0.758056640625
0.64263916015625 -0.280029296875 0.611328125
0.62054443359375 -0.28271484375 0.63861083984375
0.64715576171875 -0.298828125 0.602203369140625
0.66534423828125 -0.28564453125 0.577239990234375
0.6292724609375 -0.26220703125 0.6165771484375
0.60223388671875 -0.2645263671875 0.6513671875
0.6336669921875 -0.298828125 0.63336181640625
0.67681884765625 -0.30224609375 0.573089599609375
0.65185546875 -0.26220703125 0.580535888671875
0.46881103515625 -0.4930419921875 0.7750244140625
0.48760986328125 -0.5079345703125 0.76751708984375
0.4725341796875 -0.4608154296875 0.77789306640625
0.44970703125 -0.4788818359375 0.7838134765625
0.46435546875 -0.5325927734375 0.7733154296875
0.47967529296875 -0.5433349609375 0.76666259765625
0.4898681640625 -0.4735107421875 0.767425537109375
0.455078125 -0.4454345703125 0.783966064453125
0.44287109375 -0.5181884765625 0.784820556640625
0.4749755859375 -0.12158203125 0.675323486328125
0.4368896484375 -0.091796875 0.683624267578125
0.458251953125 -0.138671875 0.694549560546875
0.513916015625 -0.1514892578125 0.65191650390625
0.48809814453125 -0.111083984375 0.649017333984375
0.44793701171875 -0.080322265625 0.66473388671875
0.421875 -0.1083984375 0.700531005859375
0.49627685546875 -0.1634521484375 0.677581787109375
0.52947998046875 -0.1375732421875 0.6319580078125
0.3126220703125 -0.337890625 0.77825927734375
0.32293701171875 -0.31103515625 0.7762451171875
0.2760009765625 -0.2969970703125 0.7808837890625
0.29620361328125 -0.3624267578125 0.785614013671875
0.34515380859375 -0.366943359375 0.78326416015625
0.360107421875 -0.34521484375 0.781341552734375
0.292724609375 -0.2769775390625 0.7777099609375
0.26025390625 -0.3223876953125 0.78167724609375
0.329833984375 -0.393310546875 0.782806396484375
0.58673095703125 -0.2156982421875 0.641082763671875
0.5992431640625 -0.2320556640625 0.63519287109375
0.6075439453125 -0.2135009765625 0.60992431640625
0.57305908203125 -0.1939697265625 0.644256591796875
0.56878662109375 -0.2215576171875 0.666259765625
0.57904052734375 -0.2352294921875 0.663818359375
0.62628173828125 -0.2279052734375 0.601806640625
0.5880126953125 -0.1910400390625 0.61956787109375
0.55584716796875 -0.2059326171875 0.66827392578125
0.41131591796875 -0.4365234375 0.789093017578125
0.396484375 -0.4716796875 0.786773681640625
0.42376708984375 -0.450927734375 0.786956787109375
0.42376708984375 -0.40234375 0.7852783203125
0.3916015625 -0.421875 0.784271240234375
0.37860107421875 -0.451904296875 0.784637451171875
0.4127197265625 -0.490234375 0.785308837890625
0.43505859375 -0.416259765625 0.783172607421875
0.40826416015625 -0.39208984375 0.7828369140625
0.28533935546875 -0.0863037109375 0.743194580078125
0.2659912109375 -0.0687255859375 0.747955322265625
0.27789306640625 -0.1024169921875 0.751861572265625
0.31463623046875 -0.107421875 0.74322509765625
0.2969970703125 -0.0699462890625 0.738922119140625
0.2725830078125 -0.0504150390625 0.739990234375
0.2596435546875 -0.0855712890625 0.751983642578125
0.301513671875 -0.1240234375 0.753204345703125
0.3232421875 -0.08984375 0.7335205078125
0.24420166015625 -0.1417236328125 0.76470947265625
0.258056640625 -0.1314697265625 0.75885009765625
0.2215576171875 -0.1297607421875 0.763916015625
0.2293701171875 -0.1561279296875 0.767578125
0.268798828125 -0.1654052734375 0.76397705078125
0.27984619140625 -0.1505126953125 0.76068115234375
0.2379150390625 -0.1136474609375 0.7630615234375
0.2081298828125 -0.1412353515625 0.764617919921875
0.257080078125 -0.1756591796875 0.768402099609375
0.417724609375 -0.18603515625 0.7283935546875
0.43133544921875 -0.169677734375 0.722137451171875
0.38055419921875 -0.15771484375 0.73175048828125
0.4053955078125 -0.1982421875 0.735015869140625
0.45330810546875 -0.2119140625 0.72344970703125
0.46875 -0.1942138671875 0.715606689453125
0.39422607421875 -0.140625 0.7227783203125
0.3658447265625 -0.172119140625 0.740570068359375
0.44024658203125 -0.231201171875 0.733795166015625
0.36834716796875 -0.2490234375 0.755401611328125
0.33349609375 -0.219482421875 0.755767822265625
0.3580322265625 -0.267822265625 0.764495849609375
0.40167236328125 -0.2783203125 0.76324462890625
0.38385009765625 -0.2333984375 0.7515869140625
0.3447265625 -0.2041015625 0.74542236328125
0.3206787109375 -0.23876953125 0.765838623046875
0.389892578125 -0.298583984375 0.771453857421875
0.41375732421875 -0.26220703125 0.75164794921875
0.520751953125 -0.2664794921875 0.7120361328125
0.53033447265625 -0.2752685546875 0.7137451171875
0.5335693359375 -0.2459716796875 0.70416259765625
0.5064697265625 -0.2508544921875 0.7130126953125
0.50897216796875 -0.2825927734375 0.722808837890625
0.52044677734375 -0.2952880859375 0.7249755859375
0.5433349609375 -0.2569580078125 0.700225830078125
0.5218505859375 -0.2337646484375 0.698394775390625
0.49249267578125 -0.2679443359375 0.725830078125
0.465087890625 -0.3365478515625 0.762908935546875
0.44915771484375 -0.3548583984375 0.774322509765625
0.475341796875 -0.3426513671875 0.76483154296875
0.48046875 -0.3172607421875 0.75482177734375
0.45172119140625 -0.325927734375 0.7640380859375
0.4364013671875 -0.342529296875 0.772796630859375
0.4610595703125 -0.3604736328125 0.77313232421875
0.49127197265625 -0.3250732421875 0.748016357421875
0.4625244140625 -0.3072509765625 0.7530517578125
0.23828125 0.0311279296875 0.75482177734375
0.2332763671875 0.0435791015625 0.75518798828125
0.237548828125 0.0357666015625 0.76702880859375
0.2430419921875 0.0162353515625 0.757415771484375
0.24151611328125 0.0267333984375 0.74420166015625
0.23199462890625 0.0408935546875 0.745269775390625
0.2325439453125 0.0474853515625 0.76641845703125
0.2410888671875 0.0208740234375 0.764190673828125
0.24566650390625 0.0111083984375 0.745391845703125
0.12078857421875 -0.1195068359375 0.79296875
0.11859130859375 -0.1160888671875 0.802703857421875
0.10614013671875 -0.1170654296875 0.79644775390625
0.12091064453125 -0.1260986328125 0.782440185546875
0.13812255859375 -0.1177978515625 0.790802001953125
0.135986328125 -0.1148681640625 0.79962158203125
0.10552978515625 -0.1141357421875 0.8031005859375
0.10467529296875 -0.122802734375 0.784637451171875
0.14068603515625 -0.1251220703125 0.783203125
0.194091796875 0.0745849609375 0.753082275390625
0.17498779296875 0.0802001953125 0.752166748046875
0.193115234375 0.0760498046875 0.761322021484375
0.20379638671875 0.0648193359375 0.75372314453125
0.193115234375 0.0736083984375 0.744781494140625
0.174072265625 0.0784912109375 0.746124267578125
0.1748046875 0.0833740234375 0.75982666015625
0.2044677734375 0.0660400390625 0.764862060546875
0.2041015625 0.0643310546875 0.7442626953125
0.0634765625 -0.087646484375 0.7899169921875
0.06488037109375 -0.086669921875 0.79669189453125
0.056884765625 -0.072509765625 0.783782958984375
0.06329345703125 -0.088623046875 0.78021240234375
0.0748291015625 -0.101806640625 0.793365478515625
0.07696533203125 -0.09912109375 0.802337646484375
0.05706787109375 -0.07080078125 0.793212890625
0.0570068359375 -0.074951171875 0.77593994140625
0.07489013671875 -0.103271484375 0.78369140625
0.1322021484375 0.0628662109375 0.75286865234375
0.12158203125 0.0482177734375 0.753631591796875
0.13287353515625 0.0667724609375 0.760406494140625
0.142578125 0.0711669921875 0.75140380859375
0.12738037109375 0.0587158203125 0.74652099609375
0.11578369140625 0.0421142578125 0.74639892578125
0.1251220703125 0.0540771484375 0.760589599609375
0.14410400390625 0.0755615234375 0.758544921875
0.14007568359375 0.0682373046875 0.7432861328125
0.06207275390625 -0.02783203125 0.7724609375
0.0615234375 -0.028076171875 0.78070068359375
0.07061767578125 -0.01416015625 0.7728271484375
0.062255859375 -0.0224609375 0.7677001953125
0.0552978515625 -0.04052734375 0.774810791015625
0.0557861328125 -0.03955078125 0.783111572265625
0.0694580078125 -0.017578125 0.780670166015625
0.0728759765625 -0.008544921875 0.76263427734375
0.0556640625 -0.04052734375 0.768707275390625
0.11865234375 0.0128173828125 0.76385498046875
0.12017822265625 0.0054931640625 0.769134521484375
0.1190185546875 0.0184326171875 0.772430419921875
0.1165771484375 0.0230712890625 0.760223388671875
0.115478515625 0.0089111328125 0.759368896484375
0.11676025390625 0.0045166015625 0.764739990234375
0.12060546875 0.0093994140625 0.7779541015625
0.1185302734375 0.0306396484375 0.76739501953125
0.1097412109375 0.0152587890625 0.755462646484375
0.10772705078125 0.0003662109375 0.768096923828125
0.10699462890625 -0.0001220703125 0.77789306640625
0.1146240234375 0.0003662109375 0.77044677734375
0.10858154296875 0.0008544921875 0.763031005859375
0.096435546875 -0.001708984375 0.76544189453125
0.093505859375 -0.0047607421875 0.776092529296875
0.11492919921875 0.0001220703125 0.77764892578125
0.1148681640625 0.0003662109375 0.76495361328125
0.0989990234375 0.0029296875 0.75958251953125
0.23919677734375 -0.0382080078125 0.76507568359375
0.2437744140625 -0.0462646484375 0.756866455078125
0.24359130859375 -0.0201416015625 0.759185791015625
0.23773193359375 -0.0347900390625 0.771636962890625
0.234375 -0.0567626953125 0.76513671875
0.23828125 -0.0633544921875 0.7603759765625
0.247314453125 -0.0255126953125 0.753692626953125
0.2415771484375 -0.0162353515625 0.76727294921875
0.2308349609375 -0.0526123046875 0.771331787109375
0.19525146484375 -0.1021728515625 0.77410888671875
0.173828125 -0.1077880859375 0.7779541015625
0.201416015625 -0.1097412109375 0.766632080078125
0.209716796875 -0.0911865234375 0.772552490234375
0.190185546875 -0.0977783203125 0.781097412109375
0.17315673828125 -0.1036376953125 0.786590576171875
0.17767333984375 -0.1148681640625 0.772369384765625
0.217041015625 -0.0975341796875 0.768280029296875
0.20849609375 -0.0845947265625 0.780548095703125
0.22637939453125 -0.0223388671875 0.78857421875
0.23089599609375 -0.0257568359375 0.782745361328125
0.2310791015625 -0.0035400390625 0.78765869140625
0.22149658203125 -0.0169677734375 0.796630859375
0.22027587890625 -0.0399169921875 0.79779052734375
0.22454833984375 -0.0428466796875 0.789154052734375
0.23590087890625 -0.0079345703125 0.782073974609375
0.22271728515625 0.0008544921875 0.792236328125
0.2138671875 -0.0330810546875 0.801788330078125
0.18597412109375 -0.0782470703125 0.80242919921875
0.16632080078125 -0.0860595703125 0.808074951171875
0.18792724609375 -0.0853271484375 0.796295166015625
0.19866943359375 -0.0679931640625 0.79876708984375
0.17877197265625 -0.0726318359375 0.809783935546875
0.162353515625 -0.0811767578125 0.8115234375
0.1685791015625 -0.0943603515625 0.801361083984375
0.20068359375 -0.0733642578125 0.793548583984375
0.19287109375 -0.0609130859375 0.80548095703125
0.13104248046875 0.0277099609375 0.799468994140625
0.1319580078125 0.0167236328125 0.802886962890625
0.13568115234375 0.0306396484375 0.805816650390625
0.1309814453125 0.0408935546875 0.790374755859375
0.1256103515625 0.0252685546875 0.79229736328125
0.127197265625 0.0142822265625 0.796234130859375
0.138671875 0.0172119140625 0.81036376953125
0.13525390625 0.0404052734375 0.798431396484375
0.12579345703125 0.0379638671875 0.784332275390625
0.1041259765625 -0.0054931640625 0.80328369140625
0.10614013671875 -0.0072021484375 0.8095703125
0.11669921875 0.0003662109375 0.806854248046875
0.103515625 -0.0018310546875 0.79730224609375
0.09503173828125 -0.0106201171875 0.804443359375
0.09710693359375 -0.0103759765625 0.80810546875
0.1209716796875 -0.0042724609375 0.8123779296875
0.1153564453125 0.0006103515625 0.79736328125
0.0931396484375 -0.0074462890625 0.794403076171875
0.14459228515625 0.0733642578125 0.786163330078125
0.137939453125 0.0640869140625 0.785430908203125
0.14935302734375 0.0716552734375 0.79217529296875
0.15264892578125 0.0809326171875 0.78302001953125
0.1396484375 0.0740966796875 0.77471923828125
0.1339111328125 0.0631103515625 0.77764892578125
0.14129638671875 0.0633544921875 0.7906494140625
0.15765380859375 0.0782470703125 0.790924072265625
0.14910888671875 0.0828857421875 0.77557373046875
0.06756591796875 -0.028564453125 0.8057861328125
0.072021484375 -0.0289306640625 0.8109130859375
0.07196044921875 -0.0184326171875 0.803558349609375
0.063720703125 -0.02734375 0.799224853515625
0.062255859375 -0.0390625 0.807769775390625
0.068603515625 -0.0379638671875 0.815948486328125
0.07666015625 -0.0211181640625 0.808441162109375
0.0693359375 -0.017822265625 0.794769287109375
0.057373046875 -0.040283203125 0.803253173828125
0.19317626953125 0.0762939453125 0.78680419921875
0.17596435546875 0.0838623046875 0.785003662109375
0.1912841796875 0.0714111328125 0.793853759765625
0.20587158203125 0.0677490234375 0.788818359375
0.1927490234375 0.0780029296875 0.779541015625
0.1766357421875 0.0855712890625 0.775848388671875
0.17791748046875 0.0792236328125 0.79119873046875
0.2044677734375 0.0645751953125 0.797088623046875
0.20587158203125 0.0699462890625 0.781402587890625
0.07684326171875 -0.0755615234375 0.819793701171875
0.08203125 -0.0704345703125 0.823516845703125
0.06793212890625 -0.065673828125 0.815643310546875
0.072265625 -0.080078125 0.816192626953125
0.08673095703125 -0.0889892578125 0.82159423828125
0.0936279296875 -0.0806884765625 0.82562255859375
0.07452392578125 -0.0616455078125 0.820281982421875
0.0626220703125 -0.06787109375 0.8082275390625
0.081787109375 -0.0936279296875 0.814300537109375
0.23046875 0.0384521484375 0.7896728515625
0.223388671875 0.0496826171875 0.79278564453125
0.2235107421875 0.0372314453125 0.7967529296875
0.23114013671875 0.0286865234375 0.786895751953125
0.2333984375 0.0411376953125 0.784912109375
0.22674560546875 0.0513916015625 0.785980224609375
0.2188720703125 0.0462646484375 0.799713134765625
0.227783203125 0.0257568359375 0.794036865234375
0.2337646484375 0.0281982421875 0.781494140625
0.1221923828125 -0.0997314453125 0.8216552734375
0.12261962890625 -0.0899658203125 0.8267822265625
0.11016845703125 -0.0977783203125 0.825927734375
0.12042236328125 -0.1070556640625 0.820220947265625
0.133544921875 -0.0975341796875 0.81964111328125
0.13580322265625 -0.0909423828125 0.82135009765625
0.1131591796875 -0.0892333984375 0.828857421875
0.1063232421875 -0.1065673828125 0.8194580078125
0.134765625 -0.1036376953125 0.81524658203125
0.1663818359375 0.0509033203125 0.807281494140625
0.17498779296875 0.0406494140625 0.81317138671875
0.1768798828125 0.0594482421875 0.8052978515625
0.16009521484375 0.0618896484375 0.8028564453125
0.15289306640625 0.0408935546875 0.809417724609375
0.15875244140625 0.0284423828125 0.816192626953125
0.1900634765625 0.0501708984375 0.809814453125
0.16802978515625 0.0682373046875 0.800079345703125
0.15130615234375 0.0523681640625 0.805694580078125
0.09930419921875 -0.0369873046875 0.82354736328125
0.0926513671875 -0.0518798828125 0.82745361328125
0.1072998046875 -0.0391845703125 0.8265380859375
0.10107421875 -0.0223388671875 0.819122314453125
0.08990478515625 -0.0347900390625 0.822540283203125
0.0848388671875 -0.0467529296875 0.824737548828125
0.10015869140625 -0.0555419921875 0.830535888671875
0.11737060546875 -0.0228271484375 0.821502685546875
0.0947265625 -0.0247802734375 0.8170166015625
0.19921875 0.0064697265625 0.809661865234375
0.188232421875 -0.0098876953125 0.818511962890625
0.2064208984375 -0.0023193359375 0.807220458984375
0.20928955078125 0.0228271484375 0.80712890625
0.192626953125 0.0157470703125 0.816497802734375
0.1795654296875 0.0040283203125 0.820281982421875
0.19818115234375 -0.0194091796875 0.811126708984375
0.2142333984375 0.0130615234375 0.802520751953125
0.20391845703125 0.0325927734375 0.81146240234375
0.150634765625 -0.0533447265625 0.82269287109375
0.16021728515625 -0.0592041015625 0.818267822265625
0.16412353515625 -0.0382080078125 0.81829833984375
0.1368408203125 -0.0472412109375 0.82745361328125
0.14007568359375 -0.0684814453125 0.8277587890625
0.148193359375 -0.0709228515625 0.82080078125
0.1756591796875 -0.0469970703125 0.814971923828125
0.14776611328125 -0.0308837890625 0.823516845703125
0.12921142578125 -0.0660400390625 0.829864501953125
0.096923828125 0.0865478515625 0.746124267578125
0.1085205078125 0.0704345703125 0.742767333984375
0.119384765625 0.0936279296875 0.748321533203125
0.082275390625 0.10791015625 0.746673583984375
0.072021484375 0.07275390625 0.741973876953125
0.0887451171875 0.051513671875 0.74371337890625
0.12860107421875 0.0811767578125 0.744415283203125
0.1134033203125 0.1148681640625 0.74725341796875
0.05072021484375 0.09521484375 0.74188232421875
0.03631591796875 0.001953125 0.76324462890625
0.0350341796875 -0.025390625 0.774169921875
0.0517578125 -0.007568359375 0.760345458984375
0.043212890625 0.028564453125 0.750701904296875
0.01202392578125 0.01025390625 0.76568603515625
0.01580810546875 -0.02294921875 0.777435302734375
0.04754638671875 -0.031005859375 0.7685546875
0.0638427734375 0.01318359375 0.750213623046875
0.01458740234375 0.04345703125 0.751068115234375
0.19384765625 0.0811767578125 0.734619140625
0.19219970703125 0.0770263671875 0.73553466796875
0.21307373046875 0.0701904296875 0.725555419921875
0.19891357421875 0.0880126953125 0.72772216796875
0.17034912109375 0.0919189453125 0.74407958984375
0.172119140625 0.0838623046875 0.740570068359375
0.20703125 0.0653076171875 0.73175048828125
0.21649169921875 0.0750732421875 0.713134765625
0.17303466796875 0.1026611328125 0.739593505859375
0.05169677734375 -0.1005859375 0.775360107421875
0.06561279296875 -0.119384765625 0.76983642578125
0.05755615234375 -0.09423828125 0.775726318359375
0.04449462890625 -0.076904296875 0.779205322265625
0.045654296875 -0.10791015625 0.771514892578125
0.05877685546875 -0.129638671875 0.759674072265625
0.0704345703125 -0.11279296875 0.772674560546875
0.05145263671875 -0.07568359375 0.778076171875
0.03387451171875 -0.084228515625 0.778289794921875
0.26165771484375 0.0355224609375 0.70513916015625
0.25128173828125 0.0299072265625 0.72125244140625
0.27471923828125 0.0213623046875 0.707489013671875
0.27191162109375 0.0418701171875 0.691162109375
0.2498779296875 0.0472412109375 0.7120361328125
0.24127197265625 0.0426025390625 0.72222900390625
0.26318359375 0.0150146484375 0.721710205078125
0.28570556640625 0.0294189453125 0.692291259765625
0.255126953125 0.0526123046875 0.694122314453125
0.10894775390625 -0.159423828125 0.7596435546875
0.1246337890625 -0.1708984375 0.7637939453125
0.11505126953125 -0.145751953125 0.766265869140625
0.09442138671875 -0.15087890625 0.762298583984375
0.1007080078125 -0.179931640625 0.75
0.11627197265625 -0.1904296875 0.75335693359375
0.132568359375 -0.150390625 0.768280029296875
0.09906005859375 -0.139892578125 0.768402099609375
0.08624267578125 -0.16552734375 0.754364013671875
0.3345947265625 -0.02685546875 0.701873779296875
0.3209228515625 -0.040771484375 0.718048095703125
0.35760498046875 -0.042724609375 0.69866943359375
0.34576416015625 -0.01220703125 0.682098388671875
0.30682373046875 -0.0098876953125 0.706146240234375
0.293701171875 -0.0203857421875 0.722747802734375
0.347412109375 -0.05859375 0.71295166015625
0.37115478515625 -0.027099609375 0.678680419921875
0.32122802734375 0.00244140625 0.68585205078125
0.1890869140625 -0.2169189453125 0.775909423828125
0.21868896484375 -0.2396240234375 0.780426025390625
0.2027587890625 -0.1947021484375 0.774688720703125
0.16131591796875 -0.1944580078125 0.77276611328125
0.176513671875 -0.2388916015625 0.768096923828125
0.20111083984375 -0.2645263671875 0.7786865234375
0.23175048828125 -0.2174072265625 0.777435302734375
0.17657470703125 -0.1751708984375 0.773468017578125
0.15008544921875 -0.216796875 0.767303466796875
0.3697509765625 0.011474609375 0.5931396484375
0.37109375 0.0125732421875 0.560791015625
0.3463134765625 0.0225830078125 0.5914306640625
0.362548828125 0.00537109375 0.6240234375
0.396484375 -0.001708984375 0.591156005859375
0.39984130859375 0.002685546875 0.557647705078125
0.3485107421875 0.0242919921875 0.558837890625
0.3431396484375 0.0174560546875 0.62469482421875
0.3902587890625 -0.006591796875 0.623016357421875
0.12689208984375 -0.30859375 0.71710205078125
0.110595703125 -0.289794921875 0.705841064453125
0.11273193359375 -0.330322265625 0.6856689453125
0.1466064453125 -0.336181640625 0.72430419921875
0.14178466796875 -0.2880859375 0.738372802734375
0.1212158203125 -0.265625 0.7301025390625
0.09710693359375 -0.306640625 0.677154541015625
0.13031005859375 -0.357666015625 0.694976806640625
0.16485595703125 -0.310546875 0.74945068359375
0.294189453125 0.0509033203125 0.607025146484375
0.29522705078125 0.0535888671875 0.57464599609375
0.27740478515625 0.0587158203125 0.61163330078125
0.28955078125 0.0477294921875 0.6419677734375
0.30804443359375 0.0423583984375 0.604339599609375
0.31256103515625 0.0438232421875 0.57037353515625
0.282470703125 0.0587158203125 0.57623291015625
0.27044677734375 0.0577392578125 0.6473388671875
0.30401611328125 0.0377197265625 0.63824462890625
0.0684814453125 -0.239501953125 0.69097900390625
0.05572509765625 -0.224365234375 0.691741943359375
0.0601806640625 -0.2581787109375 0.662628173828125
0.0821533203125 -0.253662109375 0.6947021484375
0.08038330078125 -0.219482421875 0.71697998046875
0.06793212890625 -0.202392578125 0.716461181640625
0.048583984375 -0.2427978515625 0.661407470703125
0.0694580078125 -0.27392578125 0.66802978515625
0.09576416015625 -0.235595703125 0.717681884765625
0.2239990234375 0.0880126953125 0.639404296875
0.2110595703125 0.1065673828125 0.64703369140625
0.2109375 0.0931396484375 0.678680419921875
0.24310302734375 0.0755615234375 0.62664794921875
0.2340087890625 0.0836181640625 0.59661865234375
0.2261962890625 0.0975341796875 0.603668212890625
0.19085693359375 0.1131591796875 0.6920166015625
0.23590087890625 0.0794677734375 0.66693115234375
0.2509765625 0.0726318359375 0.59173583984375
0.02386474609375 -0.176025390625 0.70458984375
0.0308837890625 -0.14892578125 0.738433837890625
0.00799560546875 -0.162841796875 0.707733154296875
0.02001953125 -0.1978759765625 0.671295166015625
0.0364990234375 -0.1923828125 0.69769287109375
0.0455322265625 -0.170166015625 0.72967529296875
0.011474609375 -0.12939453125 0.746826171875
0.00201416015625 -0.1871337890625 0.67364501953125
0.0306396484375 -0.2115478515625 0.668975830078125
0.54058837890625 -0.2938232421875 0.71221923828125
0.5391845703125 -0.2882080078125 0.71435546875
0.53192138671875 -0.3101806640625 0.720794677734375
0.5421142578125 -0.2984619140625 0.70947265625
0.5494384765625 -0.2796630859375 0.70355224609375
0.5487060546875 -0.2750244140625 0.702301025390625
0.53131103515625 -0.3038330078125 0.724395751953125
0.53289794921875 -0.3148193359375 0.714691162109375
0.5513916015625 -0.2855224609375 0.70074462890625
0.4912109375 -0.3548583984375 0.753387451171875
0.506591796875 -0.3428955078125 0.737518310546875
0.489501953125 -0.3519287109375 0.7547607421875
0.4793701171875 -0.3682861328125 0.766357421875
0.4942626953125 -0.3582763671875 0.74798583984375
0.50762939453125 -0.3468017578125 0.731842041015625
0.5028076171875 -0.3387451171875 0.743316650390625
0.472412109375 -0.3677978515625 0.769805908203125
0.4849853515625 -0.3685302734375 0.75830078125
0.58154296875 -0.2864990234375 0.685394287109375
0.58782958984375 -0.2847900390625 0.679290771484375
0.57086181640625 -0.2777099609375 0.690826416015625
0.5787353515625 -0.2896728515625 0.682708740234375
0.5960693359375 -0.3043212890625 0.6778564453125
0.60333251953125 -0.3013916015625 0.671600341796875
0.5748291015625 -0.2713623046875 0.686767578125
0.5679931640625 -0.2818603515625 0.69158935546875
0.5916748046875 -0.3074951171875 0.680511474609375
0.48443603515625 -0.4095458984375 0.77020263671875
0.4771728515625 -0.3939208984375 0.773193359375
0.48028564453125 -0.4178466796875 0.774169921875
0.49725341796875 -0.4232177734375 0.763397216796875
0.48712158203125 -0.4073486328125 0.762847900390625
0.4791259765625 -0.3941650390625 0.766815185546875
0.4716796875 -0.4017333984375 0.778167724609375
0.492431640625 -0.4310302734375 0.76666259765625
0.4974365234375 -0.4200439453125 0.75762939453125
0.61468505859375 -0.3515625 0.67230224609375
0.6201171875 -0.348876953125 0.668365478515625
0.61090087890625 -0.33544921875 0.66973876953125
0.60888671875 -0.3544921875 0.673248291015625
0.61431884765625 -0.36669921875 0.67486572265625
0.62066650390625 -0.3642578125 0.672454833984375
0.61944580078125 -0.33251953125 0.6646728515625
0.60595703125 -0.3367919921875 0.6693115234375
0.60797119140625 -0.3701171875 0.67596435546875
0.535400390625 -0.4437255859375 0.74566650390625
0.52740478515625 -0.4407958984375 0.75311279296875
0.53521728515625 -0.4542236328125 0.750274658203125
0.548095703125 -0.4432373046875 0.741485595703125
0.53485107421875 -0.4388427734375 0.74462890625
0.52545166015625 -0.4349365234375 0.748321533203125
0.52490234375 -0.4505615234375 0.756622314453125
0.54876708984375 -0.4532470703125 0.742218017578125
0.54547119140625 -0.4390869140625 0.738067626953125
0.6063232421875 -0.40625 0.687591552734375
0.61151123046875 -0.408935546875 0.687103271484375
0.609130859375 -0.394287109375 0.68377685546875
0.598388671875 -0.4066162109375 0.6907958984375
0.6016845703125 -0.4178466796875 0.695526123046875
0.60736083984375 -0.418212890625 0.69256591796875
0.61505126953125 -0.3955078125 0.680877685546875
0.60296630859375 -0.3956298828125 0.684783935546875
0.59521484375 -0.4156494140625 0.695831298828125
0.57806396484375 -0.4395751953125 0.714630126953125
0.56982421875 -0.4437255859375 0.727020263671875
0.57928466796875 -0.4466552734375 0.7177734375
0.5859375 -0.4324951171875 0.705352783203125
0.57568359375 -0.4359130859375 0.71124267578125
0.56781005859375 -0.4373779296875 0.720916748046875
0.570068359375 -0.4505615234375 0.726593017578125
0.5897216796875 -0.4364013671875 0.708221435546875
0.58392333984375 -0.4312744140625 0.705596923828125
0.58087158203125 -0.4114990234375 0.6666259765625
0.58905029296875 -0.4085693359375 0.674468994140625
0.58544921875 -0.4010009765625 0.6591796875
0.57501220703125 -0.4051513671875 0.660308837890625
0.57855224609375 -0.4188232421875 0.6724853515625
0.5841064453125 -0.4178466796875 0.6796875
0.58966064453125 -0.4017333984375 0.669586181640625
0.5816650390625 -0.3970947265625 0.653839111328125
0.57086181640625 -0.4146728515625 0.666839599609375
0.5616455078125 -0.4339599609375 0.690887451171875
0.5535888671875 -0.4405517578125 0.697357177734375
0.56707763671875 -0.4322509765625 0.6986083984375
0.5689697265625 -0.4278564453125 0.6865234375
0.55535888671875 -0.4346923828125 0.68310546875
0.5455322265625 -0.4388427734375 0.688079833984375
0.55999755859375 -0.4371337890625 0.707000732421875
0.57464599609375 -0.4288330078125 0.69232177734375
0.56207275390625 -0.4273681640625 0.679107666015625
0.5919189453125 -0.3624267578125 0.650177001953125
0.59765625 -0.3602294921875 0.66107177734375
0.5908203125 -0.3489990234375 0.647247314453125
0.586669921875 -0.3616943359375 0.6416015625
0.59033203125 -0.3773193359375 0.65509033203125
0.59625244140625 -0.3756103515625 0.6629638671875
0.59429931640625 -0.3463134765625 0.65966796875
0.58660888671875 -0.3497314453125 0.63592529296875
0.5869140625 -0.3743896484375 0.644744873046875
0.52117919921875 -0.4420166015625 0.71441650390625
0.51556396484375 -0.4395751953125 0.72003173828125
0.52874755859375 -0.4398193359375 0.727874755859375
0.53076171875 -0.4434814453125 0.70849609375
0.51824951171875 -0.4439697265625 0.70538330078125
0.50946044921875 -0.4420166015625 0.711181640625
0.51873779296875 -0.4356689453125 0.73260498046875
0.5386962890625 -0.4403076171875 0.71856689453125
0.5269775390625 -0.4454345703125 0.701080322265625
0.57147216796875 -0.3065185546875 0.65997314453125
0.5738525390625 -0.2999267578125 0.669586181640625
0.5643310546875 -0.3023681640625 0.66424560546875
0.56927490234375 -0.3160400390625 0.649505615234375
0.57977294921875 -0.3165283203125 0.654998779296875
0.582763671875 -0.3128662109375 0.66546630859375
0.56549072265625 -0.2955322265625 0.67474365234375
0.5623779296875 -0.3101806640625 0.65277099609375
0.57525634765625 -0.3243408203125 0.6463623046875
0.48297119140625 -0.4183349609375 0.7335205078125
0.47845458984375 -0.4063720703125 0.73651123046875
0.48419189453125 -0.4129638671875 0.744049072265625
0.49456787109375 -0.4288330078125 0.73175048828125
0.480224609375 -0.4246826171875 0.721588134765625
0.4779052734375 -0.4154052734375 0.724639892578125
0.4774169921875 -0.4012451171875 0.75128173828125
0.4949951171875 -0.4246826171875 0.741943359375
0.4912109375 -0.4327392578125 0.7171630859375
0.5391845703125 -0.3221435546875 0.68121337890625
0.541015625 -0.3111572265625 0.69158935546875
0.53106689453125 -0.3372802734375 0.688140869140625
0.53900146484375 -0.3331298828125 0.671112060546875
0.5478515625 -0.3065185546875 0.672607421875
0.54852294921875 -0.2972412109375 0.68585205078125
0.5321044921875 -0.3284912109375 0.698394775390625
0.52984619140625 -0.3470458984375 0.6787109375
0.54913330078125 -0.3182373046875 0.66204833984375
0.49371337890625 -0.3770751953125 0.719970703125
0.505859375 -0.3663330078125 0.70599365234375
0.49505615234375 -0.3699951171875 0.730224609375
0.484619140625 -0.3868408203125 0.7281494140625
0.49334716796875 -0.3843994140625 0.707855224609375
0.50579833984375 -0.3753662109375 0.695587158203125
0.505615234375 -0.3577880859375 0.715301513671875
0.4840087890625 -0.3800048828125 0.74176025390625
0.484375 -0.3934326171875 0.71490478515625
0.55535888671875 -0.3741455078125 0.651885986328125
0.548095703125 -0.3846435546875 0.6568603515625
0.56243896484375 -0.3883056640625 0.649444580078125
0.5601806640625 -0.3646240234375 0.64520263671875
0.54766845703125 -0.3580322265625 0.6533203125
0.538818359375 -0.3726806640625 0.6602783203125
0.55517578125 -0.3990478515625 0.655975341796875
0.56903076171875 -0.3778076171875 0.6439208984375
0.55511474609375 -0.3455810546875 0.6468505859375
0.5194091796875 -0.4151611328125 0.6800537109375
0.5343017578125 -0.4232177734375 0.676971435546875
0.531005859375 -0.4061279296875 0.67218017578125
0.50738525390625 -0.4058837890625 0.685821533203125
0.51116943359375 -0.4227294921875 0.6864013671875
0.52508544921875 -0.4312744140625 0.6822509765625
0.539306640625 -0.4171142578125 0.669952392578125
