# XYZ point cloud file
-0.1661376953125 0.3116455078125 0.598907470703125
-0.1533203125 0.333953857421875 0.602142333984375
-0.194580078125 0.34326171875 0.591400146484375
-0.20849609375 0.310546875 0.5797119140625
-0.1767578125 0.29290771484375 0.59271240234375
-0.049560546875 0.33355712890625 0.613372802734375
-0.0589599609375 0.357269287109375 0.61199951171875
-0.0693359375 0.323150634765625 0.61553955078125
-0.0423583984375 0.316864013671875 0.61578369140625
-0.032470703125 0.345367431640625 0.612640380859375
-0.0386962890625 0.36444091796875 0.61016845703125
-0.0804443359375 0.346893310546875 0.61566162109375
-0.0596923828125 0.30120849609375 0.618499755859375
-0.0230712890625 0.330047607421875 0.6151123046875
-0.12548828125 0.2711181640625 0.61248779296875
-0.1102294921875 0.289947509765625 0.616607666015625
-0.13623046875 0.28790283203125 0.610076904296875
-0.142578125 0.25286865234375 0.60968017578125
-0.1163330078125 0.250396728515625 0.616668701171875
-0.099365234375 0.2672119140625 0.618438720703125
-0.120849609375 0.310699462890625 0.611846923828125
-0.151611328125 0.26788330078125 0.6060791015625
-0.133056640625 0.234710693359375 0.61395263671875
-0.00830078125 0.2642822265625 0.626312255859375
0.0059814453125 0.248748779296875 0.631561279296875
0.009033203125 0.286529541015625 0.626678466796875
-0.01904296875 0.28106689453125 0.623199462890625
-0.0269775390625 0.2410888671875 0.6290283203125
-0.0130615234375 0.218017578125 0.634063720703125
0.0208740234375 0.274749755859375 0.630615234375
-0.0035400390625 0.30010986328125 0.62432861328125
-0.0390625 0.261138916015625 0.625213623046875
-0.09765625 0.1904296875 0.628021240234375
-0.1165771484375 0.180572509765625 0.626617431640625
-0.0906982421875 0.169464111328125 0.63653564453125
-0.0723876953125 0.20269775390625 0.629364013671875
-0.1025390625 0.2095947265625 0.623199462890625
-0.121337890625 0.1981201171875 0.621307373046875
-0.114013671875 0.162261962890625 0.633026123046875
-0.0634765625 0.176483154296875 0.6375732421875
-0.0826416015625 0.225189208984375 0.62249755859375
0.26513671875 -0.469390869140625 0.755462646484375
0.261962890625 -0.46002197265625 0.765472412109375
0.251708984375 -0.480194091796875 0.765167236328125
0.270263671875 -0.481201171875 0.74334716796875
0.2774658203125 -0.45928955078125 0.744903564453125
0.271484375 -0.449493408203125 0.756683349609375
0.2508544921875 -0.468414306640625 0.773284912109375
0.2548828125 -0.492034912109375 0.755462646484375
0.28466796875 -0.4691162109375 0.72991943359375
0.21142578125 -0.5052490234375 0.800048828125
0.226318359375 -0.496734619140625 0.78851318359375
0.215576171875 -0.490203857421875 0.802825927734375
0.1959228515625 -0.51177978515625 0.811248779296875
0.2049560546875 -0.522613525390625 0.79681396484375
0.22314453125 -0.5123291015625 0.78436279296875
0.227783203125 -0.483123779296875 0.79168701171875
0.204833984375 -0.493560791015625 0.811279296875
0.1883544921875 -0.5306396484375 0.80841064453125
0.3070068359375 -0.42266845703125 0.72039794921875
0.2978515625 -0.415679931640625 0.7386474609375
0.3001708984375 -0.436279296875 0.726959228515625
0.3177490234375 -0.433990478515625 0.69952392578125
0.3128662109375 -0.409149169921875 0.714019775390625
0.3021240234375 -0.40093994140625 0.733795166015625
0.2918701171875 -0.42730712890625 0.744415283203125
0.309814453125 -0.445220947265625 0.708831787109375
0.3236083984375 -0.419097900390625 0.692657470703125
0.157958984375 -0.51629638671875 0.8321533203125
0.17041015625 -0.516845703125 0.825897216796875
0.170166015625 -0.4947509765625 0.831634521484375
0.1478271484375 -0.51458740234375 0.83624267578125
0.1441650390625 -0.5416259765625 0.829437255859375
0.158203125 -0.54022216796875 0.825164794921875
0.181640625 -0.4976806640625 0.8258056640625
0.1597900390625 -0.490509033203125 0.83563232421875
0.132568359375 -0.540069580078125 0.8341064453125
0.312744140625 -0.355224609375 0.70916748046875
0.299560546875 -0.345550537109375 0.7318115234375
0.31640625 -0.375152587890625 0.708709716796875
0.3284912109375 -0.36700439453125 0.683837890625
0.308837890625 -0.336944580078125 0.70941162109375
0.295166015625 -0.327056884765625 0.731353759765625
0.30224609375 -0.3646240234375 0.729248046875
0.3302001953125 -0.3873291015625 0.683624267578125
0.3267822265625 -0.34698486328125 0.683837890625
0.122802734375 -0.484100341796875 0.84326171875
0.1295166015625 -0.4967041015625 0.84210205078125
0.1378173828125 -0.45574951171875 0.84136962890625
0.115478515625 -0.46820068359375 0.846466064453125
0.1064453125 -0.51483154296875 0.84381103515625
0.1112060546875 -0.525909423828125 0.842620849609375
0.14404296875 -0.471771240234375 0.840484619140625
0.1319580078125 -0.4371337890625 0.842041015625
0.098876953125 -0.49969482421875 0.847930908203125
0.2498779296875 -0.172119140625 0.709686279296875
0.2288818359375 -0.13665771484375 0.70465087890625
0.2337646484375 -0.180572509765625 0.725921630859375
0.2667236328125 -0.20684814453125 0.707855224609375
0.2664794921875 -0.167236328125 0.687652587890625
0.2440185546875 -0.13018798828125 0.686737060546875
0.214111328125 -0.142852783203125 0.720703125
0.2508544921875 -0.21295166015625 0.726348876953125
0.282958984375 -0.20318603515625 0.68878173828125
0.07177734375 -0.30255126953125 0.802398681640625
0.0870361328125 -0.284942626953125 0.8009033203125
0.0584716796875 -0.26507568359375 0.7921142578125
0.0513916015625 -0.322265625 0.802032470703125
0.0777587890625 -0.339263916015625 0.812530517578125
0.0948486328125 -0.32183837890625 0.809844970703125
0.0782470703125 -0.248687744140625 0.791412353515625
0.0389404296875 -0.2823486328125 0.790557861328125
0.0596923828125 -0.3587646484375 0.8135986328125
0.3018798828125 -0.28314208984375 0.711700439453125
0.3048095703125 -0.30023193359375 0.710723876953125
0.3175048828125 -0.28570556640625 0.6890869140625
0.29443359375 -0.261688232421875 0.7108154296875
0.283203125 -0.283599853515625 0.730804443359375
0.2884521484375 -0.29693603515625 0.7327880859375
0.3209228515625 -0.304931640625 0.687774658203125
0.3101806640625 -0.263671875 0.688262939453125
0.278076171875 -0.265350341796875 0.73126220703125
0.098388671875 -0.4173583984375 0.838775634765625
0.0792236328125 -0.44500732421875 0.839080810546875
0.1041259765625 -0.436004638671875 0.84130859375
0.118408203125 -0.394287109375 0.834259033203125
0.092041015625 -0.39862060546875 0.83148193359375
0.0714111328125 -0.42254638671875 0.832122802734375
0.0845947265625 -0.4647216796875 0.84466552734375
0.1243896484375 -0.40740966796875 0.8385009765625
0.1121826171875 -0.378143310546875 0.827484130859375
0.1324462890625 -0.0850830078125 0.732208251953125
0.1263427734375 -0.064788818359375 0.727783203125
0.121826171875 -0.0963134765625 0.738677978515625
0.1431884765625 -0.108734130859375 0.739410400390625
0.143798828125 -0.07330322265625 0.7249755859375
0.1365966796875 -0.052337646484375 0.720458984375
0.1146240234375 -0.077362060546875 0.73516845703125
0.1317138671875 -0.118988037109375 0.746673583984375
0.1546630859375 -0.09869384765625 0.7314453125
0.08740234375 -0.123931884765625 0.752838134765625
0.10107421875 -0.116241455078125 0.748382568359375
0.07666015625 -0.1055908203125 0.749786376953125
0.071533203125 -0.13116455078125 0.75701904296875
0.0980224609375 -0.146881103515625 0.75885009765625
0.1103515625 -0.138519287109375 0.753997802734375
0.0906982421875 -0.096282958984375 0.746673583984375
0.061767578125 -0.111175537109375 0.7510986328125
0.08447265625 -0.155914306640625 0.7646484375
0.1861572265625 -0.2059326171875 0.759613037109375
0.2027587890625 -0.197662353515625 0.7490234375
0.1712646484375 -0.17071533203125 0.752349853515625
0.17431640625 -0.21478271484375 0.76629638671875
0.2012939453125 -0.239166259765625 0.76409912109375
0.220458984375 -0.22991943359375 0.754852294921875
0.1837158203125 -0.16107177734375 0.743927001953125
0.1578369140625 -0.180206298828125 0.760101318359375
0.188720703125 -0.24957275390625 0.773834228515625
0.134033203125 -0.24432373046875 0.787017822265625
0.120361328125 -0.207366943359375 0.7772216796875
0.1192626953125 -0.255096435546875 0.79266357421875
0.146728515625 -0.27813720703125 0.797515869140625
0.1484375 -0.234222412109375 0.78173828125
0.1328125 -0.19921875 0.770294189453125
0.108154296875 -0.220062255859375 0.78466796875
0.1324462890625 -0.291778564453125 0.80413818359375
0.1607666015625 -0.268829345703125 0.79010009765625
0.2371826171875 -0.304473876953125 0.7750244140625
0.2412109375 -0.315582275390625 0.777679443359375
0.2506103515625 -0.294219970703125 0.764007568359375
0.2308349609375 -0.29010009765625 0.772857666015625
0.2218017578125 -0.315216064453125 0.78558349609375
0.2252197265625 -0.327850341796875 0.789306640625
0.2554931640625 -0.3050537109375 0.767181396484375
0.2435302734375 -0.280609130859375 0.7607421875
0.2149658203125 -0.30108642578125 0.7822265625
0.1719970703125 -0.347015380859375 0.81329345703125
0.1539306640625 -0.360137939453125 0.81976318359375
0.1761474609375 -0.357757568359375 0.817474365234375
0.18896484375 -0.337249755859375 0.806976318359375
0.1651611328125 -0.332275390625 0.80810546875
0.145263671875 -0.344024658203125 0.816650390625
0.158203125 -0.3695068359375 0.822296142578125
0.1944580078125 -0.348388671875 0.80694580078125
0.1832275390625 -0.3201904296875 0.800323486328125
0.1383056640625 0.031646728515625 0.71600341796875
0.13916015625 0.0443115234375 0.714447021484375
0.139892578125 0.03717041015625 0.72418212890625
0.13671875 0.016357421875 0.71942138671875
0.1392822265625 0.025634765625 0.709259033203125
0.140380859375 0.04052734375 0.7081298828125
0.13916015625 0.049560546875 0.722686767578125
0.1357421875 0.02349853515625 0.726318359375
0.1378173828125 0.010345458984375 0.712432861328125
0.01220703125 -0.06707763671875 0.75531005859375
0.01220703125 -0.06109619140625 0.76324462890625
0.00244140625 -0.060821533203125 0.75689697265625
0.0103759765625 -0.0738525390625 0.7493896484375
0.0225830078125 -0.07080078125 0.756805419921875
0.0233154296875 -0.06500244140625 0.762481689453125
0.003173828125 -0.056671142578125 0.765655517578125
0.002685546875 -0.0662841796875 0.749114990234375
0.0203857421875 -0.0777587890625 0.749725341796875
0.1224365234375 0.078216552734375 0.70703125
0.1121826171875 0.08477783203125 0.703765869140625
0.122802734375 0.081298828125 0.715179443359375
0.1309814453125 0.069091796875 0.710906982421875
0.1226806640625 0.07489013671875 0.699981689453125
0.11181640625 0.081939697265625 0.69830322265625
0.11279296875 0.087646484375 0.71075439453125
0.13134765625 0.073394775390625 0.717498779296875
0.130615234375 0.06561279296875 0.703155517578125
-0.0126953125 -0.02996826171875 0.743377685546875
-0.0125732421875 -0.02581787109375 0.75146484375
-0.0140380859375 -0.015869140625 0.7352294921875
-0.0130615234375 -0.03314208984375 0.73602294921875
-0.009033203125 -0.041839599609375 0.748046875
-0.0081787109375 -0.0379638671875 0.75604248046875
-0.0133056640625 -0.01275634765625 0.741546630859375
-0.01416015625 -0.017486572265625 0.72918701171875
-0.010009765625 -0.046478271484375 0.741302490234375
0.0770263671875 0.082733154296875 0.702606201171875
0.065185546875 0.073974609375 0.7054443359375
0.080322265625 0.0875244140625 0.709228515625
0.0885009765625 0.08612060546875 0.702178955078125
0.0731201171875 0.08026123046875 0.6962890625
0.060302734375 0.07012939453125 0.7000732421875
0.06982421875 0.07989501953125 0.7117919921875
0.0906982421875 0.0908203125 0.709014892578125
0.0858154296875 0.084716796875 0.6968994140625
0.0025634765625 0.022979736328125 0.718017578125
0.0013427734375 0.024383544921875 0.72503662109375
0.010986328125 0.0318603515625 0.715667724609375
0.004638671875 0.02386474609375 0.71173095703125
-0.004638671875 0.0113525390625 0.72149658203125
-0.00634765625 0.012420654296875 0.72900390625
0.010009765625 0.03045654296875 0.72393798828125
0.012939453125 0.0345458984375 0.707427978515625
-0.00439453125 0.01043701171875 0.71697998046875
0.053466796875 0.044830322265625 0.719757080078125
0.0509033203125 0.039031982421875 0.723114013671875
0.0565185546875 0.04998779296875 0.7259521484375
0.0535888671875 0.054656982421875 0.71490478515625
0.049560546875 0.040374755859375 0.71539306640625
0.04833984375 0.03729248046875 0.71844482421875
0.0531005859375 0.041656494140625 0.729705810546875
0.058349609375 0.06011962890625 0.72064208984375
0.0482177734375 0.047943115234375 0.7099609375
0.0386962890625 0.0361328125 0.7225341796875
0.037109375 0.035980224609375 0.72998046875
0.045654296875 0.033966064453125 0.7230224609375
0.04150390625 0.035797119140625 0.717071533203125
0.0301513671875 0.038055419921875 0.720916748046875
0.0277099609375 0.03729248046875 0.727203369140625
0.0445556640625 0.03515625 0.73095703125
0.04541015625 0.03515625 0.71923828125
0.034423828125 0.040313720703125 0.712249755859375
0.1142578125 -0.029876708984375 0.736358642578125
0.1162109375 -0.038543701171875 0.73052978515625
0.1248779296875 -0.014892578125 0.72821044921875
0.1138916015625 -0.02313232421875 0.740966796875
0.1025390625 -0.0435791015625 0.74102783203125
0.1038818359375 -0.05279541015625 0.736724853515625
0.1273193359375 -0.02239990234375 0.72381591796875
0.124755859375 -0.0084228515625 0.734222412109375
0.1029052734375 -0.03753662109375 0.7464599609375
0.063232421875 -0.0701904296875 0.752960205078125
0.0487060546875 -0.073333740234375 0.75396728515625
0.065673828125 -0.076812744140625 0.748291015625
0.0777587890625 -0.06573486328125 0.750762939453125
0.0631103515625 -0.06402587890625 0.758209228515625
0.04833984375 -0.06695556640625 0.759124755859375
0.049560546875 -0.08111572265625 0.750518798828125
0.0797119140625 -0.07244873046875 0.74615478515625
0.078125 -0.05865478515625 0.756378173828125
0.1102294921875 -0.007293701171875 0.7564697265625
0.1126708984375 -0.01202392578125 0.75341796875
0.119873046875 0.0081787109375 0.75250244140625
0.108642578125 -0.0015869140625 0.76007080078125
0.1004638671875 -0.02001953125 0.76092529296875
0.1031494140625 -0.026611328125 0.7572021484375
0.121826171875 0.00286865234375 0.7469482421875
0.1162109375 0.012298583984375 0.7559814453125
0.0982666015625 -0.01336669921875 0.7652587890625
0.06396484375 -0.046478271484375 0.77325439453125
0.05126953125 -0.0478515625 0.77362060546875
0.06494140625 -0.053070068359375 0.7696533203125
0.0787353515625 -0.040496826171875 0.76934814453125
0.063720703125 -0.038818359375 0.774993896484375
0.051513671875 -0.04168701171875 0.775787353515625
0.0499267578125 -0.05389404296875 0.771087646484375
0.0789794921875 -0.0472412109375 0.765411376953125
0.077392578125 -0.0330810546875 0.773284912109375
0.0648193359375 0.057891845703125 0.747222900390625
0.0604248046875 0.04852294921875 0.752899169921875
0.0697021484375 0.058868408203125 0.75262451171875
0.0687255859375 0.06756591796875 0.741790771484375
0.0611572265625 0.056427001953125 0.7410888671875
0.05712890625 0.048126220703125 0.74554443359375
0.065673828125 0.04925537109375 0.758514404296875
0.073974609375 0.0689697265625 0.746490478515625
0.0650634765625 0.06829833984375 0.73468017578125
0.0394287109375 0.0374755859375 0.75335693359375
0.040283203125 0.03558349609375 0.761383056640625
0.050048828125 0.039276123046875 0.7552490234375
0.038330078125 0.039031982421875 0.74578857421875
0.0291748046875 0.037811279296875 0.75067138671875
0.0302734375 0.034912109375 0.7584228515625
0.0513916015625 0.03594970703125 0.7633056640625
0.0469970703125 0.039215087890625 0.74713134765625
0.029541015625 0.038665771484375 0.742767333984375
0.0875244140625 0.093109130859375 0.72979736328125
0.08056640625 0.087554931640625 0.733734130859375
0.0894775390625 0.090911865234375 0.736785888671875
0.0966796875 0.096588134765625 0.728790283203125
0.0859375 0.093353271484375 0.72369384765625
0.0771484375 0.0869140625 0.726226806640625
0.082763671875 0.0860595703125 0.738922119140625
0.0972900390625 0.09381103515625 0.736236572265625
0.095458984375 0.096923828125 0.72222900390625
0.0029296875 0.026824951171875 0.7474365234375
0.0064697265625 0.024658203125 0.754364013671875
0.0107421875 0.03125 0.747650146484375
0.0009765625 0.0260009765625 0.739959716796875
-0.0028076171875 0.018646240234375 0.750152587890625
0.0015869140625 0.017486572265625 0.758026123046875
0.0140380859375 0.03076171875 0.7540283203125
0.0087890625 0.033660888671875 0.739837646484375
-0.00634765625 0.016326904296875 0.74310302734375
0.1240234375 0.086578369140625 0.7381591796875
0.1141357421875 0.092529296875 0.733978271484375
0.1199951171875 0.08489990234375 0.745330810546875
0.1298828125 0.077850341796875 0.74139404296875
0.123291015625 0.0867919921875 0.73114013671875
0.1146240234375 0.093353271484375 0.72503662109375
0.1126708984375 0.09027099609375 0.74053955078125
0.12646484375 0.076690673828125 0.747039794921875
0.1309814453125 0.07733154296875 0.732879638671875
-0.0045166015625 -0.015380859375 0.7725830078125
0.001220703125 -0.0106201171875 0.777008056640625
-0.006591796875 -0.001800537109375 0.764129638671875
-0.008544921875 -0.01904296875 0.766448974609375
0.00048828125 -0.0252685546875 0.77886962890625
0.0052490234375 -0.01885986328125 0.783172607421875
-0.0010986328125 -0.0009765625 0.76910400390625
-0.009521484375 -0.00439453125 0.757110595703125
-0.00439453125 -0.0303955078125 0.771759033203125
0.13623046875 0.046905517578125 0.744110107421875
0.1383056640625 0.056793212890625 0.742523193359375
0.1312255859375 0.0472412109375 0.74951171875
0.1334228515625 0.035980224609375 0.745635986328125
0.1385498046875 0.0443115234375 0.73822021484375
0.1392822265625 0.05633544921875 0.736175537109375
0.13330078125 0.057647705078125 0.749298095703125
0.12841796875 0.0364990234375 0.749786376953125
0.13525390625 0.0328369140625 0.739410400390625
0.018310546875 -0.045440673828125 0.78125
0.0234375 -0.038970947265625 0.78472900390625
0.01171875 -0.040771484375 0.785186767578125
0.0152587890625 -0.051910400390625 0.775726318359375
0.0279541015625 -0.04876708984375 0.77880859375
0.0302734375 -0.041717529296875 0.78173828125
0.0159912109375 -0.033660888671875 0.7872314453125
0.0068359375 -0.04644775390625 0.779327392578125
0.0247802734375 -0.05450439453125 0.77410888671875
0.0950927734375 0.07177734375 0.755950927734375
0.097412109375 0.062713623046875 0.760986328125
0.1058349609375 0.07666015625 0.75335693359375
0.0933837890625 0.078765869140625 0.7493896484375
0.0855712890625 0.065704345703125 0.757049560546875
0.084228515625 0.056610107421875 0.761871337890625
0.111083984375 0.068267822265625 0.75750732421875
0.10205078125 0.08349609375 0.74798583984375
0.085693359375 0.073760986328125 0.750274658203125
0.0233154296875 0.013519287109375 0.776611328125
0.0157470703125 0.003631591796875 0.77874755859375
0.031982421875 0.006561279296875 0.7801513671875
0.0318603515625 0.02215576171875 0.770782470703125
0.0164794921875 0.01849365234375 0.76995849609375
0.010498046875 0.0103759765625 0.771148681640625
0.02197265625 -0.003936767578125 0.784454345703125
0.0426025390625 0.018646240234375 0.775848388671875
0.023681640625 0.02520751953125 0.76800537109375
0.1043701171875 0.02789306640625 0.76641845703125
0.0906982421875 0.017578125 0.77069091796875
0.1058349609375 0.0159912109375 0.7650146484375
0.1143798828125 0.03790283203125 0.760498046875
0.102294921875 0.03936767578125 0.765411376953125
0.0859375 0.030548095703125 0.768646240234375
0.093994140625 0.00408935546875 0.7701416015625
0.1143798828125 0.027099609375 0.75933837890625
0.114501953125 0.04962158203125 0.761566162109375
0.0526123046875 -0.0146484375 0.781982421875
0.0577392578125 -0.023895263671875 0.779998779296875
0.0660400390625 -0.00518798828125 0.778900146484375
0.0458984375 -0.006439208984375 0.784423828125
0.040283203125 -0.023040771484375 0.78521728515625
0.0452880859375 -0.02880859375 0.781036376953125
0.071533203125 -0.015655517578125 0.77728271484375
0.0594482421875 0.0048828125 0.77978515625
0.03369140625 -0.01763916015625 0.787689208984375
0.0565185546875 0.109954833984375 0.686737060546875
0.062744140625 0.0927734375 0.689727783203125
0.078857421875 0.112060546875 0.690460205078125
0.0516357421875 0.132110595703125 0.681732177734375
0.0335693359375 0.10418701171875 0.682891845703125
0.042724609375 0.08343505859375 0.690399169921875
0.080078125 0.0970458984375 0.69140625
0.0797119140625 0.131591796875 0.689178466796875
0.0247802734375 0.129241943359375 0.67059326171875
-0.0113525390625 0.052947998046875 0.70013427734375
-0.01904296875 0.03131103515625 0.712677001953125
-0.001708984375 0.0390625 0.70233154296875
0.0001220703125 0.074493408203125 0.689361572265625
-0.0244140625 0.06756591796875 0.69451904296875
-0.0335693359375 0.040252685546875 0.71044921875
-0.010498046875 0.0218505859375 0.713470458984375
0.0101318359375 0.056732177734375 0.694793701171875
-0.014892578125 0.09747314453125 0.678985595703125
0.1270751953125 0.080047607421875 0.690887451171875
0.1239013671875 0.076416015625 0.694244384765625
0.1363525390625 0.06353759765625 0.685699462890625
0.129150390625 0.084320068359375 0.683074951171875
0.1129150390625 0.094573974609375 0.69256591796875
0.1116943359375 0.086822509765625 0.693634033203125
0.133056640625 0.063262939453125 0.691192626953125
0.1407470703125 0.063995361328125 0.67633056640625
0.11865234375 0.1051025390625 0.68792724609375
-0.025390625 -0.0401611328125 0.7301025390625
-0.021240234375 -0.06207275390625 0.72900390625
-0.019287109375 -0.036590576171875 0.731414794921875
-0.0260009765625 -0.017059326171875 0.725982666015625
-0.0328369140625 -0.044952392578125 0.7255859375
-0.029296875 -0.069976806640625 0.722686767578125
-0.0159912109375 -0.055694580078125 0.7342529296875
-0.019775390625 -0.017547607421875 0.7244873046875
-0.035888671875 -0.01611328125 0.7252197265625
0.1536865234375 0.020111083984375 0.680755615234375
0.1478271484375 0.0211181640625 0.691497802734375
0.158447265625 0.005767822265625 0.68212890625
0.163330078125 0.01806640625 0.665679931640625
0.149658203125 0.03326416015625 0.682342529296875
0.145751953125 0.03515625 0.69146728515625
0.1495361328125 0.0042724609375 0.693450927734375
0.16943359375 0.006805419921875 0.66925048828125
0.1575927734375 0.03216552734375 0.668365478515625
-0.006591796875 -0.103515625 0.733184814453125
0.0003662109375 -0.11505126953125 0.7373046875
0.0018310546875 -0.09075927734375 0.738494873046875
-0.0120849609375 -0.09271240234375 0.731292724609375
-0.0162353515625 -0.117401123046875 0.726531982421875
-0.01171875 -0.13134765625 0.732940673828125
0.01025390625 -0.10009765625 0.740203857421875
-0.005615234375 -0.082427978515625 0.73785400390625
-0.0211181640625 -0.105224609375 0.7237548828125
0.182373046875 -0.050079345703125 0.693389892578125
0.1685791015625 -0.05474853515625 0.7064208984375
0.196044921875 -0.076080322265625 0.69720458984375
0.1959228515625 -0.045989990234375 0.674041748046875
0.172119140625 -0.027557373046875 0.68890380859375
0.1593017578125 -0.03240966796875 0.701873779296875
0.182373046875 -0.082489013671875 0.710601806640625
0.20947265625 -0.069427490234375 0.679351806640625
0.1837158203125 -0.02508544921875 0.6737060546875
0.0244140625 -0.169464111328125 0.7633056640625
0.031005859375 -0.197479248046875 0.769927978515625
0.0406494140625 -0.15313720703125 0.762115478515625
0.014892578125 -0.14617919921875 0.75311279296875
0.005859375 -0.185516357421875 0.7567138671875
0.0130615234375 -0.214080810546875 0.76715087890625
0.052490234375 -0.18115234375 0.77130126953125
0.03125 -0.130706787109375 0.756378173828125
-0.0018310546875 -0.16387939453125 0.74755859375
0.22705078125 -0.044036865234375 0.6024169921875
0.2279052734375 -0.050140380859375 0.572540283203125
0.214111328125 -0.02789306640625 0.600433349609375
0.21826171875 -0.042694091796875 0.63330078125
0.24169921875 -0.0648193359375 0.6044921875
0.2435302734375 -0.06854248046875 0.5733642578125
0.2152099609375 -0.034393310546875 0.57080078125
0.206298828125 -0.024322509765625 0.627593994140625
0.2330322265625 -0.06298828125 0.633453369140625
-0.047607421875 -0.247467041015625 0.714324951171875
-0.0517578125 -0.22503662109375 0.700653076171875
-0.063232421875 -0.26458740234375 0.688751220703125
-0.0435791015625 -0.273895263671875 0.72625732421875
-0.030029296875 -0.22674560546875 0.734619140625
-0.0362548828125 -0.204345703125 0.72357177734375
-0.0660400390625 -0.242767333984375 0.677886962890625
-0.0589599609375 -0.29217529296875 0.702484130859375
-0.0235595703125 -0.253265380859375 0.746246337890625
0.1861572265625 0.009033203125 0.592681884765625
0.1878662109375 0.003265380859375 0.562103271484375
0.1793212890625 0.02044677734375 0.593536376953125
0.1798095703125 0.014007568359375 0.619964599609375
0.19384765625 -0.00238037109375 0.5947265625
0.1962890625 -0.0076904296875 0.561798095703125
0.1817626953125 0.01348876953125 0.563873291015625
0.1715087890625 0.0255126953125 0.6220703125
0.186767578125 0.000946044921875 0.623199462890625
-0.0557861328125 -0.175537109375 0.67657470703125
-0.0574951171875 -0.16058349609375 0.67291259765625
-0.069580078125 -0.195037841796875 0.65118408203125
-0.0555419921875 -0.190765380859375 0.681854248046875
-0.0428466796875 -0.154754638671875 0.698394775390625
-0.0455322265625 -0.140655517578125 0.69366455078125
-0.070068359375 -0.180389404296875 0.64654541015625
-0.0682373046875 -0.209808349609375 0.65740966796875
-0.040771484375 -0.169769287109375 0.704010009765625
0.1536865234375 0.063201904296875 0.610198974609375
0.1502685546875 0.083587646484375 0.611358642578125
0.145263671875 0.075103759765625 0.64154052734375
0.1611328125 0.045989990234375 0.605865478515625
0.158447265625 0.050689697265625 0.576080322265625
0.158203125 0.06744384765625 0.57568359375
0.13720703125 0.098907470703125 0.647979736328125
0.1553955078125 0.054046630859375 0.634307861328125
0.1646728515625 0.035400390625 0.572357177734375
-0.0634765625 -0.10443115234375 0.66973876953125
-0.0543212890625 -0.079254150390625 0.6932373046875
-0.0721435546875 -0.0908203125 0.667236328125
-0.0751953125 -0.130767822265625 0.640167236328125
-0.0601806640625 -0.12445068359375 0.6690673828125
-0.0487060546875 -0.102203369140625 0.69061279296875
-0.06103515625 -0.056976318359375 0.6943359375
-0.083984375 -0.120330810546875 0.63751220703125
-0.0703125 -0.146820068359375 0.64190673828125
0.2427978515625 -0.335296630859375 0.782989501953125
0.2423095703125 -0.329437255859375 0.782958984375
0.23046875 -0.3460693359375 0.790374755859375
0.241943359375 -0.34124755859375 0.779998779296875
0.2537841796875 -0.32586669921875 0.774383544921875
0.2564697265625 -0.320892333984375 0.772003173828125
0.2305908203125 -0.340087890625 0.7926025390625
0.2296142578125 -0.350921630859375 0.786895751953125
0.2528076171875 -0.33160400390625 0.771881103515625
0.1851806640625 -0.374481201171875 0.812530517578125
0.199951171875 -0.36676025390625 0.805450439453125
0.1827392578125 -0.36962890625 0.814178466796875
0.1717529296875 -0.380615234375 0.81951904296875
0.185791015625 -0.3779296875 0.809722900390625
0.20068359375 -0.372039794921875 0.802215576171875
0.1993408203125 -0.36199951171875 0.8076171875
0.16748046875 -0.3785400390625 0.823394775390625
0.174072265625 -0.384490966796875 0.81561279296875
0.2763671875 -0.33953857421875 0.760498046875
0.2806396484375 -0.3380126953125 0.75567626953125
0.270751953125 -0.32708740234375 0.762542724609375
0.272216796875 -0.34185791015625 0.760345458984375
0.27978515625 -0.35430908203125 0.7598876953125
0.2852783203125 -0.35504150390625 0.7545166015625
0.2745361328125 -0.324249267578125 0.75927734375
0.2686767578125 -0.33154296875 0.76123046875
0.275634765625 -0.356475830078125 0.75994873046875
0.162841796875 -0.414703369140625 0.831817626953125
0.1612548828125 -0.4013671875 0.82958984375
0.158935546875 -0.420623779296875 0.835418701171875
0.16943359375 -0.430389404296875 0.8330078125
0.165771484375 -0.414306640625 0.8277587890625
0.1640625 -0.40234375 0.82489013671875
0.156494140625 -0.40472412109375 0.834564208984375
0.16455078125 -0.437744140625 0.8360595703125
0.1705322265625 -0.428253173828125 0.82830810546875
0.2760009765625 -0.40301513671875 0.76361083984375
0.2806396484375 -0.40350341796875 0.7587890625
0.2802734375 -0.38824462890625 0.76177978515625
0.272216796875 -0.40374755859375 0.763671875
0.270751953125 -0.416748046875 0.7659912109375
0.2752685546875 -0.419219970703125 0.762359619140625
0.284912109375 -0.3905029296875 0.757415771484375
0.276611328125 -0.388427734375 0.7608642578125
0.266845703125 -0.41650390625 0.76556396484375
0.19091796875 -0.457305908203125 0.823272705078125
0.1842041015625 -0.4517822265625 0.829376220703125
0.1883544921875 -0.4647216796875 0.82647705078125
0.19970703125 -0.461181640625 0.817474365234375
0.1923828125 -0.454132080078125 0.818939208984375
0.1837158203125 -0.449127197265625 0.823944091796875
0.179443359375 -0.458953857421875 0.83233642578125
0.19775390625 -0.46826171875 0.821746826171875
0.2003173828125 -0.458221435546875 0.812744140625
0.2509765625 -0.44586181640625 0.7794189453125
0.2529296875 -0.447418212890625 0.7779541015625
0.2574462890625 -0.43768310546875 0.774017333984375
0.24755859375 -0.444427490234375 0.778045654296875
0.2445068359375 -0.451202392578125 0.784820556640625
0.245849609375 -0.454132080078125 0.78350830078125
0.261962890625 -0.438232421875 0.771636962890625
0.2542724609375 -0.4371337890625 0.7730712890625
0.2415771484375 -0.450958251953125 0.78363037109375
0.22265625 -0.464202880859375 0.80084228515625
0.216552734375 -0.465057373046875 0.8070068359375
0.222412109375 -0.47021484375 0.801666259765625
0.230224609375 -0.460968017578125 0.79510498046875
0.22265625 -0.460357666015625 0.797882080078125
0.2154541015625 -0.46124267578125 0.803497314453125
0.21484375 -0.47039794921875 0.809814453125
0.2296142578125 -0.46514892578125 0.7950439453125
0.22900390625 -0.459136962890625 0.79205322265625
0.237060546875 -0.448974609375 0.75762939453125
0.240966796875 -0.447052001953125 0.766357421875
0.2432861328125 -0.44354248046875 0.75408935546875
0.233154296875 -0.447723388671875 0.7515869140625
0.2305908203125 -0.45404052734375 0.7626953125
0.2359619140625 -0.45257568359375 0.770843505859375
0.2471923828125 -0.44073486328125 0.762969970703125
0.2401123046875 -0.440887451171875 0.746124267578125
0.22705078125 -0.45306396484375 0.75567626953125
0.211669921875 -0.4637451171875 0.7762451171875
0.2039794921875 -0.465728759765625 0.78076171875
0.216064453125 -0.4630126953125 0.78546142578125
0.2183837890625 -0.4619140625 0.773468017578125
0.206298828125 -0.463775634765625 0.768402099609375
0.1982421875 -0.465423583984375 0.772674560546875
0.2099609375 -0.46453857421875 0.78851318359375
0.22314453125 -0.4593505859375 0.781707763671875
0.21337890625 -0.462127685546875 0.76348876953125
0.2603759765625 -0.411407470703125 0.74298095703125
0.263916015625 -0.4072265625 0.751739501953125
0.261962890625 -0.398590087890625 0.741943359375
0.2557373046875 -0.41290283203125 0.73486328125
0.25439453125 -0.42364501953125 0.745697021484375
0.2586669921875 -0.421142578125 0.75543212890625
0.267333984375 -0.39373779296875 0.75042724609375
0.259521484375 -0.400054931640625 0.73492431640625
0.251220703125 -0.423126220703125 0.73675537109375
0.1829833984375 -0.45941162109375 0.79443359375
0.1751708984375 -0.45489501953125 0.799468994140625
0.1875 -0.456085205078125 0.80450439453125
0.1898193359375 -0.463043212890625 0.789703369140625
0.1766357421875 -0.462921142578125 0.7850341796875
0.17041015625 -0.457672119140625 0.7896728515625
0.1800537109375 -0.451629638671875 0.808502197265625
0.1949462890625 -0.461090087890625 0.799285888671875
0.18359375 -0.46636962890625 0.781158447265625
0.26220703125 -0.360443115234375 0.739471435546875
0.266357421875 -0.353607177734375 0.7486572265625
0.2578125 -0.3509521484375 0.740692138671875
0.2584228515625 -0.367828369140625 0.730804443359375
0.2630615234375 -0.371917724609375 0.740264892578125
0.2685546875 -0.365997314453125 0.74896240234375
0.26171875 -0.343414306640625 0.749114990234375
0.25537109375 -0.359130859375 0.7313232421875
0.260009765625 -0.37725830078125 0.733154296875
0.1602783203125 -0.42767333984375 0.80267333984375
0.158447265625 -0.41741943359375 0.80255126953125
0.1636962890625 -0.4222412109375 0.813262939453125
0.1649169921875 -0.43817138671875 0.8031005859375
0.158203125 -0.434906005859375 0.794586181640625
0.15673828125 -0.425140380859375 0.793212890625
0.16162109375 -0.410614013671875 0.811492919921875
0.1668701171875 -0.43377685546875 0.81231689453125
0.1614990234375 -0.44390869140625 0.7947998046875
0.233642578125 -0.361114501953125 0.757537841796875
0.2369384765625 -0.3536376953125 0.765960693359375
0.221923828125 -0.372314453125 0.76483154296875
0.230712890625 -0.371307373046875 0.7490234375
0.243408203125 -0.352630615234375 0.7486572265625
0.2474365234375 -0.34515380859375 0.758941650390625
0.2249755859375 -0.363250732421875 0.773590087890625
0.218505859375 -0.3817138671875 0.75738525390625
0.240478515625 -0.362640380859375 0.7412109375
0.181640625 -0.396514892578125 0.787017822265625
0.195068359375 -0.390777587890625 0.78070068359375
0.18359375 -0.389556884765625 0.796417236328125
0.1697998046875 -0.401092529296875 0.794342041015625
0.1807861328125 -0.40496826171875 0.77734375
0.1944580078125 -0.40008544921875 0.77117919921875
0.198486328125 -0.3837890625 0.78851318359375
0.171875 -0.39447021484375 0.80242919921875
0.16845703125 -0.409393310546875 0.784149169921875
0.227294921875 -0.41571044921875 0.73828125
0.2174072265625 -0.42425537109375 0.743621826171875
0.2276611328125 -0.430511474609375 0.73980712890625
0.235595703125 -0.406158447265625 0.731658935546875
0.2281494140625 -0.39837646484375 0.738372802734375
0.216796875 -0.407806396484375 0.745025634765625
0.22021484375 -0.43798828125 0.7445068359375
0.236328125 -0.421966552734375 0.735809326171875
0.236083984375 -0.392578125 0.73284912109375
0.1884765625 -0.4417724609375 0.761810302734375
0.1934814453125 -0.452239990234375 0.760650634765625
0.1983642578125 -0.43743896484375 0.7562255859375
0.1842041015625 -0.4290771484375 0.764739990234375
0.1783447265625 -0.4459228515625 0.76763916015625
0.1851806640625 -0.45458984375 0.766754150390625
0.202392578125 -0.448150634765625 0.75518798828125
0.1942138671875 -0.424102783203125 0.76068115234375
0.1724853515625 -0.433837890625 0.770263671875
0.250244140625 -0.395965576171875 0.722900390625
0.2476806640625 -0.3966064453125 0.7232666015625
0.25146484375 -0.401336669921875 0.72357177734375
0.2513427734375 -0.387725830078125 0.72149658203125
0.247802734375 -0.384429931640625 0.722412109375
0.24755859375 -0.408905029296875 0.726959228515625
0.2548828125 -0.393035888671875 0.723541259765625
0.1639404296875 -0.453704833984375 0.777374267578125
0.16650390625 -0.460235595703125 0.776702880859375
0.16650390625 -0.45166015625 0.775115966796875
0.1595458984375 -0.449310302734375 0.780609130859375
0.162109375 -0.455322265625 0.781707763671875
0.17041015625 -0.45892333984375 0.774139404296875
0.1611328125 -0.44378662109375 0.778076171875
0.039306640625 0.328887939453125 0.6300048828125
0.0322265625 0.31939697265625 0.62799072265625
0.0482177734375 0.321197509765625 0.6334228515625
0.0447998046875 0.336822509765625 0.63116455078125
0.0308837890625 0.338104248046875 0.626220703125
0.022216796875 0.329681396484375 0.62530517578125
0.041748046875 0.312164306640625 0.63055419921875
0.0526123046875 0.3289794921875 0.63519287109375
0.0352783203125 0.3450927734375 0.6279296875
-0.157470703125 0.16552734375 0.63311767578125
-0.1558837890625 0.153289794921875 0.6357421875
-0.1475830078125 0.168243408203125 0.628082275390625
-0.1591796875 0.17962646484375 0.629638671875
-0.1644287109375 0.164459228515625 0.635589599609375
-0.161865234375 0.153167724609375 0.638916015625
-0.146240234375 0.154144287109375 0.633575439453125
-0.14990234375 0.182586669921875 0.626800537109375
-0.1661376953125 0.177703857421875 0.63092041015625
0.005859375 0.372344970703125 0.6143798828125
-0.0020751953125 0.36456298828125 0.61248779296875
0.013671875 0.360809326171875 0.617645263671875
0.014404296875 0.37933349609375 0.614898681640625
-0.0003662109375 0.386077880859375 0.610626220703125
-0.0098876953125 0.379425048828125 0.609283447265625
0.00537109375 0.3524169921875 0.616363525390625
0.0213623046875 0.36700439453125 0.61895751953125
0.008544921875 0.391387939453125 0.611480712890625
-0.1773681640625 0.218475341796875 0.61175537109375
-0.1697998046875 0.206329345703125 0.6170654296875
-0.167724609375 0.226409912109375 0.610992431640625
-0.1845703125 0.230316162109375 0.6044921875
-0.1839599609375 0.213897705078125 0.61151123046875
-0.1783447265625 0.2020263671875 0.618011474609375
-0.1591796875 0.214263916015625 0.616455078125
-0.1761474609375 0.239013671875 0.604248046875
-0.19189453125 0.224945068359375 0.60614013671875
-0.0111083984375 0.43804931640625 0.59771728515625
-0.0230712890625 0.4346923828125 0.5968017578125
-0.0089111328125 0.419708251953125 0.601409912109375
-0.0020751953125 0.4398193359375 0.5986328125
-0.0120849609375 0.4560546875 0.592315673828125
-0.022705078125 0.4539794921875 0.591064453125
-0.0211181640625 0.4156494140625 0.60052490234375
0.000244140625 0.42462158203125 0.603759765625
-0.0035400390625 0.458099365234375 0.595062255859375
-0.2156982421875 0.26226806640625 0.58123779296875
-0.203369140625 0.252166748046875 0.58837890625
-0.2083740234375 0.271759033203125 0.579620361328125
-0.2269287109375 0.268798828125 0.574127197265625
-0.220458984375 0.252777099609375 0.582611083984375
-0.2105712890625 0.24444580078125 0.5909423828125
-0.1954345703125 0.262847900390625 0.588653564453125
-0.222412109375 0.281097412109375 0.572479248046875
-0.2301025390625 0.258514404296875 0.57696533203125
0.077392578125 0.30816650390625 0.6380615234375
0.073486328125 0.295501708984375 0.63720703125
0.090087890625 0.30712890625 0.6380615234375
0.07958984375 0.31671142578125 0.63970947265625
0.06640625 0.311767578125 0.63690185546875
0.0621337890625 0.299835205078125 0.635833740234375
0.0882568359375 0.295379638671875 0.637725830078125
0.09228515625 0.316741943359375 0.639892578125
0.0693359375 0.31927490234375 0.6390380859375
-0.160888671875 0.115509033203125 0.648834228515625
-0.165771484375 0.0982666015625 0.653167724609375
-0.1512451171875 0.11175537109375 0.64923095703125
-0.157470703125 0.127532958984375 0.645538330078125
-0.16650390625 0.11456298828125 0.650482177734375
-0.1708984375 0.098907470703125 0.65509033203125
-0.1573486328125 0.094573974609375 0.653289794921875
-0.147705078125 0.127227783203125 0.644561767578125
-0.1640625 0.128997802734375 0.647186279296875
0.1546630859375 0.317657470703125 0.6260986328125
0.1561279296875 0.30645751953125 0.6239013671875
0.1790771484375 0.32733154296875 0.61773681640625
0.152099609375 0.327667236328125 0.63031005859375
0.1309814453125 0.31219482421875 0.6329345703125
0.1314697265625 0.3001708984375 0.632110595703125
0.18115234375 0.316650390625 0.6151123046875
0.1776123046875 0.3372802734375 0.6212158203125
0.130859375 0.3206787109375 0.636810302734375
-0.201171875 0.026824951171875 0.6607666015625
-0.22216796875 0.001190185546875 0.65740966796875
-0.197021484375 0.019012451171875 0.658966064453125
-0.18701171875 0.0531005859375 0.6583251953125
-0.205810546875 0.032470703125 0.661285400390625
-0.2255859375 0.007171630859375 0.6591796875
-0.218017578125 -0.006927490234375 0.655731201171875
-0.1806640625 0.047210693359375 0.659332275390625
-0.1917724609375 0.057769775390625 0.659149169921875
0.2310791015625 0.371185302734375 0.5850830078125
0.2371826171875 0.364105224609375 0.5780029296875
0.245361328125 0.392730712890625 0.5767822265625
0.227294921875 0.378387451171875 0.59027099609375
0.215576171875 0.35479736328125 0.597747802734375
0.2198486328125 0.346221923828125 0.59149169921875
0.2506103515625 0.38653564453125 0.56842041015625
0.2396240234375 0.39984130859375 0.58233642578125
0.21337890625 0.36248779296875 0.603790283203125
-0.28076171875 -0.0546875 0.63916015625
-0.3021240234375 -0.062469482421875 0.62725830078125
-0.2803955078125 -0.064239501953125 0.634857177734375
-0.2608642578125 -0.03961181640625 0.64691162109375
-0.28076171875 -0.046600341796875 0.64166259765625
-0.3017578125 -0.053192138671875 0.6287841796875
-0.304931640625 -0.07391357421875 0.624053955078125
-0.259521484375 -0.050384521484375 0.64422607421875
-0.26171875 -0.031036376953125 0.648956298828125
0.275634765625 0.47393798828125 0.550384521484375
0.2850341796875 0.47369384765625 0.54180908203125
0.283203125 0.50311279296875 0.53961181640625
0.269287109375 0.476043701171875 0.556915283203125
0.26806640625 0.44586181640625 0.557861328125
0.2742919921875 0.444610595703125 0.548248291015625
0.291015625 0.5054931640625 0.5316162109375
0.2747802734375 0.502532958984375 0.545867919921875
0.2613525390625 0.448394775390625 0.56463623046875
-0.37060546875 -0.074462890625 0.587371826171875
-0.3931884765625 -0.07403564453125 0.57086181640625
-0.3765869140625 -0.08502197265625 0.581756591796875
-0.3492431640625 -0.07379150390625 0.604156494140625
-0.3675537109375 -0.064910888671875 0.591156005859375
-0.387939453125 -0.06512451171875 0.5740966796875
-0.4012451171875 -0.083587646484375 0.565521240234375
-0.3531494140625 -0.08447265625 0.598846435546875
-0.34619140625 -0.06475830078125 0.60797119140625
0.2835693359375 0.57379150390625 0.52484130859375
0.290771484375 0.5823974609375 0.517974853515625
0.276123046875 0.592132568359375 0.52630615234375
0.2764892578125 0.56890869140625 0.53167724609375
0.28662109375 0.553253173828125 0.527557373046875
0.2945556640625 0.557891845703125 0.519683837890625
0.283935546875 0.599945068359375 0.519775390625
0.2711181640625 0.58599853515625 0.531494140625
0.279052734375 0.550018310546875 0.534149169921875
-0.4404296875 -0.05560302734375 0.527557373046875
-0.4481201171875 -0.041534423828125 0.515289306640625
-0.44873046875 -0.063629150390625 0.519866943359375
-0.427978515625 -0.063385009765625 0.53961181640625
-0.4320068359375 -0.04656982421875 0.533538818359375
-0.440673828125 -0.032623291015625 0.523162841796875
-0.4560546875 -0.049072265625 0.50982666015625
-0.43701171875 -0.0738525390625 0.532867431640625
-0.42041015625 -0.05584716796875 0.545562744140625
0.252197265625 0.628997802734375 0.5328369140625
0.259033203125 0.63916015625 0.5286865234375
0.2379150390625 0.633148193359375 0.533355712890625
0.2452392578125 0.620147705078125 0.53564453125
0.262451171875 0.61962890625 0.52972412109375
0.27001953125 0.627044677734375 0.524566650390625
0.242919921875 0.64459228515625 0.529998779296875
0.2333984375 0.62530517578125 0.53955078125
0.25634765625 0.61236572265625 0.533447265625
-0.4576416015625 0.00213623046875 0.49371337890625
-0.455322265625 0.018951416015625 0.488983154296875
-0.4677734375 -0.0040283203125 0.4864501953125
-0.457763671875 -0.013671875 0.49896240234375
-0.4510498046875 0.007720947265625 0.49920654296875
-0.447509765625 0.026153564453125 0.495849609375
-0.464111328125 0.014892578125 0.48260498046875
-0.4671630859375 -0.020111083984375 0.490692138671875
-0.448486328125 -0.007080078125 0.504547119140625
0.17578125 0.628326416015625 0.55859375
0.177734375 0.6373291015625 0.55279541015625
0.15185546875 0.621307373046875 0.565673828125
0.1746826171875 0.62255859375 0.563812255859375
0.200439453125 0.634521484375 0.5484619140625
0.2021484375 0.643310546875 0.545318603515625
0.1522216796875 0.629425048828125 0.56158447265625
0.1514892578125 0.6153564453125 0.57220458984375
0.19677734375 0.627716064453125 0.553253173828125
-0.423828125 0.0985107421875 0.498321533203125
-0.406494140625 0.1253662109375 0.5052490234375
-0.43017578125 0.097259521484375 0.489593505859375
-0.4368896484375 0.066375732421875 0.493194580078125
-0.416748046875 0.09765625 0.507110595703125
-0.4022216796875 0.12310791015625 0.513946533203125
-0.412109375 0.12725830078125 0.496826171875
-0.4451904296875 0.06591796875 0.48529052734375
-0.432373046875 0.06805419921875 0.50054931640625
0.0880126953125 0.599151611328125 0.56964111328125
0.08349609375 0.6060791015625 0.565582275390625
0.0721435546875 0.5899658203125 0.5701904296875
0.0911865234375 0.59344482421875 0.576507568359375
0.1070556640625 0.605316162109375 0.572174072265625
0.10498046875 0.613983154296875 0.566497802734375
0.0650634765625 0.5985107421875 0.566986083984375
0.0750732421875 0.584228515625 0.575439453125
0.109375 0.599945068359375 0.578857421875
-0.364990234375 0.1942138671875 0.514312744140625
-0.352294921875 0.211181640625 0.51336669921875
-0.369140625 0.20184326171875 0.50653076171875
-0.376708984375 0.174163818359375 0.51336669921875
-0.3607177734375 0.191162109375 0.522735595703125
-0.3499755859375 0.20556640625 0.519500732421875
-0.3568115234375 0.22100830078125 0.506591796875
-0.380859375 0.180267333984375 0.503265380859375
-0.3731689453125 0.1695556640625 0.521148681640625
0.033203125 0.563873291015625 0.5692138671875
0.0262451171875 0.571502685546875 0.566375732421875
0.0230712890625 0.552276611328125 0.57049560546875
0.0391845703125 0.559722900390625 0.573699951171875
0.0440673828125 0.574615478515625 0.567779541015625
0.0379638671875 0.58349609375 0.566436767578125
0.0147705078125 0.56011962890625 0.567108154296875
0.0301513671875 0.548828125 0.57470703125
0.0501708984375 0.56903076171875 0.574066162109375
-0.3204345703125 0.2490234375 0.521728515625
-0.30810546875 0.256622314453125 0.529632568359375
-0.3223876953125 0.260009765625 0.5172119140625
-0.32958984375 0.23736572265625 0.51690673828125
-0.3187255859375 0.240478515625 0.52880859375
-0.3076171875 0.248138427734375 0.533843994140625
-0.3118896484375 0.268829345703125 0.52325439453125
-0.3330078125 0.248077392578125 0.51202392578125
-0.32763671875 0.228271484375 0.524810791015625
-0.000244140625 0.50927734375 0.579925537109375
-0.010009765625 0.5135498046875 0.57757568359375
-0.006591796875 0.49114990234375 0.58575439453125
0.0076904296875 0.50653076171875 0.58416748046875
0.0067138671875 0.525360107421875 0.5770263671875
-0.0028076171875 0.53009033203125 0.573883056640625
-0.0172119140625 0.4945068359375 0.584716796875
0.0030517578125 0.492095947265625 0.587005615234375
0.013916015625 0.5220947265625 0.580596923828125
-0.268798828125 0.272705078125 0.550048828125
-0.2547607421875 0.275146484375 0.55999755859375
-0.2685546875 0.285186767578125 0.547210693359375
-0.2818603515625 0.26910400390625 0.541717529296875
-0.27001953125 0.262664794921875 0.5528564453125
-0.2572021484375 0.264862060546875 0.563140869140625
-0.2506103515625 0.287841796875 0.5560302734375
-0.28271484375 0.28265380859375 0.53729248046875
-0.2828369140625 0.25897216796875 0.546142578125
0.0233154296875 0.504150390625 0.585784912109375
0.0186767578125 0.504180908203125 0.587249755859375
0.019775390625 0.48931884765625 0.587493896484375
0.02734375 0.50238037109375 0.58465576171875
0.029052734375 0.516204833984375 0.58441162109375
0.0247802734375 0.517852783203125 0.58538818359375
0.0146484375 0.49053955078125 0.587158203125
0.0242919921875 0.4898681640625 0.58758544921875
0.0335693359375 0.514739990234375 0.584686279296875
-0.273681640625 0.23944091796875 0.559295654296875
-0.2615966796875 0.2408447265625 0.56597900390625
-0.272705078125 0.24676513671875 0.558441162109375
-0.2843017578125 0.23785400390625 0.5528564453125
-0.27392578125 0.2332763671875 0.55816650390625
-0.2630615234375 0.2349853515625 0.56402587890625
-0.2606201171875 0.24755859375 0.566619873046875
-0.2840576171875 0.24285888671875 0.552337646484375
-0.28466796875 0.231842041015625 0.5518798828125
0.051025390625 0.54791259765625 0.58160400390625
0.047607421875 0.551727294921875 0.58148193359375
0.0430908203125 0.539215087890625 0.58306884765625
0.052734375 0.544342041015625 0.582275390625
0.0587158203125 0.555328369140625 0.581024169921875
0.056396484375 0.559661865234375 0.581085205078125
0.0399169921875 0.541412353515625 0.58148193359375
0.0458984375 0.536163330078125 0.583160400390625
0.060546875 0.5526123046875 0.580963134765625
-0.315185546875 0.22393798828125 0.53961181640625
-0.305419921875 0.23089599609375 0.544525146484375
-0.3172607421875 0.22857666015625 0.537200927734375
